      17        2 S      651        156.54190        102.28620          2.34135        221.99060      185    7
6371000. -0.1373716E-01  0.8921490E-01  0.3324395E-01  0.4698112E-01  0.2734310E-04  0.2582304E-01
6370000. -0.1375083E-01  0.8497260E-01  0.3323396E-01  0.8042440E-01  0.2329248E-04  0.2578973E-01
6369000. -0.1376383E-01  0.8070295E-01  0.3321871E-01  0.1138639E+00  0.1924719E-04  0.2575515E-01
6368000. -0.1377617E-01  0.7640614E-01  0.3319821E-01  0.1472945E+00  0.1520743E-04  0.2571931E-01
6368000. -0.1377617E-01  0.7640614E-01  0.3319821E-01  0.1472945E+00  0.1520743E-04  0.2571931E-01
6367000. -0.1378782E-01  0.7208237E-01  0.3317247E-01  0.1807107E+00  0.1117339E-04  0.2568222E-01
6366000. -0.1379879E-01  0.6773186E-01  0.3314149E-01  0.2141073E+00  0.7145270E-05  0.2564387E-01
6365000. -0.1380908E-01  0.6335481E-01  0.3310526E-01  0.2474791E+00  0.3123269E-05  0.2560426E-01
6364000. -0.1381868E-01  0.5895144E-01  0.3306380E-01  0.2808207E+00 -0.8924167E-06  0.2556339E-01
6363000. -0.1382759E-01  0.5452197E-01  0.3301710E-01  0.3141270E+00 -0.4901590E-05  0.2552128E-01
6362000. -0.1383579E-01  0.5006663E-01  0.3296519E-01  0.3473925E+00 -0.8904054E-05  0.2547791E-01
6361000. -0.1384330E-01  0.4558564E-01  0.3290805E-01  0.3806121E+00 -0.1289961E-04  0.2543329E-01
6360000. -0.1385010E-01  0.4107924E-01  0.3284571E-01  0.4137805E+00 -0.1688807E-04  0.2538743E-01
6359000. -0.1385619E-01  0.3654767E-01  0.3277816E-01  0.4468924E+00 -0.2086923E-04  0.2534032E-01
6358000. -0.1386157E-01  0.3199118E-01  0.3270542E-01  0.4799425E+00 -0.2484290E-04  0.2529196E-01
6357000. -0.1386624E-01  0.2741000E-01  0.3262750E-01  0.5129258E+00 -0.2880888E-04  0.2524237E-01
6356000. -0.1387018E-01  0.2280440E-01  0.3254440E-01  0.5458369E+00 -0.3276698E-04  0.2519153E-01
6356000. -0.1387018E-01  0.3446556E-01  0.3254440E-01  0.3479071E+00 -0.3276698E-04  0.2820952E-01
6355000. -0.1387533E-01  0.3115777E-01  0.3248806E-01  0.3699931E+00 -0.3719056E-04  0.2815550E-01
6354000. -0.1387996E-01  0.2783383E-01  0.3242826E-01  0.3920456E+00 -0.4160557E-04  0.2810048E-01
6353000. -0.1388406E-01  0.2449386E-01  0.3236499E-01  0.4140625E+00 -0.4601188E-04  0.2804446E-01
6352000. -0.1388765E-01  0.2113799E-01  0.3229827E-01  0.4360412E+00 -0.5040931E-04  0.2798743E-01
6351000. -0.1389070E-01  0.1776636E-01  0.3222811E-01  0.4579796E+00 -0.5479771E-04  0.2792940E-01
6350000. -0.1389322E-01  0.1437910E-01  0.3215451E-01  0.4798752E+00 -0.5917692E-04  0.2787037E-01
6349000. -0.1389521E-01  0.1097634E-01  0.3207747E-01  0.5017257E+00 -0.6354679E-04  0.2781035E-01
6348000. -0.1389667E-01  0.7558233E-02  0.3199701E-01  0.5235288E+00 -0.6790716E-04  0.2774933E-01
6347000. -0.1389758E-01  0.4124909E-02  0.3191313E-01  0.5452821E+00 -0.7225788E-04  0.2768731E-01
6346600. -0.1389780E-01  0.2747352E-02  0.3187862E-01  0.5539690E+00 -0.7399543E-04  0.2766223E-01
6346600. -0.1389780E-01  0.4297573E-01  0.3187862E-01  0.3889355E+00 -0.7399543E-04  0.3250819E-01
6318800. -0.1392849E-01 -0.3066104E-01  0.2917183E-01  0.8452267E+00 -0.2118099E-03  0.3055277E-01
6291000. -0.1361640E-01 -0.1137696E+00  0.2457962E-01  0.1248468E+01 -0.3397261E-03  0.2797571E-01
6291000. -0.1361640E-01 -0.1140914E+00  0.2457962E-01  0.1292397E+01 -0.3397261E-03  0.2797571E-01
6263000. -0.1291311E-01 -0.2069008E+00  0.1812389E-01  0.1629026E+01 -0.4558607E-03  0.2477596E-01
6235000. -0.1179225E-01 -0.3034647E+00  0.1042002E-01  0.1857190E+01 -0.5566781E-03  0.2101385E-01
6207000. -0.1024635E-01 -0.3995826E+00  0.1981238E-02  0.1961580E+01 -0.6398284E-03  0.1674682E-01
6179000. -0.8287393E-02 -0.4906406E+00 -0.6629881E-02  0.1935164E+01 -0.7032427E-03  0.1204534E-01
6151000. -0.5948126E-02 -0.5718552E+00 -0.1483889E-01  0.1779596E+01 -0.7451905E-03  0.6993076E-02
6151000. -0.5948126E-02 -0.4672232E+00 -0.1483889E-01  0.1561452E+01 -0.7451905E-03  0.7322159E-02
6128500. -0.4230777E-02 -0.5039394E+00 -0.2001802E-01  0.1362457E+01 -0.7652175E-03  0.4009572E-02
6106000. -0.2399321E-02 -0.5316732E+00 -0.2440348E-01  0.1113576E+01 -0.7734650E-03  0.6576782E-03
6083500. -0.4871628E-03 -0.5495128E+00 -0.2783681E-01  0.8250788E+00 -0.7698612E-03 -0.2695678E-02
6061000.  0.1469535E-02 -0.5568137E+00 -0.3019810E-01  0.5084714E+00 -0.7544666E-03 -0.6013583E-02
6038500.  0.3432846E-02 -0.5532254E+00 -0.3140964E-01  0.1760507E+00 -0.7274695E-03 -0.9260540E-02
6016000.  0.5364139E-02 -0.5386977E+00 -0.3143781E-01 -0.1595868E+00 -0.6891806E-03 -0.1240275E-01
5993500.  0.7225136E-02 -0.5134827E+00 -0.3029330E-01 -0.4860159E+00 -0.6400264E-03 -0.1540857E-01
5971000.  0.8978984E-02 -0.4781333E+00 -0.2802973E-01 -0.7914331E+00 -0.5805414E-03 -0.1824852E-01
5971000.  0.8978984E-02 -0.4388673E+00 -0.2802973E-01 -0.7085938E+00 -0.5805414E-03 -0.1942394E-01
5937667.  0.1109050E-01 -0.3661607E+00 -0.2340671E-01 -0.1043208E+01 -0.4692732E-03 -0.2301871E-01
5904333.  0.1279224E-01 -0.2829389E+00 -0.1728499E-01 -0.1279754E+01 -0.3406510E-03 -0.2605162E-01
5871000.  0.1404066E-01 -0.1936364E+00 -0.1019663E-01 -0.1412541E+01 -0.1976811E-03 -0.2850290E-01
5837667.  0.1481543E-01 -0.1025752E+00 -0.2681706E-02 -0.1443756E+01 -0.4341929E-04 -0.3036853E-01
5804333.  0.1511796E-01 -0.1374652E-01  0.4748525E-02 -0.1381949E+01  0.1190921E-03 -0.3165693E-01
5771000.  0.1496931E-01  0.6935437E-01  0.1163993E-01 -0.1240389E+01  0.2868689E-03 -0.3238707E-01
5771000.  0.1496931E-01  0.6935734E-01  0.1163993E-01 -0.1240349E+01  0.2868689E-03 -0.3238707E-01
5701000.  0.1332254E-01  0.2248405E+00  0.2317978E-01 -0.8152305E+00  0.6393376E-03 -0.3137874E-01
5701000.  0.1332254E-01  0.1916558E+00  0.2317978E-01 -0.6418223E+00  0.6393376E-03 -0.3513389E-01
5667333.  0.1219960E-01  0.2328251E+00  0.2583520E-01 -0.3720410E+00  0.8231052E-03 -0.3438120E-01
5633667.  0.1086253E-01  0.2724587E+00  0.2716096E-01 -0.1295541E+00  0.1002181E-02 -0.3332345E-01
5600000.  0.9340065E-02  0.3017898E+00  0.2719267E-01  0.1173663E+00  0.1174417E-02 -0.3178492E-01
5600000.  0.9340065E-02  0.3017898E+00  0.2719267E-01  0.1173663E+00  0.1174417E-02 -0.3178492E-01
5563518.  0.7549737E-02  0.3214028E+00  0.2577123E-01  0.3765159E+00  0.1350459E-02 -0.2961627E-01
5527037.  0.5683354E-02  0.3284241E+00  0.2292316E-01  0.6134738E+00  0.1512663E-02 -0.2696005E-01
5490556.  0.3811537E-02  0.3234410E+00  0.1881160E-01  0.8159180E+00  0.1658364E-02 -0.2386029E-01
5454074.  0.2000083E-02  0.3075522E+00  0.1366466E-01  0.9735570E+00  0.1785167E-02 -0.2036655E-01
5417593.  0.3071136E-03  0.2823712E+00  0.7762244E-02  0.1078802E+01  0.1890959E-02 -0.1653219E-01
5381111. -0.1219590E-02  0.2498057E+00  0.1419296E-02  0.1126800E+01  0.1973958E-02 -0.1241448E-01
5344630. -0.2543805E-02  0.2120431E+00 -0.5029452E-02  0.1115795E+01  0.2032710E-02 -0.8074229E-02
5308148. -0.3642501E-02  0.1714132E+00 -0.1124901E-01  0.1047144E+01  0.2066121E-02 -0.3574128E-02
5271667. -0.4505811E-02  0.1302189E+00 -0.1691928E-01  0.9249197E+00  0.2073460E-02  0.1021454E-02
5235185. -0.5137024E-02  0.9069942E-01 -0.2175223E-01  0.7559876E+00  0.2054366E-02  0.5647022E-02
5198704. -0.5551610E-02  0.5486955E-01 -0.2550510E-01  0.5493640E+00  0.2008857E-02  0.1023670E-01
5162222. -0.5775680E-02  0.2440846E-01 -0.2799196E-01  0.3156751E+00  0.1937321E-02  0.1472665E-01
5125741. -0.5843997E-02  0.6555623E-03 -0.2909146E-01  0.6685580E-01  0.1840517E-02  0.1905212E-01
5089259. -0.5797689E-02 -0.1552270E-01 -0.2875230E-01 -0.1847316E+00  0.1719559E-02  0.2315225E-01
5052778. -0.5681483E-02 -0.2373162E-01 -0.2699422E-01 -0.4267278E+00  0.1575911E-02  0.2696862E-01
5016296. -0.5541014E-02 -0.2405019E-01 -0.2390584E-01 -0.6474874E+00  0.1411352E-02  0.3044587E-01
4979815. -0.5420077E-02 -0.1704218E-01 -0.1963971E-01 -0.8364915E+00  0.1227978E-02  0.3353355E-01
4943333. -0.5357970E-02 -0.3698841E-02 -0.1440358E-01 -0.9849367E+00  0.1028144E-02  0.3618611E-01
4906852. -0.5387228E-02  0.1461362E-01 -0.8450239E-02 -0.1086100E+01  0.8144708E-03  0.3836291E-01
4870370. -0.5531636E-02  0.3622043E-01 -0.2064256E-02 -0.1135446E+01  0.5897692E-03  0.4003085E-01
4833889. -0.5804739E-02  0.5924073E-01  0.4450653E-02 -0.1131095E+01  0.3570481E-03  0.4116208E-01
4797407. -0.6208973E-02  0.8168082E-01  0.1078795E-01 -0.1073637E+01  0.1194297E-03  0.4173642E-01
4760926. -0.6735213E-02  0.1015303E+00  0.1665040E-01 -0.9660087E+00 -0.1198464E-03  0.4174186E-01
4724444. -0.7363121E-02  0.1168808E+00  0.2176547E-01 -0.8136137E+00 -0.3575153E-03  0.4117250E-01
4687963. -0.8061866E-02  0.1260125E+00  0.2589654E-01 -0.6237238E+00 -0.5902769E-03  0.4003134E-01
4651482. -0.8791587E-02  0.1274897E+00  0.2885383E-01 -0.4052462E+00 -0.8148914E-03  0.3832922E-01
4615000. -0.9505210E-02  0.1202366E+00  0.3050235E-01 -0.1683480E+00 -0.1028198E-02  0.3608325E-01
4578518. -0.1015063E-01  0.1035983E+00  0.3076735E-01  0.7612967E-01 -0.1227147E-02  0.3331967E-01
4542037. -0.1067332E-01  0.7738305E-01  0.2963727E-01  0.3170756E+00 -0.1408861E-02  0.3007089E-01
4505556. -0.1101904E-01  0.4187444E-01  0.2716354E-01  0.5436822E+00 -0.1570671E-02  0.2637504E-01
4469074. -0.1113659E-01 -0.2147814E-02  0.2345759E-01  0.7458260E+00 -0.1710152E-02  0.2227857E-01
4432593. -0.1098049E-01 -0.5346268E-01  0.1868585E-01  0.9146141E+00 -0.1825142E-02  0.1783074E-01
4396111. -0.1051348E-01 -0.1104326E+00  0.1306089E-01  0.1042693E+01 -0.1913789E-02  0.1308618E-01
4359630. -0.9708826E-02 -0.1710393E+00  0.6833127E-02  0.1124458E+01 -0.1974559E-02  0.8105066E-02
4323148. -0.8551986E-02 -0.2330417E+00  0.2781116E-03  0.1156546E+01 -0.2006273E-02  0.2947218E-02
4286667. -0.7042001E-02 -0.2939749E+00 -0.6314574E-02  0.1137639E+01 -0.2008098E-02 -0.2322911E-02
4250185. -0.5192182E-02 -0.3513003E+00 -0.1265481E-01  0.1068660E+01 -0.1979579E-02 -0.7640698E-02
4213704. -0.3030441E-02 -0.4025318E+00 -0.1846365E-01  0.9527848E+00 -0.1920627E-02 -0.1294167E-01
4177222. -0.5984992E-03 -0.4452696E+00 -0.2348637E-01  0.7950358E+00 -0.1831520E-02 -0.1816165E-01
4140741.  0.2048598E-02 -0.4773777E+00 -0.2750185E-01  0.6023098E+00 -0.1712908E-02 -0.2323784E-01
4104259.  0.4844835E-02 -0.4970598E+00 -0.3033330E-01  0.3829319E+00 -0.1565781E-02 -0.2811045E-01
4067778.  0.7714537E-02 -0.5028668E+00 -0.3185430E-01  0.1462691E+00 -0.1391475E-02 -0.3272276E-01
4031296.  0.1057559E-01 -0.4939075E+00 -0.3199470E-01 -0.9756329E-01 -0.1191627E-02 -0.3702090E-01
3994815.  0.1334192E-01 -0.4697784E+00 -0.3074307E-01 -0.3382160E+00 -0.9681921E-03 -0.4095602E-01
3958333.  0.1592685E-01 -0.4306018E+00 -0.2814687E-01 -0.5654995E+00 -0.7233567E-03 -0.4448614E-01
3921852.  0.1824599E-01 -0.3771327E+00 -0.2431061E-01 -0.7698470E+00 -0.4595739E-03 -0.4757007E-01
3885370.  0.2022093E-01 -0.3106166E+00 -0.1939061E-01 -0.9426373E+00 -0.1794787E-03 -0.5017644E-01
3848889.  0.2178172E-01 -0.2328343E+00 -0.1358952E-01 -0.1076556E+01  0.1141027E-03 -0.5227880E-01
3812407.  0.2287016E-01 -0.1460273E+00 -0.7146451E-02 -0.1166010E+01  0.4182286E-03 -0.5385351E-01
3775926.  0.2344181E-01 -0.5280656E-01 -0.3284869E-03 -0.1207070E+01  0.7298228E-03 -0.5488859E-01
3739444.  0.2346820E-01  0.4391983E-01  0.6581398E-02 -0.1197928E+01  0.1045782E-02 -0.5537333E-01
3702963.  0.2293804E-01  0.1410585E+00  0.1329516E-01 -0.1138824E+01  0.1362916E-02 -0.5530242E-01
3666482.  0.2185807E-01  0.2354290E+00  0.1953190E-01 -0.1031847E+01  0.1678070E-02 -0.5468244E-01
3630000.  0.2025306E-01  0.3239159E+00  0.2502885E-01 -0.8812323E+00  0.1988117E-02 -0.5351723E-01
3630000.  0.2025306E-01  0.3239159E+00  0.2502885E-01 -0.8812323E+00  0.1988117E-02 -0.5351723E-01
3592500.  0.1810078E-01  0.4055879E+00  0.2966214E-01 -0.6870629E+00  0.2298243E-02 -0.5176746E-01
3555000.  0.1550269E-01  0.4749384E+00  0.3305440E-01 -0.4610245E+00  0.2596467E-02 -0.4947659E-01
3517500.  0.1253888E-01  0.5294793E+00  0.3504530E-01 -0.2125582E+00  0.2879666E-02 -0.4666619E-01
3480000.  0.9302720E-02  0.5671899E+00  0.3553284E-01  0.4802072E-01  0.3144866E-02 -0.4336610E-01
3480000.  0.9302720E-02  0.6302999E+00 -0.1212090E-02  0.1927194E-01  0.3144866E-02 -0.7303144E-01
3409422.  0.1917182E-02  0.6899659E+00 -0.1354669E-02  0.6130450E-02  0.3665832E-02 -0.2002390E-01
3338844. -0.5695472E-02  0.6717222E+00 -0.1343164E-02 -0.8294509E-02  0.3577941E-02  0.3584474E-01
3268266. -0.1270038E-01  0.5818976E+00 -0.1171829E-02 -0.2246836E-01  0.2884017E-02  0.8838490E-01
3197688. -0.1837058E-01  0.4333461E+00 -0.8518004E-03 -0.3490270E-01  0.1652907E-02  0.1319645E+00
3127109. -0.2214898E-01  0.2435368E+00 -0.4098045E-03 -0.4429029E-01  0.1025489E-04  0.1620341E+00
3056531. -0.2368810E-01  0.3252936E-01  0.1144479E-03 -0.4961351E-01 -0.1875643E-02  0.1755050E+00
2985953. -0.2286774E-01 -0.1790531E+00  0.6719788E-03 -0.5022388E-01 -0.3811528E-02  0.1709687E+00
2915375. -0.1979080E-01 -0.3718266E+00  0.1208888E-02 -0.4588715E-01 -0.5598113E-02  0.1487448E+00
2844797. -0.1476087E-01 -0.5291652E+00  0.1671043E-02 -0.3679448E-01 -0.7048821E-02  0.1107795E+00
2774219. -0.8245047E-02 -0.6383350E+00  0.2008701E-02 -0.2354159E-01 -0.8006615E-02  0.6041137E-01
2703641. -0.8263553E-03 -0.6912225E+00  0.2180747E-02 -0.7080091E-02 -0.8357649E-02  0.2036486E-02
2633062.  0.6849621E-02 -0.6846461E+00  0.2158251E-02  0.1135614E-01 -0.8040783E-02 -0.5929540E-01
2562484.  0.1412879E-01 -0.6202672E+00  0.1927107E-02  0.3033999E-01 -0.7052479E-02 -0.1183100E+00
2491906.  0.2040083E-01 -0.5041685E+00  0.1489629E-02  0.4835175E-01 -0.5446835E-02 -0.1699433E+00
2421328.  0.2514399E-01 -0.3461439E+00  0.8649969E-03  0.6388346E-01 -0.3331073E-02 -0.2097301E+00
2350750.  0.2796145E-01 -0.1587808E+00  0.8855676E-04  0.7554108E-01 -0.8569897E-03 -0.2341371E+00
2280172.  0.2860644E-01  0.4359074E-01 -0.7899636E-03  0.8213639E-01  0.1790824E-02 -0.2408105E+00
2209594.  0.2699559E-01  0.2459918E+00 -0.1709189E-02  0.8276670E-01  0.4408982E-02 -0.2287281E+00
2139016.  0.2321006E-01  0.4338664E+00 -0.2599617E-02  0.7687609E-01  0.6790435E-02 -0.1982505E+00
2068438.  0.1748530E-01  0.5940689E+00 -0.3387702E-02  0.6429525E-01  0.8739605E-02 -0.1510720E+00
1997859.  0.1019060E-01  0.7156850E+00 -0.4000263E-02  0.4525858E-01  0.1008647E-01 -0.9007939E-01
1927281.  0.1801007E-02  0.7906865E+00 -0.4368922E-02  0.2040132E-01  0.1069860E-01 -0.1913598E-01
1856703. -0.7137835E-02  0.8143457E+00 -0.4434452E-02 -0.9271535E-02  0.1049048E-01  0.5720298E-01
1786125. -0.1604710E-01  0.7854352E+00 -0.4150594E-02 -0.4243140E-01  0.9429488E-02  0.1340052E+00
1715547. -0.2435364E-01  0.7061766E+00 -0.3487307E-02 -0.7749033E-01  0.7538147E-02  0.2062978E+00
1644969. -0.3152690E-01  0.5819839E+00 -0.2433216E-02 -0.1126815E+00  0.4892777E-02  0.2693955E+00
1574391. -0.3711201E-01  0.4210128E+00 -0.9971112E-03 -0.1461453E+00  0.1618595E-02  0.3192031E+00
1503812. -0.4075691E-01  0.2335502E+00  0.7915475E-03 -0.1760208E+00 -0.2118339E-02  0.3524702E+00
1433234. -0.4223193E-01  0.3130262E-01  0.2883013E-02 -0.2005344E+00 -0.6121403E-02  0.3669847E+00
1362656. -0.4144138E-01 -0.1734100E+00  0.5208850E-02 -0.2180853E+00 -0.1017598E-01  0.3616955E+00
1292078. -0.3842567E-01 -0.3684557E+00  0.7684144E-02 -0.2273129E+00 -0.1406242E-01  0.3367536E+00
1221500. -0.3335497E-01 -0.5426804E+00  0.1021049E-01 -0.2271512E+00 -0.1756926E-01  0.2934748E+00
1221500. -0.3335497E-01 -0.4780396E+00  0.1058995E-01  0.2292043E+00 -0.1756926E-01  0.3079243E+00
1183328. -0.3004335E-01 -0.6269151E+00  0.9253567E-02  0.2030291E+00 -0.1932881E-01  0.2788265E+00
1145156. -0.2586517E-01 -0.7644529E+00  0.8316168E-02  0.9769271E-01 -0.2090378E-01  0.2463899E+00
1106984. -0.2093968E-01 -0.8735917E+00  0.8207346E-02 -0.6953128E-01 -0.2227562E-01  0.2111057E+00
1068812. -0.1548432E-01 -0.9390842E+00  0.9214510E-02 -0.2691263E+00 -0.2342885E-01  0.1735086E+00
1030641. -0.9795683E-02 -0.9502338E+00  0.1142353E-01 -0.4643317E+00 -0.2435127E-01  0.1341667E+00
 992469. -0.4214640E-02 -0.9031136E+00  0.1469424E-01 -0.6175072E+00 -0.2503424E-01  0.9366867E-01
 954297.  0.9177214E-03 -0.8018538E+00  0.1867461E-01 -0.6966944E+00 -0.2547261E-01  0.5262068E-01
 916125.  0.5310153E-02 -0.6588300E+00  0.2285295E-01 -0.6813630E+00 -0.2566491E-01  0.1163286E-01
 877953.  0.8767626E-02 -0.4934912E+00  0.2663909E-01 -0.5662923E+00 -0.2561334E-01 -0.2868847E-01
 839781.  0.1122745E-01 -0.3300949E+00  0.2946142E-01 -0.3629008E+00 -0.2532366E-01 -0.6774906E-01
 801609.  0.1277876E-01 -0.1944758E+00  0.3086388E-01 -0.9787324E-01 -0.2480516E-01 -0.1049750E+00
 763438.  0.1366105E-01 -0.1103532E+00  0.3058661E-01  0.1908229E+00 -0.2407052E-01 -0.1398198E+00
 725266.  0.1424030E-01 -0.9564418E-01  0.2861661E-01  0.4598510E+00 -0.2313549E-01 -0.1717755E+00
 687094.  0.1496448E-01 -0.1593524E+00  0.2519962E-01  0.6673589E+00 -0.2201883E-01 -0.2003747E+00
 648922.  0.1630314E-01 -0.2994405E+00  0.2081041E-01  0.7798067E+00 -0.2074192E-01 -0.2252022E+00
 610750.  0.1867846E-01 -0.5021385E+00  0.1608539E-01  0.7775646E+00 -0.1932847E-01 -0.2458999E+00
 572578.  0.2239664E-01 -0.7427745E+00  0.1172753E-01  0.6584184E+00 -0.1780413E-01 -0.2621740E+00
 534406.  0.2758899E-01 -0.9881551E+00  0.8398077E-02  0.4384092E+00 -0.1619612E-01 -0.2738005E+00
 496234.  0.3417130E-01 -0.1200239E+01  0.6611784E-02  0.1498372E+00 -0.1453276E-01 -0.2806294E+00
 458062.  0.4182819E-01 -0.1340691E+01  0.6651988E-02 -0.1632939E+00 -0.1284305E-01 -0.2825879E+00
 419891.  0.5002560E-01 -0.1375752E+01  0.8518999E-02 -0.4517113E+00 -0.1115625E-01 -0.2796827E+00
 381719.  0.5805327E-01 -0.1280832E+01  0.1192068E-01 -0.6682628E+00 -0.9501195E-02 -0.2719988E+00
 343547.  0.6508984E-01 -0.1044186E+01  0.1630657E-01 -0.7750399E+00 -0.7906103E-02 -0.2596991E+00
 305375.  0.7028859E-01 -0.6692548E+00  0.2094210E-01 -0.7493009E+00 -0.6397959E-02 -0.2430201E+00
 267203.  0.7287072E-01 -0.1752190E+00  0.2501177E-01 -0.5871817E+00 -0.5002120E-02 -0.2222678E+00
 229031.  0.7221682E-01  0.4042681E+00  0.2773661E-01 -0.3046421E+00 -0.3741914E-02 -0.1978114E+00
 190859.  0.6794526E-01  0.1024125E+01  0.2848849E-01  0.6447716E-01 -0.2638289E-02 -0.1700753E+00
 152688.  0.5996808E-01  0.1632321E+01  0.2688472E-01  0.4730745E+00 -0.1709524E-02 -0.1395334E+00
 114516.  0.4851566E-01  0.2175359E+01  0.2284811E-01  0.8674436E+00 -0.9708625E-03 -0.1066980E+00
  76344.  0.3412997E-01  0.2603887E+01  0.1662452E-01  0.1194790E+01 -0.4344488E-03 -0.7211518E-01
  38172.  0.1762212E-01  0.2878203E+01  0.8754149E-02  0.1410806E+01 -0.1090563E-03 -0.3635490E-01
      0.  0.0000000E+00  0.2972661E+01  0.0000000E+00  0.1486230E+01  0.0000000E+00  0.0000000E+00
