      12        2 S      556        231.22910         69.24763          1.99630        230.12010      185    7
6371000. -0.2060571E-01  0.1337230E+00  0.4980237E-01  0.7040809E-01  0.2249593E-03  0.3818267E-01
6370000. -0.2062647E-01  0.1307834E+00  0.4978953E-01  0.9333402E-01  0.2189700E-03  0.3813294E-01
6369000. -0.2064676E-01  0.1278249E+00  0.4977307E-01  0.1162593E+00  0.2129885E-03  0.3808232E-01
6368000. -0.2066660E-01  0.1248476E+00  0.4975303E-01  0.1391824E+00  0.2070151E-03  0.3803083E-01
6368000. -0.2066660E-01  0.1248476E+00  0.4975303E-01  0.1391824E+00  0.2070151E-03  0.3803083E-01
6367000. -0.2068596E-01  0.1218517E+00  0.4972938E-01  0.1621015E+00  0.2010498E-03  0.3797845E-01
6366000. -0.2070484E-01  0.1188370E+00  0.4970214E-01  0.1850150E+00  0.1950929E-03  0.3792519E-01
6365000. -0.2072326E-01  0.1158038E+00  0.4967130E-01  0.2079212E+00  0.1891443E-03  0.3787105E-01
6364000. -0.2074120E-01  0.1127520E+00  0.4963687E-01  0.2308186E+00  0.1832043E-03  0.3781604E-01
6363000. -0.2075865E-01  0.1096817E+00  0.4959884E-01  0.2537053E+00  0.1772731E-03  0.3776014E-01
6362000. -0.2077563E-01  0.1065930E+00  0.4955723E-01  0.2765799E+00  0.1713506E-03  0.3770337E-01
6361000. -0.2079212E-01  0.1034860E+00  0.4951202E-01  0.2994406E+00  0.1654372E-03  0.3764572E-01
6360000. -0.2080811E-01  0.1003608E+00  0.4946323E-01  0.3222857E+00  0.1595328E-03  0.3758720E-01
6359000. -0.2082362E-01  0.9721730E-01  0.4941085E-01  0.3451136E+00  0.1536378E-03  0.3752780E-01
6358000. -0.2083863E-01  0.9405570E-01  0.4935489E-01  0.3679227E+00  0.1477521E-03  0.3746753E-01
6357000. -0.2085315E-01  0.9087605E-01  0.4929535E-01  0.3907113E+00  0.1418759E-03  0.3740638E-01
6356000. -0.2086716E-01  0.8767843E-01  0.4923224E-01  0.4134777E+00  0.1360094E-03  0.3734437E-01
6356000. -0.2086716E-01  0.8682945E-01  0.4923224E-01  0.2774266E+00  0.1360094E-03  0.4188482E-01
6355000. -0.2088061E-01  0.8454097E-01  0.4918749E-01  0.2927035E+00  0.1294406E-03  0.4181463E-01
6354000. -0.2089370E-01  0.8224071E-01  0.4914035E-01  0.3079703E+00  0.1228829E-03  0.4174372E-01
6353000. -0.2090643E-01  0.7992871E-01  0.4909081E-01  0.3232262E+00  0.1163364E-03  0.4167211E-01
6352000. -0.2091879E-01  0.7760502E-01  0.4903888E-01  0.3384705E+00  0.1098011E-03  0.4159979E-01
6351000. -0.2093079E-01  0.7526966E-01  0.4898456E-01  0.3537024E+00  0.1032773E-03  0.4152677E-01
6350000. -0.2094242E-01  0.7292268E-01  0.4892785E-01  0.3689212E+00  0.9676497E-04  0.4145304E-01
6349000. -0.2095368E-01  0.7056412E-01  0.4886875E-01  0.3841262E+00  0.9026428E-04  0.4137862E-01
6348000. -0.2096457E-01  0.6819402E-01  0.4880727E-01  0.3993166E+00  0.8377533E-04  0.4130349E-01
6347000. -0.2097508E-01  0.6581241E-01  0.4874340E-01  0.4144917E+00  0.7729822E-04  0.4122766E-01
6346600. -0.2097919E-01  0.6485656E-01  0.4871718E-01  0.4205572E+00  0.7471073E-04  0.4119714E-01
6346600. -0.2097919E-01  0.1029794E+00  0.4871718E-01  0.3066642E+00  0.7471073E-04  0.4851228E-01
6318800. -0.2132072E-01  0.5221839E-01  0.4666659E-01  0.6310456E+00 -0.1320423E-03  0.4617788E-01
6291000. -0.2142354E-01 -0.6341727E-02  0.4323580E-01  0.9377159E+00 -0.3276450E-03  0.4340309E-01
6291000. -0.2142354E-01 -0.3969639E-02  0.4323580E-01  0.9719437E+00 -0.3276450E-03  0.4340309E-01
6263000. -0.2125949E-01 -0.7186466E-01  0.3830921E-01  0.1264357E+01 -0.5115102E-03  0.4019609E-01
6235000. -0.2078228E-01 -0.1462833E+00  0.3217839E-01  0.1518537E+01 -0.6803341E-03  0.3656080E-01
6207000. -0.1996605E-01 -0.2258984E+00  0.2502907E-01  0.1726663E+01 -0.8322716E-03  0.3251483E-01
6179000. -0.1879137E-01 -0.3091224E+00  0.1707824E-01  0.1882338E+01 -0.9655637E-03  0.2807982E-01
6151000. -0.1724630E-01 -0.3941328E+00  0.8567610E-02  0.1980755E+01 -0.1078557E-02  0.2328227E-01
6151000. -0.1724630E-01 -0.3104363E+00  0.8567610E-02  0.1739957E+01 -0.1078557E-02  0.2423642E-01
6128500. -0.1606363E-01 -0.3590882E+00  0.2381441E-02  0.1758139E+01 -0.1158526E-02  0.2103170E-01
6106000. -0.1471209E-01 -0.4059591E+00 -0.3814073E-02  0.1745333E+01 -0.1226984E-02  0.1772009E-01
6083500. -0.1319914E-01 -0.4503988E+00 -0.9910693E-02  0.1702303E+01 -0.1283584E-02  0.1432028E-01
6061000. -0.1153447E-01 -0.4917799E+00 -0.1580375E-01  0.1630300E+01 -0.1328050E-02  0.1085130E-01
6038500. -0.9729928E-02 -0.5295128E+00 -0.2139383E-01  0.1531056E+01 -0.1360170E-02  0.7331803E-02
6016000. -0.7799393E-02 -0.5630483E+00 -0.2658845E-01  0.1406726E+01 -0.1379799E-02  0.3780269E-02
5993500. -0.5758582E-02 -0.5918881E+00 -0.3130332E-01  0.1259824E+01 -0.1386855E-02  0.2150732E-03
5971000. -0.3624860E-02 -0.6155989E+00 -0.3546368E-01  0.1093201E+01 -0.1381323E-02 -0.3346055E-02
5971000. -0.3624860E-02 -0.5639002E+00 -0.3546368E-01  0.9690236E+00 -0.1381323E-02 -0.2871530E-02
5937667. -0.6483318E-03 -0.5720041E+00 -0.3979881E-01  0.6870448E+00 -0.1354054E-02 -0.7520090E-02
5904333.  0.2341258E-02 -0.5689375E+00 -0.4265065E-01  0.4036830E+00 -0.1303003E-02 -0.1195558E-01
5871000.  0.5286734E-02 -0.5552942E+00 -0.4403717E-01  0.1283728E+00 -0.1229381E-02 -0.1614361E-01
5837667.  0.8134894E-02 -0.5318903E+00 -0.4402170E-01 -0.1310764E+00 -0.1134554E-02 -0.2005792E-01
5804333.  0.1083728E-01 -0.4997176E+00 -0.4270413E-01 -0.3684514E+00 -0.1020003E-02 -0.2367925E-01
5771000.  0.1335073E-01 -0.4598927E+00 -0.4021298E-01 -0.5790520E+00 -0.8873053E-03 -0.2699472E-01
5771000.  0.1335073E-01 -0.4599125E+00 -0.4021298E-01 -0.5790350E+00 -0.8873053E-03 -0.2699472E-01
5701000.  0.1796526E-01 -0.3741612E+00 -0.3155064E-01 -0.9806248E+00 -0.5599983E-03 -0.3240408E-01
5701000.  0.1796526E-01 -0.3207334E+00 -0.3155064E-01 -0.7857185E+00 -0.5599983E-03 -0.3746784E-01
5667333.  0.1950619E-01 -0.2648851E+00 -0.2721268E-01 -0.8606496E+00 -0.3581247E-03 -0.3888454E-01
5633667.  0.2078250E-01 -0.2183152E+00 -0.2239609E-01 -0.9634743E+00 -0.1493163E-03 -0.4011847E-01
5600000.  0.2180482E-01 -0.1679143E+00 -0.1707773E-01 -0.1044612E+01  0.6539981E-04 -0.4109834E-01
5600000.  0.2180482E-01 -0.1679143E+00 -0.1707773E-01 -0.1044612E+01  0.6539981E-04 -0.4109834E-01
5563518.  0.2260184E-01 -0.1099720E+00 -0.1090592E-01 -0.1106394E+01  0.3030816E-03 -0.4186486E-01
5527037.  0.2305970E-01 -0.4964807E-01 -0.4460499E-02 -0.1140122E+01  0.5442638E-03 -0.4232374E-01
5490556.  0.2316804E-01  0.1191515E-01  0.2096671E-02 -0.1145406E+01  0.7872034E-03 -0.4247997E-01
5454074.  0.2292312E-01  0.7353970E-01  0.8603196E-02 -0.1122487E+01  0.1030199E-02 -0.4234197E-01
5417593.  0.2232796E-01  0.1340543E+00  0.1490005E-01 -0.1072455E+01  0.1271565E-02 -0.4191424E-01
5381111.  0.2139221E-01  0.1923061E+00  0.2083639E-01 -0.9968112E+00  0.1509686E-02 -0.4120843E-01
5344630.  0.2013207E-01  0.2471881E+00  0.2627106E-01 -0.8976970E+00  0.1742989E-02 -0.4023540E-01
5308148.  0.1856971E-01  0.2976856E+00  0.3107744E-01 -0.7777846E+00  0.1969986E-02 -0.3900580E-01
5271667.  0.1673314E-01  0.3428301E+00  0.3514445E-01 -0.6400347E+00  0.2189238E-02 -0.3753513E-01
5235185.  0.1465531E-01  0.3818089E+00  0.3837983E-01 -0.4878802E+00  0.2399416E-02 -0.3583613E-01
5198704.  0.1237368E-01  0.4139220E+00  0.4071132E-01 -0.3249710E+00  0.2599237E-02 -0.3392290E-01
5162222.  0.9929264E-02  0.4385617E+00  0.4208812E-01 -0.1550641E+00  0.2787538E-02 -0.3181275E-01
5125741.  0.7366162E-02  0.4553476E+00  0.4248138E-01  0.1789282E-01  0.2963220E-02 -0.2951970E-01
5089259.  0.4730040E-02  0.4640036E+00  0.4188476E-01  0.1900268E+00  0.3125289E-02 -0.2705976E-01
5052778.  0.2068057E-02  0.4644044E+00  0.4031404E-01  0.3575033E+00  0.3272831E-02 -0.2444959E-01
5016296. -0.5728417E-03  0.4566377E+00  0.3780631E-01  0.5166944E+00  0.3405038E-02 -0.2170468E-01
4979815. -0.3146236E-02  0.4408969E+00  0.3441910E-01  0.6641535E+00  0.3521176E-02 -0.1884117E-01
4943333. -0.5607580E-02  0.4175555E+00  0.3022853E-01  0.7967708E+00  0.3620617E-02 -0.1587489E-01
4906852. -0.7914703E-02  0.3871482E+00  0.2532775E-01  0.9118203E+00  0.3702816E-02 -0.1282196E-01
4870370. -0.1002897E-01  0.3502930E+00  0.1982423E-01  0.1006881E+01  0.3767321E-02 -0.9696920E-02
4833889. -0.1191557E-01  0.3077899E+00  0.1383828E-01  0.1080112E+01  0.3813763E-02 -0.6516198E-02
4797407. -0.1354475E-01  0.2605179E+00  0.7498733E-02  0.1130115E+01  0.3841869E-02 -0.3294861E-02
4760926. -0.1489179E-01  0.2094259E+00  0.9421464E-03  0.1155871E+01  0.3851445E-02 -0.4649696E-04
4724444. -0.1593789E-01  0.1555756E+00 -0.5691858E-02  0.1157078E+01  0.3842382E-02  0.3212553E-02
4687963. -0.1667029E-01  0.1000500E+00 -0.1226235E-01  0.1133796E+01  0.3814660E-02  0.6468300E-02
4651482. -0.1708261E-01  0.4396277E-01 -0.1863059E-01  0.1086583E+01  0.3768337E-02  0.9707388E-02
4615000. -0.1717487E-01 -0.1155120E-01 -0.2466281E-01  0.1016594E+01  0.3703550E-02  0.1291400E-01
4578518. -0.1695354E-01 -0.6538372E-01 -0.3023241E-01  0.9252842E+00  0.3620525E-02  0.1607552E-01
4542037. -0.1643137E-01 -0.1164519E+00 -0.3522254E-01  0.8146164E+00  0.3519561E-02  0.1917772E-01
4505556. -0.1562716E-01 -0.1637334E+00 -0.3952907E-01  0.6869261E+00  0.3401040E-02  0.2220572E-01
4469074. -0.1456530E-01 -0.2062803E+00 -0.4306179E-01  0.5447614E+00  0.3265415E-02  0.2514827E-01
4432593. -0.1327548E-01 -0.2432327E+00 -0.4574588E-01  0.3910659E+00  0.3113226E-02  0.2798999E-01
4396111. -0.1179185E-01 -0.2738461E+00 -0.4752424E-01  0.2289082E+00  0.2945081E-02  0.3071772E-01
4359630. -0.1015266E-01 -0.2974876E+00 -0.4835741E-01  0.6150076E-01  0.2761675E-02  0.3331957E-01
4323148. -0.8399194E-02 -0.3136735E+00 -0.4822486E-01 -0.1078435E+00  0.2563761E-02  0.3578100E-01
4286667. -0.6575314E-02 -0.3220519E+00 -0.4712500E-01 -0.2758084E+00  0.2352189E-02  0.3808977E-01
4250185. -0.4726273E-02 -0.3224252E+00 -0.4507506E-01 -0.4391296E+00  0.2127857E-02  0.4023361E-01
4213704. -0.2898174E-02 -0.3147607E+00 -0.4211080E-01 -0.5946660E+00  0.1891759E-02  0.4219952E-01
4177222. -0.1136710E-02 -0.2991653E+00 -0.3828533E-01 -0.7394124E+00  0.1644934E-02  0.4397598E-01
4140741.  0.5133206E-03 -0.2759160E+00 -0.3366869E-01 -0.8706091E+00  0.1388515E-02  0.4555120E-01
4104259.  0.2009343E-02 -0.2454398E+00 -0.2834531E-01 -0.9858088E+00  0.1123671E-02  0.4691407E-01
4067778.  0.3311420E-02 -0.2082958E+00 -0.2241378E-01 -0.1082739E+01  0.8516640E-03  0.4805370E-01
4031296.  0.4383422E-02 -0.1651977E+00 -0.1598359E-01 -0.1159661E+01  0.5737864E-03  0.4896050E-01
3994815.  0.5193521E-02 -0.1169748E+00 -0.9173883E-02 -0.1215132E+01  0.2914130E-03  0.4962502E-01
3958333.  0.5715028E-02 -0.6455864E-01 -0.2110649E-02 -0.1248010E+01  0.5942999E-05  0.5003804E-01
3921852.  0.5926856E-02 -0.8994024E-02  0.5074708E-02 -0.1257797E+01 -0.2811477E-03  0.5019269E-01
3885370.  0.5814120E-02  0.4861419E-01  0.1224949E-01 -0.1244234E+01 -0.5683747E-03  0.5008170E-01
3848889.  0.5368462E-02  0.1070909E+00  0.1927991E-01 -0.1207527E+01 -0.8541825E-03  0.4969899E-01
3812407.  0.4588326E-02  0.1652310E+00  0.2603576E-01 -0.1148410E+01 -0.1137019E-02  0.4904049E-01
3775926.  0.3479198E-02  0.2218029E+00  0.3239091E-01 -0.1067835E+01 -0.1415277E-02  0.4810191E-01
3739444.  0.2053507E-02  0.2755854E+00  0.3822682E-01 -0.9672782E+00 -0.1687361E-02  0.4688104E-01
3702963.  0.3307423E-03  0.3253822E+00  0.4343392E-01 -0.8485747E+00 -0.1951635E-02  0.4537701E-01
3666482. -0.1662966E-02  0.3700330E+00  0.4791399E-01 -0.7137220E+00 -0.2206486E-02  0.4358971E-01
3630000. -0.3895086E-02  0.4084603E+00  0.5158159E-01 -0.5651822E+00 -0.2450302E-02  0.4152043E-01
3630000. -0.3895086E-02  0.4084603E+00  0.5158159E-01 -0.5651822E+00 -0.2450302E-02  0.4152043E-01
3592500. -0.6397303E-02  0.4404104E+00  0.5442991E-01 -0.4009300E+00 -0.2687722E-02  0.3910305E-01
3555000. -0.9062668E-02  0.4637464E+00  0.5628433E-01 -0.2279973E+00 -0.2910058E-02  0.3639580E-01
3517500. -0.1183797E-01  0.4776398E+00  0.5710322E-01 -0.4961323E-01 -0.3115617E-02  0.3340367E-01
3480000. -0.1466553E-01  0.4814018E+00  0.5686409E-01  0.1309527E+00 -0.3302747E-02  0.3013532E-01
3480000. -0.1466553E-01  0.3179989E+00 -0.1171605E-02 -0.2468435E-01 -0.3302747E-02  0.7690207E-01
3409422. -0.1777556E-01  0.2416481E+00 -0.8587767E-03 -0.3160210E-01 -0.4294955E-02  0.1012898E+00
3338844. -0.1998699E-01  0.1564923E+00 -0.4762116E-03 -0.3722649E-01 -0.5524248E-02  0.1195476E+00
3268266. -0.2122612E-01  0.6680959E-01 -0.3972075E-04 -0.4130003E-01 -0.6918116E-02  0.1309005E+00
3197688. -0.2146550E-01 -0.2334944E-01  0.4323851E-03 -0.4362974E-01 -0.8397321E-02  0.1349091E+00
3127109. -0.2072073E-01 -0.1102850E+00  0.9200340E-03 -0.4408945E-01 -0.9879622E-02  0.1314639E+00
3056531. -0.1904603E-01 -0.1907348E+00  0.1402105E-02 -0.4261948E-01 -0.1128325E-01  0.1207673E+00
2985953. -0.1652899E-01 -0.2619452E+00  0.1857197E-02 -0.3922492E-01 -0.1253033E-01  0.1033054E+00
2915375. -0.1328471E-01 -0.3217067E+00  0.2264306E-02 -0.3397251E-01 -0.1354979E-01  0.7981196E-01
2844797. -0.9449666E-02 -0.3683755E+00  0.2603480E-02 -0.2698511E-01 -0.1427983E-01  0.5122742E-01
2774219. -0.5175389E-02 -0.4008704E+00  0.2856417E-02 -0.1843620E-01 -0.1467003E-01  0.1865345E-01
2703641. -0.6223441E-03 -0.4186593E+00  0.3006988E-02 -0.8543982E-02 -0.1468286E-01 -0.1669440E-01
2633062.  0.4046098E-02 -0.4217310E+00  0.3041693E-02  0.2437143E-02 -0.1429463E-01 -0.5353520E-01
2562484.  0.8668913E-02 -0.4105484E+00  0.2950013E-02  0.1422400E-01 -0.1349603E-01 -0.9056722E-01
2491906.  0.1309283E-01 -0.3860037E+00  0.2724695E-02  0.2651153E-01 -0.1229203E-01 -0.1265157E+00
2421328.  0.1717650E-01 -0.3493598E+00  0.2361949E-02  0.3898163E-01 -0.1070142E-01 -0.1601717E+00
2350750.  0.2079435E-01 -0.3021901E+00  0.1861534E-02  0.5131197E-01 -0.8755830E-02 -0.1904294E+00
2280172.  0.2383964E-01 -0.2463088E+00  0.1226781E-02  0.6318195E-01 -0.6498417E-02 -0.2163182E+00
2209594.  0.2622675E-01 -0.1837082E+00  0.4645229E-03  0.7428089E-01 -0.3982225E-02 -0.2370282E+00
2139016.  0.2789283E-01 -0.1164904E+00 -0.4150519E-03  0.8431476E-01 -0.1268286E-02 -0.2519301E+00
2068438.  0.2879859E-01 -0.4680219E-01 -0.1398619E-02  0.9301241E-01  0.1576464E-02 -0.2605887E+00
1997859.  0.2892852E-01  0.2322784E-01 -0.2470015E-02  0.1001306E+00  0.4481423E-02 -0.2627708E+00
1927281.  0.2829029E-01  0.9154691E-01 -0.3610516E-02  0.1054590E+00  0.7374407E-02 -0.2584459E+00
1856703.  0.2691364E-01  0.1562336E+00 -0.4799310E-02  0.1088236E+00  0.1018412E-01 -0.2477812E+00
1786125.  0.2484864E-01  0.2155485E+00 -0.6013855E-02  0.1100888E+00  0.1284213E-01 -0.2311320E+00
1715547.  0.2216342E-01  0.2679736E+00 -0.7230334E-02  0.1091605E+00  0.1528492E-01 -0.2090257E+00
1644969.  0.1894154E-01  0.3122497E+00 -0.8424110E-02  0.1059838E+00  0.1745565E-01 -0.1821421E+00
1574391.  0.1527892E-01  0.3474070E+00 -0.9570146E-02  0.1005426E+00  0.1930580E-01 -0.1512912E+00
1503812.  0.1128046E-01  0.3727907E+00 -0.1064346E-01  0.9285751E-01  0.2079639E-01 -0.1173857E+00
1433234.  0.7056630E-02  0.3880795E+00 -0.1161941E-01  0.8297833E-01  0.2189899E-01 -0.8141573E-01
1362656.  0.2719362E-02  0.3933068E+00 -0.1247410E-01  0.7097796E-01  0.2259644E-01 -0.4441756E-01
1292078. -0.1621784E-02  0.3888793E+00 -0.1318446E-01  0.5693454E-01  0.2288321E-01 -0.7447131E-02
1221500. -0.5863932E-02  0.3756062E+00 -0.1372826E-01  0.4091894E-01  0.2276542E-01  0.2844634E-01
1221500. -0.5863932E-02  0.4044562E+00 -0.1091890E-01 -0.2636529E-01  0.2276542E-01  0.3098661E-01
1183328. -0.8308087E-02  0.4099849E+00 -0.1087566E-01  0.1284457E-01  0.2252721E-01  0.4841845E-01
1145156. -0.1075785E-01  0.4060252E+00 -0.1108008E-01  0.5567816E-01  0.2218666E-01  0.6512912E-01
1106984. -0.1315134E-01  0.3909746E+00 -0.1154230E-01  0.9823439E-01  0.2174843E-01  0.8100516E-01
1068812. -0.1541856E-01  0.3637378E+00 -0.1224875E-01  0.1365525E+00  0.2121785E-01  0.9594080E-01
1030641. -0.1748467E-01  0.3238420E+00 -0.1316268E-01  0.1669188E+00  0.2060086E-01  0.1098375E+00
 992469. -0.1927424E-01  0.2715075E+00 -0.1422664E-01  0.1861562E+00  0.1990393E-01  0.1226065E+00
 954297. -0.2071515E-01  0.2076777E+00 -0.1536631E-01  0.1918648E+00  0.1913408E-01  0.1341677E+00
 916125. -0.2174318E-01  0.1340187E+00 -0.1649581E-01  0.1826127E+00  0.1829875E-01  0.1444498E+00
 877953. -0.2230606E-01  0.5284645E-01 -0.1752392E-01  0.1580529E+00  0.1740580E-01  0.1533925E+00
 839781. -0.2236715E-01 -0.3295811E-01 -0.1836066E-01  0.1189542E+00  0.1646342E-01  0.1609451E+00
 801609. -0.2190842E-01 -0.1200926E+00 -0.1892393E-01  0.6716201E-01  0.1548005E-01  0.1670674E+00
 763438. -0.2093253E-01 -0.2049926E+00 -0.1914564E-01  0.5473757E-02  0.1446439E-01  0.1717293E+00
 725266. -0.1946370E-01 -0.2840279E+00 -0.1897681E-01 -0.6255562E-01  0.1342519E-01  0.1749116E+00
 687094. -0.1754773E-01 -0.3536815E+00 -0.1839149E-01 -0.1328482E+00  0.1237139E-01  0.1766046E+00
 648922. -0.1525062E-01 -0.4107589E+00 -0.1738898E-01 -0.2010899E+00  0.1131190E-01  0.1768099E+00
 610750. -0.1265610E-01 -0.4525611E+00 -0.1599442E-01 -0.2630272E+00  0.1025562E-01  0.1755387E+00
 572578. -0.9862155E-02 -0.4770468E+00 -0.1425752E-01 -0.3147596E+00  0.9211320E-02  0.1728123E+00
 534406. -0.6976734E-02 -0.4829582E+00 -0.1224962E-01 -0.3530089E+00  0.8187642E-02  0.1686622E+00
 496234. -0.4112738E-02 -0.4699065E+00 -0.1005924E-01 -0.3753464E+00  0.7192995E-02  0.1631296E+00
 458062. -0.1382681E-02 -0.4384122E+00 -0.7786486E-02 -0.3803622E+00  0.6235514E-02  0.1562652E+00
 419891.  0.1106699E-02 -0.3899007E+00 -0.5536644E-02 -0.3677657E+00  0.5323026E-02  0.1481293E+00
 381719.  0.3259966E-02 -0.3266388E+00 -0.3413130E-02 -0.3384095E+00  0.4462901E-02  0.1387905E+00
 343547.  0.4997372E-02 -0.2516435E+00 -0.1511118E-02 -0.2942374E+00  0.3662140E-02  0.1283269E+00
 305375.  0.6259200E-02 -0.1685333E+00  0.8891653E-04 -0.2381648E+00  0.2927228E-02  0.1168246E+00
 267203.  0.7008777E-02 -0.8135203E-01  0.1326389E-02 -0.1738807E+00  0.2264113E-02  0.1043772E+00
 229031.  0.7234449E-02  0.5628944E-02  0.2164567E-02 -0.1056136E+00  0.1678157E-02  0.9108599E-01
 190859.  0.6950293E-02  0.8812684E-01  0.2592971E-02 -0.3785066E-01  0.1174096E-02  0.7705840E-01
 152688.  0.6195571E-02  0.1620615E+00  0.2628059E-02  0.2495332E-01  0.7560164E-03  0.6240830E-01
 114516.  0.5032776E-02  0.2237701E+00  0.2312125E-02  0.7867675E-01  0.4272748E-03  0.4725324E-01
  76344.  0.3544725E-02  0.2701808E+00  0.1710516E-02  0.1197870E+00  0.1905418E-03  0.3171607E-01
  38172.  0.1830414E-02  0.2989835E+00  0.9073667E-03  0.1455774E+00  0.4773203E-04  0.1592234E-01
      0.  0.0000000E+00  0.3087592E+00  0.0000000E+00  0.1543739E+00  0.0000000E+00  0.0000000E+00
