       7       13 S      414        189.10190         15.68043         14.95558         89.33320      185    7
6371000. -0.3805909E-05 -0.7731094E-04 -0.1122162E-05  0.2683747E-05  0.1970696E-06  0.4418079E-05
6370000. -0.3793709E-05 -0.7812998E-04 -0.1122528E-05  0.1986517E-05  0.1963737E-06  0.4449063E-05
6369000. -0.3781383E-05 -0.7893294E-04 -0.1122785E-05  0.1288620E-05  0.1956729E-06  0.4479867E-05
6368000. -0.3768931E-05 -0.7971975E-04 -0.1122933E-05  0.5901266E-06  0.1949673E-06  0.4510492E-05
6368000. -0.3768931E-05 -0.7971975E-04 -0.1122933E-05  0.5901266E-06  0.1949673E-06  0.4510492E-05
6367000. -0.3756358E-05 -0.8049038E-04 -0.1122970E-05 -0.1088926E-06  0.1942570E-06  0.4540936E-05
6366000. -0.3743664E-05 -0.8124477E-04 -0.1122898E-05 -0.8083664E-06  0.1935419E-06  0.4571199E-05
6365000. -0.3730854E-05 -0.8198290E-04 -0.1122717E-05 -0.1508224E-05  0.1928220E-06  0.4601279E-05
6364000. -0.3717929E-05 -0.8270472E-04 -0.1122425E-05 -0.2208394E-05  0.1920974E-06  0.4631175E-05
6363000. -0.3704892E-05 -0.8341020E-04 -0.1122023E-05 -0.2908805E-05  0.1913682E-06  0.4660887E-05
6362000. -0.3691745E-05 -0.8409930E-04 -0.1121512E-05 -0.3609386E-05  0.1906343E-06  0.4690414E-05
6361000. -0.3678492E-05 -0.8477200E-04 -0.1120890E-05 -0.4310065E-05  0.1898958E-06  0.4719755E-05
6360000. -0.3665134E-05 -0.8542826E-04 -0.1120159E-05 -0.5010772E-05  0.1891526E-06  0.4748908E-05
6359000. -0.3651675E-05 -0.8606805E-04 -0.1119317E-05 -0.5711435E-05  0.1884050E-06  0.4777874E-05
6358000. -0.3638117E-05 -0.8669135E-04 -0.1118366E-05 -0.6411983E-05  0.1876528E-06  0.4806650E-05
6357000. -0.3624462E-05 -0.8729813E-04 -0.1117304E-05 -0.7112343E-05  0.1868961E-06  0.4835236E-05
6356000. -0.3610713E-05 -0.8788837E-04 -0.1116133E-05 -0.7812446E-05  0.1861349E-06  0.4863632E-05
6356000. -0.3610713E-05 -0.7454943E-04 -0.1116133E-05 -0.3724362E-05  0.1861349E-06  0.5649281E-05
6355000. -0.3598975E-05 -0.7501360E-04 -0.1115513E-05 -0.4172134E-05  0.1852453E-06  0.5685869E-05
6354000. -0.3587165E-05 -0.7546761E-04 -0.1114823E-05 -0.4619916E-05  0.1843500E-06  0.5722319E-05
6353000. -0.3575284E-05 -0.7591142E-04 -0.1114063E-05 -0.5067681E-05  0.1834489E-06  0.5758631E-05
6352000. -0.3563335E-05 -0.7634504E-04 -0.1113233E-05 -0.5515397E-05  0.1825422E-06  0.5794805E-05
6351000. -0.3551318E-05 -0.7676843E-04 -0.1112332E-05 -0.5963036E-05  0.1816298E-06  0.5830839E-05
6350000. -0.3539236E-05 -0.7718160E-04 -0.1111361E-05 -0.6410568E-05  0.1807118E-06  0.5866733E-05
6349000. -0.3527090E-05 -0.7758453E-04 -0.1110319E-05 -0.6857962E-05  0.1797881E-06  0.5902487E-05
6348000. -0.3514881E-05 -0.7797721E-04 -0.1109208E-05 -0.7305189E-05  0.1788589E-06  0.5938099E-05
6347000. -0.3502612E-05 -0.7835961E-04 -0.1108026E-05 -0.7752221E-05  0.1779241E-06  0.5973569E-05
6346600. -0.3497687E-05 -0.7850970E-04 -0.1107534E-05 -0.7930971E-05  0.1775486E-06  0.5987717E-05
6346600. -0.3497687E-05 -0.8505508E-04 -0.1107534E-05 -0.4575081E-05  0.1775486E-06  0.7207309E-05
6318800. -0.3111854E-05 -0.9077759E-04 -0.1067730E-05 -0.1363328E-04  0.1437754E-06  0.8258042E-05
6291000. -0.2714378E-05 -0.9038411E-04 -0.9891197E-06 -0.2230399E-04  0.1056119E-06  0.9218302E-05
6291000. -0.2714378E-05 -0.9311520E-04 -0.9891197E-06 -0.2321140E-04  0.1056119E-06  0.9218302E-05
6263000. -0.2318536E-05 -0.8597668E-04 -0.8684100E-06 -0.3155639E-04  0.6321837E-07  0.1005645E-04
6235000. -0.1967478E-05 -0.7283346E-04 -0.7134283E-06 -0.3875352E-04  0.1737325E-07  0.1078831E-04
6207000. -0.1686072E-05 -0.5442697E-04 -0.5298953E-06 -0.4450412E-04 -0.3144833E-07  0.1141053E-04
6179000. -0.1495308E-05 -0.3177498E-04 -0.3247182E-06 -0.4856858E-04 -0.8275989E-07  0.1192122E-04
6151000. -0.1411166E-05 -0.6132260E-05 -0.1057103E-06 -0.5077583E-04 -0.1360693E-06  0.1231965E-04
6151000. -0.1411166E-05 -0.6286140E-05 -0.1057103E-06 -0.4438648E-04 -0.1360693E-06  0.1239772E-04
6128500. -0.1421043E-05  0.1192335E-04  0.5127866E-07 -0.4435723E-04 -0.1803307E-06  0.1265682E-04
6106000. -0.1495355E-05  0.3011022E-04  0.2064769E-06 -0.4337798E-04 -0.2253887E-06  0.1284888E-04
6083500. -0.1633019E-05  0.4770945E-04  0.3566014E-06 -0.4149295E-04 -0.2710070E-06  0.1297415E-04
6061000. -0.1830997E-05  0.6418072E-04  0.4985599E-06 -0.3876553E-04 -0.3169507E-06  0.1303331E-04
6038500. -0.2084404E-05  0.7902113E-04  0.6295156E-06 -0.3527685E-04 -0.3629880E-06  0.1302742E-04
6016000. -0.2386664E-05  0.9177683E-04  0.7469458E-06 -0.3112288E-04 -0.4088917E-06  0.1295791E-04
5993500. -0.2729698E-05  0.1020519E-03  0.8486877E-06 -0.2641132E-04 -0.4544403E-06  0.1282669E-04
5971000. -0.3104143E-05  0.1095170E-03  0.9329772E-06 -0.2125949E-04 -0.4994197E-06  0.1263596E-04
5971000. -0.3104143E-05  0.1050740E-03  0.9329772E-06 -0.1844285E-04 -0.4994197E-06  0.1304232E-04
5937667. -0.3663422E-05  0.1076487E-03  0.1008630E-05 -0.1051401E-04 -0.5665296E-06  0.1259013E-04
5904333. -0.4219783E-05  0.1040153E-03  0.1043679E-05 -0.2973832E-05 -0.6309558E-06  0.1201825E-04
5871000. -0.4741930E-05  0.9468106E-04  0.1040915E-05  0.3900418E-05 -0.6921101E-06  0.1134307E-04
5837667. -0.5201858E-05  0.8036498E-04  0.1004382E-05  0.9907151E-05 -0.7495000E-06  0.1058221E-04
5804333. -0.5575720E-05  0.6193070E-04  0.9389897E-06  0.1491508E-04 -0.8027263E-06  0.9754033E-05
5771000. -0.5844410E-05  0.4032850E-04  0.8501735E-06  0.1885552E-04 -0.8514832E-06  0.8877415E-05
5771000. -0.5844410E-05  0.4033755E-04  0.8501735E-06  0.1885515E-04 -0.8514832E-06  0.8877415E-05
5701000. -0.5990130E-05 -0.1559879E-04  0.6062821E-06  0.2487282E-04 -0.9368184E-06  0.6641331E-05
5701000. -0.5990130E-05 -0.6700159E-05  0.6062821E-06  0.2119325E-04 -0.9368184E-06  0.8329734E-05
5667333. -0.5895731E-05 -0.2906428E-04  0.4941479E-06  0.2128892E-04 -0.9778163E-06  0.7204264E-05
5633667. -0.5680277E-05 -0.5269344E-04  0.3807046E-06  0.2162164E-04 -0.1013123E-05  0.6166742E-05
5600000. -0.5339470E-05 -0.7615579E-04  0.2668709E-06  0.2134539E-04 -0.1043021E-05  0.5152726E-05
5600000. -0.5339470E-05 -0.7615579E-04  0.2668709E-06  0.2134539E-04 -0.1043021E-05  0.5152726E-05
5563518. -0.4832628E-05 -0.1006509E-03  0.1470640E-06  0.2039006E-04 -0.1069468E-05  0.4091219E-05
5527037. -0.4189955E-05 -0.1234866E-03  0.3454833E-07  0.1881076E-04 -0.1089959E-05  0.3073957E-05
5490556. -0.3422912E-05 -0.1439811E-03 -0.6730680E-07  0.1667963E-04 -0.1104768E-05  0.2107200E-05
5454074. -0.2546700E-05 -0.1615166E-03 -0.1555798E-06  0.1408123E-04 -0.1114199E-05  0.1196588E-05
5417593. -0.1579775E-05 -0.1755974E-03 -0.2278626E-06  0.1111195E-04 -0.1118586E-05  0.3460197E-06
5381111. -0.5431301E-06 -0.1857960E-03 -0.2823206E-06  0.7871969E-05 -0.1118283E-05 -0.4410500E-06
5344630.  0.5400078E-06 -0.1918077E-03 -0.3176984E-06  0.4465728E-05 -0.1113661E-05 -0.1162141E-05
5308148.  0.1645169E-05 -0.1934544E-03 -0.3333450E-06  0.9972481E-06 -0.1105102E-05 -0.1815884E-05
5271667.  0.2746976E-05 -0.1906432E-03 -0.3291933E-06 -0.2432824E-05 -0.1092995E-05 -0.2401808E-05
5235185.  0.3820053E-05 -0.1834291E-03 -0.3057391E-06 -0.5729140E-05 -0.1077725E-05 -0.2920018E-05
5198704.  0.4839549E-05 -0.1719697E-03 -0.2640037E-06 -0.8804554E-05 -0.1059681E-05 -0.3371504E-05
5162222.  0.5781830E-05 -0.1565022E-03 -0.2054763E-06 -0.1158160E-04 -0.1039236E-05 -0.3758720E-05
5125741.  0.6624917E-05 -0.1374002E-03 -0.1320630E-06 -0.1399460E-04 -0.1016755E-05 -0.4083185E-05
5089259.  0.7349249E-05 -0.1150928E-03 -0.4600202E-07 -0.1599044E-04 -0.9925876E-06 -0.4348207E-05
5052778.  0.7937828E-05 -0.9008202E-04  0.5019055E-07 -0.1752866E-04 -0.9670639E-06 -0.4557636E-05
5016296.  0.8376823E-05 -0.6293938E-04  0.1538196E-06 -0.1858364E-04 -0.9404926E-06 -0.4714447E-05
4979815.  0.8655705E-05 -0.3426461E-04  0.2620685E-06 -0.1914218E-04 -0.9131639E-06 -0.4823230E-05
4943333.  0.8767508E-05 -0.4688032E-05  0.3720954E-06 -0.1920486E-04 -0.8853388E-06 -0.4888126E-05
4906852.  0.8708910E-05  0.2514603E-04  0.4810880E-06 -0.1878501E-04 -0.8572605E-06 -0.4912744E-05
4870370.  0.8480244E-05  0.5460675E-04  0.5863512E-06 -0.1790622E-04 -0.8291426E-06 -0.4902436E-05
4833889.  0.8085448E-05  0.8307394E-04  0.6853476E-06 -0.1660376E-04 -0.8011764E-06 -0.4860537E-05
4797407.  0.7531870E-05  0.1099669E-03  0.7757770E-06 -0.1492092E-04 -0.7735310E-06 -0.4790889E-05
4760926.  0.6830132E-05  0.1347429E-03  0.8555970E-06 -0.1290797E-04 -0.7463529E-06 -0.4698221E-05
4724444.  0.5993723E-05  0.1569222E-03  0.9230819E-06 -0.1062166E-04 -0.7197644E-06 -0.4585125E-05
4687963.  0.5038794E-05  0.1760828E-03  0.9768331E-06 -0.8122038E-05 -0.6938747E-06 -0.4455035E-05
4651482.  0.3983650E-05  0.1918737E-03  0.1015809E-05 -0.5471612E-05 -0.6687707E-06 -0.4311092E-05
4615000.  0.2848356E-05  0.2040283E-03  0.1039329E-05 -0.2733619E-05 -0.6445253E-06 -0.4155244E-05
4578518.  0.1654369E-05  0.2123469E-03  0.1047068E-05  0.2963201E-07 -0.6212008E-06 -0.3989797E-05
4542037.  0.4240507E-06  0.2167186E-03  0.1039057E-05  0.2757803E-05 -0.5988478E-06 -0.3816346E-05
4505556. -0.8199171E-06  0.2171147E-03  0.1015660E-05  0.5394616E-05 -0.5775083E-06 -0.3635958E-05
4469074. -0.2054871E-05  0.2135719E-03  0.9775506E-06  0.7887891E-05 -0.5572193E-06 -0.3449337E-05
4432593. -0.3258512E-05  0.2062165E-03  0.9256888E-06  0.1019115E-04 -0.5380161E-06 -0.3256984E-05
4396111. -0.4409586E-05  0.1952359E-03  0.8612769E-06  0.1226455E-04 -0.5199302E-06 -0.3058742E-05
4359630. -0.5487944E-05  0.1808761E-03  0.7857353E-06  0.1407413E-04 -0.5029994E-06 -0.2853651E-05
4323148. -0.6475162E-05  0.1634487E-03  0.7006480E-06  0.1559411E-04 -0.4872624E-06 -0.2641479E-05
4286667. -0.7354608E-05  0.1433044E-03  0.6077361E-06  0.1680528E-04 -0.4727651E-06 -0.2420421E-05
4250185. -0.8111871E-05  0.1208333E-03  0.5088006E-06  0.1769574E-04 -0.4595636E-06 -0.2188535E-05
4213704. -0.8734790E-05  0.9646003E-04  0.4056993E-06  0.1826102E-04 -0.4477242E-06 -0.1944411E-05
4177222. -0.9213752E-05  0.7062208E-04  0.3002868E-06  0.1850279E-04 -0.4373257E-06 -0.1684579E-05
4140741. -0.9541644E-05  0.4377421E-04  0.1944010E-06  0.1842921E-04 -0.4284665E-06 -0.1406527E-05
4104259. -0.9713997E-05  0.1636922E-04  0.8980452E-07  0.1805414E-04 -0.4212576E-06 -0.1107317E-05
4067778. -0.9728910E-05 -0.1114064E-04 -0.1182060E-07  0.1739585E-04 -0.4158361E-06 -0.7815920E-06
4031296. -0.9587033E-05 -0.3832289E-04 -0.1089219E-06  0.1647725E-04 -0.4123629E-06 -0.4262256E-06
3994815. -0.9291447E-05 -0.6476122E-04 -0.2000769E-06  0.1532437E-04 -0.4110207E-06 -0.3615165E-07
3958333. -0.8847540E-05 -0.9006225E-04 -0.2840289E-06  0.1396559E-04 -0.4120292E-06  0.3957483E-06
3921852. -0.8262876E-05 -0.1138730E-03 -0.3596808E-06  0.1243117E-04 -0.4156419E-06  0.8744766E-06
3885370. -0.7546902E-05 -0.1358676E-03 -0.4261185E-06  0.1075185E-04 -0.4221490E-06  0.1408163E-05
3848889. -0.6710909E-05 -0.1557565E-03 -0.4825980E-06  0.8958678E-05 -0.4318907E-06  0.2005716E-05
3812407. -0.5767607E-05 -0.1733016E-03 -0.5285561E-06  0.7081414E-05 -0.4452580E-06  0.2676139E-05
3775926. -0.4731108E-05 -0.1882852E-03 -0.5635915E-06  0.5148671E-05 -0.4627015E-06  0.3431720E-05
3739444. -0.3616515E-05 -0.2005446E-03 -0.5874646E-06  0.3186531E-05 -0.4847467E-06  0.4285485E-05
3702963. -0.2439858E-05 -0.2099533E-03 -0.6000732E-06  0.1218004E-05 -0.5119963E-06  0.5252553E-05
3666482. -0.1217768E-05 -0.2163995E-03 -0.6014397E-06 -0.7370791E-06 -0.5451522E-06  0.6351726E-05
3630000.  0.3264798E-07 -0.2198273E-03 -0.5916872E-06 -0.2663327E-05 -0.5850310E-06  0.7604165E-05
3630000.  0.3264798E-07 -0.2198273E-03 -0.5916872E-06 -0.2663327E-05 -0.5850310E-06  0.7604165E-05
3592500.  0.1329088E-05 -0.2201451E-03 -0.5702835E-06 -0.4601640E-05 -0.6340267E-06  0.9077895E-05
3555000.  0.2617760E-05 -0.2171847E-03 -0.5376124E-06 -0.6491277E-05 -0.6923306E-06  0.1077287E-04
3517500.  0.3879336E-05 -0.2109352E-03 -0.4939637E-06 -0.8332268E-05 -0.7613565E-06  0.1272821E-04
3480000.  0.5094369E-05 -0.2013641E-03 -0.4396072E-06 -0.1013131E-04 -0.8427689E-06  0.1499001E-04
3480000.  0.5094369E-05 -0.3854176E-04  0.5703425E-06  0.8272409E-05 -0.8427689E-06 -0.1255367E-05
3409422.  0.5435980E-05 -0.2391125E-04  0.4729606E-06  0.9268554E-05 -0.7706902E-06 -0.1129592E-04
3338844.  0.5642465E-05 -0.1423603E-04  0.3657240E-06  0.1006608E-04 -0.6015812E-06 -0.1887609E-04
3268266.  0.5771454E-05 -0.9991810E-05  0.2503154E-06  0.1076165E-04 -0.3592839E-06 -0.2461098E-04
3197688.  0.5885508E-05 -0.1161876E-04  0.1272353E-06  0.1147247E-04 -0.6087609E-07 -0.2910631E-04
3127109.  0.6052639E-05 -0.1969065E-04 -0.4446842E-08  0.1234037E-04  0.2832332E-06 -0.3296047E-04
3056531.  0.6348877E-05 -0.3512123E-04 -0.1474009E-06  0.1354051E-04  0.6692534E-06 -0.3677534E-04
2985953.  0.6863454E-05 -0.5943022E-04 -0.3064974E-06  0.1529740E-04  0.1100194E-05 -0.4117876E-04
2915375.  0.7707429E-05 -0.9511244E-04 -0.4894808E-06  0.1791128E-04  0.1586315E-05 -0.4685981E-04
2844797.  0.9027295E-05 -0.1461796E-03 -0.7080264E-06  0.2180026E-04  0.2146085E-05 -0.5462254E-04
2774219.  0.1102605E-04 -0.2189943E-03 -0.9793882E-06  0.2756745E-04  0.2807866E-05 -0.6546451E-04
2703641.  0.1399599E-04 -0.3235879E-03 -0.1328999E-05  0.3610884E-04  0.3612651E-05 -0.8069104E-04
2633062.  0.1837026E-04 -0.4757991E-03 -0.1794610E-05  0.4878709E-04  0.4618351E-05 -0.1020825E-03
2562484.  0.2480480E-04 -0.7007906E-03 -0.2432866E-05  0.6771536E-04  0.5906281E-05 -0.1321413E-03
2491906.  0.3431195E-04 -0.1038973E-02 -0.3330085E-05  0.9623401E-04  0.7591164E-05 -0.1744643E-03
2421328.  0.4847996E-04 -0.1556088E-02 -0.4619867E-05  0.1397131E-03  0.9836093E-05 -0.2343035E-03
2350750.  0.6984158E-04 -0.2360704E-02 -0.6512549E-05  0.2069339E-03  0.1287531E-04 -0.3194288E-03
2280172.  0.1025033E-03 -0.3635112E-02 -0.9345154E-05  0.3125172E-03  0.1704894E-04 -0.4414618E-03
2209594.  0.1532393E-03 -0.5690900E-02 -0.1366778E-04  0.4812587E-03  0.2285634E-04 -0.6179559E-03
2139016.  0.2334313E-03 -0.9070901E-02 -0.2039563E-04  0.7560377E-03  0.3103857E-04 -0.8756669E-03
2068438.  0.3625757E-03 -0.1474017E-01 -0.3108251E-04  0.1212547E-02  0.4270663E-04 -0.1255701E-02
1997859.  0.5747703E-03 -0.2445201E-01 -0.4842306E-04  0.1987373E-02  0.5954248E-04 -0.1821660E-02
1927281.  0.9309553E-03 -0.4146489E-01 -0.7719563E-04  0.3332737E-02  0.8411234E-04 -0.2672334E-02
1856703.  0.1542666E-02 -0.7198695E-01 -0.1260814E-03  0.5726199E-02  0.1203592E-03 -0.3961346E-02
1786125.  0.2619206E-02 -0.1281593E+00 -0.2112574E-03  0.1009624E-01  0.1743604E-03 -0.5926144E-02
1715547.  0.4564077E-02 -0.2344060E+00 -0.3637057E-03  0.1830030E-01  0.2554648E-03 -0.8927117E-02
1644969.  0.8178082E-02 -0.4413778E+00 -0.6445325E-03  0.3416987E-01  0.3778880E-03 -0.1348806E-01
1574391.  0.1510108E-01 -0.8576180E+00 -0.1178133E-02  0.6587458E-01  0.5625960E-03 -0.2029485E-01
1503812.  0.2880738E-01 -0.1724189E+01 -0.2226602E-02  0.1314722E+00  0.8383159E-03 -0.2999407E-01
1433234.  0.5693341E-01 -0.3597541E+01 -0.4363009E-02  0.2724589E+00  0.1237092E-02 -0.4226804E-01
1362656.  0.1169583E+00 -0.7818004E+01 -0.8892634E-02  0.5883645E+00  0.1768873E-02 -0.5250113E-01
1292078.  0.2507014E+00 -0.1776796E+02 -0.1892402E-01  0.1329357E+01  0.2323984E-02 -0.4058983E-01
1221500.  0.5632358E+00 -0.4243427E+02 -0.4223386E-01  0.3157645E+01  0.2336609E-02  0.6605452E-01
1221500.  0.5632358E+00 -0.7336188E+01 -0.7332264E-02 -0.2975922E+01  0.2336609E-02 -0.1779415E+00
1183328.  0.5712139E+00  0.3739283E+01  0.6245864E-02 -0.1638113E+01  0.2875497E-02 -0.1974236E-01
1145156.  0.5280188E+00  0.1000274E+02  0.1315929E-01 -0.7324662E+00  0.2738817E-02  0.5489234E-01
1106984.  0.4581445E+00  0.1285469E+02  0.1567677E-01 -0.1547618E+00  0.2312508E-02  0.8162574E-01
1068812.  0.3785284E+00  0.1342023E+02  0.1549247E-01  0.1826496E+00  0.1810894E-02  0.8292598E-01
1030641.  0.3001377E+00  0.1257228E+02  0.1382362E-01  0.3514763E+00  0.1342010E-02  0.7241349E-01
 992469.  0.2293876E+00  0.1096045E+02  0.1150293E-01  0.4085173E+00  0.9509191E-03  0.5789468E-01
 954297.  0.1693950E+00  0.9043898E+01  0.9064193E-02  0.3970613E+00  0.6478700E-03  0.4349066E-01
 916125.  0.1210082E+00  0.7125711E+01  0.6817957E-02  0.3486437E+00  0.4256734E-03  0.3109004E-01
 877953.  0.8364264E-01  0.5386623E+01  0.4916172E-02  0.2849916E+00  0.2700740E-03  0.2128937E-01
 839781.  0.5591840E-01  0.3916326E+01  0.3405183E-02  0.2199556E+00  0.1654991E-03  0.1401143E-01
 801609.  0.3612069E-01  0.2741107E+01  0.2267067E-02  0.1614409E+00  0.9788722E-04  0.8875573E-02
 763438.  0.2250928E-01  0.1846724E+01  0.1450151E-02  0.1130773E+00  0.5580433E-04  0.5411525E-02
 725266.  0.1350354E-01  0.1196365E+01  0.8900427E-03  0.7567815E-01  0.3059893E-04  0.3172439E-02
 687094.  0.7777737E-02  0.7439427E+00  0.5230528E-03  0.4838035E-01  0.1609287E-04  0.1784934E-02
 648922.  0.4286745E-02  0.4429165E+00  0.2934643E-03  0.2949901E-01  0.8089160E-05  0.9610642E-03
 610750.  0.2251565E-02  0.2516202E+00  0.1566022E-03  0.1710946E-01  0.3869066E-05  0.4933854E-03
 572578.  0.1121327E-02  0.1358111E+00  0.7910303E-04  0.9403980E-02  0.1751341E-05  0.2403585E-03
 534406.  0.5262283E-03  0.6926694E-01  0.3759518E-04  0.4873489E-02  0.7451985E-06  0.1104470E-03
 496234.  0.2309239E-03  0.3315438E-01  0.1668569E-04  0.2365787E-02  0.2955884E-06  0.4751035E-04
 458062.  0.9384958E-04  0.1476436E-01  0.6850173E-05  0.1066734E-02  0.1081624E-06  0.1895122E-04
 419891.  0.3489498E-04  0.6049855E-02  0.2570095E-05  0.4419346E-03  0.3603142E-07  0.6924950E-05
 381719.  0.1168342E-04  0.2248350E-02  0.8674310E-06  0.1658365E-03  0.1074064E-07  0.2281772E-05
 343547.  0.3449789E-05  0.7435372E-03  0.2579451E-06  0.5530968E-04  0.2800814E-08  0.6639661E-06
 305375.  0.8732029E-06  0.2132102E-03  0.6569597E-07  0.1597763E-04  0.6195731E-09  0.1658558E-06
 267203.  0.1820728E-06  0.5111551E-04  0.1377197E-07  0.3854945E-05  0.1113526E-09  0.3417750E-07
 229031.  0.2950071E-07  0.9712346E-05  0.2241652E-08  0.7364341E-06  0.1526268E-10  0.5480343E-08
 190859.  0.3392726E-08  0.1346131E-05  0.2587851E-09  0.1025292E-06  0.1446357E-11  0.6246363E-09
 152688.  0.2379970E-09  0.1184309E-06  0.1820779E-10  0.9052121E-08  0.8040603E-13  0.4345026E-10
 114516.  0.0000000E+00  0.0000000E+00  0.0000000E+00  0.0000000E+00  0.0000000E+00  0.0000000E+00
  76344.  0.0000000E+00  0.0000000E+00  0.0000000E+00  0.0000000E+00  0.0000000E+00  0.0000000E+00
  38172.  0.0000000E+00  0.0000000E+00  0.0000000E+00  0.0000000E+00  0.0000000E+00  0.0000000E+00
      0.  0.0000000E+00  0.0000000E+00  0.0000000E+00  0.0000000E+00  0.0000000E+00  0.0000000E+00
