       9       19 S      491        129.98689         15.79259          5.73849        245.31310      185    7
6371000. -0.7218113E-02  0.5465991E+00  0.3621610E-02  0.1083972E-01 -0.5627404E-03  0.2486648E-01
6370000. -0.7303629E-02  0.5430035E+00  0.3619533E-02  0.1561889E-01 -0.5666271E-03  0.2465763E-01
6369000. -0.7388561E-02  0.5391720E+00  0.3616707E-02  0.2039492E-01 -0.5704809E-03  0.2444803E-01
6368000. -0.7472875E-02  0.5351049E+00  0.3613131E-02  0.2516678E-01 -0.5743018E-03  0.2423767E-01
6368000. -0.7472875E-02  0.5351049E+00  0.3613131E-02  0.2516678E-01 -0.5743018E-03  0.2423767E-01
6367000. -0.7556531E-02  0.5308025E+00  0.3608807E-02  0.2993345E-01 -0.5780896E-03  0.2402658E-01
6366000. -0.7639493E-02  0.5262654E+00  0.3603734E-02  0.3469388E-01 -0.5818442E-03  0.2381477E-01
6365000. -0.7721725E-02  0.5214939E+00  0.3597915E-02  0.3944704E-01 -0.5855656E-03  0.2360224E-01
6364000. -0.7803190E-02  0.5164885E+00  0.3591351E-02  0.4419192E-01 -0.5892535E-03  0.2338902E-01
6363000. -0.7883850E-02  0.5112500E+00  0.3584043E-02  0.4892747E-01 -0.5929079E-03  0.2317512E-01
6362000. -0.7963670E-02  0.5057788E+00  0.3575993E-02  0.5365267E-01 -0.5965286E-03  0.2296055E-01
6361000. -0.8042613E-02  0.5000758E+00  0.3567201E-02  0.5836650E-01 -0.6001157E-03  0.2274532E-01
6360000. -0.8120643E-02  0.4941417E+00  0.3557671E-02  0.6306794E-01 -0.6036689E-03  0.2252945E-01
6359000. -0.8197723E-02  0.4879773E+00  0.3547403E-02  0.6775597E-01 -0.6071882E-03  0.2231295E-01
6358000. -0.8273818E-02  0.4815835E+00  0.3536401E-02  0.7242957E-01 -0.6106734E-03  0.2209584E-01
6357000. -0.8348892E-02  0.4749613E+00  0.3524667E-02  0.7708772E-01 -0.6141245E-03  0.2187813E-01
6356000. -0.8422907E-02  0.4681116E+00  0.3512203E-02  0.8172943E-01 -0.6175414E-03  0.2165982E-01
6356000. -0.8422907E-02  0.4240570E+00  0.3512203E-02  0.5407381E-01 -0.6175414E-03  0.2349255E-01
6355000. -0.8489103E-02  0.4193849E+00  0.3503483E-02  0.5703480E-01 -0.6212082E-03  0.2322951E-01
6354000. -0.8554555E-02  0.4145724E+00  0.3494299E-02  0.5998782E-01 -0.6248336E-03  0.2296606E-01
6353000. -0.8619239E-02  0.4096198E+00  0.3484651E-02  0.6293245E-01 -0.6284177E-03  0.2270221E-01
6352000. -0.8683136E-02  0.4045278E+00  0.3474543E-02  0.6586828E-01 -0.6319603E-03  0.2243798E-01
6351000. -0.8746223E-02  0.3992967E+00  0.3463974E-02  0.6879489E-01 -0.6354615E-03  0.2217338E-01
6350000. -0.8808477E-02  0.3939272E+00  0.3452947E-02  0.7171188E-01 -0.6389210E-03  0.2190842E-01
6349000. -0.8869877E-02  0.3884199E+00  0.3441463E-02  0.7461881E-01 -0.6423390E-03  0.2164310E-01
6348000. -0.8930403E-02  0.3827753E+00  0.3429523E-02  0.7751530E-01 -0.6457153E-03  0.2137744E-01
6347000. -0.8990032E-02  0.3769940E+00  0.3417130E-02  0.8040091E-01 -0.6490499E-03  0.2111145E-01
6346600. -0.9013628E-02  0.3746434E+00  0.3412046E-02  0.8155201E-01 -0.6503720E-03  0.2100496E-01
6346600. -0.9013628E-02  0.4785727E+00  0.3412046E-02  0.5911126E-01 -0.6503720E-03  0.2414788E-01
6318800. -0.1079250E-01  0.3234394E+00  0.3030427E-02  0.1145613E+00 -0.7388041E-03  0.1636784E-01
6291000. -0.1172877E-01  0.9464369E-01  0.2426281E-02  0.1604017E+00 -0.7931463E-03  0.8540401E-02
6291000. -0.1172877E-01  0.1028600E+00  0.2426281E-02  0.1655027E+00 -0.7931463E-03  0.8540401E-02
6263000. -0.1154422E-01 -0.1948730E+00  0.1618685E-02  0.1993048E+00 -0.8136291E-03  0.7975632E-03
6235000. -0.9965668E-02 -0.5266954E+00  0.7000150E-03  0.2156917E+00 -0.8003793E-03 -0.6793236E-02
6207000. -0.6909849E-02 -0.8617224E+00 -0.2496565E-03  0.2133279E+00 -0.7542943E-03 -0.1412669E-01
6179000. -0.2435085E-02 -0.1166875E+01 -0.1148040E-02  0.1925468E+00 -0.6767518E-03 -0.2108853E-01
6151000.  0.3255513E-02 -0.1409859E+01 -0.1917941E-02  0.1553172E+00 -0.5696614E-03 -0.2755030E-01
6151000.  0.3255513E-02 -0.1196983E+01 -0.1917941E-02  0.1358207E+00 -0.5696614E-03 -0.2773041E-01
6128500.  0.7664620E-02 -0.1291545E+01 -0.2337701E-02  0.1010584E+00 -0.4662937E-03 -0.3072284E-01
6106000.  0.1231474E-01 -0.1332642E+01 -0.2627002E-02  0.6227364E-01 -0.3532741E-03 -0.3319265E-01
6083500.  0.1700981E-01 -0.1316622E+01 -0.2775236E-02  0.2151876E-01 -0.2324828E-03 -0.3512181E-01
6061000.  0.2154578E-01 -0.1242646E+01 -0.2779132E-02 -0.1912236E-01 -0.1058475E-03 -0.3650136E-01
6038500.  0.2572070E-01 -0.1112704E+01 -0.2642681E-02 -0.5763748E-01  0.2468701E-04 -0.3733050E-01
6016000.  0.2934439E-01 -0.9314728E+00 -0.2376709E-02 -0.9218245E-01  0.1571872E-03 -0.3761646E-01
5993500.  0.3224762E-01 -0.7060496E+00 -0.1998135E-02 -0.1211639E+00  0.2897596E-03 -0.3737441E-01
5971000.  0.3428993E-01 -0.4455924E+00 -0.1528961E-02 -0.1433077E+00  0.4205748E-03 -0.3662531E-01
5971000.  0.3428993E-01 -0.4252016E+00 -0.1528961E-02 -0.1317304E+00  0.4205748E-03 -0.4111415E-01
5937667.  0.3549538E-01 -0.3363242E-01 -0.7975542E-03 -0.1451806E+00  0.6313198E-03 -0.3928640E-01
5904333.  0.3465032E-01  0.3532271E+00 -0.3669763E-04 -0.1432351E+00  0.8302066E-03 -0.3661793E-01
5871000.  0.3186006E-01  0.7053849E+00  0.6780500E-03 -0.1279995E+00  0.1013433E-02 -0.3334013E-01
5837667.  0.2737209E-01  0.9987388E+00  0.1284646E-02 -0.1024335E+00  0.1178394E-02 -0.2966974E-01
5804333.  0.2154173E-01  0.1216230E+01  0.1737800E-02 -0.6991656E-01  0.1323549E-02 -0.2579677E-01
5771000.  0.1479477E-01  0.1348183E+01  0.2010135E-02 -0.3387660E-01  0.1448258E-02 -0.2187851E-01
5771000.  0.1479477E-01  0.1348239E+01  0.2010135E-02 -0.3387596E-01  0.1448258E-02 -0.2187851E-01
5701000. -0.7126310E-03  0.1409701E+01  0.1957187E-02  0.4329218E-01  0.1638186E-02 -0.1260226E-01
5701000. -0.7126310E-03  0.1203924E+01  0.1957187E-02  0.3484718E-01  0.1638186E-02 -0.1240140E-01
5667333. -0.6728932E-02  0.1074368E+01  0.1711947E-02  0.5742030E-01  0.1699479E-02 -0.1093518E-01
5633667. -0.1206918E-01  0.9418185E+00  0.1352664E-02  0.7821963E-01  0.1754247E-02 -0.9780496E-02
5600000. -0.1659131E-01  0.7620299E+00  0.8934129E-03  0.9471815E-01  0.1802760E-02 -0.8582225E-02
5600000. -0.1659131E-01  0.7620299E+00  0.8934129E-03  0.9471815E-01  0.1802760E-02 -0.8582225E-02
5563518. -0.2029582E-01  0.5258351E+00  0.3135193E-03  0.1067505E+00  0.1848192E-02 -0.7286318E-02
5527037. -0.2255942E-01  0.2614435E+00 -0.3164354E-03  0.1121458E+00  0.1886216E-02 -0.5995827E-02
5490556. -0.2326746E-01 -0.1470014E-01 -0.9577922E-03  0.1107409E+00  0.1916866E-02 -0.4709774E-02
5454074. -0.2240073E-01 -0.2858041E+00 -0.1572163E-02  0.1027926E+00  0.1940151E-02 -0.3422509E-02
5417593. -0.2003499E-01 -0.5357069E+00 -0.2123758E-02  0.8895788E-01  0.1956058E-02 -0.2132751E-02
5381111. -0.1633398E-01 -0.7499136E+00 -0.2581531E-02  0.7020291E-01  0.1964557E-02 -0.8340009E-03
5344630. -0.1153837E-01 -0.9162862E+00 -0.2920683E-02  0.4775118E-01  0.1965587E-02  0.4760983E-03
5308148. -0.5949321E-02 -0.1025751E+01 -0.3123978E-02  0.2298816E-01  0.1959085E-02  0.1796162E-02
5271667.  0.8894167E-04 -0.1072594E+01 -0.3182327E-02 -0.2628048E-02  0.1945003E-02  0.3123022E-02
5235185.  0.6210656E-02 -0.1054815E+01 -0.3095020E-02 -0.2765026E-01  0.1923321E-02  0.4448553E-02
5198704.  0.1204841E-01 -0.9740256E+00 -0.2869392E-02 -0.5072768E-01  0.1894081E-02  0.5760550E-02
5162222.  0.1725441E-01 -0.8352131E+00 -0.2520066E-02 -0.7067005E-01  0.1857407E-02  0.7042072E-02
5125741.  0.2151806E-01 -0.6465082E+00 -0.2067894E-02 -0.8651432E-01  0.1813521E-02  0.8276873E-02
5089259.  0.2458314E-01 -0.4184823E+00 -0.1538455E-02 -0.9755716E-01  0.1762747E-02  0.9443483E-02
5052778.  0.2625932E-01 -0.1636248E+00 -0.9606275E-03 -0.1033756E+00  0.1705546E-02  0.1051874E-01
5016296.  0.2643171E-01  0.1044397E+00 -0.3647783E-03 -0.1038493E+00  0.1642491E-02  0.1148401E-01
4979815.  0.2506496E-01  0.3716214E+00  0.2187643E-03 -0.9913074E-01  0.1574279E-02  0.1231734E-01
4943333.  0.2220376E-01  0.6241692E+00  0.7613705E-03 -0.8963568E-01  0.1501715E-02  0.1300098E-01
4906852.  0.1796919E-01  0.8493284E+00  0.1237403E-02 -0.7600524E-01  0.1425697E-02  0.1352226E-01
4870370.  0.1255087E-01  0.1035866E+01  0.1625451E-02 -0.5904884E-01  0.1347190E-02  0.1386806E-01
4833889.  0.6197363E-02  0.1174721E+01  0.1909110E-02 -0.3971344E-01  0.1267219E-02  0.1403357E-01
4797407. -0.7985483E-03  0.1259279E+01  0.2077652E-02 -0.1901084E-01  0.1186818E-02  0.1401786E-01
4760926. -0.8112685E-02  0.1285514E+01  0.2126192E-02  0.2028082E-02  0.1107023E-02  0.1382394E-01
4724444. -0.1540707E-01  0.1252358E+01  0.2055695E-02  0.2240429E-01  0.1028829E-02  0.1345930E-01
4687963. -0.2234448E-01  0.1161380E+01  0.1872637E-02  0.4120009E-01  0.9531836E-03  0.1293699E-01
4651482. -0.2860470E-01  0.1016731E+01  0.1588417E-02  0.5761581E-01  0.8809402E-03  0.1227386E-01
4615000. -0.3389823E-01  0.8249385E+00  0.1218589E-02  0.7100327E-01  0.8128581E-03  0.1148621E-01
4578518. -0.3797812E-01  0.5943761E+00  0.7819606E-03  0.8088209E-01  0.7495865E-03  0.1059772E-01
4542037. -0.4065008E-01  0.3349677E+00  0.2995752E-03  0.8695555E-01  0.6916402E-03  0.9629835E-02
4505556. -0.4177993E-01  0.5761721E-01 -0.2063876E-03  0.8911335E-01  0.6394199E-03  0.8601907E-02
4469074. -0.4129737E-01 -0.2262918E+00 -0.7136178E-03  0.8741832E-01  0.5931887E-03  0.7541209E-02
4432593. -0.3919771E-01 -0.5053399E+00 -0.1200614E-02  0.8210198E-01  0.5530897E-03  0.6462768E-02
4396111. -0.3554018E-01 -0.7686337E+00 -0.1647668E-02  0.7353533E-01  0.5191762E-03  0.5383826E-02
4359630. -0.3044451E-01 -0.1006119E+01 -0.2037489E-02  0.6220583E-01  0.4913961E-03  0.4322592E-02
4323148. -0.2408375E-01 -0.1209115E+01 -0.2355898E-02  0.4869139E-01  0.4696297E-03  0.3284022E-02
4286667. -0.1667711E-01 -0.1370427E+01 -0.2592158E-02  0.3362444E-01  0.4537278E-03  0.2275400E-02
4250185. -0.8479222E-02 -0.1484672E+01 -0.2739272E-02  0.1766414E-01  0.4435115E-03  0.1297425E-02
4213704.  0.2292446E-03 -0.1548426E+01 -0.2794008E-02  0.1467557E-02  0.4388228E-03  0.3433801E-03
4177222.  0.9154268E-02 -0.1560128E+01 -0.2756821E-02 -0.1434169E-01  0.4395537E-03 -0.5978946E-03
4140741.  0.1799758E-01 -0.1520205E+01 -0.2631604E-02 -0.2919026E-01  0.4456778E-03 -0.1543662E-02
4104259.  0.2646969E-01 -0.1430896E+01 -0.2425310E-02 -0.4258187E-01  0.4572849E-03 -0.2517877E-02
4067778.  0.3429740E-01 -0.1295973E+01 -0.2147515E-02 -0.5410532E-01  0.4746347E-03 -0.3555589E-02
4031296.  0.4123447E-01 -0.1120734E+01 -0.1809847E-02 -0.6344728E-01  0.4981919E-03 -0.4692210E-02
3994815.  0.4706755E-01 -0.9115672E+00 -0.1425468E-02 -0.7039732E-01  0.5286512E-03 -0.5976527E-02
3958333.  0.5162285E-01 -0.6756505E+00 -0.1008412E-02 -0.7484642E-01  0.5670447E-03 -0.7473475E-02
3921852.  0.5476918E-01 -0.4208140E+00 -0.5731051E-03 -0.7678147E-01  0.6147614E-03 -0.9245339E-02
3885370.  0.5642122E-01 -0.1550508E+00 -0.1337370E-03 -0.7628073E-01  0.6736193E-03 -0.1138098E-01
3848889.  0.5653932E-01  0.1136348E+00  0.2961334E-03 -0.7349987E-01  0.7459939E-03 -0.1398465E-01
3812407.  0.5512889E-01  0.3775770E+00  0.7040713E-03 -0.6865752E-01  0.8348882E-03 -0.1717283E-01
3775926.  0.5223806E-01  0.6295808E+00  0.1079007E-02 -0.6202548E-01  0.9440802E-03 -0.2110350E-01
3739444.  0.4795384E-01  0.8632213E+00  0.1411570E-02 -0.5390658E-01  0.1078334E-02 -0.2595753E-01
3702963.  0.4239798E-01  0.1072917E+01  0.1694139E-02 -0.4462086E-01  0.1243537E-02 -0.3195757E-01
3666482.  0.3572144E-01  0.1253963E+01  0.1920976E-02 -0.3449468E-01  0.1447059E-02 -0.3939395E-01
3630000.  0.2809881E-01  0.1402773E+01  0.2088171E-02 -0.2383702E-01  0.1698086E-02 -0.4861241E-01
3630000.  0.2809881E-01  0.1402773E+01  0.2088171E-02 -0.2383702E-01  0.1698086E-02 -0.4861241E-01
3592500.  0.1948059E-01  0.1519263E+01  0.2195551E-02 -0.1262980E-01  0.2017665E-02 -0.6041476E-01
3555000.  0.1029027E-01  0.1596943E+01  0.2236877E-02 -0.1433264E-02  0.2415094E-02 -0.7517803E-01
3517500.  0.7592590E-03  0.1634942E+01  0.2212866E-02  0.9540766E-02  0.2909979E-02 -0.9367453E-01
3480000. -0.8877875E-02  0.1633016E+01  0.2125296E-02  0.2014402E-01  0.3527092E-02 -0.1168960E+00
3480000. -0.8877875E-02  0.2250075E+00 -0.1976401E-02 -0.1259979E-01  0.3527092E-02 -0.8858544E-01
3409422. -0.1076866E-01  0.1188478E+00 -0.1812247E-02 -0.1671453E-01  0.4155508E-02 -0.2880490E-01
3338844. -0.1157736E-01  0.3050541E-01 -0.1612839E-02 -0.1900139E-01  0.4242062E-02  0.1015735E-01
3268266. -0.1152267E-01 -0.3678818E-01 -0.1397004E-02 -0.1973267E-01  0.3988492E-02  0.3337762E-01
3197688. -0.1084031E-01 -0.8302492E-01 -0.1180145E-02 -0.1924481E-01  0.3544827E-02  0.4512263E-01
3127109. -0.9753061E-02 -0.1103688E+00 -0.9738233E-03 -0.1788657E-01  0.3018112E-02  0.4889132E-01
3056531. -0.8452367E-02 -0.1221794E+00 -0.7858609E-03 -0.1598121E-01  0.2480687E-02  0.4746445E-01
2985953. -0.7089381E-02 -0.1222513E+00 -0.6207421E-03 -0.1380338E-01  0.1977742E-02  0.4297098E-01
2915375. -0.5773473E-02 -0.1142617E+00 -0.4802350E-03 -0.1156876E-01  0.1534134E-02  0.3696870E-01
2844797. -0.4575619E-02 -0.1014240E+00 -0.3640525E-03 -0.9433017E-02  0.1160206E-02  0.3053572E-01
2774219. -0.3534607E-02 -0.8631956E-01 -0.2704943E-03 -0.7496849E-02  0.8565809E-03  0.2436454E-01
2703641. -0.2664371E-02 -0.7085581E-01 -0.1970096E-03 -0.5814748E-02  0.6179263E-03  0.1885203E-01
2633062. -0.1961246E-02 -0.5631369E-01 -0.1406513E-03 -0.4405451E-02  0.4357697E-03  0.1418038E-01
2562484. -0.1410439E-02 -0.4344608E-01 -0.9841709E-04 -0.3262201E-02  0.3004921E-03  0.1038607E-01
2491906. -0.9911767E-03 -0.3259375E-01 -0.6747652E-04 -0.2361691E-02  0.2026116E-03  0.7414537E-02
2421328. -0.6806506E-03 -0.2380431E-01 -0.4531357E-04 -0.1671729E-02  0.1335577E-03  0.5162155E-02
2350750. -0.4566620E-03 -0.1693582E-01 -0.2979102E-04 -0.1156910E-02  0.8603793E-04  0.3505814E-02
2280172. -0.2992332E-03 -0.1174152E-01 -0.1916285E-04 -0.7825353E-03  0.5413794E-04  0.2322386E-02
2209594. -0.1914009E-03 -0.7932683E-02 -0.1205137E-04 -0.5171169E-03  0.3325141E-04  0.1500169E-02
2139016. -0.1194269E-03 -0.5221453E-02 -0.7403584E-05 -0.3336510E-03  0.1991834E-04  0.9444630E-03
2068438. -0.7263001E-04 -0.3346833E-02 -0.4438587E-05 -0.2100312E-03  0.1162516E-04  0.5791057E-03
1997859. -0.4300706E-04 -0.2087586E-02 -0.2593836E-05 -0.1288711E-03  0.6602941E-05  0.3455081E-03
1927281. -0.2476600E-04 -0.1265989E-02 -0.1475609E-05 -0.7698912E-04  0.3644926E-05  0.2003572E-03
1856703. -0.1385004E-04 -0.7455762E-03 -0.8159721E-06 -0.4472362E-04  0.1952421E-05  0.1127749E-03
1786125. -0.7509648E-05 -0.4258197E-03 -0.4378328E-06 -0.2522445E-04  0.1013016E-05  0.6151736E-04
1715547. -0.3940553E-05 -0.2354514E-03 -0.2275146E-06 -0.1378901E-04  0.5080732E-06  0.3246133E-04
1644969. -0.1997028E-05 -0.1257783E-03 -0.1142222E-06 -0.7292199E-05  0.2457361E-06  0.1653514E-04
1574391. -0.9757412E-06 -0.6471078E-04 -0.5522252E-07 -0.3725082E-05  0.1142878E-06  0.8111780E-05
1503812. -0.4601761E-06 -0.3182245E-04 -0.2553341E-07 -0.1841449E-05  0.5091075E-07  0.3824030E-05
1433234. -0.2139258E-06 -0.1445673E-04 -0.1097617E-07 -0.9021867E-06  0.2155981E-07  0.1731254E-05
1362656. -0.1122818E-06 -0.4622761E-05 -0.3562007E-08 -0.5083274E-06  0.8480844E-08  0.7573760E-06
1292078. -0.1069445E-06  0.4073414E-05  0.1799902E-08 -0.5361872E-06  0.2813823E-08  0.3238446E-06
1221500. -0.2345549E-06  0.2202436E-04  0.1083567E-07 -0.1279808E-05  0.5542396E-09  0.9340406E-07
1221500. -0.2345549E-06  0.4996749E-05  0.2908963E-08  0.1238545E-05  0.5542396E-09  0.1950142E-06
1183328. -0.2351193E-06 -0.3677095E-05 -0.2135074E-08  0.5142770E-06 -0.1563826E-09  0.6078459E-07
1145156. -0.2009425E-06 -0.7079738E-05 -0.3915867E-08  0.1235023E-06 -0.3309121E-09  0.6309697E-08
1106984. -0.1560400E-06 -0.7570997E-05 -0.4020450E-08 -0.6282353E-07 -0.3038798E-09 -0.1147522E-07
1068812. -0.1129832E-06 -0.6657756E-05 -0.3396060E-08 -0.1314161E-06 -0.2230518E-09 -0.1404722E-07
1030641. -0.7723552E-07 -0.5242484E-05 -0.2567486E-08 -0.1382705E-06 -0.1455162E-09 -0.1144385E-07
 992469. -0.5016667E-07 -0.3816484E-05 -0.1793071E-08 -0.1176166E-06 -0.8759780E-10 -0.7912464E-08
 954297. -0.3105974E-07 -0.2606771E-05 -0.1173657E-08 -0.8882140E-07 -0.4948152E-10 -0.4953222E-08
 916125. -0.1835326E-07 -0.1682791E-05 -0.7251537E-09 -0.6160408E-07 -0.2644278E-10 -0.2881086E-08
 877953. -0.1035012E-07 -0.1030298E-05 -0.4243270E-09 -0.3984175E-07 -0.1341919E-10 -0.1575685E-08
 839781. -0.5564834E-08 -0.5990050E-06 -0.2353969E-09 -0.2419969E-07 -0.6475006E-11 -0.8147982E-09
 801609. -0.2847306E-08 -0.3306004E-06 -0.1237397E-09 -0.1384723E-07 -0.2969177E-11 -0.3992247E-09
 763438. -0.1382826E-08 -0.1729594E-06 -0.6153067E-10 -0.7468661E-08 -0.1291590E-11 -0.1853165E-09
 725266. -0.6352831E-09 -0.8555752E-07 -0.2886298E-10 -0.3792584E-08 -0.5313868E-12 -0.8134474E-10
 687094. -0.2749210E-09 -0.3987881E-07 -0.1272419E-10 -0.1808520E-08 -0.2059375E-12 -0.3366378E-10
 648922. -0.1114916E-09 -0.1743585E-07 -0.5246390E-11 -0.8067247E-09 -0.7478427E-13 -0.1307397E-10
 610750. -0.4210480E-10 -0.7110584E-08 -0.2010980E-11 -0.3348764E-09 -0.2528239E-13 -0.4737585E-11
 572578. -0.1469394E-10 -0.2685830E-08 -0.7112496E-12 -0.1284986E-09 -0.7893156E-14 -0.1590047E-11
 534406. -0.4694340E-11 -0.9315032E-09 -0.2299775E-12 -0.4519603E-10 -0.2253108E-14 -0.4897084E-12
 496234. -0.1357039E-11 -0.2934415E-09 -0.6720567E-13 -0.1441704E-10 -0.5808574E-15 -0.1368113E-12
 458062. -0.3498520E-12 -0.8283011E-10 -0.1749533E-13 -0.4115224E-11 -0.1331768E-15 -0.3417372E-13
 419891. -0.7897196E-13 -0.2059180E-10 -0.3983760E-14 -0.1033276E-11 -0.2663115E-16 -0.7492659E-14
 381719. -0.1524053E-13 -0.4408554E-11 -0.7748049E-15 -0.2231764E-12 -0.4528837E-17 -0.1407985E-14
 343547. -0.2437023E-14 -0.7891568E-12 -0.1247468E-15 -0.4026225E-13 -0.6335011E-18 -0.2197558E-15
 305375. -0.3095297E-15 -0.1134626E-12 -0.1593571E-16 -0.5826385E-14 -0.6972544E-19 -0.2717880E-16
 267203.  0.0000000E+00  0.0000000E+00  0.0000000E+00  0.0000000E+00  0.0000000E+00  0.0000000E+00
 229031.  0.0000000E+00  0.0000000E+00  0.0000000E+00  0.0000000E+00  0.0000000E+00  0.0000000E+00
 190859.  0.0000000E+00  0.0000000E+00  0.0000000E+00  0.0000000E+00  0.0000000E+00  0.0000000E+00
 152688.  0.0000000E+00  0.0000000E+00  0.0000000E+00  0.0000000E+00  0.0000000E+00  0.0000000E+00
 114516.  0.0000000E+00  0.0000000E+00  0.0000000E+00  0.0000000E+00  0.0000000E+00  0.0000000E+00
  76344.  0.0000000E+00  0.0000000E+00  0.0000000E+00  0.0000000E+00  0.0000000E+00  0.0000000E+00
  38172.  0.0000000E+00  0.0000000E+00  0.0000000E+00  0.0000000E+00  0.0000000E+00  0.0000000E+00
      0.  0.0000000E+00  0.0000000E+00  0.0000000E+00  0.0000000E+00  0.0000000E+00  0.0000000E+00
