      13       19 S      597        102.50490         20.02664         11.68539        490.71420      185    7
6371000.  0.4392966E-01 -0.1201178E+00 -0.5731913E-03 -0.4450285E-01 -0.1330374E-03 -0.8018032E-01
6370000.  0.4394597E-01 -0.8768590E-01 -0.5661057E-03 -0.4577744E-01 -0.1204554E-03 -0.8013859E-01
6369000.  0.4395719E-01 -0.5518204E-01 -0.5588221E-03 -0.4702524E-01 -0.1078805E-03 -0.8008877E-01
6368000.  0.4396329E-01 -0.2261085E-01 -0.5513448E-03 -0.4824578E-01 -0.9531411E-04 -0.8003087E-01
6368000.  0.4396329E-01 -0.2261085E-01 -0.5513448E-03 -0.4824578E-01 -0.9531411E-04 -0.8003087E-01
6367000.  0.4396428E-01  0.1002302E-01 -0.5436781E-03 -0.4943864E-01 -0.8275744E-04 -0.7996488E-01
6366000.  0.4396014E-01  0.4271486E-01 -0.5358264E-03 -0.5060336E-01 -0.7021176E-04 -0.7989082E-01
6365000.  0.4395087E-01  0.7545996E-01 -0.5277941E-03 -0.5173954E-01 -0.5767834E-04 -0.7980869E-01
6364000.  0.4393645E-01  0.1082536E+00 -0.5195857E-03 -0.5284674E-01 -0.4515844E-04 -0.7971849E-01
6363000.  0.4391688E-01  0.1410909E+00 -0.5112059E-03 -0.5392457E-01 -0.3265334E-04 -0.7962023E-01
6362000.  0.4389216E-01  0.1739673E+00 -0.5026591E-03 -0.5497264E-01 -0.2016429E-04 -0.7951391E-01
6361000.  0.4386227E-01  0.2068777E+00 -0.4939503E-03 -0.5599057E-01 -0.7692553E-05 -0.7939955E-01
6360000.  0.4382721E-01  0.2398175E+00 -0.4850840E-03 -0.5697800E-01  0.4760597E-05 -0.7927715E-01
6359000.  0.4378698E-01  0.2727818E+00 -0.4760652E-03 -0.5793456E-01  0.1719390E-04 -0.7914673E-01
6358000.  0.4374158E-01  0.3057656E+00 -0.4668987E-03 -0.5885993E-01  0.2960611E-04 -0.7900828E-01
6357000.  0.4369099E-01  0.3387641E+00 -0.4575894E-03 -0.5975375E-01  0.4199596E-04 -0.7886183E-01
6356000.  0.4363523E-01  0.3717724E+00 -0.4481423E-03 -0.6061572E-01  0.5436219E-04 -0.7870739E-01
6356000.  0.4363523E-01  0.2199170E+00 -0.4481423E-03 -0.5410346E-01  0.5436219E-04 -0.8820191E-01
6355000.  0.4359883E-01  0.2439698E+00 -0.4396068E-03 -0.5465318E-01  0.6819636E-04 -0.8807205E-01
6354000.  0.4355865E-01  0.2680329E+00 -0.4309865E-03 -0.5518327E-01  0.8200968E-04 -0.8793613E-01
6353000.  0.4351468E-01  0.2921035E+00 -0.4222846E-03 -0.5569363E-01  0.9580117E-04 -0.8779416E-01
6352000.  0.4346695E-01  0.3161790E+00 -0.4135041E-03 -0.5618415E-01  0.1095699E-03 -0.8764615E-01
6351000.  0.4341543E-01  0.3402566E+00 -0.4046481E-03 -0.5665469E-01  0.1233150E-03 -0.8749210E-01
6350000.  0.4336013E-01  0.3643338E+00 -0.3957199E-03 -0.5710515E-01  0.1370353E-03 -0.8733203E-01
6349000.  0.4330106E-01  0.3884077E+00 -0.3867226E-03 -0.5753544E-01  0.1507301E-03 -0.8716594E-01
6348000.  0.4323820E-01  0.4124758E+00 -0.3776593E-03 -0.5794543E-01  0.1643984E-03 -0.8699384E-01
6347000.  0.4317157E-01  0.4365353E+00 -0.3685333E-03 -0.5833505E-01  0.1780391E-03 -0.8681575E-01
6346600.  0.4314386E-01  0.4461561E+00 -0.3648660E-03 -0.5848517E-01  0.1834875E-03 -0.8674284E-01
6346600.  0.4314386E-01  0.2325772E+00 -0.3648660E-03 -0.5367428E-01  0.1834875E-03 -0.1017865E+00
6318800.  0.4105239E-01  0.7250373E+00 -0.1220819E-03 -0.5559947E-01  0.6167509E-03 -0.9620757E-01
6291000.  0.3685128E-01  0.1193550E+01  0.1031268E-03 -0.4574299E-01  0.1018054E-02 -0.8716711E-01
6291000.  0.3685128E-01  0.1209110E+01  0.1031268E-03 -0.4602570E-01  0.1018054E-02 -0.8716711E-01
6263000.  0.3059061E-01  0.1626710E+01  0.2626642E-03 -0.2503497E-01  0.1374719E-02 -0.7461746E-01
6235000.  0.2269173E-01  0.1949764E+01  0.3125865E-03  0.3145637E-02  0.1669660E-02 -0.5915921E-01
6207000.  0.1362728E-01  0.2153915E+01  0.2314291E-03  0.3375684E-01  0.1891267E-02 -0.4134893E-01
6179000.  0.3953644E-02  0.2225752E+01  0.2002809E-04  0.6153958E-01  0.2030657E-02 -0.2186704E-01
6151000. -0.5740598E-02  0.2164143E+01 -0.2980294E-03  0.8153298E-01  0.2082161E-02 -0.1490660E-02
6151000. -0.5740598E-02  0.1737002E+01 -0.2980294E-03  0.7238275E-01  0.2082161E-02 -0.1173059E-02
6128500. -0.1162674E-01  0.1588720E+01 -0.5659210E-03  0.7822140E-01  0.2062995E-02  0.1198433E-01
6106000. -0.1691445E-01  0.1400086E+01 -0.8423976E-03  0.7717482E-01  0.1997967E-02  0.2475621E-01
6083500. -0.2148297E-01  0.1183572E+01 -0.1102759E-02  0.6912572E-01  0.1888880E-02  0.3689632E-01
6061000. -0.2525663E-01  0.9520741E+00 -0.1322942E-02  0.5454704E-01  0.1738369E-02  0.4817922E-01
6038500. -0.2820472E-01  0.7180225E+00 -0.1481525E-02  0.3445053E-01  0.1549826E-02  0.5840282E-01
6016000. -0.3033837E-01  0.4925476E+00 -0.1561480E-02  0.1029178E-01  0.1327310E-02  0.6739129E-01
5993500. -0.3170471E-01  0.2848220E+00 -0.1551517E-02 -0.1615660E-01  0.1075452E-02  0.7499775E-01
5971000. -0.3237910E-01  0.1015822E+00 -0.1446952E-02 -0.4295316E-01  0.7993494E-03  0.8110414E-01
5971000. -0.3237910E-01  0.7539438E-01 -0.1446952E-02 -0.3458517E-01  0.7993494E-03  0.8534285E-01
5937667. -0.3217200E-01 -0.1426751E+00 -0.1182222E-02 -0.6552410E-01  0.3335413E-03  0.9215260E-01
5904333. -0.3100627E-01 -0.2921067E+00 -0.7756162E-03 -0.8830790E-01 -0.1590750E-03  0.9559850E-01
5871000. -0.2921767E-01 -0.3830244E+00 -0.2762899E-03 -0.1007516E+00 -0.6611745E-03  0.9581388E-01
5837667. -0.2707375E-01 -0.4307241E+00  0.2596356E-03 -0.1023435E+00 -0.1156424E-02  0.9302428E-01
5804333. -0.2475612E-01 -0.4522154E+00  0.7772871E-03 -0.9401765E-01 -0.1629866E-02  0.8752657E-01
5771000. -0.2235960E-01 -0.4633353E+00  0.1229608E-02 -0.7777609E-01 -0.2068204E-02  0.7967284E-01
5771000. -0.2235960E-01 -0.4633155E+00  0.1229608E-02 -0.7777270E-01 -0.2068204E-02  0.7967284E-01
5701000. -0.1683770E-01 -0.5503387E+00  0.1857650E-02 -0.3338873E-01 -0.2818878E-02  0.5569077E-01
5701000. -0.1683770E-01 -0.4177159E+00  0.1857650E-02 -0.2204170E-01 -0.2818878E-02  0.6043671E-01
5667333. -0.1454147E-01 -0.4582255E+00  0.1912202E-02  0.2308417E-03 -0.3103412E-02  0.4720026E-01
5633667. -0.1192415E-01 -0.5365413E+00  0.1863232E-02  0.1787898E-01 -0.3316998E-02  0.3354371E-01
5600000. -0.8859249E-02 -0.6239536E+00  0.1728112E-02  0.3267543E-01 -0.3457021E-02  0.1939817E-01
5600000. -0.8859249E-02 -0.6239536E+00  0.1728112E-02  0.3267543E-01 -0.3457021E-02  0.1939817E-01
5563518. -0.5007302E-02 -0.7210673E+00  0.1505271E-02  0.4432482E-01 -0.3523728E-02  0.3899549E-02
5527037. -0.6154563E-03 -0.8107516E+00  0.1230511E-02  0.5074378E-01 -0.3502016E-02 -0.1142486E-01
5490556.  0.4242295E-02 -0.8819576E+00  0.9343683E-03  0.5182434E-01 -0.3393875E-02 -0.2623378E-01
5454074.  0.9429608E-02 -0.9242187E+00  0.6463426E-03  0.4802779E-01 -0.3203151E-02 -0.4021885E-01
5417593.  0.1475549E-01 -0.9292223E+00  0.3918326E-03  0.4031453E-01 -0.2935367E-02 -0.5310968E-01
5381111.  0.1998921E-01 -0.8913275E+00  0.1896408E-03  0.2999183E-01 -0.2597433E-02 -0.6468451E-01
5344630.  0.2487747E-01 -0.8086321E+00  0.5045303E-04  0.1857045E-01 -0.2197431E-02 -0.7476591E-01
5308148.  0.2916815E-01 -0.6832227E+00 -0.2388500E-04  0.7589630E-02 -0.1744285E-02 -0.8322548E-01
5271667.  0.3263125E-01 -0.5208966E+00 -0.3999171E-04 -0.1553489E-02 -0.1247549E-02 -0.8998612E-01
5235185.  0.3508070E-01 -0.3309429E+00 -0.1178032E-04 -0.7730159E-02 -0.7170454E-03 -0.9501178E-01
5198704.  0.3639102E-01 -0.1251607E+00  0.4141792E-04 -0.1019272E-01 -0.1627422E-03 -0.9830932E-01
5162222.  0.3650912E-01  0.8319309E-01  0.9725306E-04 -0.8637037E-02  0.4056288E-03 -0.9993040E-01
5125741.  0.3545941E-01  0.2805042E+00  0.1328986E-03 -0.3201127E-02  0.9786325E-03 -0.9994768E-01
5089259.  0.3334210E-01  0.4540798E+00  0.1275546E-03  0.5554214E-02  0.1547408E-02 -0.9846829E-01
5052778.  0.3032522E-01  0.5931565E+00  0.6467461E-04  0.1672058E-01  0.2103718E-02 -0.9562160E-01
5016296.  0.2662998E-01  0.6899531E+00 -0.6636616E-04  0.2915506E-01  0.2640155E-02 -0.9154666E-01
4979815.  0.2251301E-01  0.7400724E+00 -0.2692075E-03  0.4158453E-01  0.3150095E-02 -0.8639866E-01
4943333.  0.1824480E-01  0.7429743E+00 -0.5401790E-03  0.5274595E-01  0.3627878E-02 -0.8033647E-01
4906852.  0.1408832E-01  0.7019109E+00 -0.8686728E-03  0.6150442E-01  0.4068697E-02 -0.7351942E-01
4870370.  0.1027808E-01  0.6233434E+00 -0.1238192E-02  0.6694318E-01  0.4468715E-02 -0.6610826E-01
4833889.  0.7003335E-02  0.5166541E+00 -0.1627830E-02  0.6846421E-01  0.4824954E-02 -0.5825706E-01
4797407.  0.4393584E-02  0.3929924E+00 -0.2014291E-02  0.6581698E-01  0.5135336E-02 -0.5011268E-01
4760926.  0.2512285E-02  0.2642656E+00 -0.2373813E-02  0.5910759E-01  0.5398573E-02 -0.4181600E-01
4724444.  0.1353855E-02  0.1424096E+00 -0.2684325E-02  0.4879876E-01  0.5614183E-02 -0.3349614E-01
4687963.  0.8477511E-03  0.3804949E-01 -0.2927217E-02  0.3563754E-01  0.5782369E-02 -0.2527276E-01
4651482.  0.8680381E-03 -0.4020663E-01 -0.3088848E-02  0.2059224E-01  0.5904004E-02 -0.1725430E-01
4615000.  0.1246554E-02 -0.8632118E-01 -0.3161553E-02  0.4765476E-02  0.5980547E-02 -0.9537471E-02
4578518.  0.1789575E-02 -0.9745926E-01 -0.3144104E-02 -0.1070767E-01  0.6013972E-02 -0.2207928E-02
4542037.  0.2296262E-02 -0.7394639E-01 -0.3041670E-02 -0.2474831E-01  0.6006714E-02  0.4660306E-02
4505556.  0.2576446E-02 -0.1916659E-01 -0.2865208E-02 -0.3642452E-01  0.5961599E-02  0.1100589E-01
4469074.  0.2467789E-02  0.6064148E-01 -0.2630435E-02 -0.4501292E-01  0.5881765E-02  0.1677838E-01
4432593.  0.1849668E-02  0.1572767E+00 -0.2356493E-02 -0.5005462E-01  0.5770615E-02  0.2193910E-01
4396111.  0.6527902E-03  0.2610786E+00 -0.2064310E-02 -0.5137609E-01  0.5631728E-02  0.2646174E-01
4359630. -0.1134242E-02  0.3617135E+00 -0.1775029E-02 -0.4908537E-01  0.5468816E-02  0.3032985E-01
4323148. -0.3464863E-02  0.4493397E+00 -0.1508349E-02 -0.4356277E-01  0.5285639E-02  0.3353845E-01
4286667. -0.6238243E-02  0.5150139E+00 -0.1281171E-02 -0.3540599E-01  0.5085971E-02  0.3609301E-01
4250185. -0.9307267E-02  0.5515707E+00 -0.1106443E-02 -0.2537973E-01  0.4873510E-02  0.3800801E-01
4213704. -0.1249019E-01  0.5542289E+00 -0.9924216E-03 -0.1435331E-01  0.4651869E-02  0.3930553E-01
4177222. -0.1558518E-01  0.5206716E+00 -0.9422664E-03 -0.3220314E-02  0.4424487E-02  0.4001692E-01
4140741. -0.1838484E-01  0.4514345E+00 -0.9540957E-03  0.7159221E-02  0.4194634E-02  0.4017698E-01
4104259. -0.2069304E-01  0.3497148E+00 -0.1021361E-02  0.1602634E-01  0.3965343E-02  0.3982519E-01
4067778. -0.2233821E-01  0.2209795E+00 -0.1133577E-02  0.2277348E-01  0.3739430E-02  0.3900718E-01
4031296. -0.2318657E-01  0.7278765E-01 -0.1277304E-02  0.2697771E-01  0.3519432E-02  0.3776347E-01
3994815. -0.2315159E-01 -0.8599665E-01 -0.1437257E-02  0.2842381E-01  0.3307679E-02  0.3613731E-01
3958333. -0.2219971E-01 -0.2458287E+00 -0.1597542E-02  0.2710911E-01  0.3106221E-02  0.3417191E-01
3921852. -0.2035289E-01 -0.3970133E+00 -0.1742815E-02  0.2322998E-01  0.2916916E-02  0.3189927E-01
3885370. -0.1768679E-01 -0.5305445E+00 -0.1859387E-02  0.1715879E-01  0.2741425E-02  0.2935049E-01
3848889. -0.1432574E-01 -0.6385935E+00 -0.1936116E-02  0.9409781E-02  0.2581266E-02  0.2654800E-01
3812407. -0.1043392E-01 -0.7150396E+00 -0.1965109E-02  0.5924603E-03  0.2437853E-02  0.2350153E-01
3775926. -0.6205148E-02 -0.7558287E+00 -0.1942131E-02 -0.8629349E-02  0.2312578E-02  0.2021341E-01
3739444. -0.1849551E-02 -0.7592006E+00 -0.1866786E-02 -0.1758868E-01  0.2206848E-02  0.1667009E-01
3702963.  0.2418987E-02 -0.7257546E+00 -0.1742404E-02 -0.2565816E-01  0.2122205E-02  0.1284330E-01
3666482.  0.6396898E-02 -0.6583487E+00 -0.1575709E-02 -0.3228318E-01  0.2060391E-02  0.8686969E-02
3630000.  0.9903032E-02 -0.5619155E+00 -0.1376302E-02 -0.3701763E-01  0.2023472E-02  0.4135194E-02
3630000.  0.9903032E-02 -0.5619155E+00 -0.1376302E-02 -0.3701763E-01  0.2023472E-02  0.4135194E-02
3592500.  0.1285991E-01 -0.4395537E+00 -0.1149681E-02 -0.3957346E-01  0.2014118E-02 -0.1052551E-02
3555000.  0.1504810E-01 -0.3022697E+00 -0.9154401E-03 -0.3958588E-01  0.2037127E-02 -0.6885641E-02
3517500.  0.1640783E-01 -0.1597131E+00 -0.6887788E-03 -0.3700047E-01  0.2096768E-02 -0.1353173E-01
3480000.  0.1693770E-01 -0.2198366E-01 -0.4848171E-03 -0.3189622E-01  0.2198446E-02 -0.2121035E-01
3480000.  0.1693770E-01  0.7583424E-01 -0.2025720E-03  0.3138338E-01  0.2198446E-02 -0.7522278E-01
3409422.  0.1515510E-01  0.2363534E+00 -0.5420742E-03  0.2933920E-01  0.3068961E-02 -0.7889640E-01
3338844.  0.1193063E-01  0.3351579E+00 -0.8418132E-03  0.2437827E-01  0.3890050E-02 -0.6729937E-01
3268266.  0.7957675E-02  0.3724460E+00 -0.1075539E-02  0.1761346E-01  0.4525817E-02 -0.4641394E-01
3197688.  0.3870597E-02  0.3579369E+00 -0.1229548E-02  0.1016339E-01  0.4904395E-02 -0.2169910E-01
3127109.  0.1638701E-03  0.3064450E+00 -0.1301758E-02  0.2985669E-02  0.5008761E-02  0.2471969E-02
3056531. -0.2841979E-02  0.2340201E+00 -0.1299334E-02 -0.3217528E-02  0.4862977E-02  0.2307391E-01
2985953. -0.4997471E-02  0.1550865E+00 -0.1235641E-02 -0.8029533E-02  0.4517038E-02  0.3843347E-01
2915375. -0.6295646E-02  0.8077759E-01 -0.1127157E-02 -0.1129805E-01  0.4032792E-02  0.4804129E-01
2844797. -0.6831463E-02  0.1833478E-01 -0.9908158E-03 -0.1308331E-01  0.3472597E-02  0.5226154E-01
2774219. -0.6759113E-02 -0.2870761E-01 -0.8420098E-03 -0.1359118E-01  0.2891422E-02  0.5201161E-01
2703641. -0.6254478E-02 -0.5982582E-01 -0.6933574E-03 -0.1310640E-01  0.2332391E-02  0.4846817E-01
2633062. -0.5486705E-02 -0.7660236E-01 -0.5541508E-03 -0.1193612E-01  0.1825257E-02  0.4283384E-01
2562484. -0.4599989E-02 -0.8182219E-01 -0.4303633E-03 -0.1036754E-01  0.1387100E-02  0.3617792E-01
2491906. -0.3704630E-02 -0.7870194E-01 -0.3250233E-03 -0.8640988E-02  0.1024310E-02  0.2934779E-01
2421328. -0.2875601E-02 -0.7032936E-01 -0.2388187E-03 -0.6938063E-02  0.7352792E-03  0.2294048E-01
2350750. -0.2156084E-02 -0.5931574E-01 -0.1707595E-03 -0.5380650E-02  0.5131221E-03  0.1731684E-01
2280172. -0.1563760E-02 -0.4764098E-01 -0.1188093E-03 -0.4037284E-02  0.3480889E-03  0.1264104E-01
2209594. -0.1097999E-02 -0.3663782E-01 -0.8041914E-04 -0.2933970E-02  0.2294687E-03  0.8931102E-02
2139016. -0.7466574E-03 -0.2706982E-01 -0.5293208E-04 -0.2066189E-02  0.1469251E-03  0.6109389E-02
2068438. -0.4917275E-03 -0.1925501E-01 -0.3385719E-04 -0.1410246E-02  0.9130543E-04  0.4046314E-02
1997859. -0.3135159E-03 -0.1320097E-01 -0.2102745E-04 -0.9326941E-03  0.5502031E-04  0.2593840E-02
1927281. -0.1933974E-03 -0.8727309E-02 -0.1266709E-04 -0.5974236E-03  0.3211363E-04  0.1608335E-02
1856703. -0.1153150E-03 -0.5563358E-02 -0.7392111E-05 -0.3703134E-03  0.1813017E-04  0.9637201E-03
1786125. -0.6637820E-04 -0.3417756E-02 -0.4172602E-05 -0.2218809E-03  0.9884655E-05  0.5573547E-03
1715547. -0.3682966E-04 -0.2021494E-02 -0.2274168E-05 -0.1283278E-03  0.5194565E-05  0.3106346E-03
1644969. -0.1966012E-04 -0.1149557E-02 -0.1194304E-05 -0.7151905E-04  0.2625485E-05  0.1665294E-03
1574391. -0.1007448E-04 -0.6273625E-03 -0.6028763E-06 -0.3832899E-04  0.1273002E-05  0.8568088E-04
1503812. -0.4943057E-05 -0.3277854E-03 -0.2916687E-06 -0.1970657E-04  0.5903304E-06  0.4219715E-04
1433234. -0.2316573E-05 -0.1633782E-03 -0.1347106E-06 -0.9699251E-05  0.2608728E-06  0.1983355E-04
1362656. -0.1037655E-05 -0.7701781E-04 -0.5892014E-07 -0.4576269E-05  0.1093050E-06  0.8870132E-05
1292078. -0.4557886E-06 -0.3289770E-04 -0.2355409E-07 -0.2131406E-05  0.4300141E-07  0.3769210E-05
1221500. -0.2377416E-06 -0.8142933E-05 -0.6182329E-08 -0.1207791E-05  0.1541758E-07  0.1524100E-05
1221500. -0.2377416E-06  0.1619964E-04  0.8051519E-08  0.1281988E-05  0.1541758E-07  0.1627091E-05
1183328. -0.3010367E-06  0.5523117E-05  0.1771724E-08  0.8309019E-06  0.8102631E-08  0.8853319E-06
1145156. -0.3106716E-06 -0.1778951E-05 -0.2094427E-08  0.4748588E-06  0.4159657E-08  0.4715844E-06
1106984. -0.2855608E-06 -0.6160222E-05 -0.4096789E-08  0.2080573E-06  0.2080768E-08  0.2454065E-06
1068812. -0.2415637E-06 -0.8185131E-05 -0.4754876E-08  0.2488466E-07  0.1011053E-08  0.1244519E-06
1030641. -0.1909206E-06 -0.8486206E-05 -0.4541894E-08 -0.8484591E-07  0.4753430E-09  0.6131108E-07
 992469. -0.1420662E-06 -0.7686475E-05 -0.3855201E-08 -0.1360002E-06  0.2151346E-09  0.2922340E-07
 954297. -0.9992358E-07 -0.6325873E-05 -0.2994784E-08 -0.1457271E-06  0.9310271E-10  0.1340771E-07
 916125. -0.6655389E-07 -0.4814335E-05 -0.2158473E-08 -0.1305124E-06  0.3816629E-10  0.5879585E-08
 877953. -0.4199379E-07 -0.3418002E-05 -0.1453264E-08 -0.1039014E-06  0.1461507E-10  0.2440879E-08
 839781. -0.2508591E-07 -0.2273503E-05 -0.9169199E-09 -0.7537842E-07  0.5107671E-11  0.9456387E-09
 801609. -0.1416638E-07 -0.1419203E-05 -0.5426382E-09 -0.5041764E-07  0.1556237E-11  0.3338194E-09
 763438. -0.7545459E-08 -0.8313655E-06 -0.3010246E-09 -0.3125724E-07  0.3660679E-12  0.1024899E-09
 725266. -0.3778792E-08 -0.4563531E-06 -0.1562259E-09 -0.1799466E-07  0.3128977E-13  0.2418477E-10
 687094. -0.1772352E-08 -0.2341105E-06 -0.7561658E-10 -0.9614443E-08 -0.3181201E-13  0.1987890E-11
 648922. -0.7747042E-09 -0.1118107E-06 -0.3398829E-10 -0.4756030E-08 -0.2689017E-13 -0.2176855E-11
 610750. -0.3136669E-09 -0.4946138E-07 -0.1410788E-10 -0.2169329E-08 -0.1412067E-13 -0.1816004E-11
 572578. -0.1167613E-09 -0.2013332E-07 -0.5369481E-11 -0.9070600E-09 -0.5935975E-14 -0.9436100E-12
 534406. -0.3959305E-10 -0.7478556E-08 -0.1857237E-11 -0.3449903E-09 -0.2118050E-14 -0.3904775E-12
 496234. -0.1209076E-10 -0.2508498E-08 -0.5772979E-12 -0.1181587E-09 -0.6517970E-15 -0.1360995E-12
 458062. -0.3277638E-11 -0.7497623E-09 -0.1589930E-12 -0.3597325E-10 -0.1727747E-15 -0.4050840E-13
 419891. -0.7745006E-12 -0.1963185E-09 -0.3810260E-13 -0.9573691E-11 -0.3899207E-16 -0.1024445E-13
 381719. -0.1557871E-12 -0.4404284E-10 -0.7760461E-14 -0.2178758E-11 -0.7342364E-17 -0.2167239E-14
 343547. -0.2585385E-13 -0.8220856E-11 -0.1302148E-14 -0.4118069E-12 -0.1119140E-17 -0.3733606E-15
 305375. -0.3392782E-14 -0.1226654E-11 -0.1725323E-15 -0.6212016E-13 -0.1322843E-18 -0.5034073E-16
 267203. -0.3316712E-15 -0.1383107E-12 -0.1700724E-16 -0.7070371E-14 -0.1139585E-19 -0.5014591E-17
 229031. -0.2213396E-16 -0.1085057E-13 -0.1142852E-17 -0.5590106E-15 -0.6537556E-21 -0.3336570E-18
 190859.  0.0000000E+00  0.0000000E+00  0.0000000E+00  0.0000000E+00  0.0000000E+00  0.0000000E+00
 152688.  0.0000000E+00  0.0000000E+00  0.0000000E+00  0.0000000E+00  0.0000000E+00  0.0000000E+00
 114516.  0.0000000E+00  0.0000000E+00  0.0000000E+00  0.0000000E+00  0.0000000E+00  0.0000000E+00
  76344.  0.0000000E+00  0.0000000E+00  0.0000000E+00  0.0000000E+00  0.0000000E+00  0.0000000E+00
  38172.  0.0000000E+00  0.0000000E+00  0.0000000E+00  0.0000000E+00  0.0000000E+00  0.0000000E+00
      0.  0.0000000E+00  0.0000000E+00  0.0000000E+00  0.0000000E+00  0.0000000E+00  0.0000000E+00
