       0       33 S       32        245.10271          4.87522          3.56164        173.50369      185    7
6371000.  0.2139366E+00 -0.2111674E+01 -0.4404015E-02 -0.2183406E+00 -0.5560506E-02 -0.2143772E+00
6370000.  0.2142648E+00 -0.2069695E+01 -0.4369739E-02 -0.2184002E+00 -0.5527005E-02 -0.2125028E+00
6369000.  0.2145863E+00 -0.2027677E+01 -0.4335455E-02 -0.2184498E+00 -0.5493797E-02 -0.2106319E+00
6368000.  0.2149013E+00 -0.1985620E+01 -0.4301164E-02 -0.2184894E+00 -0.5460882E-02 -0.2087645E+00
6368000.  0.2149013E+00 -0.1985620E+01 -0.4301164E-02 -0.2184894E+00 -0.5460882E-02 -0.2087645E+00
6367000.  0.2152096E+00 -0.1943527E+01 -0.4266866E-02 -0.2185190E+00 -0.5428261E-02 -0.2069005E+00
6366000.  0.2155114E+00 -0.1901398E+01 -0.4232566E-02 -0.2185386E+00 -0.5395931E-02 -0.2050398E+00
6365000.  0.2158065E+00 -0.1859236E+01 -0.4198263E-02 -0.2185481E+00 -0.5363894E-02 -0.2031825E+00
6364000.  0.2160951E+00 -0.1817043E+01 -0.4163960E-02 -0.2185476E+00 -0.5332148E-02 -0.2013284E+00
6363000.  0.2163770E+00 -0.1774820E+01 -0.4129657E-02 -0.2185370E+00 -0.5300692E-02 -0.1994775E+00
6362000.  0.2166522E+00 -0.1732569E+01 -0.4095356E-02 -0.2185164E+00 -0.5269527E-02 -0.1976298E+00
6361000.  0.2169208E+00 -0.1690292E+01 -0.4061060E-02 -0.2184857E+00 -0.5238652E-02 -0.1957853E+00
6360000.  0.2171828E+00 -0.1647989E+01 -0.4026769E-02 -0.2184450E+00 -0.5208065E-02 -0.1939437E+00
6359000.  0.2174382E+00 -0.1605664E+01 -0.3992486E-02 -0.2183942E+00 -0.5177768E-02 -0.1921052E+00
6358000.  0.2176869E+00 -0.1563318E+01 -0.3958211E-02 -0.2183333E+00 -0.5147759E-02 -0.1902697E+00
6357000.  0.2179289E+00 -0.1520952E+01 -0.3923947E-02 -0.2182624E+00 -0.5118038E-02 -0.1884371E+00
6356000.  0.2181644E+00 -0.1478568E+01 -0.3889694E-02 -0.2181813E+00 -0.5088605E-02 -0.1866074E+00
6356000.  0.2181644E+00 -0.1386542E+01 -0.3889694E-02 -0.2199242E+00 -0.5088605E-02 -0.2340774E+00
6355000.  0.2183794E+00 -0.1353664E+01 -0.3855220E-02 -0.2193467E+00 -0.5052017E-02 -0.2321234E+00
6354000.  0.2185893E+00 -0.1320838E+01 -0.3820836E-02 -0.2187668E+00 -0.5015735E-02 -0.2301765E+00
6353000.  0.2187940E+00 -0.1288064E+01 -0.3786544E-02 -0.2181846E+00 -0.4979759E-02 -0.2282366E+00
6352000.  0.2189936E+00 -0.1255343E+01 -0.3752343E-02 -0.2175999E+00 -0.4944086E-02 -0.2263038E+00
6351000.  0.2191881E+00 -0.1222676E+01 -0.3718235E-02 -0.2170129E+00 -0.4908717E-02 -0.2243779E+00
6350000.  0.2193775E+00 -0.1190062E+01 -0.3684218E-02 -0.2164235E+00 -0.4873649E-02 -0.2224589E+00
6349000.  0.2195617E+00 -0.1157503E+01 -0.3650294E-02 -0.2158317E+00 -0.4838882E-02 -0.2205467E+00
6348000.  0.2197409E+00 -0.1124998E+01 -0.3616464E-02 -0.2152375E+00 -0.4804414E-02 -0.2186413E+00
6347000.  0.2199149E+00 -0.1092548E+01 -0.3582727E-02 -0.2146410E+00 -0.4770244E-02 -0.2167426E+00
6346600.  0.2199831E+00 -0.1079584E+01 -0.3569258E-02 -0.2144017E+00 -0.4756660E-02 -0.2159850E+00
6346600.  0.2199831E+00 -0.1503199E+01 -0.3569258E-02 -0.2176536E+00 -0.4756660E-02 -0.2926898E+00
6318800.  0.2248490E+00 -0.7381429E+00 -0.2674564E-02 -0.1927248E+00 -0.3589506E-02 -0.2435233E+00
6291000.  0.2265204E+00 -0.3880960E-01 -0.1885031E-02 -0.1693859E+00 -0.2621415E-02 -0.2012420E+00
6291000.  0.2265204E+00 -0.6064493E-01 -0.1885031E-02 -0.1669287E+00 -0.2621415E-02 -0.2012420E+00
6263000.  0.2253333E+00  0.5895313E+00 -0.1201283E-02 -0.1443400E+00 -0.1819473E-02 -0.1645290E+00
6235000.  0.2214391E+00  0.1170997E+01 -0.6155295E-03 -0.1222831E+00 -0.1168684E-02 -0.1322899E+00
6207000.  0.2151448E+00  0.1681246E+01 -0.1260797E-03 -0.1004697E+00 -0.6515154E-03 -0.1035701E+00
6179000.  0.2067703E+00  0.2117018E+01  0.2675602E-03 -0.7864225E-01 -0.2544527E-03 -0.7749266E-01
6151000.  0.1966515E+00  0.2474294E+01  0.5648119E-03 -0.5656930E-01  0.3230242E-04 -0.5323886E-01
6151000.  0.1966515E+00  0.2012503E+01  0.5648119E-03 -0.7465469E-01  0.3230242E-04 -0.6411870E-01
6128500.  0.1891791E+00  0.2212727E+01  0.8053059E-03 -0.6164940E-01  0.2367233E-03 -0.5189857E-01
6106000.  0.1810680E+00  0.2374510E+01  0.1001002E-02 -0.4927516E-01  0.4005063E-03 -0.4106390E-01
6083500.  0.1724512E+00  0.2499368E+01  0.1154020E-02 -0.3746949E-01  0.5281179E-03 -0.3137620E-01
6061000.  0.1634566E+00  0.2588660E+01  0.1266249E-02 -0.2616415E-01  0.6232152E-03 -0.2261462E-01
6038500.  0.1542077E+00  0.2643579E+01  0.1339324E-02 -0.1528225E-01  0.6886887E-03 -0.1456448E-01
6016000.  0.1448241E+00  0.2665083E+01  0.1374592E-02 -0.4738826E-02  0.7266803E-03 -0.7017452E-02
5993500.  0.1354225E+00  0.2653861E+01  0.1373088E-02  0.5558515E-02  0.7386096E-03  0.2291131E-03
5971000.  0.1261176E+00  0.2610321E+01  0.1335501E-02  0.1571337E-01  0.7251709E-03  0.7383756E-02
5971000.  0.1261176E+00  0.2403911E+01  0.1335501E-02 -0.6854703E-03  0.7251709E-03 -0.9126108E-02
5937667.  0.1137899E+00  0.2303790E+01  0.1322805E-02  0.5307689E-02  0.7574502E-03 -0.3439784E-02
5904333.  0.1020521E+00  0.2179545E+01  0.1282200E-02  0.1001528E-01  0.7633015E-03  0.1019868E-02
5871000.  0.9101232E-01  0.2038149E+01  0.1219904E-02  0.1363207E-01  0.7484847E-03  0.4499834E-02
5837667.  0.8074448E-01  0.1885324E+01  0.1141115E-02  0.1635265E-01  0.7175331E-03  0.7223352E-02
5804333.  0.7129570E-01  0.1725606E+01  0.1050017E-02  0.1836679E-01  0.6738561E-03  0.9396655E-02
5771000.  0.6269326E-01  0.1562390E+01  0.9498386E-03  0.1985456E-01  0.6198320E-03  0.1121015E-01
5771000.  0.6269326E-01  0.1562459E+01  0.9498386E-03  0.1985169E-01  0.6198320E-03  0.1121015E-01
5701000.  0.4713225E-01  0.1256262E+01  0.6809091E-03  0.2930195E-01  0.4566097E-03  0.1886590E-01
5701000.  0.4713225E-01  0.1072429E+01  0.6809091E-03  0.1218574E-01  0.4566097E-03  0.5581011E-02
5667333.  0.4185166E-01  0.9378819E+00  0.6269312E-03  0.8949304E-02  0.4232275E-03  0.6791362E-02
5633667.  0.3712352E-01  0.8552470E+00  0.5798124E-03  0.9125311E-02  0.3867264E-03  0.6946282E-02
5600000.  0.3281462E-01  0.7756584E+00  0.5314285E-03  0.9097736E-02  0.3501185E-03  0.6879113E-02
5600000.  0.3281462E-01  0.7756584E+00  0.5314285E-03  0.9097736E-02  0.3501185E-03  0.6879113E-02
5563518.  0.2860904E-01  0.6941088E+00  0.4799635E-03  0.8846970E-02  0.3114324E-03  0.6605782E-02
5527037.  0.2485511E-01  0.6180133E+00  0.4304019E-03  0.8443002E-02  0.2747125E-03  0.6203191E-02
5490556.  0.2152056E-01  0.5476553E+00  0.3834687E-03  0.7935983E-02  0.2405365E-03  0.5724463E-02
5454074.  0.1857215E-01  0.4831195E+00  0.3396415E-03  0.7363879E-02  0.2092285E-03  0.5206923E-02
5417593.  0.1597664E-01  0.4244061E+00  0.2991920E-03  0.6761338E-02  0.1809176E-03  0.4682084E-02
5381111.  0.1370103E-01  0.3713210E+00  0.2622247E-03  0.6150366E-02  0.1555869E-03  0.4168230E-02
5344630.  0.1171390E-01  0.3236248E+00  0.2287383E-03  0.5548691E-02  0.1331350E-03  0.3678745E-02
5308148.  0.9985090E-02  0.2810206E+00  0.1986342E-03  0.4970304E-02  0.1133920E-03  0.3222862E-02
5271667.  0.8486567E-02  0.2431464E+00  0.1717594E-03  0.4422151E-02  0.9615510E-04  0.2804044E-02
5235185.  0.7192166E-02  0.2096535E+00  0.1479197E-03  0.3910893E-02  0.8120344E-04  0.2424856E-02
5198704.  0.6077907E-02  0.1801732E+00  0.1268930E-03  0.3440057E-02  0.6830804E-04  0.2085729E-02
5162222.  0.5121863E-02  0.1543238E+00  0.1084467E-03  0.3009512E-02  0.5724529E-04  0.1784340E-02
5125741.  0.4304270E-02  0.1317665E+00  0.9234768E-04  0.2620374E-02  0.4780328E-04  0.1519440E-02
5089259.  0.3607227E-02  0.1121546E+00  0.7836106E-04  0.2271187E-02  0.3977999E-04  0.1288174E-02
5052778.  0.3014844E-02  0.9516659E-01  0.6626548E-04  0.1959694E-02  0.3299270E-04  0.1087332E-02
5016296.  0.2512910E-02  0.8050974E-01  0.5584950E-04  0.1684038E-02  0.2727449E-04  0.9142315E-03
4979815.  0.2088909E-02  0.6790677E-01  0.4691654E-04  0.1441306E-02  0.2247572E-04  0.7657180E-03
4943333.  0.1731787E-02  0.5710781E-01  0.3928569E-04  0.1228741E-02  0.1846384E-04  0.6389206E-03
4906852.  0.1431884E-02  0.4788787E-01  0.3279188E-04  0.1043741E-02  0.1512190E-04  0.5313174E-03
4870370.  0.1180750E-02  0.4003903E-01  0.2728575E-04  0.8832507E-03  0.1234756E-04  0.4402383E-03
4833889.  0.9710740E-03  0.3338154E-01  0.2263449E-04  0.7448135E-03  0.1005265E-04  0.3635631E-03
4797407.  0.7964963E-03  0.2775220E-01  0.1871853E-04  0.6259579E-03  0.8160228E-05  0.2993021E-03
4760926.  0.6515647E-03  0.2300610E-01  0.1543322E-04  0.5242061E-03  0.6604899E-05  0.2455636E-03
4724444.  0.5315790E-03  0.1901830E-01  0.1268631E-04  0.4375606E-03  0.5330710E-05  0.2008581E-03
4687963.  0.4325284E-03  0.1567755E-01  0.1039709E-04  0.3640447E-03  0.4290035E-05  0.1637913E-03
4651482.  0.3509892E-03  0.1288706E-01  0.8495594E-05  0.3018675E-03  0.3442726E-05  0.1331382E-03
4615000.  0.2840519E-03  0.1056374E-01  0.6921223E-05  0.2495283E-03  0.2754943E-05  0.1079082E-03
4578518.  0.2292572E-03  0.8634780E-02  0.5621851E-05  0.2055959E-03  0.2198307E-05  0.8719257E-04
4542037.  0.1845303E-03  0.7038231E-02  0.4552946E-05  0.1688588E-03  0.1749211E-05  0.7024002E-04
4505556.  0.1481224E-03  0.5720823E-02  0.3676327E-05  0.1382643E-03  0.1387915E-05  0.5642604E-04
4469074.  0.1185695E-03  0.4636661E-02  0.2959643E-05  0.1128444E-03  0.1098102E-05  0.4518627E-04
4432593.  0.9465055E-04  0.3747375E-02  0.2375619E-05  0.9181414E-04  0.8663539E-06  0.3608111E-04
4396111.  0.7534502E-04  0.3020016E-02  0.1901118E-05  0.7447527E-04  0.6815465E-06  0.2872925E-04
4359630.  0.5980884E-04  0.2426786E-02  0.1516836E-05  0.6021579E-04  0.5346213E-06  0.2280356E-04
4323148.  0.4734141E-04  0.1944488E-02  0.1206582E-05  0.4853830E-04  0.4181577E-06  0.1804936E-04
4286667.  0.3736598E-04  0.1553503E-02  0.9568734E-06  0.3900373E-04  0.3261050E-06  0.1424449E-04
4250185.  0.2940748E-04  0.1237463E-02  0.7565209E-06  0.3124189E-04  0.2535630E-06  0.1120734E-04
4213704.  0.2307716E-04  0.9828202E-03  0.5962785E-06  0.2494877E-04  0.1965661E-06  0.8793289E-05
4177222.  0.1805665E-04  0.7782084E-03  0.4685057E-06  0.1985969E-04  0.1519088E-06  0.6878484E-05
4140741.  0.1408729E-04  0.6143166E-03  0.3669545E-06  0.1575890E-04  0.1170261E-06  0.5365190E-05
4104259.  0.1095844E-04  0.4834339E-03  0.2864874E-06  0.1246691E-04  0.8985077E-07  0.4174000E-05
4067778.  0.8500082E-05  0.3792029E-03  0.2229302E-06  0.9830626E-05  0.6873791E-07  0.3238201E-05
4031296.  0.6574769E-05  0.2964562E-03  0.1728865E-06  0.7728043E-05  0.5237657E-07  0.2506630E-05
3994815.  0.5072123E-05  0.2309520E-03  0.1336030E-06  0.6057134E-05  0.3972194E-07  0.1937263E-05
3958333.  0.3903603E-05  0.1792263E-03  0.1028586E-06  0.4732664E-05  0.2994742E-07  0.1495604E-05
3921852.  0.2998616E-05  0.1384967E-03  0.7887024E-07  0.3687471E-05  0.2239983E-07  0.1155642E-05
3885370.  0.2300890E-05  0.1064884E-03  0.6020391E-07  0.2865137E-05  0.1655981E-07  0.8959387E-06
3848889.  0.1765938E-05  0.8137842E-04  0.4571993E-07  0.2220089E-05  0.1201831E-07  0.6997465E-06
3812407.  0.1358572E-05  0.6170245E-04  0.3451067E-07  0.1715670E-05  0.8449239E-08  0.5543619E-06
3775926.  0.1051188E-05  0.4628699E-04  0.2586191E-07  0.1321266E-05  0.5592203E-08  0.4496162E-06
3739444.  0.8221303E-06  0.3420666E-04  0.1921698E-07  0.1011941E-05  0.3236947E-08  0.3780200E-06
3702963.  0.6544652E-06  0.2474061E-04  0.1415083E-07  0.7665658E-06  0.1210382E-08  0.3340146E-06
3666482.  0.5348583E-06  0.1734484E-04  0.1035278E-07  0.5659757E-06 -0.6325747E-09  0.3132896E-06
3630000.  0.4525986E-06  0.1164688E-04  0.7618029E-08  0.3920898E-06 -0.2416086E-08  0.3127762E-06
3630000.  0.4525986E-06  0.1164688E-04  0.7618029E-08  0.3920898E-06 -0.2416086E-08  0.3127762E-06
3592500.  0.3974441E-06  0.7351360E-05  0.5813064E-08  0.2205161E-06 -0.4300666E-08  0.3304060E-06
3555000.  0.3629440E-06  0.4653458E-05  0.5057209E-08  0.3076782E-07 -0.6335499E-08  0.3632025E-06
3517500.  0.3389265E-06  0.3875218E-05  0.5553269E-08 -0.2116873E-06 -0.8596746E-08  0.4062810E-06
3480000.  0.3120799E-06  0.5793275E-05  0.7749668E-08 -0.5571518E-06 -0.1112164E-07  0.4508416E-06
3480000.  0.3120799E-06  0.1731590E-04  0.9912112E-08  0.5530416E-06 -0.1112164E-07 -0.5443466E-06
3409422.  0.1675011E-06  0.9524734E-05  0.5302622E-08  0.3030365E-06 -0.6371970E-08 -0.3285773E-06
3338844.  0.8852131E-07  0.5159073E-05  0.2793861E-08  0.1635620E-06 -0.3550947E-08 -0.1916229E-06
3268266.  0.4604248E-07  0.2750615E-05  0.1449103E-08  0.8692297E-07 -0.1928627E-08 -0.1084252E-06
3197688.  0.2355757E-07  0.1442882E-05  0.7395107E-09  0.4546116E-07 -0.1022195E-08 -0.5968143E-07
3127109.  0.1184991E-07  0.7443019E-06  0.3710936E-09  0.2338638E-07 -0.5290817E-09 -0.3201098E-07
3056531.  0.5856695E-08  0.3773513E-06  0.1829991E-09  0.1182643E-07 -0.2675400E-09 -0.1674796E-07
2985953.  0.2842134E-08  0.1879067E-06  0.8862076E-10  0.5875240E-08 -0.1321806E-09 -0.8552020E-08
2915375.  0.1353225E-08  0.9184093E-07  0.4211289E-10  0.2865292E-08 -0.6379686E-10 -0.4262980E-08
2844797.  0.6316550E-09  0.4402442E-07  0.1962137E-10  0.1370717E-08 -0.3007011E-10 -0.2074318E-08
2774219.  0.2888045E-09  0.2067941E-07  0.8955281E-11  0.6426973E-09 -0.1383340E-10 -0.9850657E-09
2703641.  0.1292384E-09  0.9508238E-08  0.3999250E-11  0.2951294E-09 -0.6204872E-11 -0.4565122E-09
2633062.  0.5659385E-10  0.4270902E-08  0.1744160E-11  0.1327185E-09 -0.2705529E-11 -0.2067965E-09
2562484.  0.0000000E+00  0.0000000E+00  0.0000000E+00  0.0000000E+00  0.0000000E+00  0.0000000E+00
2491906.  0.0000000E+00  0.0000000E+00  0.0000000E+00  0.0000000E+00  0.0000000E+00  0.0000000E+00
2421328.  0.0000000E+00  0.0000000E+00  0.0000000E+00  0.0000000E+00  0.0000000E+00  0.0000000E+00
2350750.  0.0000000E+00  0.0000000E+00  0.0000000E+00  0.0000000E+00  0.0000000E+00  0.0000000E+00
2280172.  0.0000000E+00  0.0000000E+00  0.0000000E+00  0.0000000E+00  0.0000000E+00  0.0000000E+00
2209594.  0.0000000E+00  0.0000000E+00  0.0000000E+00  0.0000000E+00  0.0000000E+00  0.0000000E+00
2139016.  0.0000000E+00  0.0000000E+00  0.0000000E+00  0.0000000E+00  0.0000000E+00  0.0000000E+00
2068438.  0.0000000E+00  0.0000000E+00  0.0000000E+00  0.0000000E+00  0.0000000E+00  0.0000000E+00
1997859.  0.0000000E+00  0.0000000E+00  0.0000000E+00  0.0000000E+00  0.0000000E+00  0.0000000E+00
1927281.  0.0000000E+00  0.0000000E+00  0.0000000E+00  0.0000000E+00  0.0000000E+00  0.0000000E+00
1856703.  0.0000000E+00  0.0000000E+00  0.0000000E+00  0.0000000E+00  0.0000000E+00  0.0000000E+00
1786125.  0.0000000E+00  0.0000000E+00  0.0000000E+00  0.0000000E+00  0.0000000E+00  0.0000000E+00
1715547.  0.0000000E+00  0.0000000E+00  0.0000000E+00  0.0000000E+00  0.0000000E+00  0.0000000E+00
1644969.  0.0000000E+00  0.0000000E+00  0.0000000E+00  0.0000000E+00  0.0000000E+00  0.0000000E+00
1574391.  0.0000000E+00  0.0000000E+00  0.0000000E+00  0.0000000E+00  0.0000000E+00  0.0000000E+00
1503812.  0.0000000E+00  0.0000000E+00  0.0000000E+00  0.0000000E+00  0.0000000E+00  0.0000000E+00
1433234.  0.0000000E+00  0.0000000E+00  0.0000000E+00  0.0000000E+00  0.0000000E+00  0.0000000E+00
1362656.  0.0000000E+00  0.0000000E+00  0.0000000E+00  0.0000000E+00  0.0000000E+00  0.0000000E+00
1292078.  0.0000000E+00  0.0000000E+00  0.0000000E+00  0.0000000E+00  0.0000000E+00  0.0000000E+00
1221500.  0.0000000E+00  0.0000000E+00  0.0000000E+00  0.0000000E+00  0.0000000E+00  0.0000000E+00
1221500.  0.0000000E+00  0.0000000E+00  0.0000000E+00  0.0000000E+00  0.0000000E+00  0.0000000E+00
1183328.  0.0000000E+00  0.0000000E+00  0.0000000E+00  0.0000000E+00  0.0000000E+00  0.0000000E+00
1145156.  0.0000000E+00  0.0000000E+00  0.0000000E+00  0.0000000E+00  0.0000000E+00  0.0000000E+00
1106984.  0.0000000E+00  0.0000000E+00  0.0000000E+00  0.0000000E+00  0.0000000E+00  0.0000000E+00
1068812.  0.0000000E+00  0.0000000E+00  0.0000000E+00  0.0000000E+00  0.0000000E+00  0.0000000E+00
1030641.  0.0000000E+00  0.0000000E+00  0.0000000E+00  0.0000000E+00  0.0000000E+00  0.0000000E+00
 992469.  0.0000000E+00  0.0000000E+00  0.0000000E+00  0.0000000E+00  0.0000000E+00  0.0000000E+00
 954297.  0.0000000E+00  0.0000000E+00  0.0000000E+00  0.0000000E+00  0.0000000E+00  0.0000000E+00
 916125.  0.0000000E+00  0.0000000E+00  0.0000000E+00  0.0000000E+00  0.0000000E+00  0.0000000E+00
 877953.  0.0000000E+00  0.0000000E+00  0.0000000E+00  0.0000000E+00  0.0000000E+00  0.0000000E+00
 839781.  0.0000000E+00  0.0000000E+00  0.0000000E+00  0.0000000E+00  0.0000000E+00  0.0000000E+00
 801609.  0.0000000E+00  0.0000000E+00  0.0000000E+00  0.0000000E+00  0.0000000E+00  0.0000000E+00
 763438.  0.0000000E+00  0.0000000E+00  0.0000000E+00  0.0000000E+00  0.0000000E+00  0.0000000E+00
 725266.  0.0000000E+00  0.0000000E+00  0.0000000E+00  0.0000000E+00  0.0000000E+00  0.0000000E+00
 687094.  0.0000000E+00  0.0000000E+00  0.0000000E+00  0.0000000E+00  0.0000000E+00  0.0000000E+00
 648922.  0.0000000E+00  0.0000000E+00  0.0000000E+00  0.0000000E+00  0.0000000E+00  0.0000000E+00
 610750.  0.0000000E+00  0.0000000E+00  0.0000000E+00  0.0000000E+00  0.0000000E+00  0.0000000E+00
 572578.  0.0000000E+00  0.0000000E+00  0.0000000E+00  0.0000000E+00  0.0000000E+00  0.0000000E+00
 534406.  0.0000000E+00  0.0000000E+00  0.0000000E+00  0.0000000E+00  0.0000000E+00  0.0000000E+00
 496234.  0.0000000E+00  0.0000000E+00  0.0000000E+00  0.0000000E+00  0.0000000E+00  0.0000000E+00
 458062.  0.0000000E+00  0.0000000E+00  0.0000000E+00  0.0000000E+00  0.0000000E+00  0.0000000E+00
 419891.  0.0000000E+00  0.0000000E+00  0.0000000E+00  0.0000000E+00  0.0000000E+00  0.0000000E+00
 381719.  0.0000000E+00  0.0000000E+00  0.0000000E+00  0.0000000E+00  0.0000000E+00  0.0000000E+00
 343547.  0.0000000E+00  0.0000000E+00  0.0000000E+00  0.0000000E+00  0.0000000E+00  0.0000000E+00
 305375.  0.0000000E+00  0.0000000E+00  0.0000000E+00  0.0000000E+00  0.0000000E+00  0.0000000E+00
 267203.  0.0000000E+00  0.0000000E+00  0.0000000E+00  0.0000000E+00  0.0000000E+00  0.0000000E+00
 229031.  0.0000000E+00  0.0000000E+00  0.0000000E+00  0.0000000E+00  0.0000000E+00  0.0000000E+00
 190859.  0.0000000E+00  0.0000000E+00  0.0000000E+00  0.0000000E+00  0.0000000E+00  0.0000000E+00
 152688.  0.0000000E+00  0.0000000E+00  0.0000000E+00  0.0000000E+00  0.0000000E+00  0.0000000E+00
 114516.  0.0000000E+00  0.0000000E+00  0.0000000E+00  0.0000000E+00  0.0000000E+00  0.0000000E+00
  76344.  0.0000000E+00  0.0000000E+00  0.0000000E+00  0.0000000E+00  0.0000000E+00  0.0000000E+00
  38172.  0.0000000E+00  0.0000000E+00  0.0000000E+00  0.0000000E+00  0.0000000E+00  0.0000000E+00
      0.  0.0000000E+00  0.0000000E+00  0.0000000E+00  0.0000000E+00  0.0000000E+00  0.0000000E+00
