       7       16 S      417        155.91490         15.56023         14.86760         89.19794      185    7
6371000.  0.8192135E-07  0.8771683E-05  0.8263481E-07  0.7134573E-09 -0.1456082E-07  0.9304939E-07
6370000.  0.8054264E-07  0.8795338E-05  0.8262877E-07  0.7622065E-07 -0.1457516E-07  0.8969486E-07
6369000.  0.7916044E-07  0.8816346E-05  0.8261088E-07  0.1517459E-06 -0.1458897E-07  0.8634581E-07
6368000.  0.7777513E-07  0.8834705E-05  0.8258113E-07  0.2272779E-06 -0.1460227E-07  0.8300237E-07
6368000.  0.7777513E-07  0.8834705E-05  0.8258113E-07  0.2272779E-06 -0.1460227E-07  0.8300237E-07
6367000.  0.7638716E-07  0.8850412E-05  0.8253953E-07  0.3028053E-06 -0.1461503E-07  0.7966469E-07
6366000.  0.7499693E-07  0.8863466E-05  0.8248608E-07  0.3783168E-06 -0.1462727E-07  0.7633292E-07
6365000.  0.7360486E-07  0.8873866E-05  0.8242077E-07  0.4538011E-06 -0.1463899E-07  0.7300722E-07
6364000.  0.7221136E-07  0.8881610E-05  0.8234363E-07  0.5292468E-06 -0.1465019E-07  0.6968773E-07
6363000.  0.7081686E-07  0.8886700E-05  0.8225463E-07  0.6046428E-06 -0.1466087E-07  0.6637460E-07
6362000.  0.6942177E-07  0.8889134E-05  0.8215382E-07  0.6799775E-06 -0.1467103E-07  0.6306797E-07
6361000.  0.6802650E-07  0.8888913E-05  0.8204118E-07  0.7552397E-06 -0.1468067E-07  0.5976800E-07
6360000.  0.6663148E-07  0.8886039E-05  0.8191673E-07  0.8304181E-06 -0.1468979E-07  0.5647483E-07
6359000.  0.6523711E-07  0.8880513E-05  0.8178049E-07  0.9055015E-06 -0.1469840E-07  0.5318862E-07
6358000.  0.6384382E-07  0.8872336E-05  0.8163248E-07  0.9804785E-06 -0.1470649E-07  0.4990952E-07
6357000.  0.6245202E-07  0.8861512E-05  0.8147271E-07  0.1055338E-05 -0.1471407E-07  0.4663766E-07
6356000.  0.6106213E-07  0.8848045E-05  0.8130120E-07  0.1130068E-05 -0.1472113E-07  0.4337322E-07
6356000.  0.6106213E-07  0.7703871E-05  0.8130120E-07  0.6901461E-06 -0.1472113E-07  0.3008681E-07
6355000.  0.5985333E-07  0.7698394E-05  0.8118912E-07  0.7378162E-06 -0.1472553E-07  0.2599622E-07
6354000.  0.5864552E-07  0.7691288E-05  0.8106958E-07  0.7854317E-06 -0.1472929E-07  0.2191113E-07
6353000.  0.5743895E-07  0.7682554E-05  0.8094256E-07  0.8329883E-06 -0.1473241E-07  0.1783165E-07
6352000.  0.5623388E-07  0.7672194E-05  0.8080809E-07  0.8804812E-06 -0.1473489E-07  0.1375789E-07
6351000.  0.5503056E-07  0.7660208E-05  0.8066616E-07  0.9279057E-06 -0.1473673E-07  0.9689960E-08
6350000.  0.5382925E-07  0.7646599E-05  0.8051680E-07  0.9752572E-06 -0.1473793E-07  0.5627974E-08
6349000.  0.5263021E-07  0.7631367E-05  0.8036001E-07  0.1022531E-05 -0.1473850E-07  0.1572047E-08
6348000.  0.5143368E-07  0.7614515E-05  0.8019581E-07  0.1069723E-05 -0.1473843E-07 -0.2477709E-08
6347000.  0.5023992E-07  0.7596045E-05  0.8002421E-07  0.1116828E-05 -0.1473772E-07 -0.6521180E-08
6346600.  0.4976325E-07  0.7588204E-05  0.7995349E-07  0.1135644E-05 -0.1473726E-07 -0.8136785E-08
6346600.  0.4976325E-07  0.8755749E-05  0.7995349E-07  0.7765658E-06 -0.1473726E-07 -0.2548851E-07
6318800.  0.1289988E-07  0.7980499E-05  0.7450902E-07  0.1708140E-05 -0.1436444E-07 -0.1446313E-06
6291000. -0.1852406E-07  0.6273297E-05  0.6517818E-07  0.2549344E-05 -0.1348254E-07 -0.2586327E-06
6291000. -0.1852406E-07  0.6498532E-05  0.6517818E-07  0.2638762E-05 -0.1348254E-07 -0.2586327E-06
6263000. -0.4148630E-07  0.3814943E-05  0.5190026E-07  0.3374362E-05 -0.1211021E-07 -0.3647378E-06
6235000. -0.5100069E-07  0.4128850E-06  0.3580567E-07  0.3914075E-05 -0.1028718E-07 -0.4635987E-06
6207000. -0.4440015E-07 -0.3475769E-05  0.1783139E-07  0.4225467E-05 -0.8046972E-08 -0.5544655E-06
6179000. -0.2013955E-07 -0.7574853E-05 -0.9731767E-09  0.4290066E-05 -0.5426232E-08 -0.6366564E-06
6151000.  0.2204515E-07 -0.1158057E-04 -0.1951025E-07  0.4104462E-05 -0.2464578E-08 -0.7094889E-06
6151000.  0.2204515E-07 -0.9772469E-05 -0.1951025E-07  0.3598730E-05 -0.2464578E-08 -0.7107086E-06
6128500.  0.6074719E-07 -0.1209676E-04 -0.3171981E-07  0.3297609E-05  0.1118665E-09 -0.7471291E-06
6106000.  0.1070846E-06 -0.1408104E-04 -0.4268290E-07  0.2895323E-05  0.2803777E-08 -0.7760726E-06
6083500.  0.1596996E-06 -0.1563881E-04 -0.5207027E-07  0.2408195E-05  0.5584519E-08 -0.7974228E-06
6061000.  0.2169562E-06 -0.1669940E-04 -0.5961465E-07  0.1854899E-05  0.8427191E-08 -0.8111450E-06
6038500.  0.2770002E-06 -0.1721029E-04 -0.6511793E-07  0.1255783E-05  0.1130490E-07 -0.8172806E-06
6016000.  0.3378265E-06 -0.1713862E-04 -0.6845564E-07  0.6320876E-06  0.1419105E-07 -0.8159481E-06
5993500.  0.3973493E-06 -0.1647184E-04 -0.6957879E-07  0.5188098E-08  0.1705959E-07 -0.8073472E-06
5971000.  0.4534755E-06 -0.1521800E-04 -0.6851308E-07 -0.6041009E-06  0.1988529E-07 -0.7917391E-06
5971000.  0.4534755E-06 -0.1443229E-04 -0.6851308E-07 -0.5989072E-06  0.1988529E-07 -0.8511029E-06
5937667.  0.5218909E-06 -0.1157314E-04 -0.6341073E-07 -0.1326563E-05  0.2423242E-07 -0.8081063E-06
5904333.  0.5732547E-06 -0.7954251E-05 -0.5491507E-07 -0.1892249E-05  0.2831714E-07 -0.7511935E-06
5871000.  0.6042443E-06 -0.3828729E-05 -0.4391886E-07 -0.2281309E-05  0.3207358E-07 -0.6831338E-06
5837667.  0.6128892E-06  0.5443995E-06 -0.3135372E-07 -0.2492859E-05  0.3545099E-07 -0.6067831E-06
5804333.  0.5985505E-06  0.4917097E-05 -0.1812546E-07 -0.2537122E-05  0.3841347E-07 -0.5249453E-06
5771000.  0.5618308E-06  0.9065095E-05 -0.5064694E-08 -0.2432627E-05  0.4093922E-07 -0.4402994E-06
5771000.  0.5618308E-06  0.9065089E-05 -0.5064694E-08 -0.2432568E-05  0.4093922E-07 -0.4402994E-06
5701000.  0.4154017E-06  0.1727053E-04  0.1938696E-07 -0.1931656E-05  0.4461648E-07 -0.2280421E-06
5701000.  0.4154017E-06  0.1450884E-04  0.1938696E-07 -0.1619144E-05  0.4461648E-07 -0.3451289E-06
5667333.  0.3339659E-06  0.1632517E-04  0.2693177E-07 -0.1248511E-05  0.4625893E-07 -0.2795049E-06
5633667.  0.2425559E-06  0.1824049E-04  0.3265306E-07 -0.9145489E-06  0.4758981E-07 -0.2247696E-06
5600000.  0.1423544E-06  0.1956701E-04  0.3652863E-07 -0.5475444E-06  0.4863704E-07 -0.1720445E-06
5600000.  0.1423544E-06  0.1956701E-04  0.3652863E-07 -0.5475444E-06  0.4863704E-07 -0.1720445E-06
5563518.  0.2789539E-07  0.2028247E-04  0.3847717E-07 -0.1313304E-06  0.4946714E-07 -0.1185199E-06
5527037. -0.8844346E-07  0.2022273E-04  0.3803169E-07  0.2854582E-06  0.5000208E-07 -0.6901629E-07
5490556. -0.2022225E-06  0.1939151E-04  0.3524218E-07  0.6844183E-06  0.5026573E-07 -0.2379926E-07
5454074. -0.3091104E-06  0.1782334E-04  0.3025986E-07  0.1048669E-05  0.5028305E-07  0.1701172E-07
5417593. -0.4050594E-06  0.1558492E-04  0.2332675E-07  0.1363622E-05  0.5007943E-07  0.5337294E-07
5381111. -0.4864816E-06  0.1276534E-04  0.1476022E-07  0.1617351E-05  0.4968001E-07  0.8543272E-07
5344630. -0.5503546E-06  0.9476412E-05  0.4938309E-08  0.1800985E-05  0.4910887E-07  0.1133865E-06
5308148. -0.5943557E-06  0.5846222E-05 -0.5720839E-08  0.1909013E-05  0.4838884E-07  0.1374852E-06
5271667. -0.6169187E-06  0.2012546E-05 -0.1677520E-07  0.1939006E-05  0.4754091E-07  0.1581342E-06
5235185. -0.6172903E-06 -0.1880695E-05 -0.2777982E-07  0.1891962E-05  0.4658378E-07  0.1756686E-06
5198704. -0.5955413E-06 -0.5690296E-05 -0.3830295E-07  0.1771802E-05  0.4553434E-07  0.1904667E-06
5162222. -0.5525458E-06 -0.9279110E-05 -0.4794367E-07  0.1584967E-05  0.4440671E-07  0.2030296E-06
5125741. -0.4899402E-06 -0.1252023E-04 -0.5634442E-07  0.1340452E-05  0.4321287E-07  0.2136595E-06
5089259. -0.4100392E-06 -0.1530204E-04 -0.6320503E-07  0.1048849E-05  0.4196274E-07  0.2227502E-06
5052778. -0.3157559E-06 -0.1753063E-04 -0.6828914E-07  0.7221105E-06  0.4066407E-07  0.2306695E-06
5016296. -0.2104685E-06 -0.1913440E-04 -0.7143219E-07  0.3730078E-06  0.3932277E-07  0.2376713E-06
4979815. -0.9791390E-07 -0.2006367E-04 -0.7254315E-07  0.1454250E-07  0.3794341E-07  0.2440155E-06
4943333.  0.1796793E-07 -0.2029332E-04 -0.7160530E-07 -0.3405014E-06  0.3652909E-07  0.2498956E-06
4906852.  0.1331514E-06 -0.1982258E-04 -0.6867335E-07 -0.6800240E-06  0.3508213E-07  0.2554461E-06
4870370.  0.2436824E-06 -0.1867272E-04 -0.6386822E-07 -0.9929772E-06  0.3360410E-07  0.2607481E-06
4833889.  0.3457832E-06 -0.1688831E-04 -0.5737066E-07 -0.1269741E-05  0.3209629E-07  0.2658658E-06
4797407.  0.4359995E-06 -0.1453271E-04 -0.4941095E-07 -0.1502409E-05  0.3055962E-07  0.2708075E-06
4760926.  0.5112764E-06 -0.1168582E-04 -0.4026070E-07 -0.1684786E-05  0.2899539E-07  0.2754982E-06
4724444.  0.5690691E-06 -0.8441856E-05 -0.3022002E-07 -0.1812811E-05  0.2740496E-07  0.2799449E-06
4687963.  0.6073947E-06 -0.4904817E-05 -0.1960781E-07 -0.1884292E-05  0.2579000E-07  0.2840552E-06
4651482.  0.6248905E-06 -0.1185191E-05 -0.8749295E-08 -0.1898967E-05  0.2415276E-07  0.2877211E-06
4615000.  0.6208346E-06  0.2603853E-05  0.2034561E-08 -0.1858526E-05  0.2249576E-07  0.2909325E-06
4578518.  0.5951529E-06  0.6349549E-05  0.1243633E-07 -0.1766183E-05  0.2082195E-07  0.2935739E-06
4542037.  0.5484084E-06  0.9943416E-05  0.2217152E-07 -0.1626716E-05  0.1913481E-07  0.2956101E-06
4505556.  0.4817619E-06  0.1328487E-04  0.3098729E-07 -0.1446124E-05  0.1743765E-07  0.2970692E-06
4469074.  0.3969243E-06  0.1628209E-04  0.3866754E-07 -0.1231247E-05  0.1573391E-07  0.2978957E-06
4432593.  0.2961028E-06  0.1885675E-04  0.4503721E-07 -0.9897598E-06  0.1402704E-07  0.2981977E-06
4396111.  0.1819024E-06  0.2094428E-04  0.4996700E-07 -0.7296159E-06  0.1231964E-07  0.2980827E-06
4359630.  0.5727152E-07  0.2249407E-04  0.5337289E-07 -0.4588979E-06  0.1061386E-07  0.2976795E-06
4323148. -0.7461705E-07  0.2347389E-04  0.5521756E-07 -0.1855969E-06  0.8910623E-08  0.2972197E-06
4286667. -0.2104343E-06  0.2386585E-04  0.5550800E-07  0.8272791E-07  0.7209580E-08  0.2969827E-06
4250185. -0.3468085E-06  0.2366835E-04  0.5429301E-07  0.3390906E-06  0.5508395E-08  0.2973130E-06
4213704. -0.4803929E-06  0.2289624E-04  0.5165951E-07  0.5772299E-06  0.3802842E-08  0.2986013E-06
4177222. -0.6079758E-06  0.2157658E-04  0.4772733E-07  0.7918371E-06  0.2085846E-08  0.3013880E-06
4140741. -0.7265263E-06  0.1975050E-04  0.4264450E-07  0.9785261E-06  0.3473362E-09  0.3062244E-06
4104259. -0.8332955E-06  0.1746987E-04  0.3658054E-07  0.1134004E-05 -0.1426249E-08  0.3137564E-06
4067778. -0.9258414E-06  0.1479437E-04  0.2972141E-07  0.1256036E-05 -0.3252819E-08  0.3248919E-06
4031296. -0.1002100E-05  0.1179207E-04  0.2226218E-07  0.1343415E-05 -0.5155393E-08  0.3404273E-06
3994815. -0.1060401E-05  0.8535175E-05  0.1440269E-07  0.1395968E-05 -0.7161924E-08  0.3614379E-06
3958333. -0.1099502E-05  0.5097919E-05  0.6340077E-08  0.1414478E-05 -0.9307869E-08  0.3893200E-06
3921852. -0.1118585E-05  0.1556149E-05 -0.1734367E-08  0.1400506E-05 -0.1163605E-07  0.4253574E-06
3885370. -0.1117264E-05 -0.2016501E-05 -0.9641462E-08  0.1356398E-05 -0.1419823E-07  0.4713631E-06
3848889. -0.1095569E-05 -0.5548954E-05 -0.1721639E-07  0.1285091E-05 -0.1705730E-07  0.5294286E-06
3812407. -0.1053918E-05 -0.8975549E-05 -0.2431323E-07  0.1189935E-05 -0.2028878E-07  0.6018571E-06
3775926. -0.9930973E-06 -0.1223558E-04 -0.3080565E-07  0.1074696E-05 -0.2398326E-07  0.6917209E-06
3739444. -0.9142115E-06 -0.1527642E-04 -0.3659013E-07  0.9432609E-06 -0.2825048E-07  0.8024819E-06
3702963. -0.8186523E-06 -0.1805311E-04 -0.4158482E-07  0.7995587E-06 -0.3322133E-07  0.9383207E-06
3666482. -0.7080427E-06 -0.2052773E-04 -0.4573100E-07  0.6475369E-06 -0.3905439E-07  0.1104590E-05
3630000. -0.5841920E-06 -0.2267294E-04 -0.4899176E-07  0.4908516E-06 -0.4594135E-07  0.1307507E-05
3630000. -0.5841920E-06 -0.2267294E-04 -0.4899176E-07  0.4908516E-06 -0.4594135E-07  0.1307507E-05
3592500. -0.4451397E-06 -0.2451250E-04 -0.5140309E-07  0.3285596E-06 -0.5436257E-07  0.1562546E-05
3555000. -0.2963834E-06 -0.2596898E-04 -0.5286362E-07  0.1682847E-06 -0.6444832E-07  0.1875008E-05
3517500. -0.1401915E-06 -0.2703892E-04 -0.5339355E-07  0.1276482E-07 -0.7657306E-07  0.2257768E-05
3480000.  0.2116311E-07 -0.2772413E-04 -0.5302756E-07 -0.1358244E-06 -0.9119626E-07  0.2726940E-05
3480000.  0.2116311E-07 -0.2724937E-05  0.4678563E-07 -0.4774338E-07 -0.9119626E-07  0.2659453E-05
3409422.  0.4217225E-07 -0.1064883E-05  0.4707465E-07 -0.9732238E-08 -0.1155352E-06  0.1788838E-05
3338844.  0.4474026E-07  0.6013045E-06  0.4712384E-07 -0.4912998E-08 -0.1319458E-06  0.1220738E-05
3268266.  0.2880392E-07  0.2281821E-05  0.4731702E-07 -0.3628782E-07 -0.1435522E-06  0.9157515E-06
3197688. -0.6103388E-08  0.4042379E-05  0.4807655E-07 -0.1080243E-06 -0.1530988E-06  0.8450598E-06
3127109. -0.6153116E-07  0.6014461E-05  0.4988422E-07 -0.2269794E-06 -0.1630796E-06  0.9926758E-06
3056531. -0.1409166E-06  0.8411624E-05  0.5332191E-07 -0.4047836E-06 -0.1758965E-06  0.1358663E-05
2985953. -0.2506595E-06  0.1156183E-04  0.5914016E-07 -0.6608570E-06 -0.1940622E-06  0.1963868E-05
2915375. -0.4016741E-06  0.1596467E-04  0.6836791E-07 -0.1026984E-05 -0.2204667E-06  0.2857046E-05
2844797. -0.6117903E-06  0.2239039E-04  0.8248656E-07 -0.1554594E-05 -0.2587433E-06  0.4125858E-05
2774219. -0.9096121E-06  0.3205048E-04  0.1037085E-06 -0.2326772E-05 -0.3137876E-06  0.5914191E-05
2703641. -0.1340882E-05  0.4689068E-04  0.1354297E-06 -0.3478478E-05 -0.3925220E-06  0.8449735E-05
2633062. -0.1979187E-05  0.7010125E-04  0.1829803E-06 -0.5231197E-05 -0.5050511E-06  0.1208835E-04
2562484. -0.2944213E-05  0.1070151E-03  0.2548824E-06 -0.7953308E-05 -0.6664410E-06  0.1738589E-04
2491906. -0.4433591E-05  0.1667216E-03  0.3650217E-06 -0.1226801E-04 -0.8995459E-06  0.2521658E-04
2421328. -0.6779144E-05  0.2650119E-03  0.5364407E-06 -0.1924840E-04 -0.1239520E-05  0.3696850E-04
2350750. -0.1054833E-04  0.4298618E-03  0.8081138E-06 -0.3077811E-04 -0.1741169E-05  0.5487178E-04
2280172. -0.1673074E-04  0.7118573E-03  0.1247297E-05 -0.5023261E-04 -0.2491096E-05  0.8255547E-04
2209594. -0.2708824E-04  0.1204445E-02  0.1972529E-05 -0.8379329E-04 -0.3628004E-05  0.1260031E-03
2139016. -0.4482696E-04  0.2084187E-02  0.3197446E-05 -0.1430427E-03 -0.5377135E-05  0.1952134E-03
2068438. -0.7591795E-04  0.3692734E-02  0.5316265E-05 -0.2502165E-03 -0.8109365E-05  0.3071140E-03
1997859. -0.1317586E-03  0.6708228E-02  0.9074869E-05 -0.4491178E-03 -0.1244393E-04  0.4907330E-03
1927281. -0.2346734E-03  0.1251316E-01  0.1592212E-04 -0.8284122E-03 -0.1942833E-04  0.7964009E-03
1856703. -0.4296314E-03  0.2400883E-01  0.2875363E-04 -0.1572912E-02 -0.3085713E-04  0.1312232E-02
1786125. -0.8099368E-03  0.4747363E-01  0.5353269E-04 -0.3079980E-02 -0.4983695E-04  0.2193324E-02
1715547. -0.1575444E-02  0.9695048E-01  0.1029428E-03 -0.6233017E-02 -0.8178401E-04  0.3712319E-02
1644969. -0.3169134E-02  0.2049864E+00  0.2049115E-03 -0.1306765E-01 -0.1361482E-03  0.6341493E-02
1574391. -0.6609828E-02  0.4499680E+00  0.4232682E-03 -0.2845987E-01 -0.2292295E-03  0.1086466E-01
1503812. -0.1433653E-01  0.1028725E+01  0.9099207E-03 -0.6459045E-01 -0.3881176E-03  0.1843967E-01
1433234. -0.3244684E-01  0.2458351E+01  0.2042547E-02 -0.1533047E+00 -0.6534149E-03  0.3018505E-01
1362656. -0.7692914E-01  0.6166510E+01  0.4806321E-02 -0.3821255E+00 -0.1067644E-02  0.4444811E-01
1292078. -0.1919511E+00  0.1631546E+02  0.1190955E-01 -0.1005126E+01 -0.1591365E-02  0.4423882E-01
1221500. -0.5067621E+00  0.4579279E+02  0.3124169E-01 -0.2805845E+01 -0.1707579E-02 -0.5566392E-01
1221500. -0.5067621E+00  0.8249207E+01  0.6333656E-02  0.2676163E+01 -0.1707579E-02  0.1638675E+00
1183328. -0.5094408E+00 -0.5819550E+01 -0.5145974E-02  0.1267671E+01 -0.2130079E-02  0.2214307E-03
1145156. -0.4519208E+00 -0.1239662E+02 -0.9978062E-02  0.4224567E+00 -0.1910776E-02 -0.6174216E-01
1106984. -0.3701299E+00 -0.1431987E+02 -0.1096633E-01 -0.4156739E-01 -0.1487513E-02 -0.7421345E-01
1068812. -0.2855543E+00 -0.1360229E+02 -0.9968345E-02 -0.2596918E+00 -0.1062533E-02 -0.6566864E-01
1030641. -0.2096554E+00 -0.1160535E+02 -0.8149135E-02 -0.3291841E+00 -0.7129931E-03 -0.5066334E-01
 992469. -0.1472927E+00 -0.9193204E+01 -0.6184964E-02 -0.3171095E+00 -0.4546899E-03 -0.3589393E-01
 954297. -0.9930407E-01 -0.6866683E+01 -0.4423329E-02 -0.2672813E+00 -0.2772462E-03 -0.2387347E-01
 916125. -0.6432973E-01 -0.4874477E+01 -0.3003451E-02 -0.2063248E+00 -0.1621271E-03 -0.1506974E-01
 877953. -0.4004803E-01 -0.3301922E+01 -0.1943517E-02 -0.1487805E+00 -0.9103125E-04 -0.9076984E-02
 839781. -0.2394277E-01 -0.2138142E+01 -0.1200389E-02 -0.1011785E+00 -0.4907110E-04 -0.5230033E-02
 801609. -0.1372716E-01 -0.1323930E+01 -0.7076950E-03 -0.6519054E-01 -0.2536792E-04 -0.2884500E-02
 763438. -0.7531982E-02 -0.7832431E+00 -0.3978326E-03 -0.3986514E-01 -0.1255232E-04 -0.1521670E-02
 725266. -0.3944215E-02 -0.4419332E+00 -0.2128101E-03 -0.2313461E-01 -0.5928388E-05 -0.7663564E-03
 687094. -0.1964467E-02 -0.2371933E+00 -0.1080068E-03 -0.1272111E-01 -0.2663000E-05 -0.3674687E-03
 648922. -0.9266482E-03 -0.1206702E+00 -0.5180799E-04 -0.6609683E-02 -0.1132570E-05 -0.1671016E-03
 610750. -0.4118225E-03 -0.5792758E-01 -0.2337188E-04 -0.3232250E-02 -0.4535436E-06 -0.7171290E-04
 572578. -0.1713431E-03 -0.2609114E-01 -0.9855442E-05 -0.1479824E-02 -0.1698525E-06 -0.2886664E-04
 534406. -0.6622053E-04 -0.1094834E-01 -0.3855042E-05 -0.6300203E-03 -0.5899066E-07 -0.1081505E-04
 496234. -0.2354474E-04 -0.4242379E-02 -0.1385541E-05 -0.2472860E-03 -0.1880444E-07 -0.3735303E-05
 458062. -0.7608944E-05 -0.1501209E-02 -0.4521181E-06 -0.8850966E-04 -0.5431052E-08 -0.1175103E-05
 419891. -0.2201124E-05 -0.4782943E-03 -0.1319248E-06 -0.2848672E-04 -0.1398101E-08 -0.3316084E-06
 381719. -0.5587652E-06 -0.1346988E-03 -0.3374838E-07 -0.8094704E-05 -0.3140531E-09 -0.8229302E-07
 343547. -0.1212670E-06 -0.3272637E-04 -0.7374294E-08 -0.1982236E-05 -0.5986094E-10 -0.1749567E-07
 305375. -0.2171612E-07 -0.6636718E-05 -0.1328470E-08 -0.4047598E-06 -0.9321949E-11 -0.3075458E-08
 267203. -0.3053001E-08 -0.1072427E-05 -0.1877323E-09 -0.6579515E-07 -0.1124551E-11 -0.4252772E-09
 229031. -0.3133117E-09 -0.1289945E-06 -0.1934756E-10 -0.7952465E-08 -0.9723714E-13 -0.4292204E-10
 190859.  0.0000000E+00  0.0000000E+00  0.0000000E+00  0.0000000E+00  0.0000000E+00  0.0000000E+00
 152688.  0.0000000E+00  0.0000000E+00  0.0000000E+00  0.0000000E+00  0.0000000E+00  0.0000000E+00
 114516.  0.0000000E+00  0.0000000E+00  0.0000000E+00  0.0000000E+00  0.0000000E+00  0.0000000E+00
  76344.  0.0000000E+00  0.0000000E+00  0.0000000E+00  0.0000000E+00  0.0000000E+00  0.0000000E+00
  38172.  0.0000000E+00  0.0000000E+00  0.0000000E+00  0.0000000E+00  0.0000000E+00  0.0000000E+00
      0.  0.0000000E+00  0.0000000E+00  0.0000000E+00  0.0000000E+00  0.0000000E+00  0.0000000E+00
