      13       13 S      591        123.67680         23.97538          5.98135        255.04871      185    7
6371000. -0.3573405E-02 -0.3320998E+00 -0.4681923E-02 -0.1108518E-02  0.3477065E-03  0.1870715E-02
6370000. -0.3521147E-02 -0.3337447E+00 -0.4681181E-02 -0.8346111E-02  0.3474017E-03  0.2012970E-02
6369000. -0.3468644E-02 -0.3352209E+00 -0.4679303E-02 -0.1558442E-01  0.3470746E-03  0.2154814E-02
6368000. -0.3415923E-02 -0.3365282E+00 -0.4676288E-02 -0.2282167E-01  0.3467253E-03  0.2296236E-02
6368000. -0.3415923E-02 -0.3365282E+00 -0.4676288E-02 -0.2282167E-01  0.3467253E-03  0.2296236E-02
6367000. -0.3363009E-02 -0.3376664E+00 -0.4672139E-02 -0.3005606E-01  0.3463538E-03  0.2437225E-02
6366000. -0.3309930E-02 -0.3386354E+00 -0.4666854E-02 -0.3728582E-01  0.3459603E-03  0.2577771E-02
6365000. -0.3256713E-02 -0.3394352E+00 -0.4660435E-02 -0.4450915E-01  0.3455447E-03  0.2717862E-02
6364000. -0.3203383E-02 -0.3400657E+00 -0.4652882E-02 -0.5172427E-01  0.3451071E-03  0.2857490E-02
6363000. -0.3149967E-02 -0.3405271E+00 -0.4644198E-02 -0.5892939E-01  0.3446476E-03  0.2996642E-02
6362000. -0.3096492E-02 -0.3408195E+00 -0.4634383E-02 -0.6612273E-01  0.3441664E-03  0.3135309E-02
6361000. -0.3042985E-02 -0.3409430E+00 -0.4623441E-02 -0.7330253E-01  0.3436634E-03  0.3273480E-02
6360000. -0.2989472E-02 -0.3408977E+00 -0.4611372E-02 -0.8046699E-01  0.3431388E-03  0.3411144E-02
6359000. -0.2935979E-02 -0.3406840E+00 -0.4598181E-02 -0.8761434E-01  0.3425926E-03  0.3548291E-02
6358000. -0.2882532E-02 -0.3403022E+00 -0.4583870E-02 -0.9474280E-01  0.3420249E-03  0.3684911E-02
6357000. -0.2829159E-02 -0.3397525E+00 -0.4568440E-02 -0.1018506E+00  0.3414359E-03  0.3820992E-02
6356000. -0.2775885E-02 -0.3390354E+00 -0.4551897E-02 -0.1089361E+00  0.3408255E-03  0.3956526E-02
6356000. -0.2775885E-02 -0.2934292E+00 -0.4551897E-02 -0.6645902E-01  0.3408255E-03  0.4560526E-02
6355000. -0.2729848E-02 -0.2931512E+00 -0.4541100E-02 -0.7111882E-01  0.3400965E-03  0.4727413E-02
6354000. -0.2683864E-02 -0.2927674E+00 -0.4529572E-02 -0.7576870E-01  0.3393415E-03  0.4893882E-02
6353000. -0.2637948E-02 -0.2922779E+00 -0.4517315E-02 -0.8040790E-01  0.3385603E-03  0.5059922E-02
6352000. -0.2592117E-02 -0.2916829E+00 -0.4504331E-02 -0.8503567E-01  0.3377531E-03  0.5225527E-02
6351000. -0.2546387E-02 -0.2909827E+00 -0.4490621E-02 -0.8965122E-01  0.3369199E-03  0.5390686E-02
6350000. -0.2500776E-02 -0.2901774E+00 -0.4476188E-02 -0.9425380E-01  0.3360608E-03  0.5555391E-02
6349000. -0.2455300E-02 -0.2892672E+00 -0.4461034E-02 -0.9884267E-01  0.3351760E-03  0.5719635E-02
6348000. -0.2409974E-02 -0.2882525E+00 -0.4445160E-02 -0.1034170E+00  0.3342653E-03  0.5883408E-02
6347000. -0.2364816E-02 -0.2871335E+00 -0.4428570E-02 -0.1079762E+00  0.3333290E-03  0.6046701E-02
6346600. -0.2346804E-02 -0.2866568E+00 -0.4421733E-02 -0.1097954E+00  0.3329474E-03  0.6111883E-02
6346600. -0.2346804E-02 -0.3273950E+00 -0.4421733E-02 -0.7480408E-01  0.3329474E-03  0.6930179E-02
6318800. -0.1008065E-02 -0.2758053E+00 -0.3890919E-02 -0.1665985E+00  0.2922968E-03  0.1164298E-01
6291000. -0.2504545E-04 -0.1658723E+00 -0.2990628E-02 -0.2427641E+00  0.2319325E-03  0.1594806E-01
6291000. -0.2504545E-04 -0.1720881E+00 -0.2990628E-02 -0.2510480E+00  0.2319325E-03  0.1594806E-01
6263000.  0.3853898E-03 -0.8086550E-02 -0.1756159E-02 -0.3059892E+00  0.1533851E-03  0.1970262E-01
6235000.  0.3956130E-05  0.1844795E+00 -0.3461316E-03 -0.3302536E+00  0.5963241E-04  0.2285514E-01
6207000. -0.1242176E-02  0.3810956E+00  0.1097990E-02 -0.3213741E+00 -0.4652442E-04  0.2533678E-01
6179000. -0.3313152E-02  0.5554586E+00  0.2431330E-02 -0.2802759E+00 -0.1620023E-03  0.2708727E-01
6151000. -0.6054811E-02  0.6823422E+00  0.3520395E-02 -0.2111693E+00 -0.2834636E-03  0.2805053E-01
6151000. -0.6054811E-02  0.6037427E+00  0.3520395E-02 -0.1843785E+00 -0.2834636E-03  0.2838551E-01
6128500. -0.8269945E-02  0.6441915E+00  0.4061505E-02 -0.1207571E+00 -0.3830917E-03  0.2794795E-01
6106000. -0.1055614E-01  0.6434327E+00  0.4366500E-02 -0.5133887E-01 -0.4802594E-03  0.2699469E-01
6083500. -0.1276352E-01  0.5994449E+00  0.4422151E-02  0.1975667E-01 -0.5731776E-03  0.2554547E-01
6061000. -0.1473974E-01  0.5128428E+00  0.4229820E-02  0.8842646E-01 -0.6601433E-03  0.2362921E-01
6038500. -0.1633922E-01  0.3868263E+00  0.3804983E-02  0.1508173E+00 -0.7395698E-03  0.2128273E-01
6016000. -0.1743196E-01  0.2269758E+00  0.3175969E-02  0.2035372E+00 -0.8100136E-03  0.1855006E-01
5993500. -0.1791139E-01  0.4091137E-01  0.2382008E-02  0.2438302E+00 -0.8701982E-03  0.1548169E-01
5971000. -0.1770081E-01 -0.1621534E+00  0.1470733E-02  0.2697127E+00 -0.9190338E-03  0.1213244E-01
5971000. -0.1770081E-01 -0.1363684E+00  0.1470733E-02  0.2422529E+00 -0.9190338E-03  0.1444962E-01
5937667. -0.1627499E-01 -0.4062991E+00  0.1834162E-03  0.2450480E+00 -0.9817294E-03  0.9460114E-02
5904333. -0.1349688E-01 -0.6490584E+00 -0.1046972E-02  0.2212522E+00 -0.1017644E-02  0.4251235E-02
5871000. -0.9569891E-02 -0.8422887E+00 -0.2095162E-02  0.1764922E+00 -0.1026228E-02 -0.9515394E-03
5837667. -0.4797303E-02 -0.9702786E+00 -0.2869294E-02  0.1177027E+00 -0.1008039E-02 -0.5953497E-02
5804333.  0.4545555E-03 -0.1024651E+01 -0.3315101E-02  0.5218346E-01 -0.9645540E-03 -0.1059824E-01
5771000.  0.5794095E-02 -0.1004230E+01 -0.3415690E-02 -0.1317749E-01 -0.8979636E-03 -0.1477083E-01
5771000.  0.5794095E-02 -0.1004276E+01 -0.3415690E-02 -0.1317739E-01 -0.8979636E-03 -0.1477083E-01
5701000.  0.1587878E-01 -0.7821109E+00 -0.2581674E-02 -0.1328740E+00 -0.6954278E-03 -0.2178320E-01
5701000.  0.1587878E-01 -0.6724619E+00 -0.2581674E-02 -0.1093689E+00 -0.6954278E-03 -0.2625886E-01
5667333.  0.1893254E-01 -0.4847454E+00 -0.1932344E-02 -0.1353587E+00 -0.5538476E-03 -0.2720486E-01
5633667.  0.2100112E-01 -0.2953156E+00 -0.1157938E-02 -0.1565629E+00 -0.4086287E-03 -0.2770473E-01
5600000.  0.2201615E-01 -0.8659197E-01 -0.2992708E-03 -0.1662925E+00 -0.2617737E-03 -0.2780535E-01
5600000.  0.2201615E-01 -0.8659197E-01 -0.2992708E-03 -0.1662925E+00 -0.2617737E-03 -0.2780535E-01
5563518.  0.2184546E-01  0.1459712E+00  0.6511830E-03 -0.1633485E+00 -0.1032856E-03 -0.2747555E-01
5527037.  0.2036328E-01  0.3687059E+00  0.1545695E-02 -0.1469425E+00  0.5207472E-04 -0.2672075E-01
5490556.  0.1767248E-01  0.5655853E+00  0.2311251E-02 -0.1186474E+00  0.2019945E-03 -0.2558294E-01
5454074.  0.1396232E-01  0.7226182E+00  0.2886424E-02 -0.8091383E-01  0.3444188E-03 -0.2410886E-01
5417593.  0.9493864E-02  0.8289736E+00  0.3225839E-02 -0.3686776E-01  0.4775391E-03 -0.2234208E-01
5381111.  0.4579225E-02  0.8775801E+00  0.3303268E-02  0.9989701E-02  0.5998175E-03 -0.2032835E-01
5344630. -0.4405918E-03  0.8656737E+00  0.3113009E-02  0.5603062E-01  0.7099571E-03 -0.1811007E-01
5308148. -0.5222115E-02  0.7949308E+00  0.2669765E-02  0.9779698E-01  0.8069033E-03 -0.1572533E-01
5271667. -0.9442812E-02  0.6711323E+00  0.2007059E-02  0.1322232E+00  0.8897975E-03 -0.1320833E-01
5235185. -0.1282491E-01  0.5038648E+00  0.1174193E-02  0.1568787E+00  0.9579765E-03 -0.1058990E-01
5198704. -0.1515402E-01  0.3056470E+00  0.2323060E-03  0.1700999E+00  0.1010936E-02 -0.7897082E-02
5162222. -0.1629374E-01  0.9096664E-01 -0.7503977E-03  0.1710661E+00  0.1048315E-02 -0.5151349E-02
5125741. -0.1619411E-01 -0.1246194E+00 -0.1703568E-02  0.1598841E+00  0.1069878E-02 -0.2377279E-02
5089259. -0.1489421E-01 -0.3257589E+00 -0.2559996E-02  0.1374893E+00  0.1075524E-02  0.4050902E-03
5052778. -0.1251832E-01 -0.4982402E+00 -0.3259942E-02  0.1055779E+00  0.1065261E-02  0.3175579E-02
5016296. -0.9266094E-02 -0.6300322E+00 -0.3755356E-02  0.6647444E-01  0.1039223E-02  0.5910768E-02
4979815. -0.5398381E-02 -0.7120072E+00 -0.4012743E-02  0.2292989E-01  0.9976801E-03  0.8587484E-02
4943333. -0.1218049E-02 -0.7385667E+00 -0.4015180E-02 -0.2206707E-01  0.9410358E-03  0.1118019E-01
4906852.  0.2950486E-02 -0.7079578E+00 -0.3763022E-02 -0.6550104E-01  0.8698544E-03  0.1366073E-01
4870370.  0.6784291E-02 -0.6222888E+00 -0.3273464E-02 -0.1045317E+00  0.7848578E-03  0.1599973E-01
4833889.  0.9982999E-02 -0.4874351E+00 -0.2579059E-02 -0.1366808E+00  0.6869471E-03  0.1816714E-01
4797407.  0.1228984E-01 -0.3125139E+00 -0.1725064E-02 -0.1599843E+00  0.5771861E-03  0.2013250E-01
4760926.  0.1350787E-01 -0.1092996E+00 -0.7663955E-03 -0.1730806E+00  0.4568285E-03  0.2186454E-01
4724444.  0.1351347E-01  0.1085881E+00  0.2363635E-03 -0.1753255E+00  0.3272802E-03  0.2333717E-01
4687963.  0.1226413E-01  0.3265661E+00  0.1220825E-02 -0.1667641E+00  0.1901065E-03  0.2452518E-01
4651482.  0.9801348E-02  0.5300368E+00  0.2126902E-02 -0.1481247E+00  0.4699680E-04  0.2540764E-01
4615000.  0.6247844E-02  0.7053470E+00  0.2900528E-02 -0.1207654E+00 -0.1002615E-03  0.2597089E-01
4578518.  0.1800140E-02  0.8405520E+00  0.3496832E-02 -0.8653633E-01 -0.2498073E-03  0.2620560E-01
4542037. -0.3283622E-02  0.9262283E+00  0.3882732E-02 -0.4768002E-01 -0.3997460E-03  0.2610984E-01
4505556. -0.8700254E-02  0.9560287E+00  0.4038746E-02 -0.6663209E-02 -0.5482006E-03  0.2568872E-01
4469074. -0.1411968E-01  0.9269567E+00  0.3959753E-02  0.3398139E-01 -0.6933454E-03  0.2495503E-01
4432593. -0.1920467E-01  0.8396726E+00  0.3654997E-02  0.7179818E-01 -0.8334297E-03  0.2392586E-01
4396111. -0.2363238E-01  0.6983081E+00  0.3147141E-02  0.1045707E+00 -0.9668342E-03  0.2262552E-01
4359630. -0.2711255E-01  0.5102432E+00  0.2470651E-02  0.1304272E+00 -0.1092089E-02  0.2108551E-01
4323148. -0.2940595E-01  0.2856695E+00  0.1669351E-02  0.1479646E+00 -0.1207909E-02  0.1933449E-01
4286667. -0.3033795E-01  0.3695906E-01  0.7937258E-03  0.1562912E+00 -0.1313182E-02  0.1740933E-01
4250185. -0.2980946E-01 -0.2220605E+00 -0.1023008E-03  0.1550747E+00 -0.1407023E-02  0.1534590E-01
4213704. -0.2780284E-01 -0.4769022E+00 -0.9644493E-03  0.1445501E+00 -0.1488724E-02  0.1317555E-01
4177222. -0.2438323E-01 -0.7132199E+00 -0.1741367E-02  0.1254641E+00 -0.1557777E-02  0.1093267E-01
4140741. -0.1969588E-01 -0.9176312E+00 -0.2387285E-02  0.9904148E-01 -0.1613842E-02  0.8643623E-02
4104259. -0.1395749E-01 -0.1078494E+01 -0.2864663E-02  0.6688487E-01 -0.1656718E-02  0.6328890E-02
4067778. -0.7446065E-02 -0.1186347E+01 -0.3145905E-02  0.3087132E-01 -0.1686310E-02  0.4006413E-02
4031296. -0.4848479E-03 -0.1234706E+01 -0.3214755E-02 -0.6951276E-02 -0.1702598E-02  0.1682290E-02
3994815.  0.6573821E-02 -0.1220139E+01 -0.3066842E-02 -0.4449265E-01 -0.1705572E-02 -0.6446506E-03
3958333.  0.1336776E-01 -0.1142434E+01 -0.2709614E-02 -0.7973099E-01 -0.1695189E-02 -0.2985148E-02
3921852.  0.1954279E-01 -0.1004822E+01 -0.2161665E-02 -0.1108247E+00 -0.1671326E-02 -0.5357535E-02
3885370.  0.2477247E-01 -0.8134619E+00 -0.1451342E-02 -0.1362009E+00 -0.1633712E-02 -0.7793699E-02
3848889.  0.2877313E-01 -0.5772952E+00 -0.6151380E-03 -0.1546274E+00 -0.1581869E-02 -0.1033517E-01
3812407.  0.3131958E-01 -0.3075308E+00  0.3046489E-03 -0.1652820E+00 -0.1515058E-02 -0.1303066E-01
3775926.  0.3225534E-01 -0.1697966E-01  0.1262077E-02 -0.1677511E+00 -0.1432214E-02 -0.1594770E-01
3739444.  0.3150074E-01  0.2805193E+00  0.2210207E-02 -0.1620673E+00 -0.1331856E-02 -0.1915982E-01
3702963.  0.2905654E-01  0.5708308E+00  0.3103403E-02 -0.1486776E+00 -0.1212064E-02 -0.2275313E-01
3666482.  0.2500352E-01  0.8402311E+00  0.3899701E-02 -0.1283884E+00 -0.1070345E-02 -0.2683693E-01
3630000.  0.1949814E-01  0.1076068E+01  0.4562758E-02 -0.1023467E+00 -0.9035613E-03 -0.3152736E-01
3630000.  0.1949814E-01  0.1076068E+01  0.4562758E-02 -0.1023467E+00 -0.9035613E-03 -0.3152736E-01
3592500.  0.1256237E-01  0.1271900E+01  0.5074895E-02 -0.7103783E-01 -0.7019263E-03 -0.3713143E-01
3555000.  0.4636814E-02  0.1411022E+01  0.5393294E-02 -0.3681213E-01 -0.4645443E-03 -0.4370575E-01
3517500. -0.3923552E-02  0.1486734E+01  0.5506051E-02 -0.1463823E-02 -0.1851053E-03 -0.5146004E-01
3480000. -0.1273323E-01  0.1495401E+01  0.5411840E-02  0.3321904E-01  0.1440525E-03 -0.6064505E-01
3480000. -0.1273323E-01  0.7042798E+00 -0.1227259E-02 -0.2104293E-01  0.1440525E-03 -0.2004020E-01
3409422. -0.1949583E-01  0.5082978E+00 -0.9155010E-03 -0.3470923E-01 -0.6508110E-04  0.5449530E-01
3338844. -0.2387590E-01  0.2799370E+00 -0.4720573E-03 -0.4465452E-01 -0.9851051E-03  0.1079264E+00
3268266. -0.2569923E-01  0.5164874E-01  0.5758059E-04 -0.5020945E-01 -0.2374283E-02  0.1392228E+00
3197688. -0.2511705E-01 -0.1507060E+00  0.6237886E-03 -0.5128651E-01 -0.3992273E-02  0.1496035E+00
3127109. -0.2252153E-01 -0.3096467E+00  0.1178790E-02 -0.4828544E-01 -0.5622564E-02  0.1420518E+00
3056531. -0.1845049E-01 -0.4163072E+00  0.1681308E-02 -0.4195980E-01 -0.7088572E-02  0.1206979E+00
2985953. -0.1349589E-01 -0.4695312E+00  0.2099716E-02 -0.3327039E-01 -0.8262918E-02  0.9017954E-01
2915375. -0.8227291E-02 -0.4742166E+00  0.2413525E-02 -0.2324635E-01 -0.9069710E-02  0.5507189E-01
2844797. -0.3135415E-02 -0.4393590E+00  0.2613467E-02 -0.1286673E-01 -0.9481263E-02  0.1944154E-01
2774219.  0.1402148E-02 -0.3760768E+00  0.2700420E-02 -0.2973289E-02 -0.9510689E-02 -0.1344996E-01
2703641.  0.5134687E-02 -0.2959012E+00  0.2683568E-02  0.5783292E-02 -0.9202033E-02 -0.4129161E-01
2633062.  0.7935201E-02 -0.2094399E+00  0.2578115E-02  0.1296785E-01 -0.8619552E-02 -0.6273679E-01
2562484.  0.9784586E-02 -0.1254745E+00  0.2402903E-02  0.1835710E-01 -0.7837485E-02 -0.7731221E-01
2491906.  0.1074871E-01 -0.5049779E-01  0.2178176E-02  0.2191494E-01 -0.6931154E-02 -0.8526126E-01
2421328.  0.1095203E-01  0.1138658E-01  0.1923706E-02  0.2375664E-01 -0.5970117E-02 -0.8734930E-01
2350750.  0.1055203E-01  0.5827403E-01  0.1657340E-02  0.2410663E-01 -0.5013478E-02 -0.8466582E-01
2280172.  0.9716699E-02  0.9009936E-01  0.1394044E-02  0.2325381E-01 -0.4107328E-02 -0.7844286E-01
2209594.  0.8606723E-02  0.1081616E+00  0.1145407E-02  0.2151271E-01 -0.3284030E-02 -0.6990480E-01
2139016.  0.7363093E-02  0.1146405E+00  0.9195478E-03  0.1919100E-01 -0.2562954E-02 -0.6015833E-01
2068438.  0.6099887E-02  0.1121466E+00  0.7213267E-03  0.1656562E-01 -0.1952201E-02 -0.5012283E-01
1997859.  0.4901576E-02  0.1033563E+00  0.5527801E-03  0.1386724E-01 -0.1450881E-02 -0.4049785E-01
1927281.  0.3824009E-02  0.9073348E-01  0.4136902E-03  0.1127296E-01 -0.1051616E-02 -0.3176137E-01
1856703.  0.2897695E-02  0.7635825E-01  0.3021712E-03  0.8905835E-02 -0.7428560E-03 -0.2418914E-01
1786125.  0.2132685E-02  0.6183933E-01  0.2152575E-03  0.6839207E-02 -0.5109672E-03 -0.1788929E-01
1715547.  0.1523893E-02  0.4830437E-01  0.1494124E-03  0.5104362E-02 -0.3418629E-03 -0.1284249E-01
1644969.  0.1056233E-02  0.3644157E-01  0.1009423E-03  0.3699905E-02 -0.2221875E-03 -0.8942603E-02
1574391.  0.7090878E-03  0.2657518E-01  0.6630643E-04  0.2601193E-02 -0.1400701E-03 -0.6033293E-02
1503812.  0.4598374E-03  0.1875893E-01  0.4232514E-04  0.1768914E-02 -0.8550755E-04 -0.3937989E-02
1433234.  0.2863145E-03  0.1287569E-01  0.2630393E-04  0.1155886E-02 -0.5045885E-04 -0.2482486E-02
1362656.  0.1681103E-03  0.8741831E-02  0.1609461E-04  0.7108112E-03 -0.2872461E-04 -0.1510217E-02
1292078.  0.8664232E-04  0.6238313E-02  0.1014160E-04  0.3772704E-03 -0.1569224E-04 -0.8929358E-03
1221500.  0.2331662E-04  0.5541282E-02  0.7588220E-05  0.8208903E-04 -0.7966803E-05 -0.5413210E-03
1221500.  0.2331662E-04 -0.6778991E-02 -0.7052638E-05 -0.1583975E-03 -0.7966803E-05 -0.5514219E-03
1183328.  0.6254068E-04 -0.6198938E-02 -0.5772563E-05 -0.2623452E-03 -0.5225053E-05 -0.3742608E-03
1145156.  0.9637560E-04 -0.5008934E-02 -0.3999237E-05 -0.3214230E-03 -0.3375203E-05 -0.2507551E-03
1106984.  0.1217584E-03 -0.3416960E-02 -0.2019495E-05 -0.3314517E-03 -0.2143849E-05 -0.1656322E-03
1068812.  0.1370102E-03 -0.1668625E-02 -0.1144683E-06 -0.2981062E-03 -0.1336338E-05 -0.1076893E-03
1030641.  0.1419145E-03  0.8924000E-06  0.1490703E-05 -0.2338107E-03 -0.8155434E-06 -0.6878377E-04
 992469.  0.1375346E-03  0.1404820E-02  0.2656187E-05 -0.1539365E-03 -0.4859055E-06 -0.4305660E-04
 954297.  0.1258487E-03  0.2426639E-02  0.3333952E-05 -0.7326964E-04 -0.2816806E-06 -0.2633970E-04
 916125.  0.1093050E-03  0.3025550E-02  0.3556020E-05 -0.3396316E-05 -0.1582183E-06 -0.1569099E-04
 877953.  0.9038963E-04  0.3227221E-02  0.3410509E-05  0.4866032E-04 -0.8566641E-07 -0.9064331E-05
 839781.  0.7128125E-04  0.3104994E-02  0.3013448E-05  0.8053548E-04 -0.4441315E-07 -0.5051158E-05
 801609.  0.5363273E-04  0.2757196E-02  0.2482885E-05  0.9372715E-04 -0.2184877E-07 -0.2696908E-05
 763438.  0.3848800E-04  0.2285653E-02  0.1919713E-05  0.9222147E-04 -0.1006631E-07 -0.1367472E-05
 725266.  0.2631202E-04  0.1779183E-02  0.1397027E-05  0.8106809E-04 -0.4251544E-08 -0.6502628E-06
 687094.  0.1710381E-04  0.1303874E-02  0.9577038E-06  0.6514570E-04 -0.1581328E-08 -0.2840557E-06
 648922.  0.1054320E-04  0.9000322E-03  0.6179825E-06  0.4836821E-04 -0.4689817E-09 -0.1100330E-06
 610750.  0.6141092E-05  0.5844712E-03  0.3745309E-06  0.3333039E-04 -0.6902192E-10 -0.3471710E-07
 572578.  0.3364528E-05  0.3561050E-03  0.2124311E-06  0.2133444E-04  0.3883375E-10 -0.6356632E-08
 534406.  0.1723798E-05  0.2027107E-03  0.1121965E-06  0.1266055E-04  0.4616822E-10  0.1907495E-08
 496234.  0.8198645E-06  0.1071782E-03  0.5480744E-07  0.6935592E-05  0.2995146E-10  0.2881194E-08
 458062.  0.3586235E-06  0.5222062E-04  0.2454418E-07  0.3483647E-05  0.1514429E-10  0.1961904E-08
 419891.  0.1425569E-06  0.2320364E-04  0.9960459E-08  0.1589025E-05  0.6400228E-11  0.1007003E-08
 381719.  0.5069918E-07  0.9272771E-05  0.3607219E-08  0.6495357E-06  0.2296261E-11  0.4243741E-09
 343547.  0.1580160E-07  0.3271294E-05  0.1142235E-08  0.2336509E-06  0.6944986E-12  0.1491223E-09
 305375.  0.4196121E-08  0.9930908E-06  0.3075215E-09  0.7212527E-07  0.1732888E-12  0.4323227E-10
 267203.  0.9124593E-09  0.2502186E-06  0.6766610E-10  0.1843257E-07  0.3433923E-13  0.1003432E-10
 229031.  0.1532859E-09  0.4961419E-07  0.1148168E-10  0.3698748E-08  0.5090613E-14  0.1767902E-11
 190859.  0.1817319E-10  0.7126909E-08  0.1372590E-11  0.5365663E-09  0.5131316E-15  0.2169194E-12
 152688.  0.1306667E-11  0.6455153E-09  0.9935207E-13  0.4898359E-10  0.2987085E-16  0.1595814E-13
 114516.  0.4286715E-13  0.2840211E-10  0.3275973E-14  0.2168133E-11  0.7387302E-18  0.5267678E-15
  76344.  0.0000000E+00  0.0000000E+00  0.0000000E+00  0.0000000E+00  0.0000000E+00  0.0000000E+00
  38172.  0.0000000E+00  0.0000000E+00  0.0000000E+00  0.0000000E+00  0.0000000E+00  0.0000000E+00
      0.  0.0000000E+00  0.0000000E+00  0.0000000E+00  0.0000000E+00  0.0000000E+00  0.0000000E+00
