       3        6 S      226        392.73541         15.68101          5.52017        274.70941      185    7
6371000. -0.5642549E-01  0.5942416E+00  0.3327112E-01  0.8969661E-01 -0.2499757E-02  0.1239036E+00
6370000. -0.5651853E-01  0.5911986E+00  0.3325665E-01  0.9454472E-01 -0.2519188E-02  0.1236874E+00
6369000. -0.5661108E-01  0.5881282E+00  0.3324144E-01  0.9939102E-01 -0.2538585E-02  0.1234705E+00
6368000. -0.5670315E-01  0.5850303E+00  0.3322545E-01  0.1042354E+00 -0.2557948E-02  0.1232528E+00
6368000. -0.5670315E-01  0.5850303E+00  0.3322545E-01  0.1042354E+00 -0.2557948E-02  0.1232528E+00
6367000. -0.5679474E-01  0.5819049E+00  0.3320871E-01  0.1090777E+00 -0.2577277E-02  0.1230344E+00
6366000. -0.5688583E-01  0.5787520E+00  0.3319121E-01  0.1139178E+00 -0.2596572E-02  0.1228152E+00
6365000. -0.5697642E-01  0.5755717E+00  0.3317295E-01  0.1187557E+00 -0.2615832E-02  0.1225952E+00
6364000. -0.5706651E-01  0.5723640E+00  0.3315393E-01  0.1235911E+00 -0.2635057E-02  0.1223744E+00
6363000. -0.5715609E-01  0.5691289E+00  0.3313415E-01  0.1284241E+00 -0.2654248E-02  0.1221529E+00
6362000. -0.5724517E-01  0.5658664E+00  0.3311362E-01  0.1332544E+00 -0.2673403E-02  0.1219306E+00
6361000. -0.5733373E-01  0.5625765E+00  0.3309232E-01  0.1380819E+00 -0.2692524E-02  0.1217075E+00
6360000. -0.5742177E-01  0.5592594E+00  0.3307027E-01  0.1429066E+00 -0.2711610E-02  0.1214837E+00
6359000. -0.5750930E-01  0.5559149E+00  0.3304746E-01  0.1477283E+00 -0.2730661E-02  0.1212591E+00
6358000. -0.5759628E-01  0.5525432E+00  0.3302389E-01  0.1525470E+00 -0.2749676E-02  0.1210338E+00
6357000. -0.5768275E-01  0.5491442E+00  0.3299958E-01  0.1573624E+00 -0.2768656E-02  0.1208076E+00
6356000. -0.5776867E-01  0.5457180E+00  0.3297450E-01  0.1621745E+00 -0.2787600E-02  0.1205808E+00
6356000. -0.5776867E-01  0.4880003E+00  0.3297450E-01  0.1339437E+00 -0.2787600E-02  0.1331506E+00
6355000. -0.5784508E-01  0.4855945E+00  0.3295323E-01  0.1370171E+00 -0.2808478E-02  0.1328752E+00
6354000. -0.5792111E-01  0.4831719E+00  0.3293148E-01  0.1400887E+00 -0.2829313E-02  0.1325993E+00
6353000. -0.5799676E-01  0.4807324E+00  0.3290925E-01  0.1431583E+00 -0.2850104E-02  0.1323228E+00
6352000. -0.5807202E-01  0.4782759E+00  0.3288654E-01  0.1462260E+00 -0.2870852E-02  0.1320458E+00
6351000. -0.5814690E-01  0.4758026E+00  0.3286335E-01  0.1492916E+00 -0.2891556E-02  0.1317682E+00
6350000. -0.5822139E-01  0.4733124E+00  0.3283967E-01  0.1523550E+00 -0.2912217E-02  0.1314901E+00
6349000. -0.5829548E-01  0.4708053E+00  0.3281552E-01  0.1554164E+00 -0.2932834E-02  0.1312113E+00
6348000. -0.5836918E-01  0.4682814E+00  0.3279089E-01  0.1584756E+00 -0.2953407E-02  0.1309321E+00
6347000. -0.5844249E-01  0.4657407E+00  0.3276577E-01  0.1615325E+00 -0.2973936E-02  0.1306522E+00
6346600. -0.5847169E-01  0.4647197E+00  0.3275559E-01  0.1627546E+00 -0.2982136E-02  0.1305402E+00
6346600. -0.5847169E-01  0.5678902E+00  0.3275559E-01  0.1396323E+00 -0.2982136E-02  0.1509284E+00
6318800. -0.6083883E-01  0.5152327E+00  0.3201139E-01  0.2011929E+00 -0.3622590E-02  0.1425731E+00
6291000. -0.6295202E-01  0.4514996E+00  0.3100261E-01  0.2608047E+00 -0.4225962E-02  0.1339319E+00
6291000. -0.6295202E-01  0.4720774E+00  0.3100261E-01  0.2679695E+00 -0.4225962E-02  0.1339319E+00
6263000. -0.6486008E-01  0.3942973E+00  0.2969086E-01  0.3284643E+00 -0.4795409E-02  0.1251578E+00
6235000. -0.6640083E-01  0.3049688E+00  0.2812034E-01  0.3856340E+00 -0.5325643E-02  0.1160876E+00
6207000. -0.6752430E-01  0.2044777E+00  0.2630690E-01  0.4389175E+00 -0.5815364E-02  0.1067208E+00
6179000. -0.6818254E-01  0.9334882E-01  0.2426879E-01  0.4877927E+00 -0.6263264E-02  0.9705638E-01
6151000. -0.6833021E-01 -0.2774277E-01  0.2202645E-01  0.5317759E+00 -0.6668037E-02  0.8709443E-01
6151000. -0.6833021E-01  0.6437142E-01  0.2202645E-01  0.4770110E+00 -0.6668037E-02  0.9087483E-01
6128500. -0.6842539E-01 -0.1087310E-01  0.2029889E-01  0.5007971E+00 -0.6977070E-02  0.8412356E-01
6106000. -0.6825033E-01 -0.8860952E-01  0.1849299E-01  0.5213655E+00 -0.7262159E-02  0.7731768E-01
6083500. -0.6779694E-01 -0.1684278E+00  0.1662018E-01  0.5386781E+00 -0.7523132E-02  0.7046793E-01
6061000. -0.6705861E-01 -0.2499120E+00  0.1469203E-01  0.5527123E+00 -0.7759855E-02  0.6358637E-01
6038500. -0.6603019E-01 -0.3326447E+00  0.1272009E-01  0.5634686E+00 -0.7972233E-02  0.5668337E-01
6016000. -0.6470802E-01 -0.4161978E+00  0.1071594E-01  0.5709659E+00 -0.8160210E-02  0.4976904E-01
5993500. -0.6308998E-01 -0.5001436E+00  0.8691018E-02  0.5752364E+00 -0.8323765E-02  0.4285469E-01
5971000. -0.6117540E-01 -0.5840630E+00  0.6656633E-02  0.5763350E+00 -0.8462914E-02  0.3594941E-01
5971000. -0.6117540E-01 -0.5146071E+00  0.6656633E-02  0.5208154E+00 -0.8462914E-02  0.4395778E-01
5937667. -0.5824127E-01 -0.6060148E+00  0.3978118E-02  0.5023179E+00 -0.8669902E-02  0.3520189E-01
5904333. -0.5484472E-01 -0.6912504E+00  0.1407569E-02  0.4796566E+00 -0.8831683E-02  0.2668189E-01
5871000. -0.5101943E-01 -0.7698793E+00 -0.1035231E-02  0.4536422E+00 -0.8949585E-02  0.1843709E-01
5837667. -0.4680071E-01 -0.8416018E+00 -0.3334773E-02  0.4250115E+00 -0.9025146E-02  0.1050103E-01
5804333. -0.4222507E-01 -0.9062368E+00 -0.5479210E-02  0.3944311E+00 -0.9060055E-02  0.2901240E-02
5771000. -0.3733017E-01 -0.9636853E+00 -0.7459793E-02  0.3624947E+00 -0.9056136E-02 -0.4337683E-02
5771000. -0.3733017E-01 -0.9637104E+00 -0.7459793E-02  0.3624839E+00 -0.9056136E-02 -0.4337683E-02
5701000. -0.2584205E-01 -0.1123593E+01 -0.1117900E-01  0.3127803E+00 -0.8917842E-02 -0.2070189E-01
5701000. -0.2584205E-01 -0.9495411E+00 -0.1117900E-01  0.2500367E+00 -0.8917842E-02 -0.1341795E-01
5667333. -0.2081836E-01 -0.9585975E+00 -0.1239749E-01  0.2145334E+00 -0.8832952E-02 -0.1851270E-01
5633667. -0.1563975E-01 -0.1004169E+01 -0.1347430E-01  0.1939434E+00 -0.8723449E-02 -0.2289170E-01
5600000. -0.1022061E-01 -0.1045386E+01 -0.1444344E-01  0.1725360E+00 -0.8591221E-02 -0.2712314E-01
5600000. -0.1022061E-01 -0.1045386E+01 -0.1444344E-01  0.1725360E+00 -0.8591221E-02 -0.2712314E-01
5563518. -0.4119222E-02 -0.1084748E+01 -0.1536334E-01  0.1486551E+00 -0.8423293E-02 -0.3149239E-01
5527037.  0.2191403E-02 -0.1118490E+01 -0.1614492E-01  0.1242636E+00 -0.8230979E-02 -0.3564206E-01
5490556.  0.8678628E-02 -0.1146387E+01 -0.1678580E-01  0.9954131E-01 -0.8015535E-02 -0.3957114E-01
5454074.  0.1530844E-01 -0.1168215E+01 -0.1728460E-01  0.7466231E-01 -0.7778216E-02 -0.4328025E-01
5417593.  0.2204565E-01 -0.1183951E+01 -0.1764094E-01  0.4981806E-01 -0.7520296E-02 -0.4676893E-01
5381111.  0.2885536E-01 -0.1193450E+01 -0.1785550E-01  0.2516866E-01 -0.7243012E-02 -0.5004214E-01
5344630.  0.3570129E-01 -0.1196672E+01 -0.1792987E-01  0.8784826E-03 -0.6947601E-02 -0.5310319E-01
5308148.  0.4254801E-01 -0.1193660E+01 -0.1786654E-01 -0.2289769E-01 -0.6635255E-02 -0.5595542E-01
5271667.  0.4935928E-01 -0.1184354E+01 -0.1766888E-01 -0.4602093E-01 -0.6307157E-02 -0.5860946E-01
5235185.  0.5609968E-01 -0.1168873E+01 -0.1734100E-01 -0.6835483E-01 -0.5964410E-02 -0.6106915E-01
5198704.  0.6273389E-01 -0.1147327E+01 -0.1688780E-01 -0.8977649E-01 -0.5608133E-02 -0.6334110E-01
5162222.  0.6922755E-01 -0.1119748E+01 -0.1631480E-01 -0.1101754E+00 -0.5239324E-02 -0.6544406E-01
5125741.  0.7554645E-01 -0.1086384E+01 -0.1562819E-01 -0.1294478E+00 -0.4858971E-02 -0.6737759E-01
5089259.  0.8165829E-01 -0.1047387E+01 -0.1483464E-01 -0.1475059E+00 -0.4467987E-02 -0.6915672E-01
5052778.  0.8753092E-01 -0.1002932E+01 -0.1394138E-01 -0.1642673E+00 -0.4067222E-02 -0.7079895E-01
5016296.  0.9313421E-01 -0.9533029E+00 -0.1295599E-01 -0.1796674E+00 -0.3657428E-02 -0.7230856E-01
4979815.  0.9843888E-01 -0.8987219E+00 -0.1188648E-01 -0.1936467E+00 -0.3239333E-02 -0.7370570E-01
4943333.  0.1034176E+00 -0.8394707E+00 -0.1074107E-01 -0.2061600E+00 -0.2813510E-02 -0.7500461E-01
4906852.  0.1080444E+00 -0.7758721E+00 -0.9528321E-02 -0.2171749E+00 -0.2380530E-02 -0.7621311E-01
4870370.  0.1122953E+00 -0.7081928E+00 -0.8256827E-02 -0.2266616E+00 -0.1940802E-02 -0.7736067E-01
4833889.  0.1161477E+00 -0.6367960E+00 -0.6935448E-02 -0.2346098E+00 -0.1494674E-02 -0.7845333E-01
4797407.  0.1195815E+00 -0.5620194E+00 -0.5572930E-02 -0.2410172E+00 -0.1042405E-02 -0.7950649E-01
4760926.  0.1225782E+00 -0.4841927E+00 -0.4178181E-02 -0.2458820E+00 -0.5841461E-03 -0.8055244E-01
4724444.  0.1251215E+00 -0.4036967E+00 -0.2759903E-02 -0.2492259E+00 -0.1199001E-03 -0.8159464E-01
4687963.  0.1271970E+00 -0.3208917E+00 -0.1326821E-02 -0.2510695E+00  0.3503443E-03 -0.8265756E-01
4651482.  0.1287927E+00 -0.2361428E+00  0.1125849E-03 -0.2514413E+00  0.8268059E-03 -0.8376830E-01
4615000.  0.1298984E+00 -0.1498269E+00  0.1550052E-02 -0.2503857E+00  0.1309790E-02 -0.8493435E-01
4578518.  0.1305062E+00 -0.6231487E-01  0.2977484E-02 -0.2479439E+00  0.1799688E-02 -0.8618820E-01
4542037.  0.1306105E+00  0.2601722E-01  0.4387052E-02 -0.2441698E+00  0.2297057E-02 -0.8755010E-01
4505556.  0.1302074E+00  0.1148103E+00  0.5771343E-02 -0.2391247E+00  0.2802556E-02 -0.8903345E-01
4469074.  0.1292954E+00  0.2036911E+00  0.7123275E-02 -0.2328660E+00  0.3317020E-02 -0.9068106E-01
4432593.  0.1278752E+00  0.2923116E+00  0.8436034E-02 -0.2254671E+00  0.3841398E-02 -0.9250297E-01
4396111.  0.1259489E+00  0.3803332E+00  0.9703367E-02 -0.2169994E+00  0.4376779E-02 -0.9452602E-01
4359630.  0.1235214E+00  0.4673896E+00  0.1091929E-01 -0.2075356E+00  0.4924415E-02 -0.9679243E-01
4323148.  0.1205986E+00  0.5531918E+00  0.1207840E-01 -0.1971578E+00  0.5485761E-02 -0.9931301E-01
4286667.  0.1171891E+00  0.6374075E+00  0.1317562E-01 -0.1859449E+00  0.6062346E-02 -0.1021277E+00
4250185.  0.1133025E+00  0.7197317E+00  0.1420646E-01 -0.1739783E+00  0.6655997E-02 -0.1052723E+00
4213704.  0.1089506E+00  0.7999099E+00  0.1516681E-01 -0.1613432E+00  0.7268632E-02 -0.1087701E+00
4177222.  0.1041464E+00  0.8776435E+00  0.1605310E-01 -0.1481206E+00  0.7902442E-02 -0.1126695E+00
4140741.  0.9890478E-01  0.9526926E+00  0.1686218E-01 -0.1343954E+00  0.8559795E-02 -0.1170042E+00
4104259.  0.9324141E-01  0.1024857E+01  0.1759144E-01 -0.1202488E+00  0.9243314E-02 -0.1218108E+00
4067778.  0.8717395E-01  0.1093850E+01  0.1823867E-01 -0.1057625E+00  0.9955836E-02 -0.1271487E+00
4031296.  0.8072065E-01  0.1159542E+01  0.1880218E-01 -0.9101551E-01  0.1070055E-01 -0.1330546E+00
3994815.  0.7390123E-01  0.1221752E+01  0.1928066E-01 -0.7608407E-01  0.1148081E-01 -0.1395810E+00
3958333.  0.6673593E-01  0.1280258E+01  0.1967331E-01 -0.6104276E-01  0.1230040E-01 -0.1467967E+00
3921852.  0.5924655E-01  0.1335001E+01  0.1997967E-01 -0.4596189E-01  0.1316338E-01 -0.1547521E+00
3885370.  0.5145465E-01  0.1385821E+01  0.2019973E-01 -0.3090711E-01  0.1407423E-01 -0.1635203E+00
3848889.  0.4338352E-01  0.1432596E+01  0.2033381E-01 -0.1594306E-01  0.1503778E-01 -0.1731780E+00
3812407.  0.3505592E-01  0.1475308E+01  0.2038259E-01 -0.1124625E-02  0.1605937E-01 -0.1838014E+00
3775926.  0.2649599E-01  0.1513809E+01  0.2034708E-01  0.1349297E-01  0.1714476E-01 -0.1954857E+00
3739444.  0.1772746E-01  0.1548090E+01  0.2022854E-01  0.2786313E-01  0.1830036E-01 -0.2083289E+00
3702963.  0.8774902E-02  0.1578155E+01  0.2002853E-01  0.4194615E-01  0.1953303E-01 -0.2224380E+00
3666482. -0.3374074E-03  0.1603883E+01  0.1974879E-01  0.5570453E-01  0.2085042E-01 -0.2379372E+00
3630000. -0.9585081E-02  0.1625358E+01  0.1939125E-01  0.6911165E-01  0.2226089E-01 -0.2549612E+00
3630000. -0.9585081E-02  0.1625358E+01  0.1939125E-01  0.6911165E-01  0.2226089E-01 -0.2549612E+00
3592500. -0.1920583E-01  0.1642916E+01  0.1894485E-01  0.8250257E-01  0.2381733E-01 -0.2742051E+00
3555000. -0.2891649E-01  0.1655921E+01  0.1842083E-01  0.9548148E-01  0.2549268E-01 -0.2953979E+00
3517500. -0.3869057E-01  0.1664469E+01  0.1782165E-01  0.1080434E+00  0.2729901E-01 -0.3187454E+00
3480000. -0.4850174E-01  0.1668518E+01  0.1714975E-01  0.1201913E+00  0.2924964E-01 -0.3444707E+00
3480000. -0.4850174E-01  0.3457468E+00 -0.1908907E-01 -0.5351291E-01  0.2924964E-01 -0.1898040E+00
3409422. -0.5177667E-01  0.2469177E+00 -0.1844747E-01 -0.6206110E-01  0.3092493E-01 -0.1144639E+00
3338844. -0.5400470E-01  0.1568178E+00 -0.1771960E-01 -0.6910312E-01  0.3182483E-01 -0.4971635E-01
3268266. -0.5528478E-01  0.7582127E-01 -0.1692171E-01 -0.7471355E-01  0.3206316E-01  0.5089610E-02
3197688. -0.5571876E-01  0.4068613E-02 -0.1606924E-01 -0.7897151E-01  0.3174617E-01  0.5066027E-01
3127109. -0.5540880E-01 -0.5851139E-01 -0.1517665E-01 -0.8197023E-01  0.3097208E-01  0.8773854E-01
3056531. -0.5445544E-01 -0.1121412E+00 -0.1425738E-01 -0.8381018E-01  0.2983078E-01  0.1170855E+00
2985953. -0.5295596E-01 -0.1571753E+00 -0.1332366E-01 -0.8459385E-01  0.2840364E-01  0.1394697E+00
2915375. -0.5100313E-01 -0.1940694E+00 -0.1238663E-01 -0.8442417E-01  0.2676359E-01  0.1556510E+00
2844797. -0.4868427E-01 -0.2233513E+00 -0.1145628E-01 -0.8340696E-01  0.2497520E-01  0.1663717E+00
2774219. -0.4608050E-01 -0.2456061E+00 -0.1054141E-01 -0.8164638E-01  0.2309497E-01  0.1723475E+00
2703641. -0.4326627E-01 -0.2614543E+00 -0.9649703E-02 -0.7924125E-01  0.2117166E-01  0.1742606E+00
2633062. -0.4030896E-01 -0.2715393E+00 -0.8787752E-02 -0.7628813E-01  0.1924665E-01  0.1727531E+00
2562484. -0.3726886E-01 -0.2765166E+00 -0.7961127E-02 -0.7288042E-01  0.1735452E-01  0.1684243E+00
2491906. -0.3419889E-01 -0.2770422E+00 -0.7174380E-02 -0.6910200E-01  0.1552340E-01  0.1618269E+00
2421328. -0.3114474E-01 -0.2737694E+00 -0.6431183E-02 -0.6503046E-01  0.1377560E-01  0.1534638E+00
2350750. -0.2814490E-01 -0.2673415E+00 -0.5734380E-02 -0.6073774E-01  0.1212810E-01  0.1437888E+00
2280172. -0.2523081E-01 -0.2583947E+00 -0.5086068E-02 -0.5628468E-01  0.1059316E-01  0.1332060E+00
2209594. -0.2242687E-01 -0.2475614E+00 -0.4487739E-02 -0.5172161E-01  0.9178820E-02  0.1220698E+00
2139016. -0.1975045E-01 -0.2354794E+00 -0.3940389E-02 -0.4708602E-01  0.7889479E-02  0.1106869E+00
2068438. -0.1721176E-01 -0.2228100E+00 -0.3444685E-02 -0.4239987E-01  0.6726385E-02  0.9931740E-01
1997859. -0.1481337E-01 -0.2102691E+00 -0.3001149E-02 -0.3766449E-01  0.5688132E-02  0.8817810E-01
1927281. -0.1254952E-01 -0.1986760E+00 -0.2610462E-02 -0.3285237E-01  0.4771189E-02  0.7744524E-01
1856703. -0.1040433E-01 -0.1890365E+00 -0.2273795E-02 -0.2789637E-01  0.3970237E-02  0.6725753E-01
1786125. -0.8349182E-02 -0.1826761E+00 -0.1993378E-02 -0.2266949E-01  0.3278621E-02  0.5772118E-01
1715547. -0.6338043E-02 -0.1814661E+00 -0.1773325E-02 -0.1695160E-01  0.2688665E-02  0.4891523E-01
1644969. -0.4299445E-02 -0.1882066E+00 -0.1620942E-02 -0.1037463E-01  0.2191937E-02  0.4089893E-01
1574391. -0.2122881E-02 -0.2072907E+00 -0.1548853E-02 -0.2324901E-02  0.1779405E-02  0.3372311E-01
1503812.  0.3648105E-03 -0.2458904E+00 -0.1578595E-02  0.8229706E-02  0.1441443E-02  0.2744746E-01
1433234.  0.3440830E-02 -0.3161155E+00 -0.1746801E-02  0.2305383E-01  0.1167594E-02  0.2217140E-01
1362656.  0.7561448E-02 -0.4390796E+00 -0.2116263E-02  0.4523718E-01  0.9458294E-03  0.1808881E-01
1292078.  0.1350031E-01 -0.6527687E+00 -0.2796222E-02  0.8033749E-01  0.7610014E-03  0.1559417E-01
1221500.  0.2261251E-01 -0.1027825E+01 -0.3980923E-02  0.1386731E+00  0.5915857E-03  0.1549253E-01
1221500.  0.2261251E-01 -0.1112766E+00  0.6124748E-04 -0.1176211E+00  0.5915857E-03  0.5696700E-02
1183328.  0.2293432E-01  0.4158564E-03  0.6783722E-03 -0.8896343E-01  0.5518786E-03  0.7425548E-02
1145156.  0.2264776E-01  0.9197742E-01  0.1134334E-02 -0.6382472E-01  0.5040225E-03  0.8443961E-02
1106984.  0.2186992E-01  0.1646306E+00  0.1450151E-02 -0.4217134E-01  0.4518091E-03  0.8903275E-02
1068812.  0.2070988E-01  0.2198095E+00  0.1646440E-02 -0.2390441E-01  0.3981917E-03  0.8932479E-02
1030641.  0.1926766E-01  0.2591129E+00  0.1743047E-02 -0.8867269E-02  0.3454095E-03  0.8641799E-02
 992469.  0.1763319E-01  0.2842615E+00  0.1758730E-02  0.3147094E-02  0.2950911E-03  0.8123534E-02
 954297.  0.1588600E-01  0.2970442E+00  0.1710880E-02  0.1238410E-01  0.2483660E-03  0.7453890E-02
 916125.  0.1409472E-01  0.2992796E+00  0.1615324E-02  0.1911934E-01  0.2059466E-03  0.6695569E-02
 877953.  0.1231714E-01  0.2927716E+00  0.1486169E-02  0.2365026E-01  0.1682096E-03  0.5898205E-02
 839781.  0.1060035E-01  0.2792701E+00  0.1335709E-02  0.2628289E-01  0.1352675E-03  0.5100666E-02
 801609.  0.8981235E-02  0.2604386E+00  0.1174387E-02  0.2732724E-01  0.1070289E-03  0.4332337E-02
 763438.  0.7487064E-02  0.2378225E+00  0.1010815E-02  0.2708454E-01  0.8325246E-04  0.3614250E-02
 725266.  0.6136154E-02  0.2128259E+00  0.8518230E-03  0.2584397E-01  0.6359078E-04  0.2960464E-02
 687094.  0.4938998E-02  0.1866927E+00  0.7025797E-03  0.2387289E-01  0.4763135E-04  0.2379363E-02
 648922.  0.3899106E-02  0.1604947E+00  0.5667221E-03  0.2141405E-01  0.3492649E-04  0.1874313E-02
 610750.  0.3014105E-02  0.1351229E+00  0.4465173E-03  0.1868090E-01  0.2501963E-04  0.1445070E-02
 572578.  0.2276833E-02  0.1112858E+00  0.3430488E-03  0.1585497E-01  0.1746498E-04  0.1088392E-02
 534406.  0.1676419E-02  0.8951315E-01  0.2564114E-03  0.1308464E-01  0.1184306E-04  0.7988802E-03
 496234.  0.1199335E-02  0.7016385E-01  0.1859104E-03  0.1048506E-01  0.7771340E-05  0.5697043E-03
 458062.  0.8303868E-03  0.5343848E-01  0.1302584E-03  0.8139246E-02  0.4911009E-05  0.3931938E-03
 419891.  0.5536167E-03  0.3939571E-01  0.8776336E-04  0.6100074E-02  0.2970545E-05  0.2613260E-03
 381719.  0.3530779E-03  0.2796988E-01  0.5649641E-04  0.4393093E-02  0.1706266E-05  0.1661700E-03
 343547.  0.2135510E-03  0.1899470E-01  0.3445151E-04  0.3020329E-02  0.9210210E-06  0.1002225E-03
 305375.  0.1210548E-03  0.1222458E-01  0.1966940E-04  0.1964477E-02  0.4606252E-06  0.5666578E-04
 267203.  0.6325818E-04  0.7358357E-02  0.1034194E-04  0.1193168E-02  0.2092339E-06  0.2954158E-04
 229031.  0.2974066E-04  0.4063205E-02  0.4887789E-05  0.6638610E-03  0.8383954E-07  0.1385973E-04
 190859.  0.1211447E-04  0.1997199E-02  0.1999679E-05  0.3283538E-03  0.2832279E-07  0.5635351E-05
 152688.  0.4013624E-05  0.8308273E-03  0.6648460E-06  0.1372787E-03  0.7477442E-08  0.1864209E-05
 114516.  0.9605847E-06  0.2660408E-03  0.1595497E-06  0.4412680E-04  0.1338071E-08  0.4456191E-06
  76344.  0.1272630E-06  0.5299888E-04  0.2117845E-07  0.8814392E-05  0.1179219E-09  0.5898443E-07
  38172.  0.3991349E-08  0.3329181E-05  0.6649697E-09  0.5545654E-06  0.1846677E-11  0.1848759E-08
      0.  0.0000000E+00  0.0000000E+00  0.0000000E+00  0.0000000E+00  0.0000000E+00  0.0000000E+00
