      17        9 S      658        121.21320         34.76273         22.36912         88.97849      185    7
6371000.  0.9592129E-02  0.1409320E-02  0.2530008E-03 -0.9339129E-02 -0.2529075E-04 -0.1783560E-01
6370000.  0.9591520E-02  0.6356749E-02  0.2544342E-03 -0.8925364E-02 -0.2249083E-04 -0.1784080E-01
6369000.  0.9590134E-02  0.1130113E-01  0.2558024E-03 -0.8507405E-02 -0.1969019E-04 -0.1784461E-01
6368000.  0.9587972E-02  0.1624202E-01  0.2571047E-03 -0.8085356E-02 -0.1688907E-04 -0.1784704E-01
6368000.  0.9587972E-02  0.1624202E-01  0.2571047E-03 -0.8085356E-02 -0.1688907E-04 -0.1784704E-01
6367000.  0.9585035E-02  0.2117899E-01  0.2583404E-03 -0.7659325E-02 -0.1408768E-04 -0.1784807E-01
6366000.  0.9581324E-02  0.2611160E-01  0.2595089E-03 -0.7229420E-02 -0.1128624E-04 -0.1784773E-01
6365000.  0.9576838E-02  0.3103943E-01  0.2606097E-03 -0.6795754E-02 -0.8484952E-05 -0.1784600E-01
6364000.  0.9571580E-02  0.3596205E-01  0.2616421E-03 -0.6358436E-02 -0.5684049E-05 -0.1784288E-01
6363000.  0.9565550E-02  0.4087902E-01  0.2626056E-03 -0.5917579E-02 -0.2883745E-05 -0.1783837E-01
6362000.  0.9558748E-02  0.4578992E-01  0.2634996E-03 -0.5473297E-02 -0.8425620E-07 -0.1783248E-01
6361000.  0.9551176E-02  0.5069432E-01  0.2643236E-03 -0.5025704E-02  0.2714198E-05 -0.1782520E-01
6360000.  0.9542834E-02  0.5559181E-01  0.2650771E-03 -0.4574917E-02  0.5511401E-05 -0.1781653E-01
6359000.  0.9533725E-02  0.6048194E-01  0.2657596E-03 -0.4121050E-02  0.8307135E-05 -0.1780648E-01
6358000.  0.9523848E-02  0.6536432E-01  0.2663706E-03 -0.3664223E-02  0.1110118E-04 -0.1779504E-01
6357000.  0.9513206E-02  0.7023850E-01  0.2669097E-03 -0.3204554E-02  0.1389333E-04 -0.1778222E-01
6356000.  0.9501799E-02  0.7510408E-01  0.2673765E-03 -0.2742163E-02  0.1668335E-04 -0.1776801E-01
6356000.  0.9501799E-02  0.4943899E-01  0.2673765E-03 -0.5324361E-02  0.1668335E-04 -0.1983549E-01
6355000.  0.9493760E-02  0.5298924E-01  0.2681879E-03 -0.5015185E-02  0.1979608E-04 -0.1982677E-01
6354000.  0.9485165E-02  0.5653460E-01  0.2689507E-03 -0.4703914E-02  0.2290736E-04 -0.1981695E-01
6353000.  0.9476013E-02  0.6007485E-01  0.2696645E-03 -0.4390603E-02  0.2601701E-04 -0.1980603E-01
6352000.  0.9466306E-02  0.6360976E-01  0.2703289E-03 -0.4075306E-02  0.2912486E-04 -0.1979402E-01
6351000.  0.9456045E-02  0.6713911E-01  0.2709437E-03 -0.3758079E-02  0.3223074E-04 -0.1978090E-01
6350000.  0.9445230E-02  0.7066266E-01  0.2715086E-03 -0.3438976E-02  0.3533447E-04 -0.1976668E-01
6349000.  0.9433863E-02  0.7418021E-01  0.2720232E-03 -0.3118053E-02  0.3843589E-04 -0.1975137E-01
6348000.  0.9421944E-02  0.7769152E-01  0.2724873E-03 -0.2795366E-02  0.4153481E-04 -0.1973496E-01
6347000.  0.9409473E-02  0.8119638E-01  0.2729007E-03 -0.2470971E-02  0.4463108E-04 -0.1971745E-01
6346600.  0.9404331E-02  0.8259646E-01  0.2730517E-03 -0.2340748E-02  0.4586880E-04 -0.1971015E-01
6346600.  0.9404331E-02  0.5198744E-01  0.2730517E-03 -0.4558114E-02  0.4586880E-04 -0.2298930E-01
6318800.  0.9024703E-02  0.1214947E+00  0.2769016E-03  0.2931601E-02  0.1450330E-03 -0.2234634E-01
6291000.  0.8350400E-02  0.1866403E+00  0.2468591E-03  0.1083739E-01  0.2398830E-03 -0.2101436E-01
6291000.  0.8350400E-02  0.1892414E+00  0.2468591E-03  0.1149252E-01  0.2398830E-03 -0.2101436E-01
6263000.  0.7385077E-02  0.2487025E+00  0.1789269E-03  0.1925680E-01  0.3279888E-03 -0.1896980E-01
6235000.  0.6177566E-02  0.2991616E+00  0.7968760E-04  0.2559724E-01  0.4056981E-03 -0.1629375E-01
6207000.  0.4770922E-02  0.3391125E+00 -0.4284387E-04  0.2974391E-01  0.4703903E-03 -0.1306023E-01
6179000.  0.3213708E-02  0.3675571E+00 -0.1777192E-03  0.3114424E-01  0.5198166E-03 -0.9364094E-02
6151000.  0.1557787E-02  0.3839838E+00 -0.3121564E-03  0.2952432E-01  0.5521864E-03 -0.5318453E-02
6151000.  0.1557787E-02  0.3070377E+00 -0.3121564E-03  0.2571401E-01  0.5521864E-03 -0.5404639E-02
6128500.  0.4768822E-03  0.3042810E+00 -0.3973937E-03  0.2232401E-01  0.5663844E-03 -0.2625270E-02
6106000. -0.5859570E-03  0.2969001E+00 -0.4683151E-03  0.1764420E-01  0.5706832E-03  0.1933808E-03
6083500. -0.1615403E-02  0.2854654E+00 -0.5208031E-03  0.1193331E-01  0.5650290E-03  0.3003215E-02
6061000. -0.2598149E-02  0.2705468E+00 -0.5517590E-03  0.5506609E-02  0.5495364E-03  0.5757313E-02
6038500. -0.3522867E-02  0.2526899E+00 -0.5592686E-03 -0.1283949E-02  0.5244823E-03  0.8410641E-02
6016000. -0.4380072E-02  0.2323919E+00 -0.5426938E-03 -0.8071453E-02  0.4902987E-03  0.1092071E-01
5993500. -0.5161936E-02  0.2100899E+00 -0.5026866E-03 -0.1449565E-01  0.4475615E-03  0.1324831E-01
5971000. -0.5862058E-02  0.1861563E+00 -0.4411287E-03 -0.2022368E-01  0.3969794E-03  0.1535782E-01
5971000. -0.5862058E-02  0.1674455E+00 -0.4411287E-03 -0.1735849E-01  0.3969794E-03  0.1612522E-01
5937667. -0.6632742E-02  0.1272178E+00 -0.3349561E-03 -0.2283946E-01  0.3054583E-03  0.1875828E-01
5904333. -0.7194568E-02  0.8771381E-01 -0.2063702E-03 -0.2590091E-01  0.2017919E-03  0.2076031E-01
5871000. -0.7552835E-02  0.4948317E-01 -0.6816642E-04 -0.2653904E-01  0.8936814E-04  0.2210462E-01
5837667. -0.7715197E-02  0.1287392E-01  0.6751598E-04 -0.2499394E-01 -0.2835458E-04  0.2278687E-01
5804333. -0.7690808E-02 -0.2186736E-01  0.1902842E-03 -0.2168093E-01 -0.1479474E-03  0.2282216E-01
5771000. -0.7490022E-02 -0.5451933E-01  0.2922066E-03 -0.1711799E-01 -0.2660961E-03  0.2224284E-01
5771000. -0.7490022E-02 -0.5451796E-01  0.2922066E-03 -0.1711715E-01 -0.2660961E-03  0.2224284E-01
5701000. -0.6508035E-02 -0.1233633E+00  0.4264919E-03 -0.6924237E-02 -0.4937149E-03  0.1879268E-01
5701000. -0.6508035E-02 -0.9943899E-01  0.4264919E-03 -0.3851980E-02 -0.4937149E-03  0.2062706E-01
5667333. -0.5925674E-02 -0.1214029E+00  0.4328380E-03  0.1151911E-02 -0.5969598E-03  0.1840348E-01
5633667. -0.5218356E-02 -0.1464780E+00  0.4165361E-03  0.4892554E-02 -0.6876992E-03  0.1588205E-01
5600000. -0.4382949E-02 -0.1691168E+00  0.3823586E-03  0.7905888E-02 -0.7641905E-03  0.1301581E-01
5600000. -0.4382949E-02 -0.1691168E+00  0.3823586E-03  0.7905888E-02 -0.7641905E-03  0.1301581E-01
5563518. -0.3352561E-02 -0.1900869E+00  0.3300814E-03  0.1016792E-01 -0.8290843E-03  0.9602695E-02
5527037. -0.2214565E-02 -0.2065806E+00  0.2680968E-03  0.1128889E-01 -0.8737125E-03  0.5952904E-02
5490556. -0.9967367E-03 -0.2178546E+00  0.2029748E-03  0.1127303E-01 -0.8969779E-03  0.2156318E-02
5454074.  0.2692186E-03 -0.2232968E+00  0.1409710E-03  0.1022447E-01 -0.8983007E-03 -0.1696073E-02
5417593.  0.1548696E-02 -0.2225437E+00  0.8748781E-04  0.8335694E-02 -0.8776194E-03 -0.5514501E-02
5381111.  0.2805653E-02 -0.2154086E+00  0.4662522E-04  0.5862900E-02 -0.8353755E-03 -0.9212998E-02
5344630.  0.4003596E-02 -0.2019841E+00  0.2089053E-04  0.3103925E-02 -0.7724941E-03 -0.1271008E-01
5308148.  0.5107522E-02 -0.1826390E+00  0.1102960E-04  0.3697879E-03 -0.6903418E-03 -0.1593136E-01
5271667.  0.6085033E-02 -0.1579611E+00  0.1604043E-04 -0.2043463E-02 -0.5906955E-03 -0.1881089E-01
5235185.  0.6907979E-02 -0.1288053E+00  0.3332333E-04 -0.3877802E-02 -0.4756748E-03 -0.2129134E-01
5198704.  0.7553576E-02 -0.9620705E-01  0.5896242E-04 -0.4935242E-02 -0.3477125E-03 -0.2332542E-01
5162222.  0.8005393E-02 -0.6132269E-01  0.8812152E-04 -0.5093220E-02 -0.2094628E-03 -0.2487800E-01
5125741.  0.8253918E-02 -0.2541790E-01  0.1154922E-03 -0.4311282E-02 -0.6377182E-04 -0.2592235E-01
5089259.  0.8296940E-02  0.1024827E-01  0.1357824E-03 -0.2634389E-02  0.8641192E-04 -0.2644446E-01
5052778.  0.8139343E-02  0.4445786E-01  0.1441883E-03 -0.1873803E-03  0.2380766E-03 -0.2644124E-01
5016296.  0.7792675E-02  0.7611299E-01  0.1368201E-03  0.2838231E-02  0.3882342E-03 -0.2591855E-01
4979815.  0.7274366E-02  0.1042706E+00  0.1110451E-03  0.6197663E-02  0.5339459E-03 -0.2489348E-01
4943333.  0.6606617E-02  0.1282019E+00  0.6573023E-04  0.9615368E-02  0.6724127E-03 -0.2339160E-01
4906852.  0.5815169E-02  0.1474192E+00  0.1359564E-05  0.1280651E-01  0.8009880E-03 -0.2144624E-01
4870370.  0.4927843E-02  0.1616601E+00 -0.7997447E-04  0.1549593E-01  0.9172556E-03 -0.1909912E-01
4833889.  0.3973275E-02  0.1709371E+00 -0.1746876E-03  0.1744428E-01  0.1019041E-02 -0.1639712E-01
4797407.  0.2979257E-02  0.1754819E+00 -0.2779726E-03  0.1846193E-01  0.1104463E-02 -0.1339226E-01
4760926.  0.1971880E-02  0.1756985E+00 -0.3840938E-03  0.1842079E-01  0.1171944E-02 -0.1014145E-01
4724444.  0.9742035E-03  0.1721942E+00 -0.4868113E-03  0.1726979E-01  0.1220248E-02 -0.6703333E-02
4687963.  0.5658328E-05  0.1656511E+00 -0.5797930E-03  0.1503113E-01  0.1248473E-02 -0.3138900E-02
4651482. -0.9184649E-03  0.1568065E+00 -0.6570538E-03  0.1180097E-01  0.1256072E-02  0.4904521E-03
4615000. -0.1787217E-02  0.1464249E+00 -0.7133591E-03  0.7743403E-02  0.1242848E-02  0.4123827E-02
4578518. -0.2593772E-02  0.1351912E+00 -0.7445681E-03  0.3075744E-02  0.1208949E-02  0.7701738E-02
4542037. -0.3335021E-02  0.1237164E+00 -0.7479101E-03 -0.1944350E-02  0.1154861E-02  0.1116686E-01
4505556. -0.4011083E-02  0.1124890E+00 -0.7221595E-03 -0.7038365E-02  0.1081383E-02  0.1446517E-01
4469074. -0.4624352E-02  0.1018189E+00 -0.6677036E-03 -0.1192355E-01  0.9896127E-03  0.1754730E-01
4432593. -0.5178575E-02  0.9188820E-01 -0.5865153E-03 -0.1633397E-01  0.8809263E-03  0.2036721E-01
4396111. -0.5678117E-02  0.8270106E-01 -0.4819956E-03 -0.2003588E-01  0.7569368E-03  0.2288499E-01
4359630. -0.6126829E-02  0.7410517E-01 -0.3587764E-03 -0.2283960E-01  0.6194812E-03  0.2506656E-01
4323148. -0.6527449E-02  0.6584767E-01 -0.2223885E-03 -0.2461795E-01  0.4705636E-03  0.2688265E-01
4286667. -0.6880900E-02  0.5756833E-01 -0.7893186E-04 -0.2530414E-01  0.3123512E-03  0.2831135E-01
4250185. -0.7185916E-02  0.4885853E-01  0.6531616E-04 -0.2489908E-01  0.1471013E-03  0.2933690E-01
4213704. -0.7438833E-02  0.3930626E-01  0.2042673E-03 -0.2347168E-01 -0.2283544E-04  0.2994889E-01
4177222. -0.7633712E-02  0.2852656E-01  0.3324020E-03 -0.2114502E-01 -0.1950896E-03  0.3014467E-01
4140741. -0.7762589E-02  0.1621152E-01  0.4450450E-03 -0.1809506E-01 -0.3672724E-03  0.2992638E-01
4104259. -0.7816035E-02  0.2156844E-02  0.5386575E-03 -0.1453443E-01 -0.5370412E-03  0.2930184E-01
4067778. -0.7783842E-02 -0.1369803E-01  0.6109643E-03 -0.1069439E-01 -0.7021006E-03  0.2828583E-01
4031296. -0.7655851E-02 -0.3127730E-01  0.6610646E-03 -0.6817892E-02 -0.8602659E-03  0.2689559E-01
3994815. -0.7422796E-02 -0.5034026E-01  0.6894208E-03 -0.3136994E-02 -0.1009448E-02  0.2515388E-01
3958333. -0.7077266E-02 -0.7048218E-01  0.6977616E-03  0.1407016E-03 -0.1147719E-02  0.2308805E-01
3921852. -0.6614517E-02 -0.9118959E-01  0.6889177E-03  0.2839654E-02 -0.1273295E-02  0.2072640E-01
3885370. -0.6033078E-02 -0.1118150E+00  0.6665922E-03  0.4832204E-02 -0.1384581E-02  0.1810098E-01
3848889. -0.5335513E-02 -0.1316341E+00  0.6350757E-03  0.6041765E-02 -0.1480156E-02  0.1524564E-01
3812407. -0.4528491E-02 -0.1499114E+00  0.5989387E-03  0.6446825E-02 -0.1558804E-02  0.1219373E-01
3775926. -0.3623103E-02 -0.1658745E+00  0.5627183E-03  0.6081344E-02 -0.1619496E-02  0.8980616E-02
3739444. -0.2634570E-02 -0.1788373E+00  0.5306046E-03  0.5030251E-02 -0.1661409E-02  0.5639930E-02
3702963. -0.1581860E-02 -0.1882053E+00  0.5061735E-03  0.3423108E-02 -0.1683905E-02  0.2204364E-02
3666482. -0.4870596E-03 -0.1934715E+00  0.4921506E-03  0.1424741E-02 -0.1686533E-02 -0.1294683E-02
3630000.  0.6254627E-03 -0.1943507E+00  0.4902441E-03 -0.7760509E-03 -0.1669011E-02 -0.4828768E-02
3630000.  0.6254627E-03 -0.1943507E+00  0.4902441E-03 -0.7760509E-03 -0.1669011E-02 -0.4828768E-02
3592500.  0.1760504E-02 -0.1905226E+00  0.5015223E-03 -0.3038151E-02 -0.1629868E-02 -0.8470944E-02
3555000.  0.2859037E-02 -0.1819800E+00  0.5255870E-03 -0.5085474E-02 -0.1569319E-02 -0.1209874E-01
3517500.  0.3894165E-02 -0.1690472E+00  0.5605709E-03 -0.6716762E-02 -0.1487509E-02 -0.1569218E-01
3480000.  0.4841410E-02 -0.1522179E+00  0.6034981E-03 -0.7758545E-02 -0.1384685E-02 -0.1923689E-01
3480000.  0.4841410E-02 -0.2812952E+00  0.3562764E-03  0.8204877E-02 -0.1384685E-02 -0.3467560E-01
3409422.  0.7459708E-02 -0.1859862E+00  0.2345517E-03  0.1349851E-01 -0.8860365E-03 -0.5415009E-01
3338844.  0.8878252E-02 -0.6799036E-01  0.6453766E-04  0.1681743E-01 -0.2160219E-03 -0.6525683E-01
3268266.  0.8954868E-02  0.5312573E-01 -0.1290437E-03  0.1770833E-01  0.5236651E-03 -0.6663091E-01
3197688.  0.7754324E-02  0.1600029E+00 -0.3184802E-03  0.1608459E-01  0.1224726E-02 -0.5842836E-01
3127109.  0.5511221E-02  0.2396004E+00 -0.4770340E-03  0.1220002E-01  0.1788182E-02 -0.4212567E-01
3056531.  0.2575300E-02  0.2842904E+00 -0.5823592E-03  0.6580862E-02  0.2137105E-02 -0.2016265E-01
2985953. -0.6503938E-03  0.2920117E+00 -0.6190265E-03 -0.6847232E-04  0.2224937E-02  0.4497744E-02
2915375. -0.3768153E-02  0.2656401E+00 -0.5799179E-03 -0.6968977E-02  0.2038765E-02  0.2881363E-01
2844797. -0.6434340E-02  0.2118380E+00 -0.4664925E-03 -0.1336657E-01  0.1597970E-02  0.5005526E-01
2774219. -0.8393532E-02  0.1396207E+00 -0.2880320E-03 -0.1861514E-01  0.9490297E-03  0.6609961E-01
2703641. -0.9496402E-02  0.5889059E-01 -0.6008951E-04 -0.2223635E-01  0.1577096E-03  0.7560693E-01
2633062. -0.9702030E-02 -0.2088379E-01  0.1975813E-03 -0.2395279E-01 -0.7000446E-03  0.7807641E-01
2562484. -0.9067059E-02 -0.9169928E-01  0.4632953E-03 -0.2369407E-01 -0.1547153E-02  0.7379427E-01
2491906. -0.7725323E-02 -0.1477082E+00  0.7156770E-03 -0.2157996E-01 -0.2313504E-02  0.6369781E-01
2421328. -0.5861892E-02 -0.1855319E+00  0.9355700E-03 -0.1788485E-01 -0.2942103E-02  0.4918468E-01
2350750. -0.3685488E-02 -0.2042516E+00  0.1107496E-02 -0.1298978E-01 -0.3393002E-02  0.3189980E-01
2280172. -0.1402613E-02 -0.2051224E+00  0.1220547E-02 -0.7329706E-02 -0.3644876E-02  0.1352704E-01
2209594.  0.8041399E-03 -0.1911191E+00  0.1268683E-02 -0.1340286E-02 -0.3694421E-02 -0.4390998E-02
2139016.  0.2792130E-02 -0.1663872E+00  0.1250470E-02  0.4590538E-02 -0.3553984E-02 -0.2058951E-01
2068438.  0.4468634E-02 -0.1357064E+00  0.1168310E-02  0.1016389E-01 -0.3247969E-02 -0.3416653E-01
1997859.  0.5795181E-02 -0.1040243E+00  0.1027267E-02  0.1520317E-01 -0.2808583E-02 -0.4461497E-01
1927281.  0.6787578E-02 -0.7616857E-01  0.8335614E-03  0.1968113E-01 -0.2271545E-02 -0.5180495E-01
1856703.  0.7513970E-02 -0.5676083E-01  0.5927536E-03  0.2374850E-01 -0.1672155E-02 -0.5592527E-01
1786125.  0.8093493E-02 -0.5045938E-01  0.3075863E-03  0.2777166E-01 -0.1042294E-02 -0.5738663E-01
1715547.  0.8699916E-02 -0.6262848E-01 -0.2474346E-04  0.3240064E-01 -0.4086590E-03 -0.5668861E-01
1644969.  0.9576219E-02 -0.1007057E+00 -0.4163762E-03  0.3870134E-01  0.2072543E-03 -0.5423309E-01
1574391.  0.1107035E-01 -0.1767778E+00 -0.8946810E-03  0.4841702E-01  0.7866030E-03 -0.5003588E-01
1503812.  0.1371088E-01 -0.3124684E+00 -0.1512329E-02  0.6449067E-01  0.1306383E-02 -0.4321295E-01
1433234.  0.1835955E-01 -0.5485184E+00 -0.2365701E-02  0.9211957E-01  0.1724455E-02 -0.3095954E-01
1362656.  0.2651881E-01 -0.9644431E+00 -0.3630553E-02  0.1409444E+00  0.1947756E-02 -0.6358786E-02
1292078.  0.4096437E-01 -0.1720653E+01 -0.5633811E-02  0.2297335E+00  0.1763137E-02  0.4654818E-01
1221500.  0.6709394E-01 -0.3153131E+01 -0.9004780E-02  0.3968445E+00  0.6824305E-03  0.1642989E+00
1221500.  0.6709394E-01  0.1211659E+02  0.2961818E-01 -0.1954630E+00  0.6824305E-03  0.1352336E+00
1183328. -0.8859237E-02  0.1280925E+02  0.2807193E-01  0.7092295E+00  0.4085407E-04  0.8196089E-01
1145156. -0.8110961E-01  0.1087205E+02  0.2136503E-01  0.1492343E+01 -0.3313582E-03  0.4456305E-01
1106984. -0.1343318E+00  0.6544559E+01  0.1079449E-01  0.1975086E+01 -0.5167884E-03  0.1902749E-01
1068812. -0.1562484E+00  0.5833532E+00 -0.1502296E-02  0.2060462E+01 -0.5768719E-03  0.2278218E-02
1030641. -0.1402415E+00 -0.5916229E+01 -0.1309727E-01  0.1749009E+01 -0.5569492E-03 -0.8013132E-02
 992469. -0.8666163E-01 -0.1176644E+02 -0.2184091E-01  0.1129394E+01 -0.4902136E-03 -0.1359927E-01
 954297. -0.2619438E-02 -0.1593822E+02 -0.2630861E-01  0.3491430E+00 -0.4006958E-03 -0.1581162E-01
 916125.  0.9960930E-01 -0.1776319E+02 -0.2603782E-01 -0.4251499E+00 -0.3053790E-03 -0.1568750E-01
 877953.  0.2051237E+00 -0.1704273E+02 -0.2152136E-01 -0.1047158E+01 -0.2156994E-03 -0.1405379E-01
 839781.  0.2992695E+00 -0.1404913E+02 -0.1399087E-01 -0.1420292E+01 -0.1386304E-03 -0.1157722E-01
 801609.  0.3702138E+00 -0.9429002E+01 -0.5068760E-02 -0.1511609E+01 -0.7757881E-04 -0.8785099E-02
 763438.  0.4107209E+00 -0.4040112E+01  0.3612984E-02 -0.1349226E+01 -0.3317176E-04 -0.6078538E-02
 725266.  0.4188611E+00  0.1235986E+01  0.1073671E-01 -0.1006214E+01 -0.4016146E-05 -0.3728186E-02
 687094.  0.3976285E+00  0.5660500E+01  0.1549907E-01 -0.5772660E+00  0.1250284E-04 -0.1876608E-02
 648922.  0.3537122E+00  0.8752747E+01  0.1766804E-01 -0.1545797E+00  0.1957208E-04 -0.5738981E-03
 610750.  0.2957779E+00  0.1033515E+02  0.1750753E-01  0.1909650E+00  0.2037948E-04  0.2265593E-03
 572578.  0.2326896E+00  0.1051016E+02  0.1561448E-01  0.4199908E+00  0.1766582E-04  0.6197272E-03
 534406.  0.1720370E+00  0.9585280E+01  0.1272310E-01  0.5254782E+00  0.1352707E-04  0.7224913E-03
 496234.  0.1192033E+00  0.7971877E+01  0.9527993E-02  0.5260793E+00  0.9349389E-05  0.6511666E-03
 458062.  0.7705089E-01  0.6084608E+01  0.6561901E-02  0.4552089E+00  0.5872538E-05  0.5023345E-03
 419891.  0.4615111E-01  0.4263597E+01  0.4142181E-02  0.3495848E+00  0.3348872E-05  0.3417364E-03
 381719.  0.2537567E-01  0.2731220E+01  0.2379587E-02  0.2401988E+00  0.1722404E-05  0.2069596E-03
 343547.  0.1264307E-01  0.1585702E+01  0.1230002E-02  0.1473581E+00  0.7891264E-06  0.1111045E-03
 305375.  0.5605500E-02  0.8228357E+00  0.5624309E-03  0.7991175E-01  0.3160988E-06  0.5223877E-04
 267203.  0.2155019E-02  0.3735795E+00  0.2218739E-03  0.3759270E-01  0.1075978E-06  0.2103384E-04
 229031.  0.6913356E-03  0.1436440E+00  0.7271441E-04  0.1487393E-01  0.2983209E-07  0.6991879E-05
 190859.  0.1742985E-03  0.4441955E-01  0.1865452E-04  0.4705602E-02  0.6302025E-08  0.1811588E-05
 152688.  0.3122463E-04  0.1012031E-01  0.3388333E-05  0.1091348E-02  0.9054978E-09  0.3310207E-06
 114516.  0.3288447E-05  0.1439830E-02  0.3606077E-06  0.1573542E-03  0.7149714E-10  0.3529411E-07
  76344.  0.1330138E-06  0.8816327E-04  0.1469388E-07  0.9724948E-05  0.1922247E-11  0.1435601E-08
  38172.  0.5308832E-09  0.7075695E-06  0.5890177E-10  0.7847673E-07  0.3815287E-14  0.5718512E-11
      0.  0.0000000E+00  0.0000000E+00  0.0000000E+00  0.0000000E+00  0.0000000E+00  0.0000000E+00
