       2       23 S      187        201.27220          8.46322          8.71477        408.04800      185    7
6371000. -0.5885019E-02 -0.1655095E+00 -0.7838366E-03  0.5101182E-02  0.6434222E-03 -0.4344365E-02
6370000. -0.5858942E-02 -0.1667558E+00 -0.7846127E-03  0.4787777E-02  0.6441027E-03 -0.4326019E-02
6369000. -0.5832672E-02 -0.1679794E+00 -0.7853395E-03  0.4473646E-02  0.6447803E-03 -0.4307953E-02
6368000. -0.5806211E-02 -0.1691802E+00 -0.7860170E-03  0.4158814E-02  0.6454551E-03 -0.4290165E-02
6368000. -0.5806211E-02 -0.1691802E+00 -0.7860170E-03  0.4158814E-02  0.6454551E-03 -0.4290165E-02
6367000. -0.5779563E-02 -0.1703581E+00 -0.7866450E-03  0.3843306E-02  0.6461271E-03 -0.4272658E-02
6366000. -0.5752733E-02 -0.1715129E+00 -0.7872235E-03  0.3527144E-02  0.6467964E-03 -0.4255434E-02
6365000. -0.5725723E-02 -0.1726447E+00 -0.7877523E-03  0.3210353E-02  0.6474630E-03 -0.4238491E-02
6364000. -0.5698537E-02 -0.1737533E+00 -0.7882313E-03  0.2892957E-02  0.6481269E-03 -0.4221833E-02
6363000. -0.5671179E-02 -0.1748388E+00 -0.7886604E-03  0.2574981E-02  0.6487883E-03 -0.4205459E-02
6362000. -0.5643652E-02 -0.1759009E+00 -0.7890396E-03  0.2256449E-02  0.6494471E-03 -0.4189371E-02
6361000. -0.5615961E-02 -0.1769396E+00 -0.7893688E-03  0.1937386E-02  0.6501035E-03 -0.4173570E-02
6360000. -0.5588108E-02 -0.1779550E+00 -0.7896477E-03  0.1617814E-02  0.6507573E-03 -0.4158057E-02
6359000. -0.5560098E-02 -0.1789468E+00 -0.7898766E-03  0.1297761E-02  0.6514088E-03 -0.4142833E-02
6358000. -0.5531934E-02 -0.1799151E+00 -0.7900551E-03  0.9772485E-03  0.6520579E-03 -0.4127899E-02
6357000. -0.5503620E-02 -0.1808597E+00 -0.7901834E-03  0.6563028E-03  0.6527046E-03 -0.4113256E-02
6356000. -0.5475159E-02 -0.1817807E+00 -0.7902611E-03  0.3349480E-03  0.6533492E-03 -0.4098906E-02
6356000. -0.5475159E-02 -0.1559580E+00 -0.7902611E-03  0.2063670E-02  0.6533492E-03 -0.2907575E-02
6355000. -0.5450622E-02 -0.1567012E+00 -0.7905720E-03  0.1897253E-02  0.6538031E-03 -0.2876219E-02
6354000. -0.5425968E-02 -0.1574322E+00 -0.7908568E-03  0.1730568E-02  0.6542521E-03 -0.2845062E-02
6353000. -0.5401201E-02 -0.1581511E+00 -0.7911153E-03  0.1563622E-02  0.6546962E-03 -0.2814103E-02
6352000. -0.5376321E-02 -0.1588579E+00 -0.7913476E-03  0.1396423E-02  0.6551355E-03 -0.2783342E-02
6351000. -0.5351332E-02 -0.1595524E+00 -0.7915536E-03  0.1228978E-02  0.6555700E-03 -0.2752781E-02
6350000. -0.5326235E-02 -0.1602347E+00 -0.7917333E-03  0.1061295E-02  0.6559996E-03 -0.2722419E-02
6349000. -0.5301032E-02 -0.1609047E+00 -0.7918868E-03  0.8933822E-03  0.6564246E-03 -0.2692257E-02
6348000. -0.5275724E-02 -0.1615624E+00 -0.7920138E-03  0.7252467E-03  0.6568448E-03 -0.2662295E-02
6347000. -0.5250314E-02 -0.1622077E+00 -0.7921144E-03  0.5568967E-03  0.6572604E-03 -0.2632534E-02
6346600. -0.5240122E-02 -0.1624624E+00 -0.7921472E-03  0.4894983E-03  0.6574253E-03 -0.2620685E-02
6346600. -0.5240122E-02 -0.1805616E+00 -0.7921472E-03  0.1780998E-02  0.6574253E-03 -0.7935312E-03
6318800. -0.4420394E-02 -0.1942499E+00 -0.7947266E-03 -0.6189737E-03  0.6586992E-03  0.1925937E-03
6291000. -0.3553173E-02 -0.2022547E+00 -0.7866149E-03 -0.3108554E-02  0.6558877E-03  0.1080256E-02
6291000. -0.3553173E-02 -0.2087301E+00 -0.7866149E-03 -0.3334310E-02  0.6558877E-03  0.1080256E-02
6263000. -0.2630184E-02 -0.2101504E+00 -0.7658301E-03 -0.6121229E-02  0.6495003E-03  0.1811123E-02
6235000. -0.1716243E-02 -0.2045918E+00 -0.7328962E-03 -0.8849621E-02  0.6400973E-03  0.2453870E-02
6207000. -0.8421199E-03 -0.1920455E+00 -0.6882462E-03 -0.1143971E-01  0.6280491E-03  0.3016194E-02
6179000. -0.3814782E-04 -0.1727192E+00 -0.6326590E-03 -0.1381439E-01  0.6136917E-03  0.3506034E-02
6151000.  0.6667337E-03 -0.1470401E+00 -0.5672417E-03 -0.1590152E-01  0.5973260E-03  0.3931429E-02
6151000.  0.6667337E-03 -0.1442217E+00 -0.5672417E-03 -0.1410613E-01  0.5973260E-03  0.3894542E-02
6128500.  0.1141321E-02 -0.1242257E+00 -0.5159111E-03 -0.1492837E-01  0.5829420E-03  0.4244789E-02
6106000.  0.1542000E-02 -0.1024312E+00 -0.4620467E-03 -0.1554031E-01  0.5673881E-03  0.4557485E-02
6083500.  0.1863129E-02 -0.7924103E-01 -0.4063964E-03 -0.1593973E-01  0.5507924E-03  0.4835203E-02
6061000.  0.2100499E-02 -0.5506418E-01 -0.3497095E-03 -0.1612778E-01  0.5332742E-03  0.5080330E-02
6038500.  0.2251348E-02 -0.3030973E-01 -0.2927254E-03 -0.1610906E-01  0.5149444E-03  0.5295176E-02
6016000.  0.2314354E-02 -0.5381447E-02 -0.2361616E-03 -0.1589123E-01  0.4959060E-03  0.5481942E-02
5993500.  0.2289596E-02  0.1932967E-01 -0.1807041E-03 -0.1548455E-01  0.4762546E-03  0.5642702E-02
5971000.  0.2178507E-02  0.4345088E-01 -0.1269976E-03 -0.1490188E-01  0.4560783E-03  0.5779544E-02
5971000.  0.2178507E-02  0.3676603E-01 -0.1269976E-03 -0.1353119E-01  0.4560783E-03  0.5494359E-02
5937667.  0.1910979E-02  0.6488579E-01 -0.5982951E-04 -0.1211449E-01  0.4270254E-03  0.5601417E-02
5904333.  0.1506329E-02  0.8911465E-01 -0.4719952E-06 -0.1055866E-01  0.3975672E-03  0.5649485E-02
5871000.  0.9857258E-03  0.1091881E+00  0.5054960E-04 -0.8940327E-02  0.3680050E-03  0.5642226E-02
5837667.  0.3711435E-03  0.1250424E+00  0.9308176E-04 -0.7322972E-02  0.3386158E-03  0.5584129E-02
5804333. -0.3155563E-03  0.1367749E+00  0.1272685E-03 -0.5757171E-02  0.3096514E-03  0.5480454E-02
5771000. -0.1053294E-02  0.1446052E+00  0.1534830E-03 -0.4281263E-02  0.2813367E-03  0.5337143E-02
5771000. -0.1053294E-02  0.1446116E+00  0.1534830E-03 -0.4281080E-02  0.2813367E-03  0.5337143E-02
5701000. -0.2724862E-02  0.1572775E+00  0.1865762E-03 -0.1770518E-02  0.2248879E-03  0.4936701E-02
5701000. -0.2724862E-02  0.1355372E+00  0.1865762E-03 -0.7135945E-03  0.2248879E-03  0.5704741E-02
5667333. -0.3423329E-02  0.1296382E+00  0.1879729E-03  0.9692727E-04  0.1961372E-03  0.5172015E-02
5633667. -0.4103233E-02  0.1279364E+00  0.1862671E-03  0.5187337E-03  0.1701621E-03  0.4669617E-02
5600000. -0.4772577E-02  0.1251351E+00  0.1825177E-03  0.8958822E-03  0.1467092E-03  0.4212341E-02
5600000. -0.4772577E-02  0.1251351E+00  0.1825177E-03  0.8958822E-03  0.1467092E-03  0.4212341E-02
5563518. -0.5477752E-02  0.1209876E+00  0.1763647E-03  0.1242596E-02  0.1239076E-03  0.3758433E-02
5527037. -0.6156309E-02  0.1158757E+00  0.1684080E-03  0.1526076E-02  0.1035913E-03  0.3343828E-02
5490556. -0.6803271E-02  0.1099817E+00  0.1590057E-03  0.1747922E-02  0.8554511E-04  0.2965078E-02
5454074. -0.7414687E-02  0.1034852E+00  0.1485027E-03  0.1910796E-02  0.6957057E-04  0.2619524E-02
5417593. -0.7987613E-02  0.9657385E-01  0.1372312E-03  0.2016982E-02  0.5549004E-04  0.2303157E-02
5381111. -0.8520203E-02  0.8941895E-01  0.1255039E-03  0.2070596E-02  0.4314198E-04  0.2013994E-02
5344630. -0.9011511E-02  0.8218796E-01  0.1136107E-03  0.2075602E-02  0.3237798E-04  0.1749466E-02
5308148. -0.9461596E-02  0.7504126E-01  0.1018192E-03  0.2035803E-02  0.2306540E-04  0.1506649E-02
5271667. -0.9871333E-02  0.6812259E-01  0.9037101E-04  0.1956594E-02  0.1508372E-04  0.1284421E-02
5235185. -0.1024245E-01  0.6157015E-01  0.7947976E-04  0.1841737E-02  0.8321907E-05  0.1079968E-02
5198704. -0.1057739E-01  0.5551069E-01  0.6933916E-04  0.1695418E-02  0.2686520E-05  0.8909244E-03
5162222. -0.1087932E-01  0.5005463E-01  0.6011230E-04  0.1523167E-02 -0.1910553E-05  0.7169316E-03
5125741. -0.1115198E-01  0.4530814E-01  0.5194032E-04  0.1327518E-02 -0.5545388E-05  0.5543469E-03
5089259. -0.1139973E-01  0.4136521E-01  0.4494607E-04  0.1112526E-02 -0.8278092E-05  0.4017189E-03
5052778. -0.1162740E-01  0.3831003E-01  0.3922834E-04  0.8821401E-03 -0.1016304E-04  0.2578370E-03
5016296. -0.1184031E-01  0.3622185E-01  0.3487005E-04  0.6380420E-03 -0.1124097E-04  0.1194157E-03
4979815. -0.1204420E-01  0.3517367E-01  0.3194124E-04  0.3833810E-03 -0.1153859E-04 -0.1491408E-04
4943333. -0.1224524E-01  0.3523422E-01  0.3049632E-04  0.1198196E-03 -0.1107357E-04 -0.1475430E-03
4906852. -0.1244996E-01  0.3647274E-01  0.3058538E-04 -0.1521032E-03 -0.9845109E-05 -0.2819094E-03
4870370. -0.1266531E-01  0.3895700E-01  0.3224949E-04 -0.4301311E-03 -0.7839805E-05 -0.4192620E-03
4833889. -0.1289861E-01  0.4275880E-01  0.3552495E-04 -0.7151891E-03 -0.5029551E-05 -0.5638839E-03
4797407. -0.1315766E-01  0.4795840E-01  0.4045494E-04 -0.1007825E-02 -0.1360694E-05 -0.7195010E-03
4760926. -0.1345067E-01  0.5464035E-01  0.4707924E-04 -0.1307232E-02  0.3235371E-05 -0.8884928E-03
4724444. -0.1378643E-01  0.6290511E-01  0.5544523E-04 -0.1616536E-02  0.8852399E-05 -0.1077050E-02
4687963. -0.1417431E-01  0.7286743E-01  0.6561349E-04 -0.1936886E-02  0.1561632E-04 -0.1289816E-02
4651482. -0.1462440E-01  0.8465808E-01  0.7765052E-04 -0.2269837E-02  0.2367954E-04 -0.1532089E-02
4615000. -0.1514763E-01  0.9843639E-01  0.9164160E-04 -0.2619784E-02  0.3323549E-04 -0.1812427E-02
4578518. -0.1575587E-01  0.1143823E+00  0.1076889E-03 -0.2988366E-02  0.4452219E-04 -0.2137871E-02
4542037. -0.1646210E-01  0.1327082E+00  0.1259086E-03 -0.3379597E-02  0.5782409E-04 -0.2518444E-02
4505556. -0.1728068E-01  0.1536683E+00  0.1464461E-03 -0.3798374E-02  0.7349412E-04 -0.2966918E-02
4469074. -0.1822751E-01  0.1775453E+00  0.1694638E-03 -0.4246208E-02  0.9195276E-04 -0.3494657E-02
4432593. -0.1932018E-01  0.2046776E+00  0.1951429E-03 -0.4729234E-02  0.1137027E-03 -0.4120015E-02
4396111. -0.2057849E-01  0.2354567E+00  0.2236999E-03 -0.5251264E-02  0.1393603E-03 -0.4862385E-02
4359630. -0.2202446E-01  0.2703112E+00  0.2553576E-03 -0.5813117E-02  0.1696506E-03 -0.5742689E-02
4323148. -0.2368293E-01  0.3097574E+00  0.2903620E-03 -0.6420464E-02  0.2054507E-03 -0.6791836E-02
4286667. -0.2558170E-01  0.3543568E+00  0.3289725E-03 -0.7072491E-02  0.2478146E-03 -0.8041190E-02
4250185. -0.2775215E-01  0.4047391E+00  0.3714400E-03 -0.7767145E-02  0.2979976E-03 -0.9529966E-02
4213704. -0.3022928E-01  0.4616198E+00  0.4180047E-03 -0.8502789E-02  0.3575081E-03 -0.1130821E-01
4177222. -0.3305258E-01  0.5257525E+00  0.4688708E-03 -0.9266537E-02  0.4281579E-03 -0.1343003E-01
4140741. -0.3626572E-01  0.5979571E+00  0.5241546E-03 -0.1004363E-01  0.5121020E-03 -0.1596538E-01
4104259. -0.3991765E-01  0.6791165E+00  0.5838781E-03 -0.1081064E-01  0.6119495E-03 -0.1899811E-01
4067778. -0.4406177E-01  0.7700468E+00  0.6478537E-03 -0.1152119E-01  0.7307974E-03 -0.2262046E-01
4031296. -0.4875673E-01  0.8716063E+00  0.7156206E-03 -0.1212380E-01  0.8723682E-03 -0.2695576E-01
3994815. -0.5406530E-01  0.9845072E+00  0.7863371E-03 -0.1253401E-01  0.1041131E-02 -0.3214352E-01
3958333. -0.6005403E-01  0.1109167E+01  0.8585540E-03 -0.1262401E-01  0.1242416E-02 -0.3834390E-01
3921852. -0.6679052E-01  0.1245724E+01  0.9300077E-03 -0.1223592E-01  0.1482588E-02 -0.4576455E-01
3885370. -0.7434207E-01  0.1393601E+01  0.9973159E-03 -0.1112774E-01  0.1769297E-02 -0.5463647E-01
3848889. -0.8276907E-01  0.1551218E+01  0.1055451E-02 -0.8970249E-02  0.2111594E-02 -0.6523448E-01
3812407. -0.9212022E-01  0.1715649E+01  0.1097214E-02 -0.5320473E-02  0.2520326E-02 -0.7789558E-01
3775926. -0.1024202E+00  0.1881596E+01  0.1112334E-02  0.4576510E-03  0.3008315E-02 -0.9298803E-01
3739444. -0.1136561E+00  0.2040734E+01  0.1086309E-02  0.9214035E-02  0.3590754E-02 -0.1109607E+00
3702963. -0.1257542E+00  0.2180210E+01  0.9989325E-03  0.2211696E-01  0.4285552E-02 -0.1323259E+00
3666482. -0.1385495E+00  0.2280344E+01  0.8220233E-03  0.4079862E-01  0.5113686E-02 -0.1576314E+00
3630000. -0.1517404E+00  0.2312471E+01  0.5165347E-03  0.6745064E-01  0.6099572E-02 -0.1875277E+00
3630000. -0.1517404E+00  0.2312471E+01  0.5165347E-03  0.6745064E-01  0.6099572E-02 -0.1875277E+00
3592500. -0.1651803E+00  0.2230047E+01  0.1168404E-04  0.1063645E+00  0.7307009E-02 -0.2237283E+00
3555000. -0.1776352E+00  0.1964561E+01 -0.7672168E-03  0.1614507E+00  0.8745651E-02 -0.2662131E+00
3517500. -0.1877622E+00  0.1419899E+01 -0.1932791E-02  0.2389747E+00  0.1045465E-01 -0.3156976E+00
3480000. -0.1935337E+00  0.4570059E+00 -0.3641343E-02  0.3476449E+00  0.1247683E-01 -0.3726954E+00
3480000. -0.1935337E+00 -0.6262597E+01 -0.9991225E-02 -0.3358522E+00  0.1247683E-01  0.2444620E+00
3409422. -0.1342565E+00 -0.4519279E+01 -0.6839882E-02 -0.2380185E+00  0.9760762E-02  0.2387967E+00
3338844. -0.9180528E-01 -0.3209269E+01 -0.4621301E-02 -0.1663261E+00  0.7287709E-02  0.2050600E+00
3268266. -0.6188215E-01 -0.2243504E+01 -0.3081131E-02 -0.1146117E+00  0.5246060E-02  0.1632498E+00
3197688. -0.4111548E-01 -0.1544292E+01 -0.2026779E-02 -0.7787637E-01  0.3663027E-02  0.1233425E+00
3127109. -0.2692333E-01 -0.1046785E+01 -0.1315064E-02 -0.5217317E-01  0.2490377E-02  0.8953358E-01
3056531. -0.1737217E-01 -0.6987392E+00 -0.8414139E-03 -0.3445776E-01  0.1652671E-02  0.6288778E-01
2985953. -0.1104236E-01 -0.4592570E+00 -0.5306896E-03 -0.2242954E-01  0.1072267E-02  0.4292982E-01
2915375. -0.6912057E-02 -0.2971657E+00 -0.3298106E-03 -0.1438516E-01  0.6808644E-03  0.2856144E-01
2844797. -0.4259085E-02 -0.1892457E+00 -0.2018749E-03 -0.9086809E-02  0.4233748E-03  0.1855285E-01
2774219. -0.2582175E-02 -0.1185729E+00 -0.1216377E-03 -0.5650974E-02  0.2578843E-03  0.1177992E-01
2703641. -0.1539510E-02 -0.7306165E-01 -0.7210561E-04 -0.3458053E-02  0.1538797E-03  0.7315777E-02
2633062. -0.9020685E-03 -0.4425003E-01 -0.4202438E-04 -0.2081065E-02  0.8993393E-04  0.4445211E-02
2562484. -0.5191175E-03 -0.2632733E-01 -0.2406351E-04 -0.1230873E-02  0.5146538E-04  0.2642744E-02
2491906. -0.2931741E-03 -0.1537699E-01 -0.1352674E-04 -0.7149847E-03  0.2882309E-04  0.1536943E-02
2421328. -0.1623488E-03 -0.8809961E-02 -0.7457984E-05 -0.4075535E-03  0.1578785E-04  0.8740261E-03
2350750. -0.8806922E-04 -0.4946974E-02 -0.4029236E-05 -0.2277656E-03  0.8451309E-05  0.4857379E-03
2280172. -0.4675133E-04 -0.2719862E-02 -0.2130737E-05 -0.1246732E-03  0.4417147E-05  0.2636117E-03
2209594. -0.2425779E-04 -0.1462600E-02 -0.1101610E-05 -0.6676633E-04  0.2251698E-05  0.1395768E-03
2139016. -0.1228663E-04 -0.7683340E-03 -0.5560910E-06 -0.3493856E-04  0.1118136E-05  0.7202371E-04
2068438. -0.6066146E-05 -0.3937620E-03 -0.2736856E-06 -0.1784105E-04  0.5401162E-06  0.3617441E-04
1997859. -0.2914677E-05 -0.1965700E-03 -0.1311109E-06 -0.8876395E-05  0.2533930E-06  0.1765858E-04
1927281. -0.1360497E-05 -0.9542794E-04 -0.6102859E-07 -0.4295573E-05  0.1152519E-06  0.8364227E-05
1856703. -0.6156892E-06 -0.4496592E-04 -0.2754597E-07 -0.2018099E-05  0.5071834E-07  0.3836956E-05
1786125. -0.2695307E-06 -0.2052193E-04 -0.1202914E-07 -0.9184853E-06  0.2154533E-07  0.1701008E-05
1715547. -0.1138524E-06 -0.9049807E-05 -0.5069479E-08 -0.4039845E-06  0.8812300E-08  0.7269845E-06
1644969. -0.4627270E-07 -0.3845668E-05 -0.2055907E-08 -0.1712534E-06  0.3460186E-08  0.2987007E-06
1574391. -0.1803636E-07 -0.1569940E-05 -0.7997428E-09 -0.6975141E-07  0.1299971E-08  0.1176152E-06
1503812. -0.6717084E-08 -0.6135832E-06 -0.2973163E-09 -0.2719840E-07  0.4655103E-09  0.4422029E-07
1433234. -0.2378740E-08 -0.2288183E-06 -0.1052504E-09 -0.1010643E-07  0.1582020E-09  0.1580871E-07
1362656. -0.7921780E-09 -0.8161135E-07 -0.3551490E-10 -0.3537875E-08  0.5078106E-10  0.5346941E-08
1292078. -0.2276132E-09 -0.2999854E-07 -0.1216257E-10 -0.1062415E-08  0.1533385E-10  0.1700371E-08
1221500.  0.2453822E-10 -0.2121813E-07 -0.7467178E-11  0.1668770E-09  0.4342520E-11  0.5116301E-09
1221500.  0.2453822E-10  0.4989621E-10 -0.8564488E-13 -0.1284311E-09  0.4342520E-11  0.5010000E-09
1183328.  0.2065486E-10  0.1000564E-08  0.3203669E-12 -0.2422228E-10  0.2149247E-11  0.2567127E-09
1145156.  0.1435833E-10  0.1018631E-08  0.3417789E-12  0.9834840E-11  0.1037477E-11  0.1283267E-09
1106984.  0.0000000E+00  0.0000000E+00  0.0000000E+00  0.0000000E+00  0.0000000E+00  0.0000000E+00
1068812.  0.0000000E+00  0.0000000E+00  0.0000000E+00  0.0000000E+00  0.0000000E+00  0.0000000E+00
1030641.  0.0000000E+00  0.0000000E+00  0.0000000E+00  0.0000000E+00  0.0000000E+00  0.0000000E+00
 992469.  0.0000000E+00  0.0000000E+00  0.0000000E+00  0.0000000E+00  0.0000000E+00  0.0000000E+00
 954297.  0.0000000E+00  0.0000000E+00  0.0000000E+00  0.0000000E+00  0.0000000E+00  0.0000000E+00
 916125.  0.0000000E+00  0.0000000E+00  0.0000000E+00  0.0000000E+00  0.0000000E+00  0.0000000E+00
 877953.  0.0000000E+00  0.0000000E+00  0.0000000E+00  0.0000000E+00  0.0000000E+00  0.0000000E+00
 839781.  0.0000000E+00  0.0000000E+00  0.0000000E+00  0.0000000E+00  0.0000000E+00  0.0000000E+00
 801609.  0.0000000E+00  0.0000000E+00  0.0000000E+00  0.0000000E+00  0.0000000E+00  0.0000000E+00
 763438.  0.0000000E+00  0.0000000E+00  0.0000000E+00  0.0000000E+00  0.0000000E+00  0.0000000E+00
 725266.  0.0000000E+00  0.0000000E+00  0.0000000E+00  0.0000000E+00  0.0000000E+00  0.0000000E+00
 687094.  0.0000000E+00  0.0000000E+00  0.0000000E+00  0.0000000E+00  0.0000000E+00  0.0000000E+00
 648922.  0.0000000E+00  0.0000000E+00  0.0000000E+00  0.0000000E+00  0.0000000E+00  0.0000000E+00
 610750.  0.0000000E+00  0.0000000E+00  0.0000000E+00  0.0000000E+00  0.0000000E+00  0.0000000E+00
 572578.  0.0000000E+00  0.0000000E+00  0.0000000E+00  0.0000000E+00  0.0000000E+00  0.0000000E+00
 534406.  0.0000000E+00  0.0000000E+00  0.0000000E+00  0.0000000E+00  0.0000000E+00  0.0000000E+00
 496234.  0.0000000E+00  0.0000000E+00  0.0000000E+00  0.0000000E+00  0.0000000E+00  0.0000000E+00
 458062.  0.0000000E+00  0.0000000E+00  0.0000000E+00  0.0000000E+00  0.0000000E+00  0.0000000E+00
 419891.  0.0000000E+00  0.0000000E+00  0.0000000E+00  0.0000000E+00  0.0000000E+00  0.0000000E+00
 381719.  0.0000000E+00  0.0000000E+00  0.0000000E+00  0.0000000E+00  0.0000000E+00  0.0000000E+00
 343547.  0.0000000E+00  0.0000000E+00  0.0000000E+00  0.0000000E+00  0.0000000E+00  0.0000000E+00
 305375.  0.0000000E+00  0.0000000E+00  0.0000000E+00  0.0000000E+00  0.0000000E+00  0.0000000E+00
 267203.  0.0000000E+00  0.0000000E+00  0.0000000E+00  0.0000000E+00  0.0000000E+00  0.0000000E+00
 229031.  0.0000000E+00  0.0000000E+00  0.0000000E+00  0.0000000E+00  0.0000000E+00  0.0000000E+00
 190859.  0.0000000E+00  0.0000000E+00  0.0000000E+00  0.0000000E+00  0.0000000E+00  0.0000000E+00
 152688.  0.0000000E+00  0.0000000E+00  0.0000000E+00  0.0000000E+00  0.0000000E+00  0.0000000E+00
 114516.  0.0000000E+00  0.0000000E+00  0.0000000E+00  0.0000000E+00  0.0000000E+00  0.0000000E+00
  76344.  0.0000000E+00  0.0000000E+00  0.0000000E+00  0.0000000E+00  0.0000000E+00  0.0000000E+00
  38172.  0.0000000E+00  0.0000000E+00  0.0000000E+00  0.0000000E+00  0.0000000E+00  0.0000000E+00
      0.  0.0000000E+00  0.0000000E+00  0.0000000E+00  0.0000000E+00  0.0000000E+00  0.0000000E+00
