       4       44 S      313        104.92760          8.57309          8.66647        422.32840      185    7
6371000. -0.2586246E-04 -0.3097614E-02 -0.4007201E-05  0.2185461E-04  0.2635006E-05 -0.6980471E-04
6370000. -0.2537471E-04 -0.3116991E-02 -0.4010160E-05  0.1585516E-04  0.2645917E-05 -0.6923264E-04
6369000. -0.2488404E-04 -0.3134787E-02 -0.4012178E-05  0.9845233E-05  0.2656740E-05 -0.6866742E-04
6368000. -0.2439071E-04 -0.3150997E-02 -0.4013250E-05  0.3826552E-05  0.2667474E-05 -0.6810912E-04
6368000. -0.2439071E-04 -0.3150997E-02 -0.4013250E-05  0.3826552E-05  0.2667474E-05 -0.6810912E-04
6367000. -0.2389496E-04 -0.3165617E-02 -0.4013379E-05 -0.2199166E-05  0.2678121E-05 -0.6755777E-04
6366000. -0.2339704E-04 -0.3178644E-02 -0.4012560E-05 -0.8230201E-05  0.2688682E-05 -0.6701345E-04
6365000. -0.2289719E-04 -0.3190074E-02 -0.4010795E-05 -0.1426483E-04  0.2699158E-05 -0.6647622E-04
6364000. -0.2239568E-04 -0.3199906E-02 -0.4008082E-05 -0.2030132E-04  0.2709551E-05 -0.6594613E-04
6363000. -0.2189276E-04 -0.3208138E-02 -0.4004422E-05 -0.2633796E-04  0.2719861E-05 -0.6542324E-04
6362000. -0.2138866E-04 -0.3214768E-02 -0.3999814E-05 -0.3237302E-04  0.2730089E-05 -0.6490762E-04
6361000. -0.2088365E-04 -0.3219795E-02 -0.3994259E-05 -0.3840476E-04  0.2740237E-05 -0.6439933E-04
6360000. -0.2037798E-04 -0.3223220E-02 -0.3987758E-05 -0.4443147E-04  0.2750306E-05 -0.6389843E-04
6359000. -0.1987190E-04 -0.3225042E-02 -0.3980311E-05 -0.5045141E-04  0.2760297E-05 -0.6340496E-04
6358000. -0.1936565E-04 -0.3225262E-02 -0.3971921E-05 -0.5646288E-04  0.2770210E-05 -0.6291903E-04
6357000. -0.1885950E-04 -0.3223882E-02 -0.3962587E-05 -0.6246413E-04  0.2780049E-05 -0.6244065E-04
6356000. -0.1835368E-04 -0.3220903E-02 -0.3952312E-05 -0.6845347E-04  0.2789812E-05 -0.6196991E-04
6356000. -0.1835368E-04 -0.2784927E-02 -0.3952312E-05 -0.3559598E-04  0.2789812E-05 -0.5797636E-04
6355000. -0.1791653E-04 -0.2785112E-02 -0.3946480E-05 -0.3871366E-04  0.2798852E-05 -0.5721065E-04
6354000. -0.1747942E-04 -0.2784472E-02 -0.3940159E-05 -0.4182769E-04  0.2807772E-05 -0.5645100E-04
6353000. -0.1704247E-04 -0.2783007E-02 -0.3933350E-05 -0.4493754E-04  0.2816574E-05 -0.5569742E-04
6352000. -0.1660581E-04 -0.2780717E-02 -0.3926053E-05 -0.4804266E-04  0.2825257E-05 -0.5494993E-04
6351000. -0.1616958E-04 -0.2777603E-02 -0.3918269E-05 -0.5114254E-04  0.2833824E-05 -0.5420854E-04
6350000. -0.1573391E-04 -0.2773666E-02 -0.3909998E-05 -0.5423663E-04  0.2842275E-05 -0.5347326E-04
6349000. -0.1529891E-04 -0.2768908E-02 -0.3901243E-05 -0.5732440E-04  0.2850611E-05 -0.5274413E-04
6348000. -0.1486473E-04 -0.2763329E-02 -0.3892003E-05 -0.6040532E-04  0.2858833E-05 -0.5202114E-04
6347000. -0.1443148E-04 -0.2756931E-02 -0.3882280E-05 -0.6347885E-04  0.2866942E-05 -0.5130432E-04
6346600. -0.1425848E-04 -0.2754143E-02 -0.3878256E-05 -0.6470609E-04  0.2870154E-05 -0.5101933E-04
6346600. -0.1425848E-04 -0.3138495E-02 -0.3878256E-05 -0.4030070E-04  0.2870154E-05 -0.4604761E-04
6318800. -0.1018971E-05 -0.2869785E-02 -0.3610301E-05 -0.8188087E-04  0.3023273E-05 -0.2473252E-04
6291000.  0.1028471E-04 -0.2257524E-02 -0.3172127E-05 -0.1176699E-03  0.3090747E-05 -0.6685611E-05
6291000.  0.1028471E-04 -0.2331483E-02 -0.3172127E-05 -0.1211372E-03  0.3090747E-05 -0.6685611E-05
6263000.  0.1854602E-04 -0.1382325E-02 -0.2571274E-05 -0.1502721E-03  0.3086957E-05  0.8006718E-05
6235000.  0.2211262E-04 -0.2141366E-03 -0.1871053E-05 -0.1659451E-03  0.3023544E-05  0.2052952E-04
6207000.  0.2029187E-04  0.1046564E-02 -0.1134953E-05 -0.1664460E-03  0.2909015E-05  0.3133629E-04
6179000.  0.1298493E-04  0.2258499E-02 -0.4304411E-06 -0.1516992E-03  0.2750081E-05  0.4078940E-04
6151000.  0.7183771E-06  0.3281006E-02  0.1783885E-06 -0.1233058E-03  0.2552089E-05  0.4914224E-04
6151000.  0.7183771E-06  0.2674914E-02  0.1783885E-06 -0.1084977E-03  0.2552089E-05  0.4910250E-04
6128500. -0.9592916E-05  0.3135162E-02  0.5169455E-06 -0.8264926E-04  0.2376505E-05  0.5018020E-04
6106000. -0.2120468E-04  0.3408081E-02  0.7590639E-06 -0.5417062E-04  0.2198699E-05  0.5037068E-04
6083500. -0.3342719E-04  0.3479753E-02  0.8985206E-06 -0.2480071E-04  0.2021705E-05  0.4972870E-04
6061000. -0.4554318E-04  0.3348497E-02  0.9352015E-06  0.3756487E-05  0.1848375E-05  0.4830341E-04
6038500. -0.5685061E-04  0.3024488E-02  0.8748088E-06  0.2992591E-04  0.1681399E-05  0.4613612E-04
6016000. -0.6670280E-04  0.2528662E-02  0.7282567E-06  0.5234329E-04  0.1523340E-05  0.4325873E-04
5993500. -0.7454366E-04  0.1891108E-02  0.5108096E-06  0.6991807E-04  0.1376663E-05  0.3969237E-04
5971000. -0.7993667E-04  0.1149059E-02  0.2410345E-06  0.8187586E-04  0.1243789E-05  0.3544071E-04
5971000. -0.7993667E-04  0.1061109E-02  0.2410345E-06  0.8228049E-04  0.1243789E-05  0.4590509E-04
5937667. -0.8248154E-04 -0.8954780E-04 -0.2087533E-06  0.8770168E-04  0.1020594E-05  0.3935509E-04
5904333. -0.7908780E-04 -0.1190442E-02 -0.6580644E-06  0.8247065E-04  0.8321994E-06  0.3267239E-04
5871000. -0.7028217E-04 -0.2144633E-02 -0.1057604E-05  0.6914479E-04  0.6782552E-06  0.2624454E-04
5837667. -0.5701966E-04 -0.2885652E-02 -0.1372426E-05  0.5055866E-04  0.5566326E-06  0.2035478E-04
5804333. -0.4052153E-04 -0.3377757E-02 -0.1582231E-05  0.2942425E-04  0.4640233E-06  0.1517147E-04
5771000. -0.2212364E-04 -0.3612714E-02 -0.1679961E-05  0.8062986E-05  0.3965409E-06  0.1075060E-04
5771000. -0.2212364E-04 -0.3612930E-02 -0.1679961E-05  0.8063460E-05  0.3965409E-06  0.1075060E-04
5701000.  0.1769569E-04 -0.3458036E-02 -0.1524441E-05 -0.3567632E-04  0.3319314E-06  0.8505423E-06
5701000.  0.1769569E-04 -0.3016288E-02 -0.1524441E-05 -0.3270783E-04  0.3319314E-06 -0.4137236E-05
5667333.  0.3244893E-04 -0.2581355E-02 -0.1336446E-05 -0.3784763E-04  0.3467067E-06 -0.1348291E-05
5633667.  0.4509615E-04 -0.2204714E-02 -0.1128295E-05 -0.4072640E-04  0.3471525E-06  0.9922171E-06
5600000.  0.5565285E-04 -0.1783191E-02 -0.9077542E-06 -0.4254395E-04  0.3376580E-06  0.2506434E-05
5600000.  0.5565285E-04 -0.1783191E-02 -0.9077542E-06 -0.4254395E-04  0.3376580E-06  0.2506434E-05
5563518.  0.6447401E-04 -0.1293811E-02 -0.6619206E-06 -0.4307706E-04  0.3200376E-06  0.3564122E-05
5527037.  0.7044300E-04 -0.7903132E-03 -0.4170825E-06 -0.4221866E-04  0.2976238E-06  0.4208871E-05
5490556.  0.7353334E-04 -0.2912791E-03 -0.1807858E-06 -0.4012540E-04  0.2723597E-06  0.4577209E-05
5454074.  0.7381855E-04  0.1869754E-03  0.4049667E-07 -0.3701048E-04  0.2455687E-06  0.4755004E-05
5417593.  0.7145765E-04  0.6309776E-03  0.2415756E-06 -0.3311280E-04  0.2181262E-06  0.4813755E-05
5381111.  0.6667756E-04  0.1030468E-02  0.4187198E-06 -0.2869248E-04  0.1906063E-06  0.4785777E-05
5344630.  0.5975494E-04  0.1378505E-02  0.5696628E-06 -0.2400364E-04  0.1634356E-06  0.4696286E-05
5308148.  0.5099579E-04  0.1671497E-02  0.6935520E-06 -0.1927963E-04  0.1369000E-06  0.4565483E-05
5271667.  0.4071929E-04  0.1908698E-02  0.7908090E-06 -0.1473573E-04  0.1112228E-06  0.4397621E-05
5235185.  0.2923933E-04  0.2092317E-02  0.8629935E-06 -0.1054780E-04  0.8658849E-07  0.4202940E-05
5198704.  0.1685146E-04  0.2226808E-02  0.9125594E-06 -0.6857208E-05  0.6312609E-07  0.3988900E-05
5162222.  0.3819500E-05  0.2318365E-02  0.9426886E-06 -0.3774126E-05  0.4094283E-07  0.3756625E-05
5125741. -0.9632338E-05  0.2375024E-02  0.9570886E-06 -0.1373397E-05  0.2012835E-07  0.3511848E-05
5089259. -0.2333025E-04  0.2405734E-02  0.9598095E-06  0.2996585E-06  0.7407973E-09  0.3258797E-05
5052778. -0.3715231E-04  0.2420210E-02  0.9550932E-06  0.1221478E-05 -0.1718365E-07  0.3001172E-05
5016296. -0.5103614E-04  0.2428955E-02  0.9472795E-06  0.1381001E-05 -0.3361657E-07  0.2737712E-05
4979815. -0.6497877E-04  0.2442698E-02  0.9407262E-06  0.7823271E-06 -0.4853141E-07  0.2471523E-05
4943333. -0.7904136E-04  0.2472634E-02  0.9397677E-06 -0.5742373E-06 -0.6191053E-07  0.2199543E-05
4906852. -0.9334928E-04  0.2530502E-02  0.9487710E-06 -0.2698107E-05 -0.7368561E-07  0.1910728E-05
4870370. -0.1080977E-03  0.2628469E-02  0.9721485E-06 -0.5599250E-05 -0.8376292E-07  0.1604746E-05
4833889. -0.1235531E-03  0.2779906E-02  0.1014483E-05 -0.9331337E-05 -0.9197846E-07  0.1254954E-05
4797407. -0.1400642E-03  0.2999680E-02  0.1080753E-05 -0.1397270E-04 -0.9799518E-07  0.8336758E-06
4760926. -0.1580683E-03  0.3304543E-02  0.1176429E-05 -0.1962679E-04 -0.1013519E-06  0.3181798E-06
4724444. -0.1781093E-03  0.3714637E-02  0.1307837E-05 -0.2648884E-04 -0.1013167E-06 -0.3638844E-06
4687963. -0.2008559E-03  0.4254133E-02  0.1482540E-05 -0.3479379E-04 -0.9673327E-07 -0.1282502E-05
4651482. -0.2271312E-03  0.4952752E-02  0.1709662E-05 -0.4486378E-04 -0.8599480E-07 -0.2536976E-05
4615000. -0.2579512E-03  0.5848214E-02  0.2000602E-05 -0.5716564E-04 -0.6669904E-07 -0.4301933E-05
4578518. -0.2945726E-03  0.6987888E-02  0.2369662E-05 -0.7225571E-04 -0.3538513E-07 -0.6773612E-05
4542037. -0.3385591E-03  0.8432521E-02  0.2834878E-05 -0.9090339E-04  0.1280408E-07 -0.1026110E-04
4505556. -0.3918735E-03  0.1026074E-01  0.3419426E-05 -0.1141175E-03  0.8493413E-07 -0.1521615E-04
4469074. -0.4569902E-03  0.1257321E-01  0.4152817E-05 -0.1431234E-03  0.1908990E-06 -0.2219488E-04
4432593. -0.5370374E-03  0.1550127E-01  0.5072824E-05 -0.1796275E-03  0.3446947E-06 -0.3210061E-04
4396111. -0.6360135E-03  0.1921596E-01  0.6228361E-05 -0.2257675E-03  0.5664064E-06 -0.4614139E-04
4359630. -0.7590217E-03  0.2393820E-01  0.7681836E-05 -0.2842255E-03  0.8840972E-06 -0.6596788E-04
4323148. -0.9126343E-03  0.2995925E-01  0.9513928E-05 -0.3586729E-03  0.1337749E-05 -0.9411298E-04
4286667. -0.1105317E-02  0.3765767E-01  0.1182854E-04 -0.4536182E-03  0.1984171E-05 -0.1339673E-03
4250185. -0.1348038E-02  0.4752907E-01  0.1475914E-04 -0.5749190E-03  0.2903548E-05 -0.1904263E-03
4213704. -0.1655010E-02  0.6022475E-01  0.1847762E-04 -0.7302426E-03  0.4210129E-05 -0.2705958E-03
4177222. -0.2044746E-02  0.7659498E-01  0.2320488E-04 -0.9289825E-03  0.6066246E-05 -0.3843022E-03
4140741. -0.2541311E-02  0.9775362E-01  0.2922261E-04 -0.1183318E-02  0.8702274E-05 -0.5458717E-03
4104259. -0.3176156E-02  0.1251638E+00  0.3689195E-04 -0.1508509E-02  0.1244776E-04 -0.7757499E-03
4067778. -0.3990224E-02  0.1607179E+00  0.4666762E-04 -0.1922441E-02  0.1777051E-04 -0.1102543E-02
4031296. -0.5036973E-02  0.2068935E+00  0.5912120E-04 -0.2447800E-02  0.2533866E-04 -0.1568235E-02
3994815. -0.6385932E-02  0.2668832E+00  0.7496161E-04 -0.3109745E-02  0.3610718E-04 -0.2232020E-02
3958333. -0.8127456E-02  0.3447541E+00  0.9504532E-04 -0.3934216E-02  0.5143635E-04 -0.3177779E-02
3921852. -0.1037806E-01  0.4456715E+00  0.1203793E-03 -0.4947477E-02  0.7326792E-04 -0.4527233E-02
3885370. -0.1328750E-01  0.5760117E+00  0.1520942E-03 -0.6163313E-02  0.1043767E-03 -0.6451432E-02
3848889. -0.1704532E-01  0.7434025E+00  0.1913326E-03 -0.7570731E-02  0.1487062E-03 -0.9193439E-02
3812407. -0.2188864E-01  0.9566275E+00  0.2390518E-03 -0.9107362E-02  0.2118775E-03 -0.1309936E-01
3775926. -0.2810569E-01  0.1224739E+01  0.2955600E-03 -0.1059925E-01  0.3018506E-03 -0.1864963E-01
3739444. -0.3603458E-01  0.1555497E+01  0.3596760E-03 -0.1167967E-01  0.4298716E-03 -0.2651925E-01
3702963. -0.4604522E-01  0.1951639E+01  0.4271876E-03 -0.1162047E-01  0.6117375E-03 -0.3763619E-01
3666482. -0.5849252E-01  0.2403308E+01  0.4880049E-03 -0.9036182E-02  0.8694365E-03 -0.5324591E-01
3630000. -0.7360928E-01  0.2874597E+01  0.5211885E-03 -0.1416304E-02  0.1233250E-02 -0.7500897E-01
3630000. -0.7360928E-01  0.2874597E+01  0.5211885E-03 -0.1416304E-02  0.1233250E-02 -0.7500897E-01
3592500. -0.9181271E-01  0.3285868E+01  0.4835986E-03  0.1645457E-01  0.1761027E-02 -0.1059875E+00
3555000. -0.1117550E+00  0.3417492E+01  0.2908139E-03  0.5323675E-01  0.2503305E-02 -0.1483691E+00
3517500. -0.1307025E+00  0.2853094E+01 -0.2101937E-03  0.1246034E+00  0.3535555E-02 -0.2049500E+00
3480000. -0.1424371E+00  0.7853426E+00 -0.1297155E-02  0.2583915E+00  0.4947723E-02 -0.2776054E+00
3480000. -0.1424371E+00 -0.9024830E+01 -0.3912922E-02 -0.2535351E+00  0.4947723E-02  0.1766105E+00
3409422. -0.6961653E-01 -0.4586583E+01 -0.1883836E-02 -0.1265462E+00  0.3062263E-02  0.1515685E+00
3338844. -0.3308958E-01 -0.2263237E+01 -0.8833114E-03 -0.6144763E-01  0.1685116E-02  0.9738620E-01
3268266. -0.1529569E-01 -0.1084713E+01 -0.4033082E-03 -0.2902885E-01  0.8582586E-03  0.5471404E-01
3197688. -0.6875254E-02 -0.5050127E+00 -0.1792603E-03 -0.1334067E-01  0.4121721E-03  0.2824435E-01
3127109. -0.3004175E-02 -0.2283844E+00 -0.7753019E-04 -0.5962603E-02  0.1884892E-03  0.1369248E-01
3056531. -0.1275586E-02 -0.1003045E+00 -0.3261210E-04 -0.2590891E-02  0.8254533E-04  0.6304590E-02
2985953. -0.5260198E-03 -0.4276563E-01 -0.1333290E-04 -0.1093930E-02  0.3473142E-04  0.2774593E-02
2915375. -0.2105289E-03 -0.1769136E-01 -0.5293976E-05 -0.4485170E-03  0.1406685E-04  0.1171390E-02
2844797. -0.8171331E-04 -0.7096237E-02 -0.2039736E-05 -0.1784372E-03  0.5489558E-05  0.4754140E-03
2774219. -0.3072864E-04 -0.2757673E-02 -0.7618538E-06 -0.6882102E-04  0.2064851E-05  0.1856859E-03
2703641. -0.1118416E-04 -0.1037266E-02 -0.2755446E-06 -0.2570637E-04  0.7484932E-06  0.6982096E-04
2633062. -0.3935020E-05 -0.3772117E-03 -0.9638032E-07 -0.9288242E-05  0.2613366E-06  0.2527110E-04
2562484. -0.1336601E-05 -0.1324633E-03 -0.3255908E-07 -0.3242244E-05  0.8781604E-07  0.8799677E-05
2491906. -0.4376328E-06 -0.4485386E-04 -0.1060641E-07 -0.1091782E-05  0.2836704E-07  0.2945231E-05
2421328. -0.1378937E-06 -0.1462205E-04 -0.3326116E-08 -0.3540766E-06  0.8796657E-08  0.9463685E-06
2350750. -0.4173488E-07 -0.4580887E-05 -0.1002215E-08 -0.1103938E-06  0.2614392E-08  0.2915039E-06
2280172. -0.1210817E-07 -0.1376463E-05 -0.2895560E-09 -0.3302215E-07  0.7432703E-09  0.8592234E-07
2209594. -0.3359615E-08 -0.3958191E-06 -0.8002950E-10 -0.9456091E-08  0.2016979E-09  0.2418560E-07
2139016. -0.8892631E-09 -0.1086629E-06 -0.2110586E-10 -0.2585762E-08  0.5211537E-10  0.6486049E-08
2068438. -0.2239120E-09 -0.2840092E-07 -0.5296139E-11 -0.6733527E-09  0.1278600E-10  0.1652806E-08
1997859. -0.5346507E-10 -0.7045439E-08 -0.1260462E-11 -0.1664744E-09  0.2969152E-11  0.3990087E-09
1927281. -0.1207128E-10 -0.1652289E-08 -0.2833775E-12 -0.3896686E-10  0.6499409E-12  0.9101185E-10
1856703.  0.0000000E+00  0.0000000E+00  0.0000000E+00  0.0000000E+00  0.0000000E+00  0.0000000E+00
1786125.  0.0000000E+00  0.0000000E+00  0.0000000E+00  0.0000000E+00  0.0000000E+00  0.0000000E+00
1715547.  0.0000000E+00  0.0000000E+00  0.0000000E+00  0.0000000E+00  0.0000000E+00  0.0000000E+00
1644969.  0.0000000E+00  0.0000000E+00  0.0000000E+00  0.0000000E+00  0.0000000E+00  0.0000000E+00
1574391.  0.0000000E+00  0.0000000E+00  0.0000000E+00  0.0000000E+00  0.0000000E+00  0.0000000E+00
1503812.  0.0000000E+00  0.0000000E+00  0.0000000E+00  0.0000000E+00  0.0000000E+00  0.0000000E+00
1433234.  0.0000000E+00  0.0000000E+00  0.0000000E+00  0.0000000E+00  0.0000000E+00  0.0000000E+00
1362656.  0.0000000E+00  0.0000000E+00  0.0000000E+00  0.0000000E+00  0.0000000E+00  0.0000000E+00
1292078.  0.0000000E+00  0.0000000E+00  0.0000000E+00  0.0000000E+00  0.0000000E+00  0.0000000E+00
1221500.  0.0000000E+00  0.0000000E+00  0.0000000E+00  0.0000000E+00  0.0000000E+00  0.0000000E+00
1221500.  0.0000000E+00  0.0000000E+00  0.0000000E+00  0.0000000E+00  0.0000000E+00  0.0000000E+00
1183328.  0.0000000E+00  0.0000000E+00  0.0000000E+00  0.0000000E+00  0.0000000E+00  0.0000000E+00
1145156.  0.0000000E+00  0.0000000E+00  0.0000000E+00  0.0000000E+00  0.0000000E+00  0.0000000E+00
1106984.  0.0000000E+00  0.0000000E+00  0.0000000E+00  0.0000000E+00  0.0000000E+00  0.0000000E+00
1068812.  0.0000000E+00  0.0000000E+00  0.0000000E+00  0.0000000E+00  0.0000000E+00  0.0000000E+00
1030641.  0.0000000E+00  0.0000000E+00  0.0000000E+00  0.0000000E+00  0.0000000E+00  0.0000000E+00
 992469.  0.0000000E+00  0.0000000E+00  0.0000000E+00  0.0000000E+00  0.0000000E+00  0.0000000E+00
 954297.  0.0000000E+00  0.0000000E+00  0.0000000E+00  0.0000000E+00  0.0000000E+00  0.0000000E+00
 916125.  0.0000000E+00  0.0000000E+00  0.0000000E+00  0.0000000E+00  0.0000000E+00  0.0000000E+00
 877953.  0.0000000E+00  0.0000000E+00  0.0000000E+00  0.0000000E+00  0.0000000E+00  0.0000000E+00
 839781.  0.0000000E+00  0.0000000E+00  0.0000000E+00  0.0000000E+00  0.0000000E+00  0.0000000E+00
 801609.  0.0000000E+00  0.0000000E+00  0.0000000E+00  0.0000000E+00  0.0000000E+00  0.0000000E+00
 763438.  0.0000000E+00  0.0000000E+00  0.0000000E+00  0.0000000E+00  0.0000000E+00  0.0000000E+00
 725266.  0.0000000E+00  0.0000000E+00  0.0000000E+00  0.0000000E+00  0.0000000E+00  0.0000000E+00
 687094.  0.0000000E+00  0.0000000E+00  0.0000000E+00  0.0000000E+00  0.0000000E+00  0.0000000E+00
 648922.  0.0000000E+00  0.0000000E+00  0.0000000E+00  0.0000000E+00  0.0000000E+00  0.0000000E+00
 610750.  0.0000000E+00  0.0000000E+00  0.0000000E+00  0.0000000E+00  0.0000000E+00  0.0000000E+00
 572578.  0.0000000E+00  0.0000000E+00  0.0000000E+00  0.0000000E+00  0.0000000E+00  0.0000000E+00
 534406.  0.0000000E+00  0.0000000E+00  0.0000000E+00  0.0000000E+00  0.0000000E+00  0.0000000E+00
 496234.  0.0000000E+00  0.0000000E+00  0.0000000E+00  0.0000000E+00  0.0000000E+00  0.0000000E+00
 458062.  0.0000000E+00  0.0000000E+00  0.0000000E+00  0.0000000E+00  0.0000000E+00  0.0000000E+00
 419891.  0.0000000E+00  0.0000000E+00  0.0000000E+00  0.0000000E+00  0.0000000E+00  0.0000000E+00
 381719.  0.0000000E+00  0.0000000E+00  0.0000000E+00  0.0000000E+00  0.0000000E+00  0.0000000E+00
 343547.  0.0000000E+00  0.0000000E+00  0.0000000E+00  0.0000000E+00  0.0000000E+00  0.0000000E+00
 305375.  0.0000000E+00  0.0000000E+00  0.0000000E+00  0.0000000E+00  0.0000000E+00  0.0000000E+00
 267203.  0.0000000E+00  0.0000000E+00  0.0000000E+00  0.0000000E+00  0.0000000E+00  0.0000000E+00
 229031.  0.0000000E+00  0.0000000E+00  0.0000000E+00  0.0000000E+00  0.0000000E+00  0.0000000E+00
 190859.  0.0000000E+00  0.0000000E+00  0.0000000E+00  0.0000000E+00  0.0000000E+00  0.0000000E+00
 152688.  0.0000000E+00  0.0000000E+00  0.0000000E+00  0.0000000E+00  0.0000000E+00  0.0000000E+00
 114516.  0.0000000E+00  0.0000000E+00  0.0000000E+00  0.0000000E+00  0.0000000E+00  0.0000000E+00
  76344.  0.0000000E+00  0.0000000E+00  0.0000000E+00  0.0000000E+00  0.0000000E+00  0.0000000E+00
  38172.  0.0000000E+00  0.0000000E+00  0.0000000E+00  0.0000000E+00  0.0000000E+00  0.0000000E+00
      0.  0.0000000E+00  0.0000000E+00  0.0000000E+00  0.0000000E+00  0.0000000E+00  0.0000000E+00
