      17       16 S      665         97.09284         24.98713         20.37483         85.31347      185    7
6371000.  0.1173946E-04  0.1721598E-03  0.1697091E-05 -0.1004237E-04  0.0000000E+00  0.0000000E+00
6370000.  0.1171169E-04  0.1815819E-03  0.1698333E-05 -0.5773988E-05  0.0000000E+00  0.0000000E+00
6369000.  0.1168246E-04  0.1908576E-03  0.1698904E-05 -0.1498722E-05  0.0000000E+00  0.0000000E+00
6368000.  0.1165179E-04  0.1999854E-03  0.1698803E-05  0.2781719E-05  0.0000000E+00  0.0000000E+00
6368000.  0.1165179E-04  0.1999854E-03  0.1698803E-05  0.2781719E-05  0.0000000E+00  0.0000000E+00
6367000.  0.1161969E-04  0.2089641E-03  0.1698030E-05  0.7065620E-05  0.0000000E+00  0.0000000E+00
6366000.  0.1158620E-04  0.2177925E-03  0.1696585E-05  0.1135127E-04  0.0000000E+00  0.0000000E+00
6365000.  0.1155133E-04  0.2264692E-03  0.1694467E-05  0.1563693E-04  0.0000000E+00  0.0000000E+00
6364000.  0.1151511E-04  0.2349933E-03  0.1691676E-05  0.1992090E-04  0.0000000E+00  0.0000000E+00
6363000.  0.1147757E-04  0.2433636E-03  0.1688213E-05  0.2420146E-04  0.0000000E+00  0.0000000E+00
6362000.  0.1143872E-04  0.2515792E-03  0.1684079E-05  0.2847688E-04  0.0000000E+00  0.0000000E+00
6361000.  0.1139860E-04  0.2596393E-03  0.1679274E-05  0.3274544E-04  0.0000000E+00  0.0000000E+00
6360000.  0.1135722E-04  0.2675429E-03  0.1673800E-05  0.3700543E-04  0.0000000E+00  0.0000000E+00
6359000.  0.1131462E-04  0.2752893E-03  0.1667658E-05  0.4125514E-04  0.0000000E+00  0.0000000E+00
6358000.  0.1127081E-04  0.2828778E-03  0.1660850E-05  0.4549285E-04  0.0000000E+00  0.0000000E+00
6357000.  0.1122582E-04  0.2903079E-03  0.1653377E-05  0.4971686E-04  0.0000000E+00  0.0000000E+00
6356000.  0.1117969E-04  0.2975788E-03  0.1645243E-05  0.5392545E-04  0.0000000E+00  0.0000000E+00
6356000.  0.1117969E-04  0.2314440E-03  0.1645243E-05  0.2876076E-04  0.0000000E+00  0.0000000E+00
6355000.  0.1114292E-04  0.2369483E-03  0.1640511E-05  0.3153030E-04  0.0000000E+00  0.0000000E+00
6354000.  0.1110531E-04  0.2423536E-03  0.1635345E-05  0.3429434E-04  0.0000000E+00  0.0000000E+00
6353000.  0.1106685E-04  0.2476595E-03  0.1629746E-05  0.3705212E-04  0.0000000E+00  0.0000000E+00
6352000.  0.1102757E-04  0.2528657E-03  0.1623714E-05  0.3980292E-04  0.0000000E+00  0.0000000E+00
6351000.  0.1098747E-04  0.2579719E-03  0.1617251E-05  0.4254598E-04  0.0000000E+00  0.0000000E+00
6350000.  0.1094659E-04  0.2629778E-03  0.1610359E-05  0.4528058E-04  0.0000000E+00  0.0000000E+00
6349000.  0.1090492E-04  0.2678832E-03  0.1603037E-05  0.4800598E-04  0.0000000E+00  0.0000000E+00
6348000.  0.1086250E-04  0.2726878E-03  0.1595289E-05  0.5072144E-04  0.0000000E+00  0.0000000E+00
6347000.  0.1081933E-04  0.2773915E-03  0.1587115E-05  0.5342624E-04  0.0000000E+00  0.0000000E+00
6346600.  0.1080185E-04  0.2792446E-03  0.1583727E-05  0.5450501E-04  0.0000000E+00  0.0000000E+00
6346600.  0.1080185E-04  0.2491648E-03  0.1583727E-05  0.3379250E-04  0.0000000E+00  0.0000000E+00
6318800.  0.9545181E-05  0.3171534E-03  0.1315482E-05  0.8776386E-04  0.0000000E+00  0.0000000E+00
6291000.  0.8115179E-05  0.3296871E-03  0.8359381E-06  0.1293355E-03  0.0000000E+00  0.0000000E+00
6291000.  0.8115179E-05  0.3354462E-03  0.8359381E-06  0.1338126E-03  0.0000000E+00  0.0000000E+00
6263000.  0.6707060E-05  0.2990482E-03  0.1886676E-06  0.1568463E-03  0.0000000E+00  0.0000000E+00
6235000.  0.5525468E-05  0.2362659E-03 -0.5064152E-06  0.1552394E-03  0.0000000E+00  0.0000000E+00
6207000.  0.4632766E-05  0.1717966E-03 -0.1139695E-05  0.1290825E-03  0.0000000E+00  0.0000000E+00
6179000.  0.3982346E-05  0.1297085E-03 -0.1610913E-05  0.8248195E-04  0.0000000E+00  0.0000000E+00
6151000.  0.3432065E-05  0.1286601E-03 -0.1845540E-05  0.2287657E-04  0.0000000E+00  0.0000000E+00
6151000.  0.3432065E-05  0.6194722E-04 -0.1845540E-05  0.1946448E-04  0.0000000E+00  0.0000000E+00
6128500.  0.3181303E-05  0.8499243E-04 -0.1834090E-05 -0.2577026E-04  0.0000000E+00  0.0000000E+00
6106000.  0.2797890E-05  0.1366277E-03 -0.1667208E-05 -0.6788429E-04  0.0000000E+00  0.0000000E+00
6083500.  0.2187633E-05  0.2124451E-03 -0.1362748E-05 -0.1031070E-03  0.0000000E+00  0.0000000E+00
6061000.  0.1277623E-05  0.3049077E-03 -0.9506577E-06 -0.1284072E-03  0.0000000E+00  0.0000000E+00
6038500.  0.2595941E-07  0.4041443E-03 -0.4698983E-06 -0.1417486E-03  0.0000000E+00  0.0000000E+00
6016000. -0.1571725E-05  0.4989499E-03  0.3537795E-07 -0.1422425E-03  0.0000000E+00  0.0000000E+00
5993500. -0.3479521E-05  0.5779115E-03  0.5199803E-06 -0.1301879E-03  0.0000000E+00  0.0000000E+00
5971000. -0.5622524E-05  0.6305405E-03  0.9417927E-06 -0.1070069E-03  0.0000000E+00  0.0000000E+00
5971000. -0.5622524E-05  0.5794777E-03  0.9417927E-06 -0.9444664E-04  0.0000000E+00  0.0000000E+00
5937667. -0.8666507E-05  0.5716303E-03  0.1317444E-05 -0.4780726E-04  0.0000000E+00  0.0000000E+00
5904333. -0.1147250E-04  0.4887035E-03  0.1436447E-05  0.2078475E-05  0.0000000E+00  0.0000000E+00
5871000. -0.1366226E-04  0.3383604E-03  0.1305407E-05  0.4647487E-04  0.0000000E+00  0.0000000E+00
5837667. -0.1492695E-04  0.1388022E-03  0.9712202E-06  0.7887876E-04  0.0000000E+00  0.0000000E+00
5804333. -0.1507203E-04 -0.8516316E-04  0.5074430E-06  0.9564952E-04  0.0000000E+00  0.0000000E+00
5771000. -0.1404056E-04 -0.3064772E-03 -0.9844031E-09  0.9605823E-04  0.0000000E+00  0.0000000E+00
5771000. -0.1404056E-04 -0.3064799E-03 -0.9844031E-09  0.9605560E-04  0.0000000E+00  0.0000000E+00
5701000. -0.8364582E-05 -0.6954842E-03 -0.8900886E-06  0.5656053E-04  0.0000000E+00  0.0000000E+00
5701000. -0.8364582E-05 -0.5869142E-03 -0.8900886E-06  0.4648828E-04  0.0000000E+00  0.0000000E+00
5667333. -0.5100909E-05 -0.6436583E-03 -0.1059127E-05  0.1781597E-04  0.0000000E+00  0.0000000E+00
5633667. -0.1605971E-05 -0.6723271E-03 -0.1079414E-05 -0.1020045E-04  0.0000000E+00  0.0000000E+00
5600000.  0.1902730E-05 -0.6461665E-03 -0.9532724E-06 -0.3704750E-04  0.0000000E+00  0.0000000E+00
5600000.  0.1902730E-05 -0.6461665E-03 -0.9532724E-06 -0.3704750E-04  0.0000000E+00  0.0000000E+00
5563518.  0.5383556E-05 -0.5603708E-03 -0.6687355E-06 -0.6119926E-04  0.0000000E+00  0.0000000E+00
5527037.  0.8227410E-05 -0.4261130E-03 -0.2681293E-06 -0.7714835E-04  0.0000000E+00  0.0000000E+00
5490556.  0.1020255E-04 -0.2600545E-03  0.1951661E-06 -0.8286526E-04  0.0000000E+00  0.0000000E+00
5454074.  0.1118270E-04 -0.8201919E-04  0.6599599E-06 -0.7767374E-04  0.0000000E+00  0.0000000E+00
5417593.  0.1115845E-04  0.8740582E-04  0.1065210E-05 -0.6230445E-04  0.0000000E+00  0.0000000E+00
5381111.  0.1023414E-04  0.2294905E-03  0.1357764E-05 -0.3872906E-04  0.0000000E+00  0.0000000E+00
5344630.  0.8611109E-05  0.3294284E-03  0.1498677E-05 -0.9894360E-05  0.0000000E+00  0.0000000E+00
5308148.  0.6559834E-05  0.3780428E-03  0.1467745E-05  0.2068068E-04  0.0000000E+00  0.0000000E+00
5271667.  0.4385207E-05  0.3726486E-03  0.1265518E-05  0.4933844E-04  0.0000000E+00  0.0000000E+00
5235185.  0.2388039E-05  0.3172357E-03  0.9127908E-06  0.7273348E-04  0.0000000E+00  0.0000000E+00
5198704.  0.8289018E-06  0.2217620E-03  0.4477262E-06  0.8820923E-04  0.0000000E+00  0.0000000E+00
5162222. -0.1027632E-06  0.1007888E-03 -0.7899278E-07  0.9407449E-04  0.0000000E+00  0.0000000E+00
5125741. -0.3098789E-06 -0.2828334E-04 -0.6102185E-06  0.8979786E-04  0.0000000E+00  0.0000000E+00
5089259.  0.2021210E-06 -0.1474359E-03 -0.1089142E-05  0.7599666E-04  0.0000000E+00  0.0000000E+00
5052778.  0.1327793E-05 -0.2401014E-03 -0.1465518E-05  0.5434278E-04  0.0000000E+00  0.0000000E+00
5016296.  0.2875813E-05 -0.2931159E-03 -0.1701264E-05  0.2734704E-04  0.0000000E+00  0.0000000E+00
4979815.  0.4592745E-05 -0.2981999E-03 -0.1774282E-05 -0.1962495E-05  0.0000000E+00  0.0000000E+00
4943333.  0.6194220E-05 -0.2528629E-03 -0.1680492E-05 -0.3038507E-04  0.0000000E+00  0.0000000E+00
4906852.  0.7398713E-05 -0.1606357E-03 -0.1433784E-05 -0.5490563E-04  0.0000000E+00  0.0000000E+00
4870370.  0.7961452E-05 -0.3064469E-04 -0.1063979E-05 -0.7301495E-04  0.0000000E+00  0.0000000E+00
4833889.  0.7703442E-05  0.1234556E-03 -0.6132154E-06 -0.8296993E-04  0.0000000E+00  0.0000000E+00
4797407.  0.6533232E-05  0.2850220E-03 -0.1309665E-06 -0.8395121E-04  0.0000000E+00  0.0000000E+00
4760926.  0.4459229E-05  0.4361756E-03  0.3313239E-06 -0.7611072E-04  0.0000000E+00  0.0000000E+00
4724444.  0.1590529E-05  0.5598920E-03  0.7258848E-06 -0.6054429E-04  0.0000000E+00  0.0000000E+00
4687963. -0.1872495E-05  0.6416721E-03  0.1013491E-05 -0.3912365E-04  0.0000000E+00  0.0000000E+00
4651482. -0.5657792E-05  0.6711439E-03  0.1167392E-05 -0.1428402E-04  0.0000000E+00  0.0000000E+00
4615000. -0.9448676E-05  0.6432023E-03  0.1175759E-05  0.1124509E-04  0.0000000E+00  0.0000000E+00
4578518. -0.1291515E-04  0.5584183E-03  0.1042516E-05  0.3473593E-04  0.0000000E+00  0.0000000E+00
4542037. -0.1574707E-04  0.4231053E-03  0.7865552E-06  0.5373791E-04  0.0000000E+00  0.0000000E+00
4505556. -0.1768560E-04  0.2486308E-03  0.4393894E-06  0.6632384E-04  0.0000000E+00  0.0000000E+00
4469074. -0.1854867E-04  0.5026357E-04  0.4164612E-07  0.7125887E-04  0.0000000E+00  0.0000000E+00
4432593. -0.1824947E-04 -0.1542512E-03 -0.3612195E-06  0.6811455E-04  0.0000000E+00  0.0000000E+00
4396111. -0.1680557E-04 -0.3465092E-03 -0.7236958E-06  0.5727834E-04  0.0000000E+00  0.0000000E+00
4359630. -0.1433794E-04 -0.5091224E-03 -0.1004651E-05  0.3989240E-04  0.0000000E+00  0.0000000E+00
4323148. -0.1105966E-04 -0.6274870E-03 -0.1171402E-05  0.1772460E-04  0.0000000E+00  0.0000000E+00
4286667. -0.7256764E-05 -0.6910243E-03 -0.1202698E-05 -0.7026532E-05  0.0000000E+00  0.0000000E+00
4250185. -0.3261402E-05 -0.6942131E-03 -0.1090596E-05 -0.3195373E-04  0.0000000E+00  0.0000000E+00
4213704.  0.5781309E-06 -0.6371025E-03 -0.8409773E-06 -0.5467687E-04  0.0000000E+00  0.0000000E+00
4177222.  0.3929855E-05 -0.5251452E-03 -0.4727199E-06 -0.7306404E-04  0.0000000E+00  0.0000000E+00
4140741.  0.6507278E-05 -0.3687974E-03 -0.1576032E-07 -0.8542694E-04  0.0000000E+00  0.0000000E+00
4104259.  0.8095992E-05 -0.1824462E-03  0.4919848E-06 -0.9066710E-04  0.0000000E+00  0.0000000E+00
4067778.  0.8571786E-05  0.1693423E-04  0.1008108E-05 -0.8834344E-04  0.0000000E+00  0.0000000E+00
4031296.  0.7911778E-05  0.2112408E-03  0.1489749E-05 -0.7871869E-04  0.0000000E+00  0.0000000E+00
3994815.  0.6195936E-05  0.3829318E-03  0.1897374E-05 -0.6269351E-04  0.0000000E+00  0.0000000E+00
3958333.  0.3599220E-05  0.5165552E-03  0.2198242E-05 -0.4170838E-04  0.0000000E+00  0.0000000E+00
3921852.  0.3762348E-06  0.6000340E-03  0.2369093E-05 -0.1761637E-04  0.0000000E+00  0.0000000E+00
3885370. -0.3161905E-05  0.6257314E-03  0.2398005E-05  0.7513676E-05  0.0000000E+00  0.0000000E+00
3848889. -0.6674181E-05  0.5910354E-03  0.2285112E-05  0.3156653E-04  0.0000000E+00  0.0000000E+00
3812407. -0.9819923E-05  0.4985354E-03  0.2042323E-05  0.5257433E-04  0.0000000E+00  0.0000000E+00
3775926. -0.1228732E-04  0.3557700E-03  0.1692041E-05  0.6886836E-04  0.0000000E+00  0.0000000E+00
3739444. -0.1382059E-04  0.1745186E-03  0.1264997E-05  0.7921824E-04  0.0000000E+00  0.0000000E+00
3702963. -0.1424103E-04 -0.3019510E-04  0.7975387E-06  0.8291523E-04  0.0000000E+00  0.0000000E+00
3666482. -0.1346248E-04 -0.2413365E-03  0.3284708E-06  0.7980195E-04  0.0000000E+00  0.0000000E+00
3630000. -0.1149840E-04 -0.4413576E-03 -0.1041223E-06  0.7028186E-04  0.0000000E+00  0.0000000E+00
3630000. -0.1149840E-04 -0.4413576E-03 -0.1041223E-06  0.7028186E-04  0.0000000E+00  0.0000000E+00
3592500. -0.8362931E-05 -0.6177101E-03 -0.4746645E-06  0.5475855E-04  0.0000000E+00  0.0000000E+00
3555000. -0.4315853E-05 -0.7487528E-03 -0.7400726E-06  0.3482567E-04  0.0000000E+00  0.0000000E+00
3517500.  0.3385058E-06 -0.8223969E-03 -0.8793672E-06  0.1221212E-04  0.0000000E+00  0.0000000E+00
3480000.  0.5280833E-05 -0.8307404E-03 -0.8805769E-06 -0.1127998E-04  0.0000000E+00  0.0000000E+00
3480000.  0.5280833E-05 -0.6971278E-03  0.7350362E-06  0.8309182E-05  0.0000000E+00  0.0000000E+00
3409422.  0.1209183E-04 -0.5150574E-03  0.5670495E-06  0.2152896E-04  0.0000000E+00  0.0000000E+00
3338844.  0.1641573E-04 -0.2581493E-03  0.2727476E-06  0.3080115E-04  0.0000000E+00  0.0000000E+00
3268266.  0.1775480E-04  0.1441608E-04 -0.9576183E-07  0.3479748E-04  0.0000000E+00  0.0000000E+00
3197688.  0.1622487E-04  0.2527505E-03 -0.4777440E-06  0.3327869E-04  0.0000000E+00  0.0000000E+00
3127109.  0.1240602E-04  0.4237008E-03 -0.8151978E-06  0.2693598E-04  0.0000000E+00  0.0000000E+00
3056531.  0.7140709E-05  0.5130616E-03 -0.1061590E-05  0.1709510E-04  0.0000000E+00  0.0000000E+00
2985953.  0.1331056E-05  0.5236471E-03 -0.1187004E-05  0.5369714E-05  0.0000000E+00  0.0000000E+00
2915375. -0.4225962E-05  0.4707535E-03 -0.1179471E-05 -0.6660983E-05  0.0000000E+00  0.0000000E+00
2844797. -0.8946668E-05  0.3766716E-03 -0.1043128E-05 -0.1770337E-04  0.0000000E+00  0.0000000E+00
2774219. -0.1250878E-04  0.2655281E-03 -0.7940947E-06 -0.2690518E-04  0.0000000E+00  0.0000000E+00
2703641. -0.1484871E-04  0.1593764E-03 -0.4551578E-06 -0.3391892E-04  0.0000000E+00  0.0000000E+00
2633062. -0.1612442E-04  0.7593255E-04 -0.5016507E-07 -0.3889362E-04  0.0000000E+00  0.0000000E+00
2562484. -0.1666286E-04  0.2804041E-04  0.4011976E-06 -0.4242493E-04  0.0000000E+00  0.0000000E+00
2491906. -0.1691042E-04  0.2470968E-04  0.8880859E-06 -0.4550387E-04  0.0000000E+00  0.0000000E+00
2421328. -0.1740279E-04  0.7357366E-04  0.1412738E-05 -0.4950646E-04  0.0000000E+00  0.0000000E+00
2350750. -0.1876970E-04  0.1847648E-03  0.1995086E-05 -0.5627640E-04  0.0000000E+00  0.0000000E+00
2280172. -0.2179266E-04  0.3767323E-03  0.2679135E-05 -0.6837714E-04  0.0000000E+00  0.0000000E+00
2209594. -0.2754351E-04  0.6853695E-03  0.3543599E-05 -0.8963695E-04  0.0000000E+00  0.0000000E+00
2139016. -0.3765598E-04  0.1179645E-02  0.4721215E-05 -0.1262241E-03  0.0000000E+00  0.0000000E+00
2068438. -0.5483465E-04  0.1990405E-02  0.6434922E-05 -0.1887246E-03  0.0000000E+00  0.0000000E+00
1997859. -0.8381703E-04  0.3366627E-02  0.9066822E-05 -0.2962102E-03  0.0000000E+00  0.0000000E+00
1927281. -0.1332362E-03  0.5789397E-02  0.1329191E-04 -0.4843935E-03  0.0000000E+00  0.0000000E+00
1856703. -0.2193584E-03  0.1021213E-01  0.2034477E-04 -0.8225276E-03  0.0000000E+00  0.0000000E+00
1786125. -0.3738268E-03  0.1858248E-01  0.3256568E-04 -0.1449599E-02  0.0000000E+00  0.0000000E+00
1715547. -0.6603015E-03  0.3501877E-01  0.5455885E-04 -0.2654776E-02  0.0000000E+00  0.0000000E+00
1644969. -0.1211575E-02  0.6856254E-01  0.9574033E-04 -0.5063214E-02  0.0000000E+00  0.0000000E+00
1574391. -0.2315701E-02  0.1398856E+00  0.1761721E-03 -0.1008349E-01  0.0000000E+00  0.0000000E+00
1503812. -0.4624646E-02  0.2983731E+00  0.3405163E-03 -0.2103446E-01  0.0000000E+00  0.0000000E+00
1433234. -0.9683261E-02  0.6677349E+00  0.6929868E-03 -0.4612202E-01  0.0000000E+00  0.0000000E+00
1362656. -0.2134068E-01  0.1574382E+01  0.1489556E-02 -0.1067342E+00  0.0000000E+00  0.0000000E+00
1292078. -0.4972683E-01  0.3929779E+01  0.3394972E-02 -0.2619136E+00  0.0000000E+00  0.0000000E+00
1221500. -0.1231552E+00  0.1044304E+02  0.8244401E-02 -0.6852834E+00  0.0000000E+00  0.0000000E+00
1221500. -0.1231552E+00 -0.1109645E+02 -0.8754428E-02  0.5966820E+00  0.0000000E+00  0.0000000E+00
1183328. -0.4085225E-01 -0.1590944E+02 -0.1119378E-01  0.2066118E+00  0.0000000E+00  0.0000000E+00
1145156.  0.6117503E-01 -0.1759113E+02 -0.1121954E-01 -0.1894864E+00  0.0000000E+00  0.0000000E+00
1106984.  0.1634603E+00 -0.1605232E+02 -0.9114562E-02 -0.4912109E+00  0.0000000E+00  0.0000000E+00
1068812.  0.2484349E+00 -0.1197683E+02 -0.5635673E-02 -0.6431962E+00  0.0000000E+00  0.0000000E+00
1030641.  0.3042048E+00 -0.6514996E+01 -0.1718769E-02 -0.6404694E+00  0.0000000E+00  0.0000000E+00
 992469.  0.3262376E+00 -0.9119841E+00  0.1798369E-02 -0.5179009E+00  0.0000000E+00  0.0000000E+00
 954297.  0.3169241E+00  0.3808722E+01  0.4358597E-02 -0.3308966E+00  0.0000000E+00  0.0000000E+00
 916125.  0.2836145E+00  0.7034164E+01  0.5747544E-02 -0.1354129E+00  0.0000000E+00  0.0000000E+00
 877953.  0.2359713E+00  0.8600447E+01  0.6049377E-02  0.2662598E-01  0.0000000E+00  0.0000000E+00
 839781.  0.1834781E+00  0.8709929E+01  0.5539524E-02  0.1336779E+00  0.0000000E+00  0.0000000E+00
 801609.  0.1336743E+00  0.7782104E+01  0.4562564E-02  0.1835118E+00  0.0000000E+00  0.0000000E+00
 763438.  0.9133483E-01  0.6296393E+01  0.3432994E-02  0.1871898E+00  0.0000000E+00  0.0000000E+00
 725266.  0.5849581E-01  0.4670577E+01  0.2377669E-02  0.1616705E+00  0.0000000E+00  0.0000000E+00
 687094.  0.3505737E-01  0.3194820E+01  0.1520646E-02  0.1234755E+00  0.0000000E+00  0.0000000E+00
 648922.  0.1960475E-01  0.2019135E+01  0.8983320E-03  0.8493582E-01  0.0000000E+00  0.0000000E+00
 610750.  0.1018841E-01  0.1178176E+01  0.4892686E-03  0.5302906E-01  0.0000000E+00  0.0000000E+00
 572578.  0.4893979E-02  0.6328629E+00  0.2447193E-03  0.3010882E-01  0.0000000E+00  0.0000000E+00
 534406.  0.2157653E-02  0.3113779E+00  0.1117471E-03  0.1551575E-01  0.0000000E+00  0.0000000E+00
 496234.  0.8652917E-03  0.1393151E+00  0.4620732E-04  0.7218993E-02  0.0000000E+00  0.0000000E+00
 458062.  0.3120381E-03  0.5612478E-01  0.1711485E-04  0.3006932E-02  0.0000000E+00  0.0000000E+00
 419891.  0.9969846E-04  0.2009319E-01  0.5597708E-05  0.1107739E-02  0.0000000E+00  0.0000000E+00
 381719.  0.2767994E-04  0.6281098E-02  0.1586186E-05  0.3548908E-03  0.0000000E+00  0.0000000E+00
 343547.  0.6508129E-05  0.1674398E-02  0.3796271E-06  0.9662213E-04  0.0000000E+00  0.0000000E+00
 305375.  0.1251104E-05  0.3684835E-03  0.7410760E-07  0.2165056E-04  0.0000000E+00  0.0000000E+00
 267203.  0.1871405E-06  0.6393720E-04  0.1123176E-07  0.3814646E-05  0.0000000E+00  0.0000000E+00
 229031.  0.2025267E-07  0.8174708E-05  0.1229100E-08  0.4940262E-06  0.0000000E+00  0.0000000E+00
 190859.  0.1416288E-08  0.6931639E-06  0.8674651E-10  0.4233564E-07  0.0000000E+00  0.0000000E+00
 152688.  0.5295884E-10  0.3266644E-07  0.3267478E-11  0.2011904E-08  0.0000000E+00  0.0000000E+00
 114516.  0.0000000E+00  0.0000000E+00  0.0000000E+00  0.0000000E+00  0.0000000E+00  0.0000000E+00
  76344.  0.0000000E+00  0.0000000E+00  0.0000000E+00  0.0000000E+00  0.0000000E+00  0.0000000E+00
  38172.  0.0000000E+00  0.0000000E+00  0.0000000E+00  0.0000000E+00  0.0000000E+00  0.0000000E+00
      0.  0.0000000E+00  0.0000000E+00  0.0000000E+00  0.0000000E+00  0.0000000E+00  0.0000000E+00
