      22        3 S      715        116.85900         97.87174          2.52056        220.27901      185    7
6371000. -0.9982217E-02 -0.8108262E-01 -0.1885623E-01 -0.8874011E-02  0.1721035E-04  0.1875529E-01
6370000. -0.9969061E-02 -0.8653118E-01 -0.1885217E-01 -0.4288084E-01  0.1426317E-04  0.1879741E-01
6369000. -0.9955055E-02 -0.9192938E-01 -0.1884277E-01 -0.7688814E-01  0.1130950E-04  0.1883795E-01
6368000. -0.9940205E-02 -0.9727674E-01 -0.1882803E-01 -0.1108863E+00  0.8349596E-05  0.1887688E-01
6368000. -0.9940205E-02 -0.9727674E-01 -0.1882803E-01 -0.1108863E+00  0.8349596E-05  0.1887688E-01
6367000. -0.9924521E-02 -0.1025728E+00 -0.1880796E-01 -0.1448656E+00  0.5383706E-05  0.1891422E-01
6366000. -0.9908008E-02 -0.1078171E+00 -0.1878255E-01 -0.1788166E+00  0.2412080E-05  0.1894996E-01
6365000. -0.9890677E-02 -0.1130092E+00 -0.1875183E-01 -0.2127295E+00 -0.5650279E-06  0.1898409E-01
6364000. -0.9872535E-02 -0.1181487E+00 -0.1871578E-01 -0.2465947E+00 -0.3547367E-05  0.1901660E-01
6363000. -0.9853590E-02 -0.1232352E+00 -0.1867442E-01 -0.2804026E+00 -0.6534683E-05  0.1904751E-01
6362000. -0.9833852E-02 -0.1282683E+00 -0.1862776E-01 -0.3141437E+00 -0.9526722E-05  0.1907679E-01
6361000. -0.9813326E-02 -0.1332477E+00 -0.1857580E-01 -0.3478084E+00 -0.1252323E-04  0.1910446E-01
6360000. -0.9792025E-02 -0.1381729E+00 -0.1851857E-01 -0.3813870E+00 -0.1552396E-04  0.1913050E-01
6359000. -0.9769954E-02 -0.1430438E+00 -0.1845608E-01 -0.4148701E+00 -0.1852864E-04  0.1915492E-01
6358000. -0.9747123E-02 -0.1478598E+00 -0.1838834E-01 -0.4482481E+00 -0.2153703E-04  0.1917771E-01
6357000. -0.9723540E-02 -0.1526209E+00 -0.1831537E-01 -0.4815117E+00 -0.2454887E-04  0.1919886E-01
6356000. -0.9699215E-02 -0.1573267E+00 -0.1823719E-01 -0.5146511E+00 -0.2756390E-04  0.1921839E-01
6356000. -0.9699215E-02 -0.1201447E+00 -0.1823719E-01 -0.3140337E+00 -0.2756390E-04  0.2132883E-01
6355000. -0.9680082E-02 -0.1236373E+00 -0.1818616E-01 -0.3362383E+00 -0.3091426E-04  0.2136127E-01
6354000. -0.9660404E-02 -0.1270950E+00 -0.1813164E-01 -0.3583871E+00 -0.3426961E-04  0.2139240E-01
6353000. -0.9640186E-02 -0.1305178E+00 -0.1807366E-01 -0.3804758E+00 -0.3762975E-04  0.2142220E-01
6352000. -0.9619433E-02 -0.1339054E+00 -0.1801221E-01 -0.4025003E+00 -0.4099446E-04  0.2145069E-01
6351000. -0.9598152E-02 -0.1372577E+00 -0.1794730E-01 -0.4244561E+00 -0.4436353E-04  0.2147786E-01
6350000. -0.9576347E-02 -0.1405745E+00 -0.1787896E-01 -0.4463393E+00 -0.4773677E-04  0.2150369E-01
6349000. -0.9554025E-02 -0.1438558E+00 -0.1780719E-01 -0.4681455E+00 -0.5111396E-04  0.2152820E-01
6348000. -0.9531190E-02 -0.1471013E+00 -0.1773201E-01 -0.4898707E+00 -0.5449489E-04  0.2155139E-01
6347000. -0.9507848E-02 -0.1503111E+00 -0.1765342E-01 -0.5115105E+00 -0.5787935E-04  0.2157324E-01
6346600. -0.9498371E-02 -0.1515850E+00 -0.1762103E-01 -0.5201417E+00 -0.5923408E-04  0.2158161E-01
6346600. -0.9498371E-02 -0.1296749E+00 -0.1762103E-01 -0.3538181E+00 -0.5923408E-04  0.2489355E-01
6318800. -0.8805788E-02 -0.1843312E+00 -0.1508953E-01 -0.7957005E+00 -0.1691466E-03  0.2533823E-01
6291000. -0.7919351E-02 -0.2186909E+00 -0.1080634E-01 -0.1148944E+01 -0.2790713E-03  0.2489668E-01
6291000. -0.7919351E-02 -0.2224811E+00 -0.1080634E-01 -0.1188055E+01 -0.2790713E-03  0.2489668E-01
6263000. -0.6902267E-02 -0.2375236E+00 -0.5020951E-02 -0.1418480E+01 -0.3857753E-03  0.2351199E-01
6235000. -0.5852581E-02 -0.2382730E+00  0.1415037E-02 -0.1481103E+01 -0.4844616E-03  0.2125729E-01
6207000. -0.4819593E-02 -0.2310534E+00  0.7739512E-02 -0.1368195E+01 -0.5714513E-03  0.1820355E-01
6179000. -0.3823291E-02 -0.2227030E+00  0.1320233E-01 -0.1092855E+01 -0.6434416E-03  0.1445019E-01
6151000. -0.2854448E-02 -0.2195043E+00  0.1715409E-01 -0.6873589E+00 -0.6976208E-03  0.1012049E-01
6151000. -0.2854448E-02 -0.1596191E+00  0.1715409E-01 -0.6016867E+00 -0.6976208E-03  0.1027841E-01
6128500. -0.2296468E-02 -0.1576016E+00  0.1866889E-01 -0.2518566E+00 -0.7281528E-03  0.6981065E-02
6106000. -0.1732046E-02 -0.1633769E+00  0.1891716E-01  0.1114292E+00 -0.7467493E-03  0.3530443E-02
6083500. -0.1133041E-02 -0.1771426E+00  0.1789510E-01  0.4634964E+00 -0.7529892E-03 -0.5053550E-05
6061000. -0.4722362E-03 -0.1981835E+00  0.1568417E-01  0.7809951E+00 -0.7466955E-03 -0.3555944E-02
6038500.  0.2735405E-03 -0.2249399E+00  0.1244373E-01  0.1043419E+01 -0.7279360E-03 -0.7053130E-02
6016000.  0.1120634E-02 -0.2551311E+00  0.8398566E-02  0.1234378E+01 -0.6970201E-03 -0.1042920E-01
5993500.  0.2076321E-02 -0.2859363E+00  0.3822691E-02  0.1342541E+01 -0.6544904E-03 -0.1361979E-01
5971000.  0.3137283E-02 -0.3142131E+00 -0.9797839E-03  0.1362249E+01 -0.6011094E-03 -0.1656481E-01
5971000.  0.3137283E-02 -0.2848517E+00 -0.9797839E-03  0.1211691E+01 -0.6011094E-03 -0.1697551E-01
5937667.  0.4678919E-02 -0.3018407E+00 -0.6987779E-02  0.1061553E+01 -0.5024901E-03 -0.2059395E-01
5904333.  0.6263627E-02 -0.3004557E+00 -0.1187834E-01  0.7915160E+00 -0.3870542E-03 -0.2338635E-01
5871000.  0.7784309E-02 -0.2769993E+00 -0.1514064E-01  0.4471834E+00 -0.2593482E-03 -0.2527661E-01
5837667.  0.9122003E-02 -0.2305959E+00 -0.1651196E-01  0.7651895E-01 -0.1241939E-03 -0.2623146E-01
5804333.  0.1016041E-01 -0.1631022E+00 -0.1597320E-01 -0.2761301E+00  0.1351957E-04 -0.2625758E-01
5771000.  0.1079919E-01 -0.7870716E-01 -0.1371804E-01 -0.5743793E+00  0.1490226E-03 -0.2539798E-01
5771000.  0.1079919E-01 -0.7871772E-01 -0.1371804E-01 -0.5743614E+00  0.1490226E-03 -0.2539798E-01
5701000.  0.1051275E-01  0.1374647E+00 -0.4804771E-02 -0.9824389E+00  0.4039623E-03 -0.2046956E-01
5701000.  0.1051275E-01  0.1097210E+00 -0.4804771E-02 -0.7803980E+00  0.4039623E-03 -0.2343273E-01
5667333.  0.9714289E-02  0.1920864E+00 -0.6988129E-03 -0.7716576E+00  0.5195343E-03 -0.2024703E-01
5633667.  0.8480004E-02  0.2747473E+00  0.3330475E-02 -0.7465183E+00  0.6172699E-03 -0.1666726E-01
5600000.  0.6829230E-02  0.3477711E+00  0.7070897E-02 -0.6584163E+00  0.6948598E-03 -0.1263215E-01
5600000.  0.6829230E-02  0.3477711E+00  0.7070897E-02 -0.6584163E+00  0.6948598E-03 -0.1263215E-01
5563518.  0.4649007E-02  0.4104546E+00  0.1041944E-01 -0.5016716E+00  0.7537623E-03 -0.7886997E-02
5527037.  0.2170206E-02  0.4513927E+00  0.1272510E-01 -0.2973163E+00  0.7847137E-03 -0.2894908E-02
5490556. -0.4724995E-03  0.4672991E+00  0.1377242E-01 -0.6581195E-01  0.7867311E-03  0.2193874E-02
5454074. -0.3130731E-02  0.4567216E+00  0.1347006E-01  0.1702645E+00  0.7596879E-03  0.7230618E-02
5417593. -0.5653508E-02  0.4202739E+00  0.1185689E-01  0.3884032E+00  0.7042978E-03  0.1207198E-01
5381111. -0.7898999E-02  0.3604103E+00  0.9095185E-02  0.5682834E+00  0.6220613E-03  0.1658550E-01
5344630. -0.9744281E-02  0.2813412E+00  0.5453304E-02  0.6935549E+00  0.5152127E-03  0.2065027E-01
5308148. -0.1109491E-01  0.1886386E+00  0.1277780E-02  0.7533023E+00  0.3866260E-03  0.2416080E-01
5271667. -0.1189086E-01  0.8873851E-01 -0.3039073E-02  0.7427040E+00  0.2397395E-03  0.2703015E-01
5235185. -0.1211048E-01 -0.1152848E-01 -0.7096695E-02  0.6635540E+00  0.7842549E-04  0.2918826E-01
5198704. -0.1177086E-01 -0.1055266E+00 -0.1052228E-01  0.5237681E+00 -0.9307938E-04  0.3058471E-01
5162222. -0.1092531E-01 -0.1873261E+00 -0.1300411E-01  0.3364793E+00 -0.2703338E-03  0.3119136E-01
5125741. -0.9658041E-02 -0.2521591E+00 -0.1431797E-01  0.1189723E+00 -0.4487616E-03  0.3099594E-01
5089259. -0.8076237E-02 -0.2967632E+00 -0.1434625E-01 -0.1091733E+00 -0.6237960E-03  0.3000766E-01
5052778. -0.6301152E-02 -0.3195753E+00 -0.1308616E-01 -0.3276915E+00 -0.7909595E-03  0.2825443E-01
5016296. -0.4457574E-02 -0.3208561E+00 -0.1064835E-01 -0.5175035E+00 -0.9459978E-03  0.2577987E-01
4979815. -0.2664144E-02 -0.3025294E+00 -0.7245847E-02 -0.6622372E+00 -0.1084939E-02  0.2264492E-01
4943333. -0.1023893E-02 -0.2680185E+00 -0.3173864E-02 -0.7496678E+00 -0.1204217E-02  0.1892440E-01
4906852.  0.3830973E-03 -0.2219025E+00  0.1216289E-02 -0.7726640E+00 -0.1300717E-02  0.1470596E-01
4870370.  0.1505242E-02 -0.1694303E+00  0.5548425E-02 -0.7295670E+00 -0.1371871E-02  0.1008791E-01
4833889.  0.2321940E-02 -0.1161443E+00  0.9452866E-02 -0.6244535E+00 -0.1415691E-02  0.5177913E-02
4797407.  0.2843920E-02 -0.6731517E-01  0.1259877E-01 -0.4665064E+00 -0.1430829E-02  0.8948035E-04
4760926.  0.3110141E-02 -0.2750126E-01  0.1472011E-01 -0.2691839E+00 -0.1416601E-02 -0.5059326E-02
4724444.  0.3182880E-02 -0.2108336E-03  0.1563805E-01 -0.4913034E-01 -0.1373001E-02 -0.1014857E-01
4687963.  0.3140604E-02  0.1244522E-01  0.1527434E-01  0.1753465E+00 -0.1300717E-02 -0.1505908E-01
4651482.  0.3069493E-02  0.9895241E-02  0.1365688E-01  0.3857598E+00 -0.1201103E-02 -0.1967544E-01
4615000.  0.3054532E-02 -0.6873447E-02  0.1091614E-01  0.5649894E+00 -0.1076159E-02 -0.2388760E-01
4578518.  0.3170709E-02 -0.3538202E-01  0.7273735E-02  0.6985590E+00 -0.9284954E-03 -0.2759426E-01
4542037.  0.3475102E-02 -0.7190729E-01  0.3023703E-02  0.7758614E+00 -0.7612785E-03 -0.3070459E-01
4505556.  0.4000693E-02 -0.1118119E+00 -0.1492527E-02  0.7909446E+00 -0.5781481E-03 -0.3314074E-01
4469074.  0.4752195E-02 -0.1499274E+00 -0.5913407E-02  0.7427791E+00 -0.3831451E-03 -0.3484039E-01
4432593.  0.5704305E-02 -0.1810381E+00 -0.9886018E-02  0.6355135E+00 -0.1806403E-03 -0.3575647E-01
4396111.  0.6802868E-02 -0.2003222E+00 -0.1309513E-01  0.4778747E+00  0.2479915E-04 -0.3586026E-01
4359630.  0.7968152E-02 -0.2037782E+00 -0.1528655E-01  0.2824737E+00  0.2284745E-03 -0.3514207E-01
4323148.  0.9100950E-02 -0.1886145E+00 -0.1628758E-01  0.6484579E-01  0.4257019E-03 -0.3360908E-01
4286667.  0.1009004E-01 -0.1535061E+00 -0.1601945E-01 -0.1578863E+00  0.6118744E-03 -0.3128889E-01
4250185.  0.1082135E-01 -0.9876705E-01 -0.1450293E-01 -0.3683249E+00  0.7826154E-03 -0.2822634E-01
4213704.  0.1118735E-01 -0.2637919E-01 -0.1185604E-01 -0.5501478E+00  0.9338303E-03 -0.2448205E-01
4177222.  0.1109646E-01  0.6009549E-01 -0.8284034E-02 -0.6893272E+00  0.1061839E-02 -0.2013359E-01
4140741.  0.1048154E-01  0.1557417E+00 -0.4063611E-02 -0.7752196E+00  0.1163425E-02 -0.1527052E-01
4104259.  0.9306581E-02  0.2546417E+00  0.4797391E-03 -0.8013579E+00  0.1235929E-02 -0.9992709E-02
4067778.  0.7571675E-02  0.3502096E+00  0.4995656E-02 -0.7657551E+00  0.1277286E-02 -0.4411197E-02
4031296.  0.5314940E-02  0.4357913E+00  0.9136768E-02 -0.6712666E+00  0.1286084E-02  0.1360420E-02
3994815.  0.2612082E-02  0.5050445E+00  0.1258442E-01 -0.5251244E+00  0.1261570E-02  0.7203916E-02
3958333. -0.4271125E-03  0.5524108E+00  0.1507294E-01 -0.3383709E+00  0.1203671E-02  0.1300066E-01
3921852. -0.3664349E-02  0.5736614E+00  0.1640900E-01 -0.1251694E+00  0.1112993E-02  0.1863458E-01
3885370. -0.6941700E-02  0.5660818E+00  0.1648641E-01  0.9847754E-01  0.9907827E-03  0.2399518E-01
3848889. -0.1009044E-01  0.5287914E+00  0.1529337E-01  0.3157820E+00  0.8389132E-03  0.2897829E-01
3812407. -0.1294282E-01  0.4628749E+00  0.1291313E-01  0.5105124E+00  0.6598169E-03  0.3348824E-01
3775926. -0.1534225E-01  0.3712592E+00  0.9517953E-02  0.6680683E+00  0.4564558E-03  0.3744226E-01
3739444. -0.1715442E-01  0.2586583E+00  0.5355834E-02  0.7766684E+00  0.2322155E-03  0.4076736E-01
3702963. -0.1827614E-01  0.1312411E+00  0.7325670E-03  0.8281373E+00 -0.9108487E-05  0.4340292E-01
3666482. -0.1864285E-01 -0.3781677E-02 -0.4010954E-02  0.8183633E+00 -0.2634474E-03  0.4530681E-01
3630000. -0.1823326E-01 -0.1385748E+00 -0.8523389E-02  0.7478307E+00 -0.5265142E-03  0.4644434E-01
3630000. -0.1823326E-01 -0.1385748E+00 -0.8523389E-02  0.7478307E+00 -0.5265142E-03  0.4644434E-01
3592500. -0.1702878E-01 -0.2685577E+00 -0.1256722E-01  0.6170292E+00 -0.8013388E-03  0.4679895E-01
3555000. -0.1510467E-01 -0.3818196E+00 -0.1568977E-01  0.4367459E+00 -0.1075807E-02  0.4632352E-01
3517500. -0.1258064E-01 -0.4713558E+00 -0.1763777E-01  0.2204289E+00 -0.1345051E-02  0.4502671E-01
3480000. -0.9613263E-02 -0.5317069E+00 -0.1824550E-01 -0.1580345E-01 -0.1604306E-02  0.4293505E-01
3480000. -0.9613263E-02 -0.5619069E+00  0.6080572E-03 -0.1872369E-01 -0.1604306E-02  0.7359068E-01
3409422. -0.2606553E-02 -0.6803311E+00  0.7495080E-03 -0.6280423E-02 -0.2150840E-02  0.2330439E-01
3338844.  0.4943200E-02 -0.6596968E+00  0.7403322E-03  0.8013995E-02 -0.2101658E-02 -0.3210133E-01
3268266.  0.1153664E-01 -0.5117105E+00  0.5754614E-03  0.2136482E-01 -0.1461671E-02 -0.8158220E-01
3197688.  0.1593433E-01 -0.2704055E+00  0.2800797E-03  0.3118875E-01 -0.3516656E-03 -0.1155877E+00
3127109.  0.1736005E-01  0.1616996E-01 -0.9531527E-04  0.3556257E-01  0.1018038E-02 -0.1277246E+00
3056531.  0.1560346E-01  0.2954988E+00 -0.4840624E-03  0.3353186E-01  0.2388568E-02 -0.1157295E+00
2985953.  0.1101786E-01  0.5197557E+00 -0.8150143E-03  0.2524522E-01  0.3500159E-02 -0.8166067E-01
2915375.  0.4425435E-02  0.6531323E+00 -0.1024636E-02  0.1190707E-01  0.4137539E-02 -0.3135079E-01
2844797. -0.3044528E-02  0.6765280E+00 -0.1067687E-02 -0.4430460E-02  0.4165976E-02  0.2671663E-01
2774219. -0.1015277E-01  0.5892126E+00 -0.9248836E-03 -0.2119463E-01  0.3552670E-02  0.8288459E-01
2703641. -0.1574927E-01  0.4076086E+00 -0.6065299E-03 -0.3568475E-01  0.2371009E-02  0.1278966E+00
2633062. -0.1894521E-01  0.1616767E+00 -0.1516842E-03 -0.4547343E-01  0.7879613E-03  0.1543235E+00
2562484. -0.1923495E-01 -0.1103056E+00  0.3768628E-03 -0.4875933E-01 -0.9624408E-03  0.1576432E+00
2491906. -0.1655548E-01 -0.3677319E+00  0.9011166E-03 -0.4462966E-01 -0.2615277E-02  0.1368448E+00
2421328. -0.1127935E-01 -0.5734840E+00  0.1338591E-02 -0.3319942E-01 -0.3914404E-02  0.9449551E-01
2350750. -0.4147608E-02 -0.6988692E+00  0.1613843E-02 -0.1561444E-01 -0.4650127E-02  0.3630150E-01
2280172.  0.3844244E-02 -0.7270707E+00  0.1669300E-02  0.6076484E-02 -0.4689539E-02 -0.2975125E-01
2209594.  0.1158880E-01 -0.6548245E+00  0.1474016E-02  0.2916332E-01 -0.3995654E-02 -0.9453613E-01
2139016.  0.1801747E-01 -0.4922236E+00  0.1029262E-02  0.5059788E-01 -0.2633131E-02 -0.1490379E+00
2068438.  0.2223948E-01 -0.2608369E+00  0.3702744E-03  0.6735896E-01 -0.7602904E-03 -0.1855485E+00
1997859.  0.2365214E-01  0.9526636E-02 -0.4360957E-03  0.7681588E-01  0.1391119E-02 -0.1986541E+00
1927281.  0.2201009E-01  0.2848671E+00 -0.1297493E-02  0.7704935E-01  0.3545220E-02 -0.1858972E+00
1856703.  0.1744760E-01  0.5313835E+00 -0.2105448E-02  0.6709562E-01  0.5416811E-02 -0.1480459E+00
1786125.  0.1045307E-01  0.7195779E+00 -0.2746789E-02  0.4708491E-01  0.6746566E-02 -0.8895195E-01
1715547.  0.1801763E-02  0.8276404E+00 -0.3116001E-02  0.1826359E-01  0.7332674E-02 -0.1503414E-01
1644969. -0.7543215E-02  0.8437471E+00 -0.3127159E-02 -0.1710491E-01  0.7055013E-02  0.6553355E-01
1574391. -0.1654834E-01  0.7670630E+00 -0.2724139E-02 -0.5594515E-01  0.5889175E-02  0.1438195E+00
1503812. -0.2423084E-01  0.6074006E+00 -0.1888062E-02 -0.9466092E-01  0.3908980E-02  0.2111907E+00
1433234. -0.2976858E-01  0.3836552E+00 -0.6412365E-03 -0.1294787E+00  0.1277721E-02  0.2602938E+00
1362656. -0.3258787E-01  0.1212306E+00  0.9529716E-03 -0.1568132E+00 -0.1770853E-02  0.2858594E+00
1292078. -0.3241778E-01 -0.1511636E+00  0.2794094E-02 -0.1736065E+00 -0.4958682E-02  0.2852235E+00
1221500. -0.2930773E-01 -0.4049814E+00  0.4752053E-02 -0.1776119E+00 -0.7993707E-02  0.2585275E+00
1221500. -0.2930773E-01 -0.3440773E+00  0.5230851E-02  0.1801435E+00 -0.7993707E-02  0.2712238E+00
1183328. -0.2657101E-01 -0.5678545E+00  0.4194981E-02  0.1464299E+00 -0.9550069E-02  0.2474522E+00
1145156. -0.2256956E-01 -0.7584262E+00  0.3686760E-02  0.8509303E-02 -0.1094952E-01  0.2189689E+00
1106984. -0.1763614E-01 -0.8727365E+00  0.4216199E-02 -0.1903168E+00 -0.1216613E-01  0.1865587E+00
1068812. -0.1231923E-01 -0.8839254E+00  0.5958118E-02 -0.3844692E+00 -0.1317897E-01  0.1510988E+00
1030641. -0.7253496E-02 -0.7912691E+00  0.8678348E-02 -0.5067621E+00 -0.1397252E-01  0.1135301E+00
 992469. -0.2990374E-02 -0.6228716E+00  0.1179024E-01 -0.5099299E+00 -0.1453711E-01  0.7482524E-01
 954297.  0.1603315E-03 -0.4297352E+00  0.1452467E-01 -0.3822125E+00 -0.1486885E-01  0.3596769E-01
 916125.  0.2231115E-02 -0.2723589E+00  0.1616367E-01 -0.1521639E+00 -0.1496974E-01 -0.2079122E-02
 877953.  0.3601783E-02 -0.2031552E+00  0.1626499E-01  0.1189580E+00 -0.1484740E-01 -0.3839563E-01
 839781.  0.4899153E-02 -0.2497073E+00  0.1480878E-01  0.3549966E+00 -0.1451480E-01 -0.7213014E-01
 801609.  0.6811120E-02 -0.4036720E+00  0.1221965E-01  0.4875699E+00 -0.1398975E-01 -0.1025222E+00
 763438.  0.9860977E-02 -0.6190839E+00  0.9255319E-02  0.4768440E+00 -0.1329427E-01 -0.1289234E+00
 725266.  0.1420401E-01 -0.8213251E+00  0.6792025E-02  0.3241898E+00 -0.1245387E-01 -0.1508200E+00
 687094.  0.1950544E-01 -0.9250662E+00  0.5569731E-02  0.7284585E-01 -0.1149673E-01 -0.1678440E+00
 648922.  0.2494387E-01 -0.8570789E+00  0.5970043E-02 -0.2036643E+00 -0.1045275E-01 -0.1797882E+00
 610750.  0.2935114E-01 -0.5780899E+00  0.7893412E-02 -0.4221548E+00 -0.9352565E-02 -0.1866090E+00
 572578.  0.3146538E-01 -0.9772992E-01  0.1077245E-01 -0.5134930E+00 -0.8226605E-02 -0.1884262E+00
 534406.  0.3024124E-01  0.5218427E+00  0.1371955E-01 -0.4426059E+00 -0.7104100E-02 -0.1855138E+00
 496234.  0.2514260E-01  0.1175445E+01  0.1576832E-01 -0.2190262E+00 -0.6012211E-02 -0.1782860E+00
 458062.  0.1634200E-01  0.1736003E+01  0.1614139E-01  0.1050787E+00 -0.4975247E-02 -0.1672779E+00
 419891.  0.4769549E-02  0.2082785E+01  0.1446940E-01  0.4488755E+00 -0.4014025E-02 -0.1531243E+00
 381719. -0.8014119E-02  0.2130206E+01  0.1089891E-01  0.7249714E+00 -0.3145247E-02 -0.1365341E+00
 343547. -0.2009815E-01  0.1850097E+01  0.6059640E-02  0.8633142E+00 -0.2381278E-02 -0.1182688E+00
 305375. -0.2960429E-01  0.1281866E+01  0.8989304E-03  0.8303902E+00 -0.1729797E-02 -0.9911766E-01
 267203. -0.3508394E-01  0.5273803E+00 -0.3569958E-02  0.6381696E+00 -0.1193730E-02 -0.7987442E-01
 229031. -0.3583990E-01 -0.2687532E+00 -0.6535742E-02  0.3404382E+00 -0.7712892E-03 -0.6131525E-01
 190859. -0.3209536E-01 -0.9495128E+00 -0.7598910E-02  0.1754293E-01 -0.4561449E-03 -0.4417657E-01
 152688. -0.2496617E-01 -0.1379622E+01 -0.6865596E-02 -0.2461301E+00 -0.2377356E-03 -0.2913243E-01
 114516. -0.1623524E-01 -0.1475794E+01 -0.4900026E-02 -0.3856584E+00 -0.1016901E-03 -0.1677130E-01
  76344. -0.7977983E-02 -0.1225866E+01 -0.2550506E-02 -0.3733635E+00 -0.3042927E-04 -0.7577977E-02
  38172. -0.2115963E-02 -0.6924805E+00 -0.6982064E-03 -0.2261118E+00 -0.3826275E-05 -0.1913245E-02
      0.  0.0000000E+00  0.0000000E+00  0.0000000E+00  0.0000000E+00  0.0000000E+00  0.0000000E+00
