       3       12 S      232        297.77979         10.75430          5.71688        245.72810      185    7
6371000. -0.2438637E-01  0.1027722E+01  0.1643486E-01  0.4082122E-01 -0.4988085E-02  0.1108321E+00
6370000. -0.2454748E-01  0.1025172E+01  0.1642816E-01  0.4445904E-01 -0.5005457E-02  0.1105198E+00
6369000. -0.2470819E-01  0.1022546E+01  0.1642090E-01  0.4809532E-01 -0.5022780E-02  0.1102071E+00
6368000. -0.2486848E-01  0.1019845E+01  0.1641306E-01  0.5172994E-01 -0.5040054E-02  0.1098942E+00
6368000. -0.2486848E-01  0.1019845E+01  0.1641306E-01  0.5172994E-01 -0.5040054E-02  0.1098942E+00
6367000. -0.2502834E-01  0.1017068E+01  0.1640466E-01  0.5536275E-01 -0.5057278E-02  0.1095810E+00
6366000. -0.2518775E-01  0.1014217E+01  0.1639569E-01  0.5899360E-01 -0.5074454E-02  0.1092676E+00
6365000. -0.2534672E-01  0.1011291E+01  0.1638614E-01  0.6262236E-01 -0.5091580E-02  0.1089538E+00
6364000. -0.2550522E-01  0.1008289E+01  0.1637603E-01  0.6624889E-01 -0.5108656E-02  0.1086398E+00
6363000. -0.2566324E-01  0.1005213E+01  0.1636534E-01  0.6987306E-01 -0.5125684E-02  0.1083255E+00
6362000. -0.2582077E-01  0.1002061E+01  0.1635409E-01  0.7349471E-01 -0.5142662E-02  0.1080110E+00
6361000. -0.2597780E-01  0.9988347E+00  0.1634227E-01  0.7711371E-01 -0.5159591E-02  0.1076962E+00
6360000. -0.2613432E-01  0.9955334E+00  0.1632988E-01  0.8072992E-01 -0.5176471E-02  0.1073811E+00
6359000. -0.2629032E-01  0.9921573E+00  0.1631693E-01  0.8434319E-01 -0.5193301E-02  0.1070658E+00
6358000. -0.2644578E-01  0.9887064E+00  0.1630341E-01  0.8795340E-01 -0.5210081E-02  0.1067502E+00
6357000. -0.2660069E-01  0.9851807E+00  0.1628932E-01  0.9156041E-01 -0.5226812E-02  0.1064343E+00
6356000. -0.2675505E-01  0.9815805E+00  0.1627467E-01  0.9516406E-01 -0.5243493E-02  0.1061183E+00
6356000. -0.2675505E-01  0.8682928E+00  0.1627467E-01  0.7453803E-01 -0.5243493E-02  0.1119399E+00
6355000. -0.2689114E-01  0.8658519E+00  0.1626280E-01  0.7666704E-01 -0.5261031E-02  0.1115328E+00
6354000. -0.2702685E-01  0.8633679E+00  0.1625060E-01  0.7879419E-01 -0.5278506E-02  0.1111257E+00
6353000. -0.2716217E-01  0.8608408E+00  0.1623806E-01  0.8091944E-01 -0.5295916E-02  0.1107186E+00
6352000. -0.2729709E-01  0.8582705E+00  0.1622520E-01  0.8304273E-01 -0.5313263E-02  0.1103114E+00
6351000. -0.2743160E-01  0.8556572E+00  0.1621200E-01  0.8516403E-01 -0.5330545E-02  0.1099041E+00
6350000. -0.2756570E-01  0.8530009E+00  0.1619846E-01  0.8728325E-01 -0.5347764E-02  0.1094967E+00
6349000. -0.2769938E-01  0.8503016E+00  0.1618459E-01  0.8940037E-01 -0.5364919E-02  0.1090893E+00
6348000. -0.2783263E-01  0.8475593E+00  0.1617040E-01  0.9151531E-01 -0.5382010E-02  0.1086819E+00
6347000. -0.2796544E-01  0.8447740E+00  0.1615587E-01  0.9362806E-01 -0.5399037E-02  0.1082744E+00
6346600. -0.2801844E-01  0.8436479E+00  0.1614996E-01  0.9447251E-01 -0.5405829E-02  0.1081114E+00
6346600. -0.2801844E-01  0.1005493E+01  0.1614996E-01  0.7818596E-01 -0.5405829E-02  0.1178810E+00
6318800. -0.3228014E-01  0.9437711E+00  0.1572624E-01  0.1157957E+00 -0.5893618E-02  0.1057136E+00
6291000. -0.3621933E-01  0.8577107E+00  0.1514179E-01  0.1517691E+00 -0.6328557E-02  0.9365591E-01
6291000. -0.3621933E-01  0.8925744E+00  0.1514179E-01  0.1558741E+00 -0.6328557E-02  0.9365591E-01
6263000. -0.3989799E-01  0.7772583E+00  0.1437589E-01  0.1922241E+00 -0.6714485E-02  0.8198374E-01
6235000. -0.4301459E-01  0.6369871E+00  0.1345642E-01  0.2256751E+00 -0.7049300E-02  0.7039400E-01
6207000. -0.4546248E-01  0.4732203E+00  0.1239724E-01  0.2557205E+00 -0.7333336E-02  0.5887244E-01
6179000. -0.4714243E-01  0.2878724E+00  0.1121434E-01  0.2819035E+00 -0.7566855E-02  0.4740253E-01
6151000. -0.4796466E-01  0.8331386E-01  0.9925607E-02  0.3038225E+00 -0.7750047E-02  0.3596731E-01
6151000. -0.4796466E-01  0.2015260E+00  0.9925607E-02  0.2735676E+00 -0.7750047E-02  0.3862098E-01
6128500. -0.4844327E-01  0.6878848E-01  0.8942001E-02  0.2830282E+00 -0.7872622E-02  0.3082375E-01
6106000. -0.4844540E-01 -0.6810415E-01  0.7929548E-02  0.2899072E+00 -0.7967974E-02  0.2320574E-01
6083500. -0.4795866E-01 -0.2078638E+00  0.6897328E-02  0.2942265E+00 -0.8036747E-02  0.1577262E-01
6061000. -0.4697520E-01 -0.3492066E+00  0.5854317E-02  0.2960276E+00 -0.8079604E-02  0.8530478E-02
6038500. -0.4549165E-01 -0.4908656E+00  0.4809300E-02  0.2953745E+00 -0.8097230E-02  0.1483573E-02
6016000. -0.4350913E-01 -0.6315869E+00  0.3770804E-02  0.2923499E+00 -0.8090317E-02 -0.5364539E-02
5993500. -0.4103310E-01 -0.7701508E+00  0.2747035E-02  0.2870520E+00 -0.8059577E-02 -0.1201014E-01
5971000. -0.3807328E-01 -0.9053891E+00  0.1745821E-02  0.2795971E+00 -0.8005727E-02 -0.1845168E-01
5971000. -0.3807328E-01 -0.8071277E+00  0.1745821E-02  0.2534754E+00 -0.8005727E-02 -0.1346757E-01
5937667. -0.3346651E-01 -0.9510631E+00  0.4706812E-03  0.2335785E+00 -0.7914377E-02 -0.2133757E-01
5904333. -0.2815131E-01 -0.1077714E+01 -0.6950180E-03  0.2117544E+00 -0.7783655E-02 -0.2851511E-01
5871000. -0.2222049E-01 -0.1186371E+01 -0.1743041E-02  0.1887195E+00 -0.7617217E-02 -0.3499103E-01
5837667. -0.1576884E-01 -0.1276796E+01 -0.2668747E-02  0.1650934E+00 -0.7418732E-02 -0.4076625E-01
5804333. -0.8891294E-02 -0.1349147E+01 -0.3470493E-02  0.1414046E+00 -0.7191837E-02 -0.4585084E-01
5771000. -0.1681760E-02 -0.1403881E+01 -0.4149088E-02  0.1180935E+00 -0.6940117E-02 -0.5026196E-01
5771000. -0.1681760E-02 -0.1403933E+01 -0.4149088E-02  0.1180895E+00 -0.6940117E-02 -0.5026196E-01
5701000.  0.1457253E-01 -0.1543449E+01 -0.5224691E-02  0.7738481E-01 -0.6343224E-02 -0.5813128E-01
5701000.  0.1457253E-01 -0.1318392E+01 -0.5224691E-02  0.5637427E-01 -0.6343224E-02 -0.6223875E-01
5667333.  0.2144208E-01 -0.1290462E+01 -0.5471062E-02  0.3830975E-01 -0.6014180E-02 -0.6211896E-01
5633667.  0.2830015E-01 -0.1308124E+01 -0.5640801E-02  0.2633394E-01 -0.5687430E-02 -0.6154266E-01
5600000.  0.3524129E-01 -0.1316501E+01 -0.5749025E-02  0.1462611E-01 -0.5364003E-02 -0.6083034E-01
5600000.  0.3524129E-01 -0.1316501E+01 -0.5749025E-02  0.1462611E-01 -0.5364003E-02 -0.6083034E-01
5563518.  0.4278092E-01 -0.1315125E+01 -0.5797619E-02  0.2439048E-02 -0.5018346E-02 -0.5986496E-01
5527037.  0.5028239E-01 -0.1303302E+01 -0.5778121E-02 -0.9140842E-02 -0.4678758E-02 -0.5871655E-01
5490556.  0.5768711E-01 -0.1281386E+01 -0.5694250E-02 -0.2003366E-01 -0.4346227E-02 -0.5740372E-01
5454074.  0.6493854E-01 -0.1249781E+01 -0.5550127E-02 -0.3017251E-01 -0.4021619E-02 -0.5594874E-01
5417593.  0.7198257E-01 -0.1209117E+01 -0.5350268E-02 -0.3949373E-01 -0.3705741E-02 -0.5435968E-01
5381111.  0.7876929E-01 -0.1159934E+01 -0.5099468E-02 -0.4795722E-01 -0.3399282E-02 -0.5266031E-01
5344630.  0.8525133E-01 -0.1102886E+01 -0.4802749E-02 -0.5552927E-01 -0.3102836E-02 -0.5086679E-01
5308148.  0.9138614E-01 -0.1038703E+01 -0.4465275E-02 -0.6218681E-01 -0.2816899E-02 -0.4899035E-01
5271667.  0.9713438E-01 -0.9680432E+00 -0.4092319E-02 -0.6792501E-01 -0.2541885E-02 -0.4705764E-01
5235185.  0.1024615E+00 -0.8916914E+00 -0.3689136E-02 -0.7274036E-01 -0.2278069E-02 -0.4507746E-01
5198704.  0.1073368E+00 -0.8104191E+00 -0.3261017E-02 -0.7664205E-01 -0.2025714E-02 -0.4306193E-01
5162222.  0.1117345E+00 -0.7249320E+00 -0.2813097E-02 -0.7965567E-01 -0.1784911E-02 -0.4104242E-01
5125741.  0.1156324E+00 -0.6360493E+00 -0.2350434E-02 -0.8180002E-01 -0.1555698E-02 -0.3901602E-01
5089259.  0.1190136E+00 -0.5445052E+00 -0.1877885E-02 -0.8311144E-01 -0.1338062E-02 -0.3700197E-01
5052778.  0.1218645E+00 -0.4510284E+00 -0.1400119E-02 -0.8363299E-01 -0.1131870E-02 -0.3502195E-01
5016296.  0.1241765E+00 -0.3563482E+00 -0.9215248E-03 -0.8340388E-01 -0.9369174E-03 -0.3307591E-01
4979815.  0.1259445E+00 -0.2611503E+00 -0.4462780E-03 -0.8247766E-01 -0.7529670E-03 -0.3118457E-01
4943333.  0.1271675E+00 -0.1660884E+00  0.2180760E-04 -0.8090618E-01 -0.5796539E-03 -0.2935872E-01
4906852.  0.1278480E+00 -0.7178851E-01  0.4791529E-03 -0.7874077E-01 -0.4166175E-03 -0.2759960E-01
4870370.  0.1279922E+00  0.2116995E-01  0.9225679E-03 -0.7604650E-01 -0.2633915E-03 -0.2593324E-01
4833889.  0.1276092E+00  0.1122497E+00  0.1349155E-02 -0.7287563E-01 -0.1194505E-03 -0.2435686E-01
4797407.  0.1267111E+00  0.2009661E+00  0.1756363E-02 -0.6928525E-01  0.1573255E-04 -0.2287670E-01
4760926.  0.1253131E+00  0.2868502E+00  0.2141966E-02 -0.6534255E-01  0.1427765E-03 -0.2151652E-01
4724444.  0.1234322E+00  0.3695346E+00  0.2504107E-02 -0.6109572E-01  0.2623571E-03 -0.2026816E-01
4687963.  0.1210879E+00  0.4486570E+00  0.2841190E-02 -0.5660411E-01  0.3751321E-03 -0.1914405E-01
4651482.  0.1183015E+00  0.5239093E+00  0.3151995E-02 -0.5192573E-01  0.4818658E-03 -0.1815806E-01
4615000.  0.1150957E+00  0.5950730E+00  0.3435586E-02 -0.4710406E-01  0.5833337E-03 -0.1730452E-01
4578518.  0.1114947E+00  0.6619177E+00  0.3691290E-02 -0.4219479E-01  0.6803328E-03 -0.1659998E-01
4542037.  0.1075238E+00  0.7242974E+00  0.3918734E-02 -0.3724159E-01  0.7737385E-03 -0.1604949E-01
4505556.  0.1032087E+00  0.7821270E+00  0.4117773E-02 -0.3228118E-01  0.8644219E-03 -0.1565150E-01
4469074.  0.9857561E-01  0.8352931E+00  0.4288510E-02 -0.2736122E-01  0.9533235E-03 -0.1542812E-01
4432593.  0.9365156E-01  0.8838114E+00  0.4431252E-02 -0.2250823E-01  0.1041434E-02 -0.1537527E-01
4396111.  0.8846281E-01  0.9276953E+00  0.4546465E-02 -0.1775087E-01  0.1129747E-02 -0.1550127E-01
4359630.  0.8303624E-01  0.9669428E+00  0.4634792E-02 -0.1312240E-01  0.1219343E-02 -0.1582558E-01
4323148.  0.7739772E-01  0.1001691E+01  0.4697013E-02 -0.8633989E-02  0.1311357E-02 -0.1634558E-01
4286667.  0.7157309E-01  0.1032012E+01  0.4733978E-02 -0.4305205E-02  0.1406946E-02 -0.1707847E-01
4250185.  0.6558711E-01  0.1058018E+01  0.4746648E-02 -0.1485450E-03  0.1507383E-02 -0.1803904E-01
4213704.  0.5946427E-01  0.1079894E+01  0.4736007E-02  0.3836698E-02  0.1613983E-02 -0.1923497E-01
4177222.  0.5322758E-01  0.1097747E+01  0.4703049E-02  0.7645176E-02  0.1728164E-02 -0.2068921E-01
4140741.  0.4689994E-01  0.1111757E+01  0.4648777E-02  0.1128427E-01  0.1851447E-02 -0.2241778E-01
4104259.  0.4050243E-01  0.1122109E+01  0.4574110E-02  0.1476964E-01  0.1985458E-02 -0.2443947E-01
4067778.  0.3405612E-01  0.1128882E+01  0.4479907E-02  0.1811164E-01  0.2131958E-02 -0.2678557E-01
4031296.  0.2758062E-01  0.1132277E+01  0.4366905E-02  0.2134052E-01  0.2292880E-02 -0.2947967E-01
3994815.  0.2109524E-01  0.1132398E+01  0.4235663E-02  0.2448859E-01  0.2470295E-02 -0.3255434E-01
3958333.  0.1461836E-01  0.1129256E+01  0.4086544E-02  0.2759065E-01  0.2666511E-02 -0.3605101E-01
3921852.  0.8168723E-02  0.1122952E+01  0.3919672E-02  0.3069997E-01  0.2884045E-02 -0.4000979E-01
3885370.  0.1764217E-02  0.1113408E+01  0.3734836E-02  0.3387346E-01  0.3125697E-02 -0.4448138E-01
3848889. -0.4575878E-02  0.1100496E+01  0.3531491E-02  0.3717954E-01  0.3394550E-02 -0.4952312E-01
3812407. -0.1083222E-01  0.1084049E+01  0.3308628E-02  0.4070320E-01  0.3694069E-02 -0.5520105E-01
3775926. -0.1698317E-01  0.1063667E+01  0.3064748E-02  0.4454031E-01  0.4028087E-02 -0.6158918E-01
3739444. -0.2300523E-01  0.1038891E+01  0.2797720E-02  0.4880651E-01  0.4400934E-02 -0.6877567E-01
3702963. -0.2887124E-01  0.1009077E+01  0.2504721E-02  0.5363867E-01  0.4817447E-02 -0.7686122E-01
3666482. -0.3454980E-01  0.9732463E+00  0.2182055E-02  0.5919750E-01  0.5283088E-02 -0.8595576E-01
3630000. -0.4000353E-01  0.9302827E+00  0.1825022E-02  0.6567338E-01  0.5804033E-02 -0.9619664E-01
3630000. -0.4000353E-01  0.9302827E+00  0.1825022E-02  0.6567338E-01  0.5804033E-02 -0.9619664E-01
3592500. -0.4532742E-01  0.8770217E+00  0.1416019E-02  0.7352483E-01  0.6404486E-02 -0.1080719E+00
3555000. -0.5030566E-01  0.8124462E+00  0.9565394E-03  0.8287775E-01  0.7079315E-02 -0.1215034E+00
3517500. -0.5486423E-01  0.7339197E+00  0.4367442E-03  0.9408367E-01  0.7838332E-02 -0.1367172E+00
3480000. -0.5891127E-01  0.6379932E+00 -0.1554843E-03  0.1075670E+00  0.8692741E-02 -0.1539614E+00
3480000. -0.5891127E-01 -0.7202795E+00 -0.6580245E-02 -0.9569409E-01  0.8692741E-02  0.3390010E-01
3409422. -0.5117249E-01 -0.6749920E+00 -0.5578869E-02 -0.8513448E-01  0.8170904E-02  0.5821812E-01
3338844. -0.4398897E-01 -0.6207778E+00 -0.4692613E-02 -0.7494897E-01  0.7442873E-02  0.7167652E-01
3268266. -0.3743664E-01 -0.5616304E+00 -0.3916208E-02 -0.6532761E-01  0.6611899E-02  0.7724440E-01
3197688. -0.3155192E-01 -0.5007136E+00 -0.3242652E-02 -0.5639782E-01  0.5751816E-02  0.7727844E-01
3127109. -0.2634023E-01 -0.4404572E+00 -0.2663802E-02 -0.4823765E-01  0.4913297E-02  0.7361723E-01
3056531. -0.2178396E-01 -0.3826496E+00 -0.2170906E-02 -0.4088443E-01  0.4129148E-02  0.6766724E-01
2985953. -0.1784855E-01 -0.3285339E+00 -0.1754967E-02 -0.3434228E-01  0.3418596E-02  0.6047943E-01
2915375. -0.1448833E-01 -0.2789066E+00 -0.1407097E-02 -0.2859042E-01  0.2790892E-02  0.5281626E-01
2844797. -0.1165088E-01 -0.2342006E+00 -0.1118740E-02 -0.2359022E-01  0.2248164E-02  0.4521050E-01
2774219. -0.9280629E-02 -0.1945657E+00 -0.8818449E-03 -0.1929031E-01  0.1787674E-02  0.3801537E-01
2703641. -0.7321582E-02 -0.1599360E+00 -0.6889771E-03 -0.1563117E-01  0.1403569E-02  0.3144635E-01
2633062. -0.5719388E-02 -0.1300888E+00 -0.5333865E-03 -0.1254925E-01  0.1088207E-02  0.2561585E-01
2562484. -0.4422854E-02 -0.1046955E+00 -0.4090402E-03 -0.9980068E-02  0.8331446E-03  0.2056220E-01
2491906. -0.3384766E-02 -0.8335949E-01 -0.3106099E-03 -0.7860006E-02  0.6298086E-03  0.1627167E-01
2421328. -0.2562546E-02 -0.6565021E-01 -0.2334597E-03 -0.6128439E-02  0.4699849E-03  0.1269658E-01
2350750. -0.1918453E-02 -0.5112768E-01 -0.1736026E-03 -0.4728913E-02  0.3461106E-03  0.9769029E-02
2280172. -0.1419585E-02 -0.3936131E-01 -0.1276512E-03 -0.3609740E-02  0.2514384E-03  0.7411099E-02
2209594. -0.1037695E-02 -0.2994338E-01 -0.9276193E-04 -0.2724500E-02  0.1801048E-03  0.5542165E-02
2139016. -0.7488800E-03 -0.2249792E-01 -0.6657546E-04 -0.2032163E-02  0.1271298E-03  0.4084031E-02
2068438. -0.5332031E-03 -0.1668601E-01 -0.4715746E-04 -0.1497016E-02  0.8837066E-04  0.2964189E-02
1997859. -0.3742608E-03 -0.1220820E-01 -0.3294070E-04 -0.1088402E-02  0.6044632E-04  0.2117742E-02
1927281. -0.2587524E-03 -0.8804936E-02 -0.2267167E-04 -0.7803845E-03  0.4064932E-04  0.1488282E-02
1856703. -0.1760323E-03 -0.6254863E-02 -0.1535944E-04 -0.5513100E-03  0.2684839E-04  0.1027953E-02
1786125. -0.1177079E-03 -0.4372516E-02 -0.1023155E-04 -0.3833554E-03  0.1739670E-04  0.6971223E-03
1715547. -0.7725703E-04 -0.3005066E-02 -0.6693919E-05 -0.2620479E-03  0.1104422E-04  0.4636515E-03
1644969. -0.4968641E-04 -0.2028742E-02 -0.4296449E-05 -0.1757981E-03  0.6859442E-05  0.3020206E-03
1574391. -0.3122969E-04 -0.1345217E-02 -0.2703574E-05 -0.1154383E-03  0.4161252E-05  0.1923788E-03
1503812. -0.1908400E-04 -0.8783363E-03 -0.1669915E-05 -0.7377947E-04  0.2461424E-05  0.1195995E-03
1433234. -0.1117977E-04 -0.5716627E-03 -0.1020869E-05 -0.4516151E-04  0.1417274E-05  0.7240559E-04
1362656. -0.5967241E-05 -0.3878491E-03 -0.6384269E-06 -0.2491724E-04  0.7933645E-06  0.4257943E-04
1292078. -0.2190036E-05 -0.3126109E-03 -0.4542912E-06 -0.8561254E-05  0.4314335E-06  0.2431220E-04
1221500.  0.1441718E-05 -0.3707586E-03 -0.4558766E-06  0.9893956E-05  0.2265637E-06  0.1372126E-04
1221500.  0.1441718E-05 -0.2625921E-05 -0.5192377E-08 -0.7546676E-05  0.2265637E-06  0.1309670E-04
1183328.  0.1382928E-05  0.1988129E-04  0.2761455E-07 -0.3690151E-05  0.1591773E-06  0.9558460E-05
1145156.  0.1226751E-05  0.3068732E-04  0.4191655E-07 -0.1285133E-05  0.1103005E-06  0.6884482E-05
1106984.  0.1030171E-05  0.3395721E-04  0.4501853E-07  0.1124676E-06  0.7532493E-07  0.4890159E-05
1068812.  0.8288217E-06  0.3269749E-04  0.4190990E-07  0.8353668E-06  0.5065042E-07  0.3423027E-05
1030641.  0.6431624E-06  0.2900779E-04  0.3586498E-07  0.1126808E-05  0.3350321E-07  0.2359183E-05
 992469.  0.4832337E-06  0.2429319E-04  0.2892003E-07  0.1159575E-05  0.2177491E-07  0.1599339E-05
 954297.  0.3523013E-06  0.1944175E-04  0.2224665E-07  0.1052147E-05  0.1388846E-07  0.1065279E-05
 916125.  0.2494884E-06  0.1496795E-04  0.1643459E-07  0.8822579E-06  0.8680901E-08  0.6962744E-06
 877953.  0.1716632E-06  0.1112667E-04  0.1170165E-07  0.6979653E-06  0.5308744E-08  0.4459237E-06
 839781.  0.1147190E-06  0.8001290E-05  0.8044417E-08  0.5263547E-06  0.3170605E-08  0.2793733E-06
 801609.  0.7439284E-07  0.5569812E-05  0.5342271E-08  0.3804442E-06  0.1845479E-08  0.1708955E-06
 763438.  0.4674770E-07  0.3752405E-05  0.3425815E-08  0.2642464E-06  0.1044376E-08  0.1018483E-06
 725266.  0.2841079E-07  0.2444196E-05  0.2118740E-08  0.1765254E-06  0.5730165E-09  0.5898511E-07
 687094.  0.1665878E-07  0.1536739E-05  0.1261344E-08  0.1133699E-06  0.3038387E-09  0.3309968E-07
 648922.  0.9395409E-08  0.9304293E-06  0.7209027E-09  0.6989332E-07  0.1551091E-09  0.1793448E-07
 610750.  0.5077707E-08  0.5408096E-06  0.3941883E-09  0.4126182E-07  0.7589304E-10  0.9344525E-08
 572578.  0.2617544E-08  0.3005878E-06  0.2053097E-09  0.2324465E-07  0.3540047E-10  0.4659070E-08
 534406.  0.1279758E-08  0.1589665E-06  0.1012982E-09  0.1243806E-07  0.1564030E-10  0.2209731E-08
 496234.  0.5892772E-09  0.7949275E-07  0.4701955E-10  0.6284065E-08  0.6493326E-11  0.9897556E-09
 458062.  0.2533314E-09  0.3728910E-07  0.2035393E-10  0.2974591E-08  0.2508408E-11  0.4149015E-09
 419891.  0.1005897E-09  0.1624776E-07  0.8129312E-11  0.1304843E-08  0.8907636E-12  0.1608364E-09
 381719.  0.0000000E+00  0.0000000E+00  0.0000000E+00  0.0000000E+00  0.0000000E+00  0.0000000E+00
 343547.  0.0000000E+00  0.0000000E+00  0.0000000E+00  0.0000000E+00  0.0000000E+00  0.0000000E+00
 305375.  0.0000000E+00  0.0000000E+00  0.0000000E+00  0.0000000E+00  0.0000000E+00  0.0000000E+00
 267203.  0.0000000E+00  0.0000000E+00  0.0000000E+00  0.0000000E+00  0.0000000E+00  0.0000000E+00
 229031.  0.0000000E+00  0.0000000E+00  0.0000000E+00  0.0000000E+00  0.0000000E+00  0.0000000E+00
 190859.  0.0000000E+00  0.0000000E+00  0.0000000E+00  0.0000000E+00  0.0000000E+00  0.0000000E+00
 152688.  0.0000000E+00  0.0000000E+00  0.0000000E+00  0.0000000E+00  0.0000000E+00  0.0000000E+00
 114516.  0.0000000E+00  0.0000000E+00  0.0000000E+00  0.0000000E+00  0.0000000E+00  0.0000000E+00
  76344.  0.0000000E+00  0.0000000E+00  0.0000000E+00  0.0000000E+00  0.0000000E+00  0.0000000E+00
  38172.  0.0000000E+00  0.0000000E+00  0.0000000E+00  0.0000000E+00  0.0000000E+00  0.0000000E+00
      0.  0.0000000E+00  0.0000000E+00  0.0000000E+00  0.0000000E+00  0.0000000E+00  0.0000000E+00
