      22        6 S      718        103.96490         59.23620         22.17153         98.34750      185    7
6371000.  0.1651827E-01 -0.1984430E-02  0.6663499E-03 -0.1585192E-01 -0.2463443E-04 -0.3097715E-01
6370000.  0.1651768E-01  0.9513996E-02  0.6687198E-03 -0.1434409E-01 -0.1977162E-04 -0.3098414E-01
6369000.  0.1651528E-01  0.2100805E-01  0.6708523E-03 -0.1282656E-01 -0.1490798E-04 -0.3098779E-01
6368000.  0.1651109E-01  0.3249643E-01  0.6727459E-03 -0.1129986E-01 -0.1004404E-04 -0.3098809E-01
6368000.  0.1651109E-01  0.3249643E-01  0.6727459E-03 -0.1129986E-01 -0.1004404E-04 -0.3098809E-01
6367000.  0.1650508E-01  0.4397786E-01  0.6743991E-03 -0.9764543E-02 -0.5180300E-05 -0.3098506E-01
6366000.  0.1649728E-01  0.5545104E-01  0.6758108E-03 -0.8221139E-02 -0.3173045E-06 -0.3097868E-01
6365000.  0.1648768E-01  0.6691469E-01  0.6769795E-03 -0.6670202E-02  0.4544429E-05 -0.3096896E-01
6364000.  0.1647628E-01  0.7836752E-01  0.6779043E-03 -0.5112281E-02  0.9404373E-05 -0.3095590E-01
6363000.  0.1646308E-01  0.8980827E-01  0.6785841E-03 -0.3547931E-02  0.1426201E-04 -0.3093950E-01
6362000.  0.1644808E-01  0.1012357E+00  0.6790178E-03 -0.1977707E-02  0.1911680E-04 -0.3091975E-01
6361000.  0.1643130E-01  0.1126484E+00  0.6792046E-03 -0.4021710E-03  0.2396823E-04 -0.3089666E-01
6360000.  0.1641272E-01  0.1240452E+00  0.6791438E-03  0.1178117E-02  0.2881578E-04 -0.3087024E-01
6359000.  0.1639236E-01  0.1354249E+00  0.6788346E-03  0.2762592E-02  0.3365892E-04 -0.3084048E-01
6358000.  0.1637021E-01  0.1467861E+00  0.6782764E-03  0.4350687E-02  0.3849713E-04 -0.3080738E-01
6357000.  0.1634628E-01  0.1581277E+00  0.6774687E-03  0.5941836E-02  0.4332988E-04 -0.3077095E-01
6356000.  0.1632057E-01  0.1694483E+00  0.6764110E-03  0.7535466E-02  0.4815665E-04 -0.3073119E-01
6356000.  0.1632057E-01  0.1101687E+00  0.6764110E-03 -0.1667674E-02  0.4815665E-04 -0.3428236E-01
6355000.  0.1630263E-01  0.1184096E+00  0.6765890E-03 -0.5996652E-03  0.5353548E-04 -0.3425436E-01
6354000.  0.1628340E-01  0.1266390E+00  0.6765990E-03  0.4714731E-03  0.5890972E-04 -0.3422367E-01
6353000.  0.1626288E-01  0.1348563E+00  0.6764408E-03  0.1545484E-02  0.6427892E-04 -0.3419032E-01
6352000.  0.1624107E-01  0.1430607E+00  0.6761137E-03  0.2622108E-02  0.6964269E-04 -0.3415428E-01
6351000.  0.1621797E-01  0.1512517E+00  0.6756175E-03  0.3701087E-02  0.7500058E-04 -0.3411558E-01
6350000.  0.1619359E-01  0.1594284E+00  0.6749518E-03  0.4782160E-02  0.8035219E-04 -0.3407421E-01
6349000.  0.1616792E-01  0.1675904E+00  0.6741162E-03  0.5865067E-02  0.8569710E-04 -0.3403017E-01
6348000.  0.1614098E-01  0.1757369E+00  0.6731105E-03  0.6949545E-02  0.9103489E-04 -0.3398346E-01
6347000.  0.1611275E-01  0.1838672E+00  0.6719345E-03  0.8035333E-02  0.9636513E-04 -0.3393409E-01
6346600.  0.1610111E-01  0.1871147E+00  0.6714164E-03  0.8469956E-02  0.9849502E-04 -0.3391360E-01
6346600.  0.1610111E-01  0.1145583E+00  0.6714164E-03  0.6866831E-03  0.9849502E-04 -0.3952783E-01
6318800.  0.1524895E-01  0.2747529E+00  0.6164667E-03  0.2448533E-01  0.2676839E-03 -0.3773578E-01
6291000.  0.1371963E-01  0.4237631E+00  0.4603887E-03  0.4646389E-01  0.4253885E-03 -0.3427676E-01
6291000.  0.1371963E-01  0.4293335E+00  0.4603887E-03  0.4845576E-01  0.4253885E-03 -0.3427676E-01
6263000.  0.1153159E-01  0.5627432E+00  0.2064670E-03  0.6589659E-01  0.5653274E-03 -0.2915342E-01
6235000.  0.8809280E-02  0.6715823E+00 -0.1064326E-03  0.7491455E-01  0.6795882E-03 -0.2263044E-01
6207000.  0.5671420E-02  0.7511761E+00 -0.4372298E-03  0.7388602E-01  0.7625846E-03 -0.1497600E-01
6179000.  0.2254383E-02  0.7981811E+00 -0.7408131E-03  0.6262394E-01  0.8100468E-03 -0.6519092E-02
6151000. -0.1293707E-02  0.8105902E+00 -0.9745074E-03  0.4241167E-01  0.8192604E-03  0.2363991E-02
6151000. -0.1293707E-02  0.6505700E+00 -0.9745074E-03  0.3733630E-01  0.8192604E-03  0.2435566E-02
6128500. -0.3551079E-02  0.6255533E+00 -0.1073043E-02  0.1807765E-01  0.8001646E-03  0.8356627E-02
6106000. -0.5696889E-02  0.5876238E+00 -0.1100395E-02 -0.2705797E-02  0.7604746E-03  0.1407488E-01
6083500. -0.7688062E-02  0.5382258E+00 -0.1054069E-02 -0.2337360E-01  0.7011502E-03  0.1945384E-01
6061000. -0.9486727E-02  0.4788552E+00 -0.9373277E-03 -0.4232594E-01  0.6236150E-03  0.2436790E-01
6038500. -0.1106034E-01  0.4110247E+00 -0.7588229E-03 -0.5813339E-01  0.5297137E-03  0.2870469E-01
6016000. -0.1238167E-01  0.3362317E+00 -0.5317852E-03 -0.6964754E-01  0.4216607E-03  0.3236745E-01
5993500. -0.1342874E-01  0.2559525E+00 -0.2728782E-03 -0.7608432E-01  0.3019814E-03  0.3527714E-01
5971000. -0.1418476E-01  0.1716474E+00 -0.8082642E-06 -0.7707679E-01  0.1734480E-03  0.3737316E-01
5971000. -0.1418476E-01  0.1562360E+00 -0.8082642E-06 -0.6691821E-01  0.1734480E-03  0.3923006E-01
5937667. -0.1467486E-01  0.3177428E-01  0.3283519E-03 -0.5759063E-01 -0.3696361E-04  0.4088588E-01
5904333. -0.1452774E-01 -0.8668990E-01  0.5904971E-03 -0.4178488E-01 -0.2511151E-03  0.4066807E-01
5871000. -0.1378461E-01 -0.1954971E+00  0.7596842E-03 -0.2258857E-01 -0.4594288E-03  0.3868017E-01
5837667. -0.1250435E-01 -0.2915399E+00  0.8263506E-03 -0.3082832E-02 -0.6530721E-03  0.3509345E-01
5804333. -0.1076064E-01 -0.3722560E+00  0.7960467E-03  0.1409394E-01 -0.8242496E-03  0.3013112E-01
5771000. -0.8639241E-02 -0.4356546E+00  0.6863182E-03  0.2702994E-01 -0.9664239E-03  0.2405438E-01
5771000. -0.8639241E-02 -0.4356582E+00  0.6863182E-03  0.2702939E-01 -0.9664239E-03  0.2405438E-01
5701000. -0.3198313E-02 -0.5411137E+00  0.3042675E-03  0.3854080E-01 -0.1146413E-02  0.8239646E-02
5701000. -0.3198313E-02 -0.4467173E+00  0.3042675E-03  0.3130145E-01 -0.1146413E-02  0.9141136E-02
5667333. -0.8539067E-03 -0.4419785E+00  0.1468829E-03  0.2807161E-01 -0.1175317E-02  0.1833237E-02
5633667.  0.1486051E-02 -0.4428101E+00  0.9346171E-05  0.2366811E-01 -0.1165947E-02 -0.5376397E-02
5600000.  0.3795800E-02 -0.4285422E+00 -0.9877655E-04  0.1690891E-01 -0.1118706E-02 -0.1245954E-01
5600000.  0.3795800E-02 -0.4285422E+00 -0.9877655E-04  0.1690891E-01 -0.1118706E-02 -0.1245954E-01
5563518.  0.6165959E-02 -0.3965072E+00 -0.1706256E-03  0.8017477E-02 -0.1026320E-02 -0.1971403E-01
5527037.  0.8306427E-02 -0.3486267E+00 -0.1899664E-03 -0.1204649E-02 -0.8942506E-03 -0.2627993E-01
5490556.  0.1013217E-01 -0.2869812E+00 -0.1587231E-03 -0.9440808E-02 -0.7271123E-03 -0.3192747E-01
5454074.  0.1157191E-01 -0.2143041E+00 -0.8593136E-04 -0.1554721E-01 -0.5307277E-03 -0.3646414E-01
5417593.  0.1257169E-01 -0.1338997E+00  0.1364244E-04 -0.1868813E-01 -0.3119280E-03 -0.3973694E-01
5381111.  0.1309740E-01 -0.4933022E-01  0.1215749E-03 -0.1842969E-01 -0.7825868E-04 -0.4164223E-01
5344630.  0.1313577E-01  0.3569782E-01  0.2182070E-03 -0.1478089E-01  0.1622515E-03 -0.4212292E-01
5308148.  0.1269455E-01  0.1175973E+00  0.2851952E-03 -0.8181769E-02  0.4014083E-03 -0.4116992E-01
5271667.  0.1180134E-01  0.1930567E+00  0.3078082E-03  0.5565610E-03  0.6310832E-03 -0.3882392E-01
5235185.  0.1050129E-01  0.2592670E+00  0.2767846E-03  0.1035687E-01  0.8435304E-03 -0.3516788E-01
5198704.  0.8854047E-02  0.3140184E+00  0.1894912E-03  0.2000364E-01  0.1031573E-02 -0.3032619E-01
5162222.  0.6929993E-02  0.3557359E+00  0.5031821E-04  0.2828152E-01  0.1188881E-02 -0.2446063E-01
5125741.  0.4806433E-02  0.3836503E+00 -0.1297335E-03  0.3412384E-01  0.1310111E-02 -0.1776054E-01
5089259.  0.2562953E-02  0.3976261E+00 -0.3342636E-03  0.3672070E-01  0.1391093E-02 -0.1043904E-01
5052778.  0.2784388E-03  0.3981384E+00 -0.5431671E-03  0.3560914E-01  0.1428917E-02 -0.2726328E-02
5016296. -0.1972969E-02  0.3862494E+00 -0.7348530E-03  0.3072856E-01  0.1422022E-02  0.5140065E-02
4979815. -0.4123949E-02  0.3633375E+00 -0.8885051E-03  0.2241466E-01  0.1370217E-02  0.1292025E-01
4943333. -0.6116139E-02  0.3310624E+00 -0.9863179E-03  0.1136787E-01  0.1274665E-02  0.2038057E-01
4906852. -0.7900934E-02  0.2912099E+00 -0.1015353E-02 -0.1423544E-02  0.1137848E-02  0.2729877E-01
4870370. -0.9439948E-02  0.2454846E+00 -0.9689139E-03 -0.1478900E-01  0.9634501E-03  0.3347302E-01
4833889. -0.1070428E-01  0.1955439E+00 -0.8472478E-03 -0.2749536E-01  0.7562697E-03  0.3872291E-01
4797407. -0.1167409E-01  0.1428274E+00 -0.6575257E-03 -0.3837355E-01  0.5220347E-03  0.4289801E-01
4760926. -0.1233701E-01  0.8854654E-01 -0.4131952E-03 -0.4642533E-01  0.2672638E-03  0.4588094E-01
4724444. -0.1268713E-01  0.3372396E-01 -0.1326238E-03 -0.5093648E-01 -0.9704938E-06  0.4758681E-01
4687963. -0.1272377E-01 -0.2081884E-01  0.1626343E-03 -0.5152380E-01 -0.2751886E-03  0.4796903E-01
4651482. -0.1245057E-01 -0.7438849E-01  0.4498970E-03 -0.4817360E-01 -0.5477759E-03  0.4701851E-01
4615000. -0.1187487E-01 -0.1263683E+00  0.7074817E-03 -0.4124271E-01 -0.8111635E-03  0.4476069E-01
4578518. -0.1100758E-01 -0.1761220E+00  0.9166557E-03 -0.3140043E-01 -0.1058022E-02  0.4125881E-01
4542037. -0.9863425E-02 -0.2229621E+00  0.1063290E-02 -0.1957144E-01 -0.1281480E-02  0.3660809E-01
4505556. -0.8461204E-02 -0.2661131E+00  0.1139057E-02 -0.6834655E-02 -0.1475308E-02  0.3093267E-01
4469074. -0.6824668E-02 -0.3046221E+00  0.1141976E-02  0.5686525E-02 -0.1634066E-02  0.2438481E-01
4432593. -0.4983352E-02 -0.3374797E+00  0.1076394E-02  0.1692423E-01 -0.1753234E-02  0.1713675E-01
4396111. -0.2972651E-02 -0.3635671E+00  0.9523443E-03  0.2597385E-01 -0.1829344E-02  0.9377355E-02
4359630. -0.8348714E-03 -0.3816980E+00  0.7844007E-03  0.3216921E-01 -0.1860037E-02  0.1308436E-02
4323148.  0.1381518E-02 -0.3908362E+00  0.5900941E-03  0.3514576E-01 -0.1844131E-02 -0.6863710E-02
4286667.  0.3622101E-02 -0.3900253E+00  0.3881491E-03  0.3485841E-01 -0.1781632E-02 -0.1493112E-01
4250185.  0.5827865E-02 -0.3785702E+00  0.1966105E-03  0.3158015E-01 -0.1673721E-02 -0.2269106E-01
4213704.  0.7936687E-02 -0.3561623E+00  0.3113865E-04  0.2586867E-01 -0.1522726E-02 -0.2994907E-01
4177222.  0.9885881E-02 -0.3228435E+00 -0.9646438E-04  0.1849510E-01 -0.1332032E-02 -0.3652684E-01
4140741.  0.1161420E-01 -0.2791694E+00 -0.1792425E-03  0.1037260E-01 -0.1106018E-02 -0.4226220E-01
4104259.  0.1306520E-01 -0.2261747E+00 -0.2156550E-03  0.2457938E-02 -0.8499061E-03 -0.4701549E-01
4067778.  0.1418941E-01 -0.1653291E+00 -0.2095228E-03 -0.4344971E-02 -0.5696713E-03 -0.5067347E-01
4031296.  0.1494727E-01 -0.9856197E-01 -0.1694984E-03 -0.9267033E-02 -0.2718388E-03 -0.5314644E-01
3994815.  0.1531113E-01 -0.2811456E-01 -0.1080612E-03 -0.1175278E-01  0.3660291E-04 -0.5437476E-01
3958333.  0.1526690E-01  0.4355219E-01 -0.4012430E-04 -0.1151165E-01  0.3484499E-03 -0.5433009E-01
3921852.  0.1481491E-01  0.1138839E+00  0.1854434E-04 -0.8540261E-02  0.6563710E-03 -0.5300847E-01
3885370.  0.1396999E-01  0.1803792E+00  0.5300071E-04 -0.3125316E-02  0.9531366E-03 -0.5043802E-01
3848889.  0.1276094E-01  0.2407167E+00  0.5070371E-04  0.4186538E-02  0.1231726E-02 -0.4667382E-01
3812407.  0.1122874E-01  0.2929337E+00  0.2857105E-05  0.1264453E-01  0.1485529E-02 -0.4179357E-01
3775926.  0.9424755E-02  0.3354350E+00 -0.9459355E-04  0.2135702E-01  0.1708430E-02 -0.3590184E-01
3739444.  0.7407780E-02  0.3671848E+00 -0.2404209E-03  0.2938396E-01  0.1894991E-02 -0.2912055E-01
3702963.  0.5241110E-02  0.3876962E+00 -0.4280661E-03  0.3582034E-01  0.2040497E-02 -0.2158909E-01
3666482.  0.2989338E-02  0.3969603E+00 -0.6460793E-03  0.3987322E-01  0.2141096E-02 -0.1346206E-01
3630000.  0.7153045E-03  0.3955903E+00 -0.8790126E-03  0.4094959E-01  0.2193842E-02 -0.4902171E-02
3630000.  0.7153045E-03  0.3955903E+00 -0.8790126E-03  0.4094959E-01  0.2193842E-02 -0.4902171E-02
3592500. -0.1584069E-02  0.3841207E+00 -0.1114851E-02  0.3858306E-01  0.2196091E-02  0.4168513E-02
3555000. -0.3789454E-02  0.3639328E+00 -0.1326152E-02  0.3262747E-01  0.2144594E-02  0.1332883E-01
3517500. -0.5854711E-02  0.3368114E+00 -0.1492379E-02  0.2333532E-01  0.2039374E-02  0.2239206E-01
3480000. -0.7744364E-02  0.3045692E+00 -0.1595374E-02  0.1125725E-01  0.1881538E-02  0.3117756E-01
3480000. -0.7744364E-02  0.5816191E+00 -0.4793716E-03 -0.1329192E-01  0.1881538E-02  0.5587348E-01
3409422. -0.1292567E-01  0.3355019E+00 -0.2706890E-03 -0.2364452E-01  0.1033009E-02  0.9416088E-01
3338844. -0.1491052E-01  0.1734137E-01  0.2401665E-04 -0.2849754E-01 -0.1203303E-03  0.1098023E+00
3268266. -0.1333346E-01 -0.2947405E+00  0.3357557E-03 -0.2664758E-01 -0.1302465E-02  0.9930358E-01
3197688. -0.8662229E-02 -0.5312328E+00  0.5907558E-03 -0.1843639E-01 -0.2233223E-02  0.6534446E-01
3127109. -0.2020046E-02 -0.6450694E+00  0.7270213E-03 -0.5596545E-02 -0.2692105E-02  0.1574675E-01
3056531.  0.5109070E-02 -0.6188470E+00  0.7075734E-03  0.9175548E-02 -0.2564675E-02 -0.3855394E-01
2985953.  0.1121717E-01 -0.4650970E+00  0.5279660E-03  0.2280840E-01 -0.1863434E-02 -0.8600203E-01
2915375.  0.1507702E-01 -0.2206528E+00  0.2169767E-03  0.3247442E-01 -0.7211122E-03 -0.1168108E+00
2844797.  0.1596115E-01  0.6288765E-01 -0.1691771E-03  0.3612375E-01  0.6397802E-03 -0.1247991E+00
2774219.  0.1374420E-01  0.3302769E+00 -0.5576293E-03  0.3284245E-01  0.1953228E-02 -0.1083804E+00
2703641.  0.8883978E-02  0.5330597E+00 -0.8724147E-03  0.2298806E-01  0.2961731E-02 -0.7060964E-01
2633062.  0.2298849E-02  0.6375955E+00 -0.1048243E-02  0.8096322E-02  0.3463953E-02 -0.1837526E-01
2562484. -0.4824515E-02  0.6295691E+00 -0.1042101E-02 -0.9405939E-02  0.3349693E-02  0.3902832E-01
2491906. -0.1125327E-01  0.5147212E+00 -0.8409019E-03 -0.2662216E-01  0.2617042E-02  0.9164788E-01
2421328. -0.1591788E-01  0.3161123E+00 -0.4640461E-03 -0.4066246E-01  0.1369950E-02  0.1305928E+00
2350750. -0.1807668E-01  0.6883470E-01  0.3921536E-04 -0.4909768E-01 -0.2017838E-03  0.1494533E+00
2280172. -0.1741278E-01 -0.1866771E+00  0.5970011E-03 -0.5032109E-01 -0.1855542E-02  0.1452040E+00
2209594. -0.1405499E-01 -0.4114806E+00  0.1125286E-02 -0.4377059E-01 -0.3335570E-02  0.1184954E+00
2139016. -0.8527375E-02 -0.5740223E+00  0.1539948E-02 -0.2998680E-01 -0.4412499E-02  0.7334259E-01
2068438. -0.1642441E-02 -0.6542908E+00  0.1768551E-02 -0.1050841E-01 -0.4916537E-02  0.1631887E-01
1997859.  0.5639629E-02 -0.6457564E+00  0.1760168E-02  0.1236904E-01 -0.4759743E-02 -0.4457540E-01
1927281.  0.1236049E-01 -0.5551136E+00  0.1491988E-02  0.3592609E-01 -0.3944974E-02 -0.1011566E+00
1856703.  0.1769989E-01 -0.4000402E+00  0.9719261E-03  0.5739852E-01 -0.2561269E-02 -0.1462243E+00
1786125.  0.2107807E-01 -0.2056072E+00  0.2370800E-03  0.7433839E-01 -0.7676768E-03 -0.1744621E+00
1715547.  0.2221413E-01  0.2607320E-04 -0.6515196E-03  0.8491591E-01  0.1230945E-02 -0.1829701E+00
1644969.  0.2113638E-01  0.1898755E+00 -0.1616991E-02  0.8812353E-01  0.3211678E-02 -0.1713689E+00
1574391.  0.1814841E-01  0.3417437E+00 -0.2576296E-02  0.8386213E-01  0.4960102E-02 -0.1414873E+00
1503812.  0.1376100E-01  0.4407187E+00 -0.3450250E-02  0.7290873E-01  0.6291307E-02 -0.9668094E-01
1433234.  0.8604129E-02  0.4802979E+00 -0.4172501E-02  0.5678027E-01  0.7061592E-02 -0.4085998E-01
1362656.  0.3333569E-02  0.4621354E+00 -0.4696688E-02  0.3752329E-01  0.7168135E-02  0.2274107E-01
1292078. -0.1451865E-02  0.3945325E+00 -0.5000921E-02  0.1747014E-01  0.6533370E-02  0.9307914E-01
1221500. -0.5271058E-02  0.2899629E+00 -0.5089679E-02 -0.9824103E-03  0.5070055E-02  0.1733569E+00
1221500. -0.5271058E-02  0.6269632E+01  0.2886869E-01  0.1780633E+00  0.5070055E-02  0.1756404E+00
1183328. -0.4132522E-01  0.5340558E+01  0.2217440E-01  0.1992207E+01  0.4103342E-02  0.1476024E+00
1145156. -0.6459593E-01  0.2104361E+01  0.6444968E-02  0.3090234E+01  0.3294936E-02  0.1227670E+00
1106984. -0.6397295E-01 -0.2397598E+01 -0.1250903E-01  0.3028430E+01  0.2626051E-02  0.1010216E+00
1068812. -0.3659378E-01 -0.6534024E+01 -0.2748817E-01  0.1801974E+01  0.2078282E-02  0.8233422E-01
1030641.  0.1026088E-01 -0.8656699E+01 -0.3262481E-01 -0.1545369E+00  0.1633453E-02  0.6664786E-01
 992469.  0.6094605E-01 -0.7713943E+01 -0.2559444E-01 -0.2131480E+01  0.1273993E-02  0.5379250E-01
 954297.  0.9645083E-01 -0.3681873E+01 -0.8501744E-02 -0.3406818E+01  0.9838486E-03  0.4344288E-01
 916125.  0.1010212E+00  0.2347297E+01  0.1285613E-01 -0.3508193E+01  0.7493270E-03  0.3513945E-01
 877953.  0.6813098E-01  0.8464784E+01  0.3104836E-01 -0.2378339E+01  0.5597340E-03  0.2835703E-01
 839781.  0.3696755E-02  0.1254067E+02  0.3961657E-01 -0.3877033E+00  0.4074568E-03  0.2261020E-01
 801609. -0.7469146E-01  0.1292028E+02  0.3528906E-01  0.1803838E+01  0.2874363E-03  0.1754477E-01
 763438. -0.1424293E+00  0.8989452E+01  0.1904215E-01  0.3480834E+01  0.1962037E-03  0.1298884E-01
 725266. -0.1750634E+00  0.1418449E+01 -0.4314514E-02  0.4115097E+01  0.1307686E-03  0.8946155E-02
 687094. -0.1557005E+00 -0.7997208E+01 -0.2781095E-01  0.3532083E+01  0.8774040E-04  0.5536056E-02
 648922. -0.8036111E-01 -0.1685075E+02 -0.4462186E-01  0.1949063E+01  0.6285932E-04  0.2912299E-02
 610750.  0.4042504E-01 -0.2282713E+02 -0.5018758E-01 -0.1203407E+00  0.5109538E-04  0.1164777E-02
 572578.  0.1842453E+00 -0.2437152E+02 -0.4346048E-01 -0.2052516E+01  0.4720411E-04  0.2696150E-03
 534406.  0.3227994E+00 -0.2111613E+02 -0.2693566E-01 -0.3320682E+01  0.4647380E-04  0.7446579E-04
 496234.  0.4293892E+00 -0.1394105E+02 -0.5563939E-02 -0.3650460E+01  0.4541310E-04  0.3342330E-03
 458062.  0.4856367E+00 -0.4665881E+01  0.1498558E-01 -0.3076597E+01  0.4210888E-04  0.7783472E-03
 419891.  0.4855093E+00  0.4514207E+01  0.3007449E-01 -0.1892136E+01  0.3620123E-04  0.1169977E-02
 381719.  0.4356566E+00  0.1166066E+02  0.3728442E-01 -0.5193637E+00  0.2847956E-04  0.1368113E-02
 343547.  0.3522718E+00  0.1559004E+02  0.3672813E-01  0.6431482E+00  0.2028243E-04  0.1329831E-02
 305375.  0.2557289E+00  0.1610073E+02  0.3051640E-01  0.1342363E+01  0.1291332E-04  0.1105352E-02
 267203.  0.1648284E+00  0.1387955E+02  0.2169114E-01  0.1522410E+01  0.7216828E-05  0.7886682E-03
 229031.  0.9241914E-01  0.1015362E+02  0.1308439E-01  0.1299326E+01  0.3446301E-05  0.4773604E-03
 190859.  0.4353224E-01  0.6227910E+01  0.6512787E-02  0.8798400E+00  0.1346536E-05  0.2384380E-03
 152688.  0.1620444E-01  0.3076754E+01  0.2526739E-02  0.4648114E+00  0.3993345E-06  0.9273681E-04
 114516.  0.4240117E-02  0.1120572E+01  0.6813951E-03  0.1772185E+00  0.7802723E-07  0.2501306E-04
  76344.  0.5982882E-03  0.2441474E+00  0.9814273E-04  0.3978541E-01  0.7305488E-08  0.3596019E-05
  38172.  0.1948183E-04  0.1616862E-01  0.3234216E-05  0.2679918E-02  0.1183583E-09  0.1177030E-06
      0.  0.0000000E+00  0.0000000E+00  0.0000000E+00  0.0000000E+00  0.0000000E+00  0.0000000E+00
