      11       19 S      547        116.73260         17.58575          6.29262        251.53841      185    7
6371000. -0.1600507E-01 -0.4415379E+00 -0.3040738E-02  0.1296433E-01  0.4836108E-03  0.2050960E-01
6370000. -0.1593506E-01 -0.4505138E+00 -0.3042375E-02  0.7892809E-02  0.4803775E-03  0.2068797E-01
6369000. -0.1586366E-01 -0.4592440E+00 -0.3043215E-02  0.2814670E-02  0.4771164E-03  0.2086420E-01
6368000. -0.1579090E-01 -0.4677273E+00 -0.3043258E-02 -0.2268709E-02  0.4738279E-03  0.2103827E-01
6368000. -0.1579090E-01 -0.4677273E+00 -0.3043258E-02 -0.2268709E-02  0.4738279E-03  0.2103827E-01
6367000. -0.1571684E-01 -0.4759628E+00 -0.3042503E-02 -0.7355955E-02  0.4705122E-03  0.2121016E-01
6366000. -0.1564150E-01 -0.4839495E+00 -0.3040949E-02 -0.1244569E-01  0.4671697E-03  0.2137986E-01
6365000. -0.1556493E-01 -0.4916865E+00 -0.3038596E-02 -0.1753654E-01  0.4638007E-03  0.2154736E-01
6364000. -0.1548716E-01 -0.4991731E+00 -0.3035444E-02 -0.2262712E-01  0.4604056E-03  0.2171264E-01
6363000. -0.1540824E-01 -0.5064086E+00 -0.3031493E-02 -0.2771606E-01  0.4569847E-03  0.2187569E-01
6362000. -0.1532820E-01 -0.5133924E+00 -0.3026743E-02 -0.3280197E-01  0.4535384E-03  0.2203649E-01
6361000. -0.1524709E-01 -0.5201238E+00 -0.3021196E-02 -0.3788348E-01  0.4500671E-03  0.2219503E-01
6360000. -0.1516494E-01 -0.5266025E+00 -0.3014851E-02 -0.4295920E-01  0.4465710E-03  0.2235129E-01
6359000. -0.1508179E-01 -0.5328280E+00 -0.3007710E-02 -0.4802776E-01  0.4430506E-03  0.2250527E-01
6358000. -0.1499768E-01 -0.5388001E+00 -0.2999775E-02 -0.5308778E-01  0.4395062E-03  0.2265695E-01
6357000. -0.1491266E-01 -0.5445185E+00 -0.2991046E-02 -0.5813790E-01  0.4359382E-03  0.2280632E-01
6356000. -0.1482676E-01 -0.5499830E+00 -0.2981525E-02 -0.6317673E-01  0.4323469E-03  0.2295335E-01
6356000. -0.1482676E-01 -0.4556575E+00 -0.2981525E-02 -0.3342661E-01  0.4323469E-03  0.2617949E-01
6355000. -0.1475490E-01 -0.4600229E+00 -0.2976022E-02 -0.3667900E-01  0.4282224E-03  0.2637564E-01
6354000. -0.1468236E-01 -0.4642313E+00 -0.2970011E-02 -0.3992767E-01  0.4240671E-03  0.2657006E-01
6353000. -0.1460917E-01 -0.4682825E+00 -0.2963489E-02 -0.4317201E-01  0.4198815E-03  0.2676273E-01
6352000. -0.1453536E-01 -0.4721764E+00 -0.2956458E-02 -0.4641147E-01  0.4156658E-03  0.2695366E-01
6351000. -0.1446095E-01 -0.4759129E+00 -0.2948919E-02 -0.4964545E-01  0.4114202E-03  0.2714282E-01
6350000. -0.1438597E-01 -0.4794919E+00 -0.2940873E-02 -0.5287339E-01  0.4071452E-03  0.2733021E-01
6349000. -0.1431044E-01 -0.4829133E+00 -0.2932322E-02 -0.5609471E-01  0.4028408E-03  0.2751581E-01
6348000. -0.1423438E-01 -0.4861772E+00 -0.2923264E-02 -0.5930882E-01  0.3985074E-03  0.2769962E-01
6347000. -0.1415782E-01 -0.4892835E+00 -0.2913703E-02 -0.6251516E-01  0.3941453E-03  0.2788163E-01
6346600. -0.1412707E-01 -0.4904819E+00 -0.2909738E-02 -0.6379539E-01  0.3923925E-03  0.2795393E-01
6346600. -0.1412707E-01 -0.5052571E+00 -0.2909738E-02 -0.3941286E-01  0.3923925E-03  0.3287983E-01
6318800. -0.1183974E-01 -0.5277951E+00 -0.2596196E-02 -0.1032755E+00  0.2371288E-03  0.3809739E-01
6291000. -0.9650261E-02 -0.4618182E+00 -0.2022104E-02 -0.1577819E+00  0.6163264E-04  0.4213547E-01
6291000. -0.9650261E-02 -0.4734486E+00 -0.2022104E-02 -0.1634289E+00  0.6163264E-04  0.4213547E-01
6263000. -0.7875871E-02 -0.3226610E+00 -0.1206967E-02 -0.2043296E+00 -0.1298663E-03  0.4478778E-01
6235000. -0.6893160E-02 -0.1181966E+00 -0.2569752E-03 -0.2242201E+00 -0.3300673E-03  0.4609177E-01
6207000. -0.6867063E-02  0.1067005E+00  0.7297002E-03 -0.2208592E+00 -0.5330201E-03  0.4604166E-01
6179000. -0.7806983E-02  0.3152075E+00  0.1650608E-02 -0.1945579E+00 -0.7328122E-03  0.4465875E-01
6151000. -0.9560740E-02  0.4713737E+00  0.2410255E-02 -0.1481425E+00 -0.9236674E-03  0.4198236E-01
6151000. -0.9560740E-02  0.4568705E+00  0.2410255E-02 -0.1287189E+00 -0.9236674E-03  0.4251131E-01
6128500. -0.1129147E-01  0.5150863E+00  0.2790592E-02 -0.8575564E-01 -0.1068505E-02  0.3939865E-01
6106000. -0.1313724E-01  0.5211775E+00  0.3011204E-02 -0.3874961E-01 -0.1201186E-02  0.3563708E-01
6083500. -0.1490724E-01  0.4719711E+00  0.3063014E-02  0.9342323E-02 -0.1319533E-02  0.3129322E-01
6061000. -0.1640629E-01  0.3681715E+00  0.2947398E-02  0.5558821E-01 -0.1421621E-02  0.2644290E-01
6038500. -0.1744843E-01  0.2142648E+00  0.2675779E-02  0.9726013E-01 -0.1505806E-02  0.2116902E-01
6016000. -0.1786979E-01  0.1818886E-01  0.2268613E-02  0.1319940E+00 -0.1570748E-02  0.1556016E-01
5993500. -0.1753983E-01 -0.2092198E+00  0.1753866E-02  0.1579188E+00 -0.1615427E-02  0.9709081E-02
5971000. -0.1637034E-01 -0.4549392E+00  0.1165096E-02  0.1737531E+00 -0.1639152E-02  0.3709846E-02
5971000. -0.1637034E-01 -0.3953592E+00  0.1165096E-02  0.1566725E+00 -0.1639152E-02  0.5852862E-02
5937667. -0.1347517E-01 -0.7070190E+00  0.3373728E-03  0.1564711E+00 -0.1647648E-02 -0.2579696E-02
5904333. -0.9047834E-02 -0.9754311E+00 -0.4410643E-03  0.1384478E+00 -0.1612695E-02 -0.1070529E-01
5871000. -0.3394433E-02 -0.1171733E+01 -0.1087890E-02  0.1069895E+00 -0.1536644E-02 -0.1824974E-01
5837667.  0.3054293E-02 -0.1277238E+01 -0.1546172E-02  0.6726033E-01 -0.1423114E-02 -0.2500233E-01
5804333.  0.9798289E-02 -0.1284105E+01 -0.1786423E-02  0.2448435E-01 -0.1276649E-02 -0.3082018E-01
5771000.  0.1632317E-01 -0.1194743E+01 -0.1805358E-02 -0.1661630E-01 -0.1102374E-02 -0.3562754E-01
5771000.  0.1632317E-01 -0.1194795E+01 -0.1805358E-02 -0.1661641E-01 -0.1102374E-02 -0.3562754E-01
5701000.  0.2752897E-01 -0.7862976E+00 -0.1215290E-02 -0.8591367E-01 -0.6727271E-03 -0.4196617E-01
5701000.  0.2752897E-01 -0.6767436E+00 -0.1215290E-02 -0.7465530E-01 -0.6727271E-03 -0.4972559E-01
5667333.  0.3037049E-01 -0.4013126E+00 -0.7859035E-03 -0.8689159E-01 -0.4092474E-03 -0.4986981E-01
5633667.  0.3177621E-01 -0.1286480E+00 -0.3048575E-03 -0.9419757E-01 -0.1463778E-03 -0.4955861E-01
5600000.  0.3171118E-01  0.1532562E+00  0.1953924E-03 -0.9378103E-01  0.1135976E-03 -0.4874989E-01
5600000.  0.3171118E-01  0.1532562E+00  0.1953924E-03 -0.9378103E-01  0.1135976E-03 -0.4874989E-01
5563518.  0.2997933E-01  0.4479944E+00  0.7108836E-03 -0.8485442E-01  0.3890309E-03 -0.4736711E-01
5527037.  0.2664258E-01  0.7103845E+00  0.1152166E-02 -0.6808316E-01  0.6551817E-03 -0.4552258E-01
5490556.  0.2194229E-01  0.9213826E+00  0.1478593E-02 -0.4504321E-01  0.9096271E-03 -0.4329152E-01
5454074.  0.1621761E-01  0.1066063E+01  0.1659899E-02 -0.1776057E-01  0.1150379E-02 -0.4074926E-01
5417593.  0.9878667E-02  0.1134863E+01  0.1678277E-02  0.1146876E-01  0.1375834E-02 -0.3796143E-01
5381111.  0.3373534E-02  0.1123894E+01  0.1529356E-02  0.4028132E-01  0.1584779E-02 -0.3499062E-01
5344630. -0.2843903E-02  0.1035293E+01  0.1222081E-02  0.6642345E-01  0.1776314E-02 -0.3189086E-01
5308148. -0.8349349E-02  0.8768798E+00  0.7775183E-03  0.8793143E-01  0.1949845E-02 -0.2870688E-01
5271667. -0.1277673E-01  0.6612690E+00  0.2269207E-03  0.1032444E+00  0.2104985E-02 -0.2547503E-01
5235185. -0.1584474E-01  0.4050757E+00 -0.3910432E-03  0.1113298E+00  0.2241560E-02 -0.2222550E-01
5198704. -0.1737484E-01  0.1274513E+00 -0.1033340E-02  0.1117173E+00  0.2359533E-02 -0.1898191E-01
5162222. -0.1730203E-01 -0.1513910E+00 -0.1655912E-02  0.1044982E+00  0.2458988E-02 -0.1576010E-01
5125741. -0.1567716E-01 -0.4114274E+00 -0.2216796E-02  0.9032688E-01  0.2540101E-02 -0.1257856E-01
5089259. -0.1266112E-01 -0.6344438E+00 -0.2679187E-02  0.7031099E-01  0.2603144E-02 -0.9450352E-02
5052778. -0.8511623E-02 -0.8050971E+00 -0.3013679E-02  0.4593090E-01  0.2648456E-02 -0.6388660E-02
5016296. -0.3563017E-02 -0.9119712E+00 -0.3200176E-02  0.1892051E-01  0.2676466E-02 -0.3409496E-02
4979815.  0.1797281E-02 -0.9482011E+00 -0.3228875E-02 -0.8871714E-02  0.2687691E-02 -0.5294816E-03
4943333.  0.7157098E-02 -0.9118426E+00 -0.3100594E-02 -0.3560951E-01  0.2682754E-02  0.2232617E-02
4906852.  0.1210671E-01 -0.8058653E+00 -0.2826337E-02 -0.5959313E-01  0.2662387E-02  0.4855964E-02
4870370.  0.1626725E-01 -0.6378051E+00 -0.2426176E-02 -0.7936302E-01  0.2627451E-02  0.7316919E-02
4833889.  0.1931432E-01 -0.4192048E+00 -0.1927668E-02 -0.9379020E-01  0.2578943E-02  0.9593323E-02
4797407.  0.2099933E-01 -0.1646962E+00 -0.1363695E-02 -0.1021324E+00  0.2517980E-02  0.1166243E-01
4760926.  0.2116393E-01  0.1089145E+00 -0.7703000E-03 -0.1040520E+00  0.2445824E-02  0.1349961E-01
4724444.  0.1974931E-01  0.3839068E+00 -0.1841616E-03 -0.9964058E-01  0.2363852E-02  0.1508798E-01
4687963.  0.1679846E-01  0.6426283E+00  0.3596151E-03 -0.8936981E-01  0.2273539E-02  0.1641061E-01
4651482.  0.1245241E-01  0.8686470E+00  0.8296677E-03 -0.7405177E-01  0.2176446E-02  0.1745473E-01
4615000.  0.6940062E-02  0.1047803E+01  0.1200120E-02 -0.5477762E-01  0.2074182E-02  0.1821539E-01
4578518.  0.5637463E-03  0.1168809E+01  0.1451887E-02 -0.3282357E-01  0.1968379E-02  0.1869095E-01
4542037. -0.6319630E-02  0.1224030E+01  0.1573562E-02 -0.9576810E-02  0.1860662E-02  0.1888619E-01
4505556. -0.1332119E-01  0.1209801E+01  0.1561775E-02  0.1356182E-01  0.1752607E-02  0.1881166E-01
4469074. -0.2004223E-01  0.1126374E+01  0.1421005E-02  0.3525965E-01  0.1645707E-02  0.1848447E-01
4432593. -0.2609671E-01  0.9780821E+00  0.1163015E-02  0.5432230E-01  0.1541364E-02  0.1792279E-01
4396111. -0.3113441E-01  0.7727473E+00  0.8058133E-03  0.6976323E-01  0.1440852E-02  0.1715054E-01
4359630. -0.3485809E-01  0.5212084E+00  0.3724117E-03  0.8083982E-01  0.1345295E-02  0.1619683E-01
4323148. -0.3704044E-01  0.2367324E+00 -0.1107683E-03  0.8709221E-01  0.1255666E-02  0.1508355E-01
4286667. -0.3753456E-01 -0.6589086E-01 -0.6154362E-03  0.8834392E-01  0.1172801E-02  0.1383982E-01
4250185. -0.3628080E-01 -0.3711460E+00 -0.1113153E-02  0.8470002E-01  0.1097368E-02  0.1249069E-01
4213704. -0.3330862E-01 -0.6636028E+00 -0.1576794E-02  0.7652687E-01  0.1029923E-02  0.1105331E-01
4177222. -0.2873324E-01 -0.9287599E+00 -0.1982026E-02  0.6440935E-01  0.9709117E-03  0.9546774E-02
4140741. -0.2274911E-01 -0.1153722E+01 -0.2308364E-02  0.4911520E-01  0.9207058E-03  0.7978779E-02
4104259. -0.1561764E-01 -0.1327865E+01 -0.2540144E-02  0.3153557E-01  0.8796536E-03  0.6349057E-02
4067778. -0.7654665E-02 -0.1443128E+01 -0.2667000E-02  0.1263415E-01  0.8481192E-03  0.4652696E-02
4031296.  0.7874101E-03 -0.1494555E+01 -0.2684186E-02 -0.6608007E-02  0.8265336E-03  0.2869797E-02
3994815.  0.9335673E-02 -0.1480226E+01 -0.2592483E-02 -0.2524649E-01  0.8154745E-03  0.9700871E-03
3958333.  0.1761570E-01 -0.1401230E+01 -0.2397865E-02 -0.4241654E-01  0.8157308E-03 -0.1090896E-02
3921852.  0.2526723E-01 -0.1261689E+01 -0.2110952E-02 -0.5737245E-01  0.8283815E-03 -0.3369934E-02
3885370.  0.3196173E-01 -0.1068185E+01 -0.1746189E-02 -0.6951821E-01  0.8548895E-03 -0.5945673E-02
3848889.  0.3741406E-01 -0.8295168E+00 -0.1321007E-02 -0.7842162E-01  0.8972264E-03 -0.8916528E-02
3812407.  0.4139527E-01 -0.5561642E+00 -0.8547581E-03 -0.8382982E-01  0.9579803E-03 -0.1240044E-01
3775926.  0.4373929E-01 -0.2597135E+00 -0.3677959E-03 -0.8566143E-01  0.1040519E-02 -0.1655463E-01
3739444.  0.4434867E-01  0.4767219E-01  0.1195939E-03 -0.8400170E-01  0.1149202E-02 -0.2156479E-01
3702963.  0.4319578E-01  0.3537996E+00  0.5879950E-03 -0.7908345E-01  0.1289553E-02 -0.2766071E-01
3666482.  0.4032173E-01  0.6469579E+00  0.1019727E-02 -0.7126225E-01  0.1468619E-02 -0.3514135E-01
3630000.  0.3583189E-01  0.9164307E+00  0.1399435E-02 -0.6099093E-01  0.1695321E-02 -0.4436319E-01
3630000.  0.3583189E-01  0.9164307E+00  0.1399435E-02 -0.6099093E-01  0.1695321E-02 -0.4436319E-01
3592500.  0.2970514E-01  0.1158767E+01  0.1722305E-02 -0.4842516E-01  0.1989829E-02 -0.5614198E-01
3555000.  0.2227643E-01  0.1357576E+01  0.1966680E-02 -0.3442144E-01  0.2362011E-02 -0.7087260E-01
3517500.  0.1382188E-01  0.1506432E+01  0.2125886E-02 -0.1958457E-01  0.2831483E-02 -0.8934924E-01
3480000.  0.4649602E-02  0.1600883E+01  0.2196733E-02 -0.4490583E-02  0.3423178E-02 -0.1125951E+00
3480000.  0.4649602E-02  0.4354784E+00 -0.1524764E-02  0.1133100E-01  0.3423178E-02 -0.1274221E+00
3409422.  0.1535297E-03  0.3712134E+00 -0.1605070E-02  0.3305688E-02  0.4491734E-02 -0.6779076E-01
3338844. -0.3495893E-02  0.2854438E+00 -0.1602172E-02 -0.3601122E-02  0.4974892E-02 -0.2161470E-01
3268266. -0.6148676E-02  0.1935605E+00 -0.1530901E-02 -0.8995255E-02  0.5016837E-02  0.1206383E-01
3197688. -0.7805296E-02  0.1071888E+00 -0.1408982E-02 -0.1274162E-01  0.4748594E-02  0.3465399E-01
3127109. -0.8572029E-02  0.3381540E-01 -0.1254444E-02 -0.1490875E-01  0.4283539E-02  0.4790606E-01
3056531. -0.8616631E-02 -0.2284082E-01 -0.1083740E-02 -0.1570318E-01  0.3714577E-02  0.5373850E-01
2985953. -0.8130484E-02 -0.6209633E-01 -0.9105538E-03 -0.1540711E-01  0.3113230E-02  0.5406206E-01
2915375. -0.7299887E-02 -0.8539785E-01 -0.7452762E-03 -0.1432603E-01  0.2530607E-02  0.5063152E-01
2844797. -0.6287409E-02 -0.9544631E-01 -0.5949678E-03 -0.1275018E-01  0.1999725E-02  0.4494622E-01
2774219. -0.5222201E-02 -0.9546670E-01 -0.4636809E-03 -0.1092934E-01  0.1538657E-02  0.3819976E-01
2703641. -0.4197418E-02 -0.8865751E-01 -0.3529887E-03 -0.9060167E-02  0.1154002E-02  0.3127249E-01
2633062. -0.3272627E-02 -0.7783849E-01 -0.2625937E-03 -0.7283706E-02  0.8442315E-03  0.2475623E-01
2562484. -0.2479200E-02 -0.6526907E-01 -0.1909308E-03 -0.5689571E-02  0.6026706E-03  0.1899933E-01
2491906. -0.1826838E-02 -0.5259535E-01 -0.1356877E-03 -0.4323903E-02  0.4198783E-03  0.1415962E-01
2421328. -0.1310254E-02 -0.4089200E-01 -0.9423598E-04 -0.3199650E-02  0.2854730E-03  0.1025855E-01
2350750. -0.9150098E-03 -0.3075385E-01 -0.6394081E-04 -0.2306575E-02  0.1893639E-03  0.7229456E-02
2280172. -0.6222124E-03 -0.2241044E-01 -0.4236763E-04 -0.1620125E-02  0.1225007E-03  0.4957022E-02
2209594. -0.4119225E-03 -0.1583881E-01 -0.2739883E-04 -0.1108692E-02  0.7723859E-04  0.3306831E-02
2139016. -0.2653873E-03 -0.1086254E-01 -0.1728041E-04 -0.7389624E-03  0.4743063E-04  0.2145594E-02
2068438. -0.1662893E-03 -0.7229598E-02 -0.1061980E-04 -0.4794649E-03  0.2834084E-04  0.1353292E-02
1997859. -0.1012523E-03 -0.4668301E-02 -0.6352720E-05 -0.3026187E-03  0.1645946E-04  0.8291008E-03
1927281. -0.5984878E-04 -0.2922968E-02 -0.3694507E-05 -0.1856243E-03  0.9279279E-05  0.4929109E-03
1856703. -0.3429744E-04 -0.1773109E-02 -0.2085860E-05 -0.1105271E-03  0.5070537E-05  0.2840120E-03
1786125. -0.1902689E-04 -0.1040860E-02 -0.1141382E-05 -0.6379581E-04  0.2680912E-05  0.1583686E-03
1715547. -0.1020008E-04 -0.5904220E-03 -0.6041860E-06 -0.3563602E-04  0.1368778E-05  0.8531105E-04
1644969. -0.5273207E-05 -0.3230487E-03 -0.3087105E-06 -0.1922774E-04  0.6732946E-06  0.4430508E-04
1574391. -0.2622844E-05 -0.1701123E-03 -0.1518606E-06 -0.9999386E-05  0.3182287E-06  0.2213003E-04
1503812. -0.1252270E-05 -0.8593998E-04 -0.7167615E-07 -0.5001827E-05  0.1440621E-06  0.1060264E-04
1433234. -0.5738395E-06 -0.4137509E-04 -0.3225453E-07 -0.2407557E-05  0.6220863E-07  0.4858795E-05
1362656. -0.2565141E-06 -0.1844444E-04 -0.1350824E-07 -0.1136217E-05  0.2544555E-07  0.2125146E-05
1292078. -0.1266800E-06 -0.6037675E-05 -0.4398967E-08 -0.6029703E-06  0.9688294E-08  0.8864743E-06
1221500. -0.1147530E-06  0.4321301E-05  0.1779528E-08 -0.6077871E-06  0.3298168E-08  0.3372984E-06
1221500. -0.1147530E-06  0.3897032E-05  0.2055589E-08  0.6092405E-06  0.3298168E-08  0.3870098E-06
1183328. -0.1230117E-06 -0.6643891E-06 -0.5824120E-09  0.2958360E-06  0.1605832E-08  0.1976009E-06
1145156. -0.1114449E-06 -0.2886402E-05 -0.1735614E-08  0.1061287E-06  0.7533384E-09  0.9778785E-07
1106984. -0.9136035E-07 -0.3630158E-05 -0.2022407E-08  0.1005023E-08  0.3379484E-09  0.4666871E-07
1068812. -0.6963324E-07 -0.3521774E-05 -0.1857530E-08 -0.4882496E-07  0.1432922E-09  0.2132801E-07
1030641. -0.4998429E-07 -0.2994965E-05 -0.1504303E-08 -0.6489563E-07  0.5629828E-10  0.9234689E-08
 992469. -0.3401339E-07 -0.2329675E-05 -0.1116522E-08 -0.6243592E-07  0.1970263E-10  0.3721480E-08
 954297. -0.2201337E-07 -0.1688668E-05 -0.7725952E-09 -0.5158521E-07  0.5541779E-11  0.1349638E-08
 916125. -0.1356783E-07 -0.1150997E-05 -0.5025599E-09 -0.3853195E-07  0.7364360E-12  0.4057658E-09
 877953. -0.7963790E-08 -0.7409766E-06 -0.3085161E-09 -0.2658295E-07 -0.5103794E-12  0.7226057E-10
 839781. -0.4447222E-08 -0.4513421E-06 -0.1789905E-09 -0.1710720E-07 -0.5935333E-12 -0.2185769E-10
 801609. -0.2358489E-08 -0.2601400E-06 -0.9811409E-10 -0.1031627E-07 -0.4059040E-12 -0.3394748E-10
 763438. -0.1184811E-08 -0.1417049E-06 -0.5073728E-10 -0.5837873E-08 -0.2266493E-12 -0.2470662E-10
 725266. -0.5619127E-09 -0.7278363E-07 -0.2468736E-10 -0.3098197E-08 -0.1113584E-12 -0.1419432E-10
 687094. -0.2505455E-09 -0.3513345E-07 -0.1126158E-10 -0.1538659E-08 -0.4942469E-13 -0.7085958E-11
 648922. -0.1044901E-09 -0.1586912E-07 -0.4793461E-11 -0.7125314E-09 -0.2000390E-13 -0.3169388E-11
 610750. -0.4050558E-10 -0.6669985E-08 -0.1892522E-11 -0.3061539E-09 -0.7396625E-14 -0.1284598E-11
 572578. -0.1448394E-10 -0.2590788E-08 -0.6879573E-12 -0.1212637E-09 -0.2490660E-14 -0.4726455E-12
 534406. -0.4732835E-11 -0.9220074E-09 -0.2281529E-12 -0.4391167E-10 -0.7585432E-15 -0.1572321E-12
 496234. -0.1396972E-11 -0.2974171E-09 -0.6824524E-13 -0.1438572E-10 -0.2068285E-15 -0.4690513E-13
 458062. -0.3671085E-12 -0.8579372E-10 -0.1814956E-13 -0.4207302E-11 -0.4979095E-16 -0.1239694E-13
 419891. -0.8432932E-13 -0.2175406E-10 -0.4213957E-14 -0.1079949E-11 -0.1038847E-16 -0.2853737E-14
 381719. -0.1653470E-13 -0.4741344E-11 -0.8341428E-15 -0.2379420E-12 -0.1833097E-17 -0.5593208E-15
 343547. -0.2681936E-14 -0.8624502E-12 -0.1364421E-15 -0.4369654E-13 -0.2647324E-18 -0.9050896E-16
 305375. -0.3448741E-15 -0.1257832E-12 -0.1767523E-16 -0.6426273E-14 -0.2992126E-19 -0.1159350E-16
 267203. -0.3312839E-16 -0.1390209E-13 -0.1708402E-17 -0.7152190E-15 -0.2487844E-20 -0.1098016E-17
 229031.  0.0000000E+00  0.0000000E+00  0.0000000E+00  0.0000000E+00  0.0000000E+00  0.0000000E+00
 190859.  0.0000000E+00  0.0000000E+00  0.0000000E+00  0.0000000E+00  0.0000000E+00  0.0000000E+00
 152688.  0.0000000E+00  0.0000000E+00  0.0000000E+00  0.0000000E+00  0.0000000E+00  0.0000000E+00
 114516.  0.0000000E+00  0.0000000E+00  0.0000000E+00  0.0000000E+00  0.0000000E+00  0.0000000E+00
  76344.  0.0000000E+00  0.0000000E+00  0.0000000E+00  0.0000000E+00  0.0000000E+00  0.0000000E+00
  38172.  0.0000000E+00  0.0000000E+00  0.0000000E+00  0.0000000E+00  0.0000000E+00  0.0000000E+00
      0.  0.0000000E+00  0.0000000E+00  0.0000000E+00  0.0000000E+00  0.0000000E+00  0.0000000E+00
