       7       25 S      426        125.51270         12.50719          7.51334        252.84821      185    7
6371000.  0.5790926E-01  0.3307804E+00  0.1472943E-02 -0.5643631E-01 -0.8940548E-03 -0.8595788E-01
6370000.  0.5785500E-01  0.3605291E+00  0.1481650E-02 -0.5450580E-01 -0.8805561E-03 -0.8604202E-01
6369000.  0.5779609E-01  0.3901235E+00  0.1490052E-02 -0.5255361E-01 -0.8670446E-03 -0.8612046E-01
6368000.  0.5773254E-01  0.4195600E+00  0.1498146E-02 -0.5058016E-01 -0.8535212E-03 -0.8619320E-01
6368000.  0.5773254E-01  0.4195600E+00  0.1498146E-02 -0.5058016E-01 -0.8535212E-03 -0.8619320E-01
6367000.  0.5766439E-01  0.4488350E+00  0.1505929E-02 -0.4858588E-01 -0.8399869E-03 -0.8626026E-01
6366000.  0.5759165E-01  0.4779449E+00  0.1513398E-02 -0.4657121E-01 -0.8264425E-03 -0.8632159E-01
6365000.  0.5751436E-01  0.5068861E+00  0.1520548E-02 -0.4453659E-01 -0.8128889E-03 -0.8637721E-01
6364000.  0.5743254E-01  0.5356550E+00  0.1527378E-02 -0.4248247E-01 -0.7993270E-03 -0.8642711E-01
6363000.  0.5734621E-01  0.5642484E+00  0.1533883E-02 -0.4040930E-01 -0.7857578E-03 -0.8647127E-01
6362000.  0.5725541E-01  0.5926627E+00  0.1540062E-02 -0.3831754E-01 -0.7721821E-03 -0.8650968E-01
6361000.  0.5716017E-01  0.6208946E+00  0.1545911E-02 -0.3620763E-01 -0.7586008E-03 -0.8654235E-01
6360000.  0.5706051E-01  0.6489407E+00  0.1551427E-02 -0.3408007E-01 -0.7450148E-03 -0.8656926E-01
6359000.  0.5695647E-01  0.6767978E+00  0.1556609E-02 -0.3193530E-01 -0.7314251E-03 -0.8659042E-01
6358000.  0.5684806E-01  0.7044626E+00  0.1561452E-02 -0.2977382E-01 -0.7178324E-03 -0.8660580E-01
6357000.  0.5673533E-01  0.7319319E+00  0.1565955E-02 -0.2759610E-01 -0.7042378E-03 -0.8661541E-01
6356000.  0.5661830E-01  0.7592026E+00  0.1570114E-02 -0.2540263E-01 -0.6906422E-03 -0.8661924E-01
6356000.  0.5661830E-01  0.5749453E+00  0.1570114E-02 -0.3720576E-01 -0.6906422E-03 -0.9893873E-01
6355000.  0.5652646E-01  0.5953389E+00  0.1575847E-02 -0.3584263E-01 -0.6751072E-03 -0.9900761E-01
6354000.  0.5643142E-01  0.6156155E+00  0.1581365E-02 -0.3446851E-01 -0.6595617E-03 -0.9907270E-01
6353000.  0.5633321E-01  0.6357732E+00  0.1586667E-02 -0.3308357E-01 -0.6440062E-03 -0.9913399E-01
6352000.  0.5623184E-01  0.6558103E+00  0.1591750E-02 -0.3168800E-01 -0.6284415E-03 -0.9919147E-01
6351000.  0.5612734E-01  0.6757250E+00  0.1596614E-02 -0.3028203E-01 -0.6128681E-03 -0.9924515E-01
6350000.  0.5601972E-01  0.6955155E+00  0.1601256E-02 -0.2886583E-01 -0.5972864E-03 -0.9929501E-01
6349000.  0.5590901E-01  0.7151801E+00  0.1605675E-02 -0.2743961E-01 -0.5816973E-03 -0.9934106E-01
6348000.  0.5579522E-01  0.7347171E+00  0.1609870E-02 -0.2600358E-01 -0.5661012E-03 -0.9938329E-01
6347000.  0.5567837E-01  0.7541248E+00  0.1613838E-02 -0.2455794E-01 -0.5504988E-03 -0.9942170E-01
6346600.  0.5563078E-01  0.7618513E+00  0.1615361E-02 -0.2397704E-01 -0.5442562E-03 -0.9943599E-01
6346600.  0.5563078E-01  0.6463664E+00  0.1615361E-02 -0.3380272E-01 -0.5442562E-03 -0.1188336E+00
6318800.  0.5195374E-01  0.1026387E+01  0.1696893E-02 -0.2733237E-02 -0.2153693E-04 -0.1204438E+00
6291000.  0.4679875E-01  0.1320511E+01  0.1633890E-02  0.3198361E-01  0.5041384E-03 -0.1201830E+00
6291000.  0.4679875E-01  0.1345782E+01  0.1633890E-02  0.3467753E-01  0.5041384E-03 -0.1201830E+00
6263000.  0.4042443E-01  0.1536014E+01  0.1399239E-02  0.7191730E-01  0.1027624E-02 -0.1177130E+00
6235000.  0.3346732E-01  0.1610682E+01  0.1005896E-02  0.1063327E+00  0.1535988E-02 -0.1133149E+00
6207000.  0.2643179E-01  0.1573109E+01  0.4734814E-03  0.1346968E+00  0.2020974E-02 -0.1070969E+00
6179000.  0.1978525E-01  0.1436679E+01 -0.1651197E-03  0.1542478E+00  0.2474913E-02 -0.9921546E-01
6151000.  0.1391621E-01  0.1223641E+01 -0.8663824E-03  0.1629437E+00  0.2890909E-02 -0.8986590E-01
6151000.  0.1391621E-01  0.9380335E+00 -0.8663824E-03  0.1413346E+00  0.2890909E-02 -0.9063582E-01
6128500.  0.1095053E-01  0.7394347E+00 -0.1363077E-02  0.1390011E+00  0.3200601E-02 -0.8466589E-01
6106000.  0.8700054E-02  0.5351372E+00 -0.1841627E-02  0.1311078E+00  0.3488407E-02 -0.7825486E-01
6083500.  0.7162516E-02  0.3377053E+00 -0.2283063E-02  0.1180730E+00  0.3752906E-02 -0.7147962E-01
6061000.  0.6292804E-02  0.1587538E+00 -0.2670314E-02  0.1005483E+00  0.3992949E-02 -0.6441843E-01
6038500.  0.6007255E-02  0.8412371E-02 -0.2988966E-02  0.7937901E-01  0.4207665E-02 -0.5715009E-01
6016000.  0.6189773E-02 -0.1051462E+00 -0.3227861E-02  0.5555566E-01  0.4396464E-02 -0.4975398E-01
5993500.  0.6699329E-02 -0.1760155E+00 -0.3379518E-02  0.3015971E-01  0.4559034E-02 -0.4230980E-01
5971000.  0.7378350E-02 -0.2007608E+00 -0.3440355E-02  0.4310168E-02  0.4695345E-02 -0.3489685E-01
5971000.  0.7378350E-02 -0.2582350E+00 -0.3440355E-02  0.2563626E-02  0.4695345E-02 -0.3586274E-01
5937667.  0.8680777E-02 -0.2249312E+00 -0.3367343E-02 -0.2953278E-01  0.4853250E-02 -0.2456795E-01
5904333.  0.9594535E-02 -0.1128161E+00 -0.3142700E-02 -0.5513347E-01  0.4953328E-02 -0.1378880E-01
5871000.  0.9761053E-02  0.5683818E-01 -0.2803749E-02 -0.7312042E-01  0.4998764E-02 -0.3710828E-02
5837667.  0.8941328E-02  0.2601277E+00 -0.2391343E-02 -0.8323266E-01  0.4993657E-02  0.5508772E-02
5804333.  0.7022201E-02  0.4732206E+00 -0.1945789E-02 -0.8590834E-01  0.4942838E-02  0.1374423E-01
5771000.  0.4010550E-02  0.6744331E+00 -0.1503714E-02 -0.8209985E-01  0.4851716E-02  0.2090295E-01
5771000.  0.4010550E-02  0.6743919E+00 -0.1503714E-02 -0.8209737E-01  0.4851716E-02  0.2090295E-01
5701000. -0.5736159E-02  0.1071705E+01 -0.6869708E-03 -0.6338353E-01  0.4552423E-02  0.3287097E-01
5701000. -0.5736159E-02  0.8644241E+00 -0.6869708E-03 -0.4892672E-01  0.4552423E-02  0.3448779E-01
5667333. -0.1038826E-01  0.8964512E+00 -0.4688521E-03 -0.3425568E-01  0.4362328E-02  0.3720861E-01
5633667. -0.1521490E-01  0.9266796E+00 -0.3196964E-03 -0.2233615E-01  0.4160823E-02  0.3896325E-01
5600000. -0.2009701E-01  0.9129337E+00 -0.2336870E-03 -0.1019728E-01  0.3951563E-02  0.4013235E-01
5600000. -0.2009701E-01  0.9129337E+00 -0.2336870E-03 -0.1019728E-01  0.3951563E-02  0.4013235E-01
5563518. -0.2516362E-01  0.8482525E+00 -0.2119399E-03  0.2454447E-02  0.3719670E-02  0.4075551E-01
5527037. -0.2971877E-01  0.7350988E+00 -0.2594491E-03  0.1388151E-01  0.3485946E-02  0.4078689E-01
5490556. -0.3350062E-01  0.5793338E+00 -0.3674274E-03  0.2348716E-01  0.3253549E-02  0.4030595E-01
5454074. -0.3628752E-01  0.3890924E+00 -0.5240866E-03  0.3082075E-01  0.3025168E-02  0.3939438E-01
5417593. -0.3790996E-01  0.1744036E+00 -0.7154905E-03  0.3558942E-01  0.2803074E-02  0.3812488E-01
5381111. -0.3825906E-01 -0.5377649E-01 -0.9265238E-03  0.3766718E-01  0.2589080E-02  0.3657621E-01
5344630. -0.3729035E-01 -0.2839625E+00 -0.1141782E-02  0.3708458E-01  0.2384587E-02  0.3481907E-01
5308148. -0.3502481E-01 -0.5048822E+00 -0.1346474E-02  0.3401461E-01  0.2190598E-02  0.3291658E-01
5271667. -0.3154623E-01 -0.7060176E+00 -0.1527142E-02  0.2875359E-01  0.2007769E-02  0.3093231E-01
5235185. -0.2699484E-01 -0.8781394E+00 -0.1672332E-02  0.2169276E-01  0.1836410E-02  0.2891599E-01
5198704. -0.2155957E-01 -0.1013675E+01 -0.1773014E-02  0.1329010E-01  0.1676590E-02  0.2691112E-01
5162222. -0.1546681E-01 -0.1106966E+01 -0.1822924E-02  0.4043650E-02  0.1528113E-02  0.2495816E-01
5125741. -0.8969705E-02 -0.1154571E+01 -0.1818680E-02 -0.5541312E-02  0.1390611E-02  0.2308332E-01
5089259. -0.2334276E-02 -0.1155169E+01 -0.1759749E-02 -0.1497781E-01  0.1263563E-02  0.2130836E-01
5052778.  0.4171180E-02 -0.1109549E+01 -0.1648297E-02 -0.2381617E-01  0.1146359E-02  0.1964835E-01
5016296.  0.1028959E-01 -0.1020542E+01 -0.1488882E-02 -0.3166997E-01  0.1038308E-02  0.1811136E-01
4979815.  0.1578434E-01 -0.8926526E+00 -0.1288090E-02 -0.3822335E-01  0.9387016E-03  0.1669944E-01
4943333.  0.2044952E-01 -0.7318432E+00 -0.1054066E-02 -0.4324387E-01  0.8468245E-03  0.1541049E-01
4906852.  0.2411621E-01 -0.5451880E+00 -0.7960548E-03 -0.4658637E-01  0.7619875E-03  0.1424000E-01
4870370.  0.2665852E-01 -0.3404295E+00 -0.5238682E-03 -0.4818919E-01  0.6835395E-03  0.1317639E-01
4833889.  0.2799591E-01 -0.1257192E+00 -0.2474595E-03 -0.4807377E-01  0.6108974E-03  0.1221155E-01
4797407.  0.2809473E-01  0.9084869E-01  0.2358565E-04 -0.4633411E-01  0.5435206E-03  0.1133423E-01
4760926.  0.2696688E-01  0.3014788E+00  0.2803683E-03 -0.4312537E-01  0.4809572E-03  0.1052903E-01
4724444.  0.2466704E-01  0.4990601E+00  0.5150604E-03 -0.3865384E-01  0.4228161E-03  0.9787577E-02
4687963.  0.2128849E-01  0.6773089E+00  0.7210959E-03 -0.3316090E-01  0.3687675E-03  0.9098026E-02
4651482.  0.1695739E-01  0.8310000E+00  0.8933798E-03 -0.2691036E-01  0.3185466E-03  0.8449307E-02
4615000.  0.1182621E-01  0.9561413E+00  0.1028358E-02 -0.2017497E-01  0.2719367E-03  0.7835255E-02
4578518.  0.6067245E-02  0.1049904E+01  0.1124023E-02 -0.1322337E-01  0.2287623E-03  0.7248269E-02
4542037. -0.1346588E-03  0.1110762E+01  0.1179875E-02 -0.6310919E-02  0.1888846E-03  0.6683680E-02
4505556. -0.6589891E-02  0.1138424E+01  0.1196815E-02  0.3318786E-03  0.1521821E-03  0.6138925E-02
4469074. -0.1311015E-01  0.1133631E+01  0.1176972E-02  0.6505599E-02  0.1185433E-03  0.5613250E-02
4432593. -0.1951407E-01  0.1098235E+01  0.1123527E-02  0.1204395E-01  0.8786296E-04  0.5105834E-02
4396111. -0.2563403E-01  0.1034891E+01  0.1040495E-02  0.1682179E-01  0.6003179E-04  0.4618668E-02
4359630. -0.3131881E-01  0.9468974E+00  0.9324967E-03  0.2075331E-01  0.3491818E-04  0.4157342E-02
4323148. -0.3643850E-01  0.8381431E+00  0.8045348E-03  0.2378848E-01  0.1237286E-04  0.3721813E-02
4286667. -0.4088574E-01  0.7127833E+00  0.6617961E-03  0.2591691E-01 -0.7769448E-05  0.3319844E-02
4250185. -0.4457798E-01  0.5751262E+00  0.5094166E-03  0.2715997E-01 -0.2572479E-04  0.2958260E-02
4213704. -0.4745708E-01  0.4295130E+00  0.3523544E-03  0.2756423E-01 -0.4172890E-04  0.2639751E-02
4177222. -0.4948958E-01  0.2800789E+00  0.1952001E-03  0.2720454E-01 -0.5606277E-04  0.2376567E-02
4140741. -0.5066479E-01  0.1307176E+00  0.4208881E-04  0.2616903E-01 -0.6906297E-04  0.2174550E-02
4104259. -0.5099342E-01 -0.1506831E-01 -0.1033945E-03  0.2455691E-01 -0.8109394E-04  0.2040376E-02
4067778. -0.5050494E-01 -0.1542132E+00 -0.2382629E-03  0.2248130E-01 -0.9259697E-04  0.1992368E-02
4031296. -0.4924487E-01 -0.2841772E+00 -0.3601726E-03  0.2004671E-01 -0.1040853E-03  0.2036212E-02
3994815. -0.4727193E-01 -0.4029144E+00 -0.4673622E-03  0.1735911E-01 -0.1161196E-03  0.2187190E-02
3958333. -0.4465494E-01 -0.5089007E+00 -0.5586930E-03  0.1452216E-01 -0.1293888E-03  0.2470550E-02
3921852. -0.4147011E-01 -0.6011530E+00 -0.6335474E-03  0.1161819E-01 -0.1446930E-03  0.2901614E-02
3885370. -0.3779769E-01 -0.6791034E+00 -0.6917685E-03  0.8723728E-02 -0.1629623E-03  0.3512404E-02
3848889. -0.3372046E-01 -0.7425932E+00 -0.7335889E-03  0.5898007E-02 -0.1853352E-03  0.4341300E-02
3812407. -0.2932052E-01 -0.7918289E+00 -0.7595136E-03  0.3176382E-02 -0.2131757E-03  0.5430755E-02
3775926. -0.2467877E-01 -0.8271706E+00 -0.7702110E-03  0.5813667E-03 -0.2481511E-03  0.6845450E-02
3739444. -0.1987300E-01 -0.8491697E+00 -0.7664047E-03 -0.1892732E-02 -0.2923378E-03  0.8661699E-02
3702963. -0.1497827E-01 -0.8583606E+00 -0.7487068E-03 -0.4277701E-02 -0.3483003E-03  0.1097832E-01
3666482. -0.1006683E-01 -0.8550432E+00 -0.7174839E-03 -0.6629009E-02 -0.4192733E-03  0.1392929E-01
3630000. -0.5209800E-02 -0.8392752E+00 -0.6726742E-03 -0.9041868E-02 -0.5093520E-03  0.1768260E-01
3630000. -0.5209800E-02 -0.8392752E+00 -0.6726742E-03 -0.9041868E-02 -0.5093520E-03  0.1768260E-01
3592500. -0.3505831E-03 -0.8094379E+00 -0.6116982E-03 -0.1172624E-01 -0.6273359E-03  0.2261077E-01
3555000.  0.4288800E-02 -0.7642159E+00 -0.5338370E-03 -0.1481871E-01 -0.7782636E-03  0.2893637E-01
3517500.  0.8609910E-02 -0.7006444E+00 -0.4359110E-03 -0.1859774E-01 -0.9715258E-03  0.3707458E-01
3480000.  0.1249104E-01 -0.6136671E+00 -0.3128247E-03 -0.2344064E-01 -0.1219328E-02  0.4757290E-01
3480000.  0.1249104E-01  0.2493225E+00  0.8426316E-03  0.2131054E-01 -0.1219328E-02  0.7740360E-02
3409422.  0.9851143E-02  0.2251345E+00  0.6294090E-03  0.1722466E-01 -0.1185339E-02 -0.1126991E-01
3338844.  0.7535372E-02  0.1920819E+00  0.4596582E-03  0.1349801E-01 -0.1013258E-02 -0.1835749E-01
3268266.  0.5604107E-02  0.1565884E+00  0.3284460E-03  0.1028277E-01 -0.8017442E-03 -0.1910760E-01
3197688.  0.4059385E-02  0.1228240E+00  0.2297488E-03  0.7629718E-02 -0.6006917E-03 -0.1689062E-01
3127109.  0.2867630E-02  0.9312249E-01  0.1573833E-03  0.5521746E-02 -0.4312534E-03 -0.1363101E-01
3056531.  0.1977422E-02  0.6846099E-01  0.1056036E-03  0.3901762E-02 -0.2987247E-03 -0.1034150E-01
2985953.  0.1331870E-02  0.4891040E-01  0.6941386E-04  0.2693818E-02 -0.2004926E-03 -0.7484482E-02
2915375.  0.8765634E-03  0.3400928E-01  0.4469349E-04  0.1818022E-02 -0.1307289E-03 -0.5209804E-02
2844797.  0.5638325E-03  0.2304037E-01  0.2818429E-04  0.1199683E-02 -0.8295123E-04 -0.3505076E-02
2774219.  0.3544653E-03  0.1521866E-01  0.1740292E-04  0.7741158E-03 -0.5127406E-04 -0.2286212E-02
2703641.  0.2177702E-03  0.9804575E-02  0.1051796E-04  0.4884079E-03 -0.3089144E-04 -0.1448455E-02
2633062.  0.1307084E-03  0.6161815E-02  0.6219128E-05  0.3012297E-03 -0.1814385E-04 -0.8923889E-03
2562484.  0.7661574E-04  0.3777430E-02  0.3595630E-05  0.1815532E-03 -0.1038831E-04 -0.5349730E-03
2491906.  0.4383340E-04  0.2258298E-02  0.2031283E-05  0.1068771E-03 -0.5796245E-05 -0.3121206E-03
2421328.  0.2446095E-04  0.1316075E-02  0.1120400E-05  0.6141440E-04 -0.3150001E-05 -0.1772039E-03
2350750.  0.1330369E-04  0.7472046E-03  0.6028233E-06  0.3442196E-04 -0.1666214E-05 -0.9786244E-04
2280172.  0.7045159E-05  0.4129822E-03  0.3160620E-06  0.1880159E-04 -0.8570824E-06 -0.5253893E-04
2209594.  0.3628723E-05  0.2220024E-03  0.1612917E-06  0.9997660E-05 -0.4282750E-06 -0.2739700E-04
2139016.  0.1815583E-05  0.1159432E-03  0.8000839E-07  0.5169282E-05 -0.2076287E-06 -0.1386194E-04
2068438.  0.8811649E-06  0.5875450E-04  0.3852109E-07  0.2595383E-05 -0.9751877E-07 -0.6796616E-05
1997859.  0.4141600E-06  0.2884713E-04  0.1797092E-07  0.1263391E-05 -0.4429963E-07 -0.3224466E-05
1927281.  0.1881747E-06  0.1369951E-04  0.8108559E-08  0.5952335E-06 -0.1942728E-07 -0.1477669E-05
1856703.  0.8247635E-07  0.6280696E-05  0.3530984E-08  0.2708856E-06 -0.8207048E-08 -0.6528035E-06
1786125.  0.3478977E-07  0.2773674E-05  0.1480438E-08  0.1188114E-06 -0.3331704E-08 -0.2773855E-06
1715547.  0.1408540E-07  0.1176952E-05  0.5960126E-09  0.5009523E-07 -0.1296128E-08 -0.1130706E-06
1644969.  0.5457149E-08  0.4784932E-06  0.2297017E-09  0.2024612E-07 -0.4816842E-09 -0.4408452E-07
1574391.  0.2016216E-08  0.1857747E-06  0.8445142E-10  0.7817269E-08 -0.1703921E-09 -0.1638364E-07
1503812.  0.7075072E-09  0.6862518E-07  0.2950365E-10  0.2872472E-08 -0.5713705E-10 -0.5781091E-08
1433234.  0.2345787E-09  0.2403426E-07  0.9756264E-11  0.9994110E-09 -0.1807853E-10 -0.1927988E-08
1362656.  0.7248202E-10  0.8015899E-08  0.3062272E-11  0.3245806E-09 -0.5372018E-11 -0.6042101E-09
1292078.  0.1816154E-10  0.2863386E-08  0.1008972E-11  0.8458201E-10 -0.1498689E-11 -0.1764057E-09
1221500. -0.8295403E-11  0.2636872E-08  0.7956363E-12 -0.4741053E-10 -0.3971813E-12 -0.4947940E-10
1221500. -0.8295403E-11  0.8656362E-10  0.5188195E-13  0.4353709E-10 -0.3971813E-12 -0.4588580E-10
1183328. -0.7312233E-11 -0.3193851E-09 -0.9028764E-13  0.9343359E-11 -0.1955352E-12 -0.2366391E-10
1145156. -0.5186865E-11 -0.3560537E-09 -0.1041538E-12 -0.2345927E-11 -0.9317562E-13 -0.1177025E-10
1106984.  0.0000000E+00  0.0000000E+00  0.0000000E+00  0.0000000E+00  0.0000000E+00  0.0000000E+00
1068812.  0.0000000E+00  0.0000000E+00  0.0000000E+00  0.0000000E+00  0.0000000E+00  0.0000000E+00
1030641.  0.0000000E+00  0.0000000E+00  0.0000000E+00  0.0000000E+00  0.0000000E+00  0.0000000E+00
 992469.  0.0000000E+00  0.0000000E+00  0.0000000E+00  0.0000000E+00  0.0000000E+00  0.0000000E+00
 954297.  0.0000000E+00  0.0000000E+00  0.0000000E+00  0.0000000E+00  0.0000000E+00  0.0000000E+00
 916125.  0.0000000E+00  0.0000000E+00  0.0000000E+00  0.0000000E+00  0.0000000E+00  0.0000000E+00
 877953.  0.0000000E+00  0.0000000E+00  0.0000000E+00  0.0000000E+00  0.0000000E+00  0.0000000E+00
 839781.  0.0000000E+00  0.0000000E+00  0.0000000E+00  0.0000000E+00  0.0000000E+00  0.0000000E+00
 801609.  0.0000000E+00  0.0000000E+00  0.0000000E+00  0.0000000E+00  0.0000000E+00  0.0000000E+00
 763438.  0.0000000E+00  0.0000000E+00  0.0000000E+00  0.0000000E+00  0.0000000E+00  0.0000000E+00
 725266.  0.0000000E+00  0.0000000E+00  0.0000000E+00  0.0000000E+00  0.0000000E+00  0.0000000E+00
 687094.  0.0000000E+00  0.0000000E+00  0.0000000E+00  0.0000000E+00  0.0000000E+00  0.0000000E+00
 648922.  0.0000000E+00  0.0000000E+00  0.0000000E+00  0.0000000E+00  0.0000000E+00  0.0000000E+00
 610750.  0.0000000E+00  0.0000000E+00  0.0000000E+00  0.0000000E+00  0.0000000E+00  0.0000000E+00
 572578.  0.0000000E+00  0.0000000E+00  0.0000000E+00  0.0000000E+00  0.0000000E+00  0.0000000E+00
 534406.  0.0000000E+00  0.0000000E+00  0.0000000E+00  0.0000000E+00  0.0000000E+00  0.0000000E+00
 496234.  0.0000000E+00  0.0000000E+00  0.0000000E+00  0.0000000E+00  0.0000000E+00  0.0000000E+00
 458062.  0.0000000E+00  0.0000000E+00  0.0000000E+00  0.0000000E+00  0.0000000E+00  0.0000000E+00
 419891.  0.0000000E+00  0.0000000E+00  0.0000000E+00  0.0000000E+00  0.0000000E+00  0.0000000E+00
 381719.  0.0000000E+00  0.0000000E+00  0.0000000E+00  0.0000000E+00  0.0000000E+00  0.0000000E+00
 343547.  0.0000000E+00  0.0000000E+00  0.0000000E+00  0.0000000E+00  0.0000000E+00  0.0000000E+00
 305375.  0.0000000E+00  0.0000000E+00  0.0000000E+00  0.0000000E+00  0.0000000E+00  0.0000000E+00
 267203.  0.0000000E+00  0.0000000E+00  0.0000000E+00  0.0000000E+00  0.0000000E+00  0.0000000E+00
 229031.  0.0000000E+00  0.0000000E+00  0.0000000E+00  0.0000000E+00  0.0000000E+00  0.0000000E+00
 190859.  0.0000000E+00  0.0000000E+00  0.0000000E+00  0.0000000E+00  0.0000000E+00  0.0000000E+00
 152688.  0.0000000E+00  0.0000000E+00  0.0000000E+00  0.0000000E+00  0.0000000E+00  0.0000000E+00
 114516.  0.0000000E+00  0.0000000E+00  0.0000000E+00  0.0000000E+00  0.0000000E+00  0.0000000E+00
  76344.  0.0000000E+00  0.0000000E+00  0.0000000E+00  0.0000000E+00  0.0000000E+00  0.0000000E+00
  38172.  0.0000000E+00  0.0000000E+00  0.0000000E+00  0.0000000E+00  0.0000000E+00  0.0000000E+00
      0.  0.0000000E+00  0.0000000E+00  0.0000000E+00  0.0000000E+00  0.0000000E+00  0.0000000E+00
