      10       14 S      516        141.99429         19.44233          6.82261        261.78790      185    7
6371000. -0.2569811E-01 -0.3753074E+00 -0.4791261E-02  0.2090685E-01  0.6438339E-03  0.3880311E-01
6370000. -0.2563843E-01 -0.3850582E+00 -0.4794112E-02  0.1542441E-01  0.6377306E-03  0.3896439E-01
6369000. -0.2557724E-01 -0.3946642E+00 -0.4796103E-02  0.9934220E-02  0.6316022E-03  0.3912329E-01
6368000. -0.2551454E-01 -0.4041246E+00 -0.4797230E-02  0.4437274E-02  0.6254491E-03  0.3927979E-01
6368000. -0.2551454E-01 -0.4041246E+00 -0.4797230E-02  0.4437274E-02  0.6254491E-03  0.3927979E-01
6367000. -0.2545038E-01 -0.4134386E+00 -0.4797495E-02 -0.1065413E-02  0.6192715E-03  0.3943389E-01
6366000. -0.2538477E-01 -0.4226055E+00 -0.4796896E-02 -0.6572826E-02  0.6130700E-03  0.3958557E-01
6365000. -0.2531772E-01 -0.4316246E+00 -0.4795432E-02 -0.1208395E-01  0.6068449E-03  0.3973483E-01
6364000. -0.2524928E-01 -0.4404953E+00 -0.4793102E-02 -0.1759777E-01  0.6005965E-03  0.3988165E-01
6363000. -0.2517945E-01 -0.4492169E+00 -0.4789907E-02 -0.2311327E-01  0.5943252E-03  0.4002604E-01
6362000. -0.2510826E-01 -0.4577889E+00 -0.4785846E-02 -0.2862943E-01  0.5880315E-03  0.4016797E-01
6361000. -0.2503575E-01 -0.4662106E+00 -0.4780920E-02 -0.3414523E-01  0.5817158E-03  0.4030744E-01
6360000. -0.2496192E-01 -0.4744816E+00 -0.4775128E-02 -0.3965965E-01  0.5753782E-03  0.4044445E-01
6359000. -0.2488680E-01 -0.4826014E+00 -0.4768470E-02 -0.4517168E-01  0.5690195E-03  0.4057898E-01
6358000. -0.2481043E-01 -0.4905694E+00 -0.4760948E-02 -0.5068029E-01  0.5626397E-03  0.4071102E-01
6357000. -0.2473281E-01 -0.4983853E+00 -0.4752561E-02 -0.5618447E-01  0.5562395E-03  0.4084058E-01
6356000. -0.2465398E-01 -0.5060487E+00 -0.4743310E-02 -0.6168319E-01  0.5498191E-03  0.4096763E-01
6356000. -0.2465398E-01 -0.4132793E+00 -0.4743310E-02 -0.2932040E-01  0.5498191E-03  0.4633205E-01
6355000. -0.2458865E-01 -0.4191185E+00 -0.4738427E-02 -0.3290237E-01  0.5425332E-03  0.4650435E-01
6354000. -0.2452241E-01 -0.4248628E+00 -0.4732981E-02 -0.3648344E-01  0.5352204E-03  0.4667477E-01
6353000. -0.2445528E-01 -0.4305119E+00 -0.4726974E-02 -0.4006319E-01  0.5278811E-03  0.4684329E-01
6352000. -0.2438727E-01 -0.4360656E+00 -0.4720405E-02 -0.4364118E-01  0.5205154E-03  0.4700992E-01
6351000. -0.2431840E-01 -0.4415236E+00 -0.4713274E-02 -0.4721696E-01  0.5131237E-03  0.4717464E-01
6350000. -0.2424867E-01 -0.4468856E+00 -0.4705582E-02 -0.5079011E-01  0.5057063E-03  0.4733744E-01
6349000. -0.2417811E-01 -0.4521516E+00 -0.4697330E-02 -0.5436018E-01  0.4982635E-03  0.4749833E-01
6348000. -0.2410674E-01 -0.4573213E+00 -0.4688518E-02 -0.5792675E-01  0.4907956E-03  0.4765729E-01
6347000. -0.2403456E-01 -0.4623945E+00 -0.4679146E-02 -0.6148937E-01  0.4833029E-03  0.4781432E-01
6346600. -0.2400546E-01 -0.4643967E+00 -0.4675240E-02 -0.6291322E-01  0.4802990E-03  0.4787659E-01
6346600. -0.2400546E-01 -0.4621443E+00 -0.4675240E-02 -0.3617160E-01  0.4802990E-03  0.5624694E-01
6318800. -0.2179470E-01 -0.5416285E+00 -0.4356311E-02 -0.1093933E+00  0.2246356E-03  0.6073447E-01
6291000. -0.1936188E-01 -0.5640503E+00 -0.3729716E-02 -0.1763347E+00 -0.4792069E-04  0.6397679E-01
6291000. -0.1936188E-01 -0.5775833E+00 -0.3729716E-02 -0.1831724E+00 -0.4792069E-04  0.6397679E-01
6263000. -0.1688516E-01 -0.5405409E+00 -0.2791528E-02 -0.2413296E+00 -0.3335217E-03  0.6576366E-01
6235000. -0.1468209E-01 -0.4548860E+00 -0.1632957E-02 -0.2828142E+00 -0.6239520E-03  0.6617267E-01
6207000. -0.1293904E-01 -0.3336851E+00 -0.3348416E-03 -0.3044156E+00 -0.9131548E-03  0.6520819E-01
6179000. -0.1177728E-01 -0.1932821E+00  0.1011077E-02 -0.3044142E+00 -0.1195153E-02  0.6290139E-01
6151000. -0.1124152E-01 -0.5193882E-01  0.2309030E-02 -0.2827084E+00 -0.1464158E-02  0.5930521E-01
6151000. -0.1124152E-01 -0.2377685E-03  0.2309030E-02 -0.2466155E+00 -0.1464158E-02  0.5992715E-01
6128500. -0.1140669E-01  0.9134631E-01  0.3129918E-02 -0.2167584E+00 -0.1670258E-02  0.5667995E-01
6106000. -0.1186577E-01  0.1652398E+00  0.3830337E-02 -0.1786611E+00 -0.1863751E-02  0.5279500E-01
6083500. -0.1254663E-01  0.2161745E+00  0.4384201E-02 -0.1340759E+00 -0.2042467E-02  0.4831950E-01
6061000. -0.1336072E-01  0.2401360E+00  0.4772031E-02 -0.8497702E-01 -0.2204412E-02  0.4330687E-01
6038500. -0.1420775E-01  0.2345231E+00  0.4981583E-02 -0.3347277E-01 -0.2347790E-02  0.3781561E-01
6016000. -0.1498091E-01  0.1982481E+00  0.5008156E-02  0.1828970E-01 -0.2471023E-02  0.3190885E-01
5993500. -0.1557224E-01  0.1317500E+00  0.4854567E-02  0.6821503E-01 -0.2572761E-02  0.2565392E-01
5971000. -0.1587798E-01  0.3695069E-01  0.4530814E-02  0.1143443E+00 -0.2651896E-02  0.1912064E-01
5971000. -0.1587798E-01  0.6691555E-01  0.4530814E-02  0.1041463E+00 -0.2651896E-02  0.2119920E-01
5937667. -0.1582698E-01 -0.9246513E-01  0.3850079E-02  0.1534450E+00 -0.2736753E-02  0.1118994E-01
5904333. -0.1486190E-01 -0.2796686E+00  0.2953951E-02  0.1862786E+00 -0.2768703E-02  0.1016884E-02
5871000. -0.1288194E-01 -0.4775637E+00  0.1930319E-02  0.2022532E+00 -0.2747545E-02 -0.9070703E-02
5837667. -0.9875179E-02 -0.6695115E+00  0.8653476E-03  0.2023396E+00 -0.2674334E-02 -0.1884552E-01
5804333. -0.5912519E-02 -0.8406330E+00 -0.1627300E-03  0.1885391E+00 -0.2551237E-02 -0.2810853E-01
5771000. -0.1136490E-02 -0.9786938E+00 -0.1088004E-02  0.1635420E+00 -0.2381390E-02 -0.3669278E-01
5771000. -0.1136490E-02 -0.9787186E+00 -0.1088004E-02  0.1635367E+00 -0.2381390E-02 -0.3669278E-01
5701000.  0.1096960E-01 -0.1190696E+01 -0.2538106E-02  0.9495096E-01 -0.1888680E-02 -0.5246842E-01
5701000.  0.1096960E-01 -0.1013011E+01 -0.2538106E-02  0.7187620E-01 -0.1888680E-02 -0.5556035E-01
5667333.  0.1622435E-01 -0.9772108E+00 -0.2816723E-02  0.3509606E-01 -0.1584213E-02 -0.5944707E-01
5633667.  0.2130836E-01 -0.9436424E+00 -0.2919140E-02  0.3945632E-02 -0.1261892E-02 -0.6245011E-01
5600000.  0.2612003E-01 -0.8703389E+00 -0.2859529E-02 -0.2622465E-01 -0.9253522E-03 -0.6480190E-01
5600000.  0.2612003E-01 -0.8703389E+00 -0.2859529E-02 -0.2622465E-01 -0.9253522E-03 -0.6480190E-01
5563518.  0.3077516E-01 -0.7486058E+00 -0.2622286E-02 -0.5599042E-01 -0.5488212E-03 -0.6657510E-01
5527037.  0.3461910E-01 -0.5881056E+00 -0.2227222E-02 -0.8109828E-01 -0.1644181E-03 -0.6755896E-01
5490556.  0.3745004E-01 -0.3961610E+00 -0.1704995E-02 -0.1002132E+00  0.2234300E-03 -0.6778520E-01
5454074.  0.3911312E-01 -0.1818030E+00 -0.1092821E-02 -0.1123866E+00  0.6105258E-03 -0.6730019E-01
5417593.  0.3950882E-01  0.4472340E-01 -0.4321567E-03 -0.1171065E+00  0.9929065E-03 -0.6615120E-01
5381111.  0.3859833E-01  0.2725887E+00  0.2339042E-03 -0.1142859E+00  0.1366969E-02 -0.6440250E-01
5344630.  0.3640537E-01  0.4908911E+00  0.8629138E-03 -0.1042621E+00  0.1729448E-02 -0.6211973E-01
5308148.  0.3301447E-01  0.6893173E+00  0.1415560E-02 -0.8775695E-01  0.2077492E-02 -0.5936882E-01
5271667.  0.2856711E-01  0.8584771E+00  0.1857538E-02 -0.6581138E-01  0.2408610E-02 -0.5622339E-01
5235185.  0.2325375E-01  0.9906020E+00  0.2161351E-02 -0.3973099E-01  0.2720756E-02 -0.5274954E-01
5198704.  0.1730463E-01  0.1079750E+01  0.2307483E-02 -0.1099612E-01  0.3012213E-02 -0.4901167E-01
5162222.  0.1097793E-01  0.1121969E+01  0.2285216E-02  0.1882000E-01  0.3281676E-02 -0.4507435E-01
5125741.  0.4548022E-02  0.1115805E+01  0.2092915E-02  0.4813434E-01  0.3528145E-02 -0.4099202E-01
5089259. -0.1709399E-02  0.1061956E+01  0.1737808E-02  0.7543877E-01  0.3750951E-02 -0.3681507E-01
5052778. -0.7528174E-02  0.9633332E+00  0.1235436E-02  0.9936188E-01  0.3949671E-02 -0.3258855E-01
5016296. -0.1266589E-01  0.8250198E+00  0.6085419E-03  0.1187531E+00  0.4124146E-02 -0.2835090E-01
4979815. -0.1691353E-01  0.6537423E+00 -0.1141622E-03  0.1327041E+00  0.4274396E-02 -0.2413386E-01
4943333. -0.2010539E-01  0.4577041E+00 -0.8996621E-03  0.1406032E+00  0.4400626E-02 -0.1996418E-01
4906852. -0.2212571E-01  0.2461627E+00 -0.1712260E-02  0.1421508E+00  0.4503169E-02 -0.1586506E-01
4870370. -0.2291347E-01  0.2883931E-01 -0.2515466E-02  0.1373405E+00  0.4582479E-02 -0.1185100E-01
4833889. -0.2246406E-01 -0.1843024E+00 -0.3273577E-02  0.1264833E+00  0.4639085E-02 -0.7938258E-02
4797407. -0.2082909E-01 -0.3837007E+00 -0.3953537E-02  0.1101525E+00  0.4673605E-02 -0.4137834E-02
4760926. -0.1811303E-01 -0.5605317E+00 -0.4526151E-02  0.8914869E-01  0.4686699E-02 -0.4561233E-03
4724444. -0.1446768E-01 -0.7070733E+00 -0.4967486E-02  0.6447438E-01  0.4679074E-02  0.3097393E-02
4687963. -0.1008540E-01 -0.8170514E+00 -0.5259681E-02  0.3725772E-01  0.4651482E-02  0.6517043E-02
4651482. -0.5189463E-02 -0.8858685E+00 -0.5391622E-02  0.8707158E-02  0.4604703E-02  0.9798077E-02
4615000. -0.2418402E-04 -0.9107763E+00 -0.5359203E-02 -0.1994579E-01  0.4539546E-02  0.1293456E-01
4578518.  0.5155509E-02 -0.8909228E+00 -0.5165291E-02 -0.4750287E-01  0.4456854E-02  0.1592164E-01
4542037.  0.1009536E-01 -0.8273907E+00 -0.4819417E-02 -0.7284864E-01  0.4357500E-02  0.1875468E-01
4505556.  0.1455288E-01 -0.7230797E+00 -0.4337117E-02 -0.9500194E-01  0.4242372E-02  0.2143008E-01
4469074.  0.1830698E-01 -0.5825529E+00 -0.3739102E-02 -0.1131376E+00  0.4112386E-02  0.2394261E-01
4432593.  0.2116669E-01 -0.4118286E+00 -0.3050296E-02 -0.1266329E+00  0.3968484E-02  0.2629168E-01
4396111.  0.2297926E-01 -0.2180683E+00 -0.2298514E-02 -0.1350744E+00  0.3811596E-02  0.2847665E-01
4359630.  0.2363545E-01 -0.9335817E-02 -0.1513428E-02 -0.1382582E+00  0.3642676E-02  0.3049624E-01
4323148.  0.2307375E-01  0.2058691E+00 -0.7251192E-03 -0.1362149E+00  0.3462642E-02  0.3235819E-01
4286667.  0.2128209E-01  0.4188186E+00  0.3699327E-04 -0.1291692E+00  0.3272389E-02  0.3406840E-01
4250185.  0.1829791E-01  0.6209822E+00  0.7454049E-03 -0.1175364E+00  0.3072747E-02  0.3563810E-01
4213704.  0.1420629E-01  0.8043769E+00  0.1375424E-02 -0.1019037E+00  0.2864481E-02  0.3708578E-01
4177222.  0.9135673E-02  0.9617532E+00  0.1906146E-02 -0.8297697E-01  0.2648222E-02  0.3843204E-01
4140741.  0.3253519E-02  0.1086964E+01  0.2320973E-02 -0.6157125E-01  0.2424483E-02  0.3970556E-01
4104259. -0.3241827E-02  0.1175158E+01  0.2608216E-02 -0.3855968E-01  0.2193571E-02  0.4094221E-01
4067778. -0.1012710E-01  0.1222761E+01  0.2761216E-02 -0.1483632E-01  0.1955588E-02  0.4218484E-01
4031296. -0.1716403E-01  0.1227873E+01  0.2778469E-02  0.8708687E-02  0.1710348E-02  0.4348388E-01
3994815. -0.2410701E-01  0.1190053E+01  0.2663437E-02  0.3123330E-01  0.1457372E-02  0.4490046E-01
3958333. -0.3071267E-01  0.1110297E+01  0.2424192E-02  0.5197010E-01  0.1195765E-02  0.4650888E-01
3921852. -0.3674728E-01  0.9911973E+00  0.2072964E-02  0.7024637E-01  0.9242222E-03  0.4838774E-01
3885370. -0.4199613E-01  0.8365176E+00  0.1625459E-02  0.8551160E-01  0.6409059E-03  0.5063653E-01
3848889. -0.4626879E-01  0.6512062E+00  0.1100219E-02  0.9734352E-01  0.3433921E-03  0.5336868E-01
3812407. -0.4940666E-01  0.4411681E+00  0.5177386E-03  0.1054638E+00  0.2855139E-04  0.5670880E-01
3775926. -0.5128650E-01  0.2129727E+00 -0.1002283E-03  0.1097321E+00 -0.3075184E-03  0.6081440E-01
3739444. -0.5182447E-01 -0.2631782E-01 -0.7315954E-03  0.1101498E+00 -0.6697065E-03  0.6585806E-01
3702963. -0.5097785E-01 -0.2694169E+00 -0.1354599E-02  0.1068485E+00 -0.1063918E-02  0.7204075E-01
3666482. -0.4874568E-01 -0.5090677E+00 -0.1948611E-02  0.1000745E+00 -0.1497386E-02  0.7961342E-01
3630000. -0.4516779E-01 -0.7382845E+00 -0.2494725E-02  0.9017912E-01 -0.1978856E-02  0.8885280E-01
3630000. -0.4516779E-01 -0.7382845E+00 -0.2494725E-02  0.9017912E-01 -0.1978856E-02  0.8885280E-01
3592500. -0.4017074E-01 -0.9561058E+00 -0.2988617E-02  0.7720789E-01 -0.2534834E-02  0.1004490E+00
3555000. -0.3396041E-01 -0.1149552E+01 -0.3399101E-02  0.6193241E-01 -0.3166375E-02  0.1146076E+00
3517500. -0.2669681E-01 -0.1313162E+01 -0.3714310E-02  0.4493337E-01 -0.3890050E-02  0.1318515E+00
3480000. -0.1856937E-01 -0.1442413E+01 -0.3925853E-02  0.2680858E-01 -0.4725850E-02  0.1528235E+00
3480000. -0.1856937E-01 -0.4963332E+00  0.1913150E-02 -0.3753301E-01 -0.4725850E-02  0.2120391E+00
3409422. -0.1287931E-01 -0.5225201E+00  0.2279111E-02 -0.2835367E-01 -0.6762503E-02  0.1558196E+00
3338844. -0.7160242E-02 -0.5033352E+00  0.2538981E-02 -0.1852730E-01 -0.8187200E-02  0.1020233E+00
3268266. -0.1852889E-02 -0.4501816E+00  0.2690239E-02 -0.8867505E-02 -0.9041212E-02  0.5315370E-01
3197688.  0.2732579E-02 -0.3749504E+00  0.2738459E-02 -0.1611564E-04 -0.9389897E-02  0.1103497E-01
3127109.  0.6413989E-02 -0.2886720E+00  0.2695265E-02  0.7576978E-02 -0.9314698E-02 -0.2325497E-01
3056531.  0.9122416E-02 -0.2006847E+00  0.2576221E-02  0.1364888E-01 -0.8905000E-02 -0.4934888E-01
2985953.  0.1088086E-01 -0.1181713E+00  0.2398849E-02  0.1810365E-01 -0.8250743E-02 -0.6749142E-01
2915375.  0.1177930E-01 -0.4606021E-01  0.2180951E-02  0.2098173E-01 -0.7436426E-02 -0.7839563E-01
2844797.  0.1195044E-01  0.1282311E-01  0.1939279E-02  0.2242617E-01 -0.6536759E-02 -0.8309001E-01
2774219.  0.1154798E-01  0.5745710E-01  0.1688598E-02  0.2264716E-01 -0.5613999E-02 -0.8277124E-01
2703641.  0.1072874E-01  0.8822465E-01  0.1441122E-02  0.2188974E-01 -0.4716814E-02 -0.7867636E-01
2633062.  0.9639453E-02  0.1065013E+00  0.1206280E-02  0.2040772E-01 -0.3880414E-02 -0.7198213E-01
2562484.  0.8407921E-02  0.1142692E+00  0.9907450E-03  0.1844279E-01 -0.3127678E-02 -0.6373483E-01
2491906.  0.7138196E-02  0.1137795E+00  0.7986483E-03  0.1620922E-01 -0.2470793E-02 -0.5480712E-01
2421328.  0.5909147E-02  0.1072915E+00  0.6319402E-03  0.1388581E-01 -0.1913342E-02 -0.4588079E-01
2350750.  0.4775489E-02  0.9688144E-01  0.4908045E-03  0.1161242E-01 -0.1452408E-02 -0.3744944E-01
2280172.  0.3770513E-02  0.8432709E-01  0.3740942E-03  0.9489779E-02 -0.1080577E-02 -0.2983505E-01
2209594.  0.2909765E-02  0.7104852E-01  0.2797478E-03  0.7583036E-02 -0.7877017E-03 -0.2321348E-01
2139016.  0.2195103E-02  0.5809899E-01  0.2051562E-03  0.5926798E-02 -0.5623611E-03 -0.1764445E-01
2068438.  0.1618645E-02  0.4618977E-01  0.1474688E-03  0.4531193E-02 -0.3929737E-03 -0.1310186E-01
1997859.  0.1166305E-02  0.3573776E-01  0.1038288E-03  0.3388015E-02 -0.2685894E-03 -0.9501924E-02
1927281.  0.8207631E-03  0.2692339E-01  0.7154656E-04  0.2476593E-02 -0.1793972E-03 -0.6727445E-02
1856703.  0.5637121E-03  0.1975094E-01  0.4820491E-04  0.1768836E-02 -0.1169739E-03 -0.4646822E-02
1786125.  0.3775150E-03  0.1410513E-01  0.3171984E-04  0.1233410E-02 -0.7436671E-04 -0.3128571E-02
1715547.  0.2462444E-03  0.9799934E-02  0.2035749E-04  0.8388691E-03 -0.4603233E-04 -0.2050888E-02
1644969.  0.1562418E-03  0.6617336E-02  0.1272242E-04  0.5558594E-03 -0.2769583E-04 -0.1307272E-02
1574391.  0.9630586E-04  0.4335634E-02  0.7726243E-05  0.3584601E-03 -0.1616466E-04 -0.8089920E-03
1503812.  0.5762082E-04  0.2748071E-02  0.4545250E-05  0.2248683E-03 -0.9129427E-05 -0.4851944E-03
1433234.  0.3353175E-04  0.1672466E-02  0.2573394E-05  0.1376244E-03 -0.4972757E-05 -0.2815187E-03
1362656.  0.1925641E-04  0.9519829E-03  0.1373870E-05  0.8361471E-04 -0.2598360E-05 -0.1577708E-03
1292078.  0.1165038E-04  0.4448185E-03  0.6301865E-06  0.5434216E-04 -0.1289167E-05 -0.8522402E-04
1221500.  0.9193731E-05 -0.9497864E-05  0.8839928E-07  0.4749137E-04 -0.5964591E-06 -0.4362768E-04
1221500.  0.9193731E-05 -0.3325313E-03 -0.2799428E-06 -0.4941201E-04 -0.5964591E-06 -0.4761044E-04
1183328.  0.1046444E-04 -0.1032220E-03 -0.3399785E-07 -0.3320082E-04 -0.3667205E-06 -0.3028365E-04
1145156.  0.1056286E-04  0.5997415E-04  0.1240559E-06 -0.2006687E-04 -0.2216286E-06 -0.1896332E-04
1106984.  0.9861578E-05  0.1652389E-03  0.2124477E-06 -0.9925114E-05 -0.1314697E-06 -0.1167505E-04
1068812.  0.8678886E-05  0.2224077E-03  0.2485768E-06 -0.2578002E-05 -0.7642208E-07 -0.7056792E-05
1030641.  0.7271200E-05  0.2421550E-03  0.2482855E-06  0.2294728E-05 -0.4344988E-07 -0.4180478E-05
 992469.  0.5830650E-05  0.2350780E-03  0.2251883E-06  0.5109863E-05 -0.2410888E-07 -0.2422415E-05
 954297.  0.4488340E-05  0.2108663E-03  0.1902287E-06  0.6333562E-05 -0.1302235E-07 -0.1369970E-05
 916125.  0.3321578E-05  0.1776933E-03  0.1515364E-06  0.6430919E-05 -0.6827087E-08 -0.7541179E-06
 877953.  0.2364161E-05  0.1418774E-03  0.1145686E-06  0.5822496E-05 -0.3461735E-08 -0.4028055E-06
 839781.  0.1617816E-05  0.1078160E-03  0.8247775E-07  0.4853335E-05 -0.1690520E-08 -0.2080055E-06
 801609.  0.1063317E-05  0.7814642E-04  0.5661112E-07  0.3780111E-05 -0.7909415E-09 -0.1033743E-06
 763438.  0.6701715E-06  0.5405610E-04  0.3704650E-07  0.2771141E-05 -0.3522159E-09 -0.4917275E-07
 725266.  0.4041400E-06  0.3566396E-04  0.2308804E-07  0.1918491E-05 -0.1479666E-09 -0.2223155E-07
 687094.  0.2325266E-06  0.2240706E-04  0.1367538E-07  0.1255443E-05 -0.5792770E-10 -0.9461124E-08
 648922.  0.1271937E-06  0.1337303E-04  0.7675787E-08  0.7758931E-06 -0.2074474E-10 -0.3741879E-08
 610750.  0.6585729E-07  0.7555580E-05  0.4066588E-08  0.4518291E-06 -0.6578059E-11 -0.1347465E-08
 572578.  0.3210253E-07  0.4022887E-05  0.2023342E-08  0.2470068E-06 -0.1723179E-11 -0.4262386E-09
 534406.  0.1463441E-07  0.2006920E-05  0.9394366E-09  0.1261130E-06 -0.2965253E-12 -0.1094636E-09
 496234.  0.6187506E-08  0.9312319E-06  0.4037645E-09  0.5972278E-07  0.2148173E-13 -0.1716806E-10
 458062.  0.2401316E-08  0.3981672E-06  0.1590089E-09  0.2599853E-07  0.4759892E-13  0.2562177E-11
 419891.  0.8442145E-09  0.1550098E-06  0.5663579E-10  0.1028283E-07  0.2574672E-13  0.3551729E-11
 381719.  0.2642900E-09  0.5409297E-07  0.1793687E-10  0.3638593E-08  0.9727780E-14  0.1792293E-11
 343547.  0.7203321E-10  0.1657387E-07  0.4938932E-11  0.1128491E-08  0.2861306E-14  0.6400069E-12
 305375.  0.1657613E-10  0.4334726E-08  0.1146738E-11  0.2982814E-09  0.6632826E-15  0.1755995E-12
 267203.  0.3084687E-11  0.9300662E-09  0.2150548E-12  0.6458422E-10  0.1180469E-15  0.3691571E-13
 229031.  0.4357788E-12  0.1544469E-09  0.3058195E-13  0.1080785E-10  0.1523461E-16  0.5684463E-14
 190859.  0.4236942E-13  0.1813284E-10  0.2989764E-14  0.1277050E-11  0.1291373E-17  0.5875844E-15
 152688.  0.2405824E-14  0.1293372E-11  0.1705043E-15  0.9155086E-13  0.6051206E-19  0.3448471E-16
 114516.  0.0000000E+00  0.0000000E+00  0.0000000E+00  0.0000000E+00  0.0000000E+00  0.0000000E+00
  76344.  0.0000000E+00  0.0000000E+00  0.0000000E+00  0.0000000E+00  0.0000000E+00  0.0000000E+00
  38172.  0.0000000E+00  0.0000000E+00  0.0000000E+00  0.0000000E+00  0.0000000E+00  0.0000000E+00
      0.  0.0000000E+00  0.0000000E+00  0.0000000E+00  0.0000000E+00  0.0000000E+00  0.0000000E+00
