       4       22 S      291        175.69060         10.12643          6.67082        259.47589      185    7
6371000. -0.9501033E-02  0.9531516E+00  0.4753519E-02  0.1425455E-01 -0.1856153E-02  0.6060825E-01
6370000. -0.9650417E-02  0.9502600E+00  0.4751054E-02  0.1716141E-01 -0.1865645E-02  0.6033927E-01
6369000. -0.9799330E-02  0.9471741E+00  0.4748132E-02  0.2006631E-01 -0.1875095E-02  0.6007032E-01
6368000. -0.9947745E-02  0.9438940E+00  0.4744755E-02  0.2296894E-01 -0.1884503E-02  0.5980142E-01
6368000. -0.9947745E-02  0.9438940E+00  0.4744755E-02  0.2296894E-01 -0.1884503E-02  0.5980142E-01
6367000. -0.1009563E-01  0.9404200E+00  0.4740922E-02  0.2586898E-01 -0.1893868E-02  0.5953257E-01
6366000. -0.1024295E-01  0.9367521E+00  0.4736634E-02  0.2876612E-01 -0.1903191E-02  0.5926378E-01
6365000. -0.1038969E-01  0.9328907E+00  0.4731892E-02  0.3166004E-01 -0.1912472E-02  0.5899506E-01
6364000. -0.1053580E-01  0.9288359E+00  0.4726695E-02  0.3455043E-01 -0.1921711E-02  0.5872642E-01
6363000. -0.1068126E-01  0.9245879E+00  0.4721045E-02  0.3743698E-01 -0.1930908E-02  0.5845786E-01
6362000. -0.1082604E-01  0.9201471E+00  0.4714943E-02  0.4031936E-01 -0.1940063E-02  0.5818939E-01
6361000. -0.1097010E-01  0.9155138E+00  0.4708388E-02  0.4319727E-01 -0.1949175E-02  0.5792103E-01
6360000. -0.1111343E-01  0.9106883E+00  0.4701383E-02  0.4607040E-01 -0.1958245E-02  0.5765278E-01
6359000. -0.1125598E-01  0.9056708E+00  0.4693926E-02  0.4893842E-01 -0.1967273E-02  0.5738465E-01
6358000. -0.1139773E-01  0.9004620E+00  0.4686020E-02  0.5180104E-01 -0.1976260E-02  0.5711665E-01
6357000. -0.1153865E-01  0.8950620E+00  0.4677665E-02  0.5465792E-01 -0.1985204E-02  0.5684879E-01
6356000. -0.1167870E-01  0.8894714E+00  0.4668862E-02  0.5750878E-01 -0.1994106E-02  0.5658108E-01
6356000. -0.1167870E-01  0.7898644E+00  0.4668862E-02  0.4120759E-01 -0.1994106E-02  0.5912222E-01
6355000. -0.1180238E-01  0.7860762E+00  0.4662266E-02  0.4284998E-01 -0.2003358E-02  0.5877137E-01
6354000. -0.1192546E-01  0.7821803E+00  0.4655411E-02  0.4448932E-01 -0.2012555E-02  0.5842084E-01
6353000. -0.1204792E-01  0.7781768E+00  0.4648299E-02  0.4612549E-01 -0.2021698E-02  0.5807065E-01
6352000. -0.1216974E-01  0.7740661E+00  0.4640931E-02  0.4775838E-01 -0.2030785E-02  0.5772080E-01
6351000. -0.1229091E-01  0.7698483E+00  0.4633307E-02  0.4938787E-01 -0.2039818E-02  0.5737130E-01
6350000. -0.1241141E-01  0.7655236E+00  0.4625427E-02  0.5101387E-01 -0.2048795E-02  0.5702214E-01
6349000. -0.1253122E-01  0.7610922E+00  0.4617293E-02  0.5263625E-01 -0.2057718E-02  0.5667334E-01
6348000. -0.1265033E-01  0.7565544E+00  0.4608904E-02  0.5425491E-01 -0.2066586E-02  0.5632490E-01
6347000. -0.1276871E-01  0.7519106E+00  0.4600261E-02  0.5586974E-01 -0.2075400E-02  0.5597682E-01
6346600. -0.1281586E-01  0.7500233E+00  0.4596733E-02  0.5651458E-01 -0.2078910E-02  0.5583769E-01
6346600. -0.1281586E-01  0.9053980E+00  0.4596733E-02  0.4383372E-01 -0.2078910E-02  0.6030639E-01
6318800. -0.1652990E-01  0.7875583E+00  0.4345863E-02  0.7077429E-01 -0.2319578E-02  0.5007214E-01
6291000. -0.1960994E-01  0.6155186E+00  0.3983107E-02  0.9495139E-01 -0.2516479E-02  0.4024125E-01
6291000. -0.1960994E-01  0.6405660E+00  0.3983107E-02  0.9759308E-01 -0.2516479E-02  0.4024125E-01
6263000. -0.2193502E-01  0.4093583E+00  0.3504200E-02  0.1195886E+00 -0.2672858E-02  0.3098124E-01
6235000. -0.2314311E-01  0.1339015E+00  0.2939204E-02  0.1366350E+00 -0.2789292E-02  0.2205852E-01
6207000. -0.2306326E-01 -0.1747246E+00  0.2311484E-02  0.1480356E+00 -0.2867196E-02  0.1344178E-01
6179000. -0.2157773E-01 -0.5034772E+00  0.1646949E-02  0.1533339E+00 -0.2907848E-02  0.5101797E-02
6151000. -0.1862950E-01 -0.8378535E+00  0.9729455E-03  0.1523343E+00 -0.2912411E-02 -0.2984942E-02
6151000. -0.1862950E-01 -0.6317568E+00  0.9729455E-03  0.1361832E+00 -0.2912411E-02 -0.1954256E-02
6128500. -0.1604001E-01 -0.8328844E+00  0.5009960E-03  0.1306055E+00 -0.2897534E-02 -0.6410906E-02
6106000. -0.1276243E-01 -0.1020637E+01  0.5369327E-04  0.1222707E+00 -0.2867554E-02 -0.1050640E-01
6083500. -0.8852300E-02 -0.1190383E+01 -0.3597378E-03  0.1114773E+00 -0.2823751E-02 -0.1423931E-01
6061000. -0.4380639E-02 -0.1338016E+01 -0.7312078E-03  0.9856811E-01 -0.2767406E-02 -0.1760951E-01
6038500.  0.5680943E-03 -0.1460036E+01 -0.1053905E-02  0.8392232E-01 -0.2699796E-02 -0.2061877E-01
6016000.  0.5898240E-02 -0.1553607E+01 -0.1322404E-02  0.6794343E-01 -0.2622192E-02 -0.2327043E-01
5993500.  0.1150536E-01 -0.1616602E+01 -0.1532729E-02  0.5104813E-01 -0.2535847E-02 -0.2556956E-01
5971000.  0.1727882E-01 -0.1647644E+01 -0.1682388E-02  0.3365747E-01 -0.2441995E-02 -0.2752265E-01
5971000.  0.1727882E-01 -0.1520684E+01 -0.1682388E-02  0.2772071E-01 -0.2441995E-02 -0.2978460E-01
5937667.  0.2512634E-01 -0.1469448E+01 -0.1765734E-02  0.4516471E-02 -0.2282738E-02 -0.3093567E-01
5904333.  0.3256138E-01 -0.1364263E+01 -0.1734235E-02 -0.1606611E-01 -0.2119857E-02 -0.3118276E-01
5871000.  0.3932339E-01 -0.1213788E+01 -0.1603146E-02 -0.3348701E-01 -0.1957848E-02 -0.3062096E-01
5837667.  0.4520018E-01 -0.1027502E+01 -0.1389831E-02 -0.4747258E-01 -0.1800667E-02 -0.2935490E-01
5804333.  0.5002993E-01 -0.8151006E+00 -0.1112477E-02 -0.5797074E-01 -0.1651714E-02 -0.2749286E-01
5771000.  0.5370059E-01 -0.5860050E+00 -0.7890912E-03 -0.6510524E-01 -0.1513825E-02 -0.2514470E-01
5771000.  0.5370059E-01 -0.5860388E+00 -0.7890912E-03 -0.6510508E-01 -0.1513825E-02 -0.2514470E-01
5701000.  0.5746425E-01 -0.9199683E-01 -0.2964165E-04 -0.7117376E-01 -0.1284847E-02 -0.1630883E-01
5701000.  0.5746425E-01 -0.8266351E-01 -0.2964165E-04 -0.6971923E-01 -0.1284847E-02 -0.3250593E-01
5667333.  0.5732339E-01  0.1328974E+00  0.3358423E-03 -0.6842585E-01 -0.1125314E-02 -0.2801821E-01
5633667.  0.5606912E-01  0.3417211E+00  0.6917241E-03 -0.6606340E-01 -0.9871073E-03 -0.2438715E-01
5600000.  0.5372599E-01  0.5432792E+00  0.1031690E-02 -0.6240081E-01 -0.8671369E-03 -0.2106129E-01
5600000.  0.5372599E-01  0.5432792E+00  0.1031690E-02 -0.6240081E-01 -0.8671369E-03 -0.2106129E-01
5563518.  0.5001828E-01  0.7492390E+00  0.1374642E-02 -0.5718122E-01 -0.7560261E-03 -0.1780308E-01
5527037.  0.4517765E-01  0.9384143E+00  0.1684481E-02 -0.5087744E-01 -0.6626119E-03 -0.1487866E-01
5490556.  0.3931003E-01  0.1107432E+01  0.1955681E-02 -0.4372479E-01 -0.5850223E-03 -0.1227412E-01
5454074.  0.3253887E-01  0.1253551E+01  0.2184068E-02 -0.3596129E-01 -0.5214537E-03 -0.9977847E-02
5417593.  0.2500153E-01  0.1374842E+01  0.2366805E-02 -0.2782007E-01 -0.4702059E-03 -0.7968199E-02
5381111.  0.1684393E-01  0.1469945E+01  0.2502375E-02 -0.1952175E-01 -0.4296783E-03 -0.6230704E-02
5344630.  0.8218717E-02  0.1538204E+01  0.2590474E-02 -0.1127321E-01 -0.3983623E-03 -0.4747978E-02
5308148. -0.7207382E-03  0.1579658E+01  0.2631931E-02 -0.3259508E-02 -0.3748528E-03 -0.3500756E-02
5271667. -0.9821495E-02  0.1594761E+01  0.2628566E-02  0.4356191E-02 -0.3578543E-03 -0.2471010E-02
5235185. -0.1893613E-01  0.1584651E+01  0.2583070E-02  0.1143434E-01 -0.3461730E-03 -0.1640521E-02
5198704. -0.2792408E-01  0.1550871E+01  0.2498860E-02  0.1786256E-01 -0.3387203E-03 -0.9905348E-03
5162222. -0.3665520E-01  0.1495208E+01  0.2379907E-02  0.2355581E-01 -0.3345282E-03 -0.4986118E-03
5125741. -0.4501018E-01  0.1419976E+01  0.2230622E-02  0.2844930E-01 -0.3327319E-03 -0.1513337E-03
5089259. -0.5288427E-01  0.1327570E+01  0.2055690E-02  0.3250819E-01 -0.3325573E-03  0.7176127E-04
5052778. -0.6018588E-01  0.1220542E+01  0.1859946E-02  0.3571941E-01 -0.3333575E-03  0.1915751E-03
5016296. -0.6683946E-01  0.1101616E+01  0.1648233E-02  0.3808649E-01 -0.3345730E-03  0.2192103E-03
4979815. -0.7278420E-01  0.9734564E+00  0.1425326E-02  0.3963710E-01 -0.3357316E-03  0.1752122E-03
4943333. -0.7797513E-01  0.8387185E+00  0.1195778E-02  0.4041128E-01 -0.3364716E-03  0.7425807E-04
4906852. -0.8238181E-01  0.6999961E+00  0.9639094E-03  0.4046014E-01 -0.3364861E-03 -0.7527388E-04
4870370. -0.8598857E-01  0.5596766E+00  0.7336633E-03  0.3985400E-01 -0.3355631E-03 -0.2506138E-03
4833889. -0.8879268E-01  0.4200416E+00  0.5086107E-03  0.3865986E-01 -0.3335720E-03 -0.4483109E-03
4797407. -0.9080418E-01  0.2831373E+00  0.2918956E-03  0.3695406E-01 -0.3304004E-03 -0.6597349E-03
4760926. -0.9204394E-01  0.1507837E+00  0.8620653E-04  0.3482411E-01 -0.3260319E-03 -0.8651066E-03
4724444. -0.9254268E-01  0.2455520E-01 -0.1062496E-03  0.3234274E-01 -0.3204946E-03 -0.1068083E-02
4687963. -0.9233941E-01 -0.9420805E-01 -0.2836818E-03  0.2959271E-01 -0.3138241E-03 -0.1258300E-02
4651482. -0.9148010E-01 -0.2044326E+00 -0.4447940E-03  0.2665431E-01 -0.3061316E-03 -0.1425126E-02
4615000. -0.9001603E-01 -0.3053082E+00 -0.5886991E-03  0.2359268E-01 -0.2975353E-03 -0.1573529E-02
4578518. -0.8800259E-01 -0.3962312E+00 -0.7148971E-03  0.2048142E-01 -0.2881690E-03 -0.1692279E-02
4542037. -0.8549797E-01 -0.4768552E+00 -0.8232792E-03  0.1737954E-01 -0.2782156E-03 -0.1779816E-02
4505556. -0.8256150E-01 -0.5470531E+00 -0.9140414E-03  0.1433630E-01 -0.2678342E-03 -0.1840506E-02
4469074. -0.7925285E-01 -0.6068479E+00 -0.9876855E-03  0.1140742E-01 -0.2572186E-03 -0.1860761E-02
4432593. -0.7563108E-01 -0.6565018E+00 -0.1044963E-02  0.8625104E-02 -0.2465847E-03 -0.1848484E-02
4396111. -0.7175305E-01 -0.6963930E+00 -0.1086802E-02  0.6020607E-02 -0.2361126E-03 -0.1802352E-02
4359630. -0.6767356E-01 -0.7270019E+00 -0.1114318E-02  0.3625996E-02 -0.2260299E-03 -0.1712809E-02
4323148. -0.6344367E-01 -0.7489967E+00 -0.1128745E-02  0.1450616E-02 -0.2165602E-03 -0.1588741E-02
4286667. -0.5911101E-01 -0.7630567E+00 -0.1131380E-02 -0.4905521E-03 -0.2079144E-03 -0.1423631E-02
4250185. -0.5471863E-01 -0.7699495E+00 -0.1123590E-02 -0.2190452E-02 -0.2003433E-03 -0.1213699E-02
4213704. -0.5030540E-01 -0.7705204E+00 -0.1106743E-02 -0.3654864E-02 -0.1940933E-03 -0.9616425E-03
4177222. -0.4590497E-01 -0.7655756E+00 -0.1082184E-02 -0.4884035E-02 -0.1894296E-03 -0.6583329E-03
4140741. -0.4154671E-01 -0.7559811E+00 -0.1051237E-02 -0.5889521E-02 -0.1866567E-03 -0.3012352E-03
4104259. -0.3725452E-01 -0.7425883E+00 -0.1015129E-02 -0.6688569E-02 -0.1860886E-03  0.1135796E-03
4067778. -0.3304819E-01 -0.7261664E+00 -0.9750130E-03 -0.7292399E-02 -0.1880964E-03  0.6001227E-03
4031296. -0.2894249E-01 -0.7075300E+00 -0.9319359E-03 -0.7727326E-02 -0.1931084E-03  0.1164031E-02
3994815. -0.2494823E-01 -0.6873881E+00 -0.8867914E-03 -0.8018483E-02 -0.2015991E-03  0.1818312E-02
3958333. -0.2107207E-01 -0.6663493E+00 -0.8403360E-03 -0.8190053E-02 -0.2141446E-03  0.2583029E-02
3921852. -0.1731757E-01 -0.6450130E+00 -0.7931530E-03 -0.8279298E-02 -0.2314214E-03  0.3474306E-02
3885370. -0.1368498E-01 -0.6237954E+00 -0.7456078E-03 -0.8322408E-02 -0.2542249E-03  0.4518097E-02
3848889. -0.1017289E-01 -0.6029973E+00 -0.6978481E-03 -0.8363015E-02 -0.2835140E-03  0.5745081E-02
3812407. -0.6778174E-02 -0.5827741E+00 -0.6497321E-03 -0.8456048E-02 -0.3204355E-03  0.7190275E-02
3775926. -0.3497930E-02 -0.5630065E+00 -0.6007889E-03 -0.8664070E-02 -0.3663624E-03  0.8899010E-02
3739444. -0.3302645E-03 -0.5433376E+00 -0.5501376E-03 -0.9067140E-02 -0.4229546E-03  0.1092459E-01
3702963.  0.2723359E-02 -0.5230392E+00 -0.4963858E-03 -0.9766246E-02 -0.4922010E-03  0.1333107E-01
3666482.  0.5656034E-02 -0.5008369E+00 -0.4374871E-03 -0.1088897E-01 -0.5764982E-03  0.1619565E-01
3630000.  0.8451949E-02 -0.4748667E+00 -0.3705585E-03 -0.1260185E-01 -0.6787315E-03  0.1961167E-01
3630000.  0.8451949E-02 -0.4748667E+00 -0.3705585E-03 -0.1260185E-01 -0.6787315E-03  0.1961167E-01
3592500.  0.1115250E-01 -0.4412763E+00 -0.2892029E-03 -0.1520752E-01 -0.8061553E-03  0.2381266E-01
3555000.  0.1362455E-01 -0.3963633E+00 -0.1892501E-03 -0.1898105E-01 -0.9607034E-03  0.2885415E-01
3517500.  0.1578429E-01 -0.3339286E+00 -0.6265014E-04 -0.2434277E-01 -0.1147810E-02  0.3490615E-01
3480000.  0.1750411E-01 -0.2451513E+00  0.1015307E-03 -0.3185971E-01 -0.1373986E-02  0.4216454E-01
3480000.  0.1750411E-01  0.4658809E+00  0.1045444E-02  0.3011373E-01 -0.1373986E-02 -0.1365410E-01
3409422.  0.1292122E-01  0.3641247E+00  0.7542591E-03  0.2272694E-01 -0.1178636E-02 -0.2027639E-01
3338844.  0.9376791E-02  0.2784886E+00  0.5362702E-03  0.1686502E-01 -0.9464758E-03 -0.2094950E-01
3268266.  0.6692292E-02  0.2087201E+00  0.3757650E-03  0.1231162E-01 -0.7249515E-03 -0.1874467E-01
3197688.  0.4698778E-02  0.1534505E+00  0.2594847E-03  0.8844347E-02 -0.5350790E-03 -0.1545419E-01
3127109.  0.3245991E-02  0.1107488E+00  0.1765749E-03  0.6253500E-02 -0.3828947E-03 -0.1205295E-01
3056531.  0.2206396E-02  0.7850523E-01  0.1183872E-03  0.4352401E-02 -0.2666619E-03 -0.9013072E-02
2985953.  0.1475589E-02  0.5467416E-01  0.7818775E-04  0.2981762E-02 -0.1811913E-03 -0.6512274E-02
2915375.  0.9707963E-03  0.3741607E-01  0.5085169E-04  0.2010507E-02 -0.1203120E-03 -0.4567927E-02
2844797.  0.6281575E-03  0.2516145E-01  0.3255753E-04  0.1333957E-02 -0.7814846E-04 -0.3119826E-02
2774219.  0.3996207E-03  0.1662535E-01  0.2051136E-04  0.8706848E-03 -0.4968598E-04 -0.2078732E-02
2703641.  0.2498575E-03  0.1079124E-01  0.1270932E-04  0.5588614E-03 -0.3092947E-04 -0.1352840E-02
2633062.  0.1534577E-03  0.6878542E-02  0.7740896E-05  0.3525953E-03 -0.1885157E-04 -0.8605461E-03
2562484.  0.9253303E-04  0.4303978E-02  0.4631617E-05  0.2185537E-03 -0.1124838E-04 -0.5352162E-03
2491906.  0.5474313E-04  0.2642185E-02  0.2720412E-05  0.1330087E-03 -0.6568137E-05 -0.3254801E-03
2421328.  0.3175143E-04  0.1590400E-02  0.1567302E-05  0.7942150E-04 -0.3751279E-05 -0.1934946E-03
2350750.  0.1803977E-04  0.9379575E-03  0.8849156E-06  0.4649319E-04 -0.2094160E-05 -0.1124039E-03
2280172.  0.1003045E-04  0.5415388E-03  0.4891618E-06  0.2665905E-04 -0.1141765E-05 -0.6376749E-04
2209594.  0.5452154E-05  0.3057945E-03  0.2644403E-06  0.1495775E-04 -0.6073745E-06 -0.3530056E-04
2139016.  0.2893717E-05  0.1686986E-03  0.1396354E-06  0.8202824E-05 -0.3148888E-06 -0.1905066E-04
2068438.  0.1497629E-05  0.9081182E-04  0.7192263E-07  0.4391237E-05 -0.1588962E-06 -0.1001122E-04
1997859.  0.7546733E-06  0.4763394E-04  0.3608057E-07  0.2291487E-05 -0.7792504E-07 -0.5115985E-05
1927281.  0.3696591E-06  0.2430883E-04  0.1759914E-07  0.1163782E-05 -0.3707871E-07 -0.2538494E-05
1856703.  0.1756756E-06  0.1204807E-04  0.8330890E-08  0.5742100E-06 -0.1708531E-07 -0.1220835E-05
1786125.  0.8082967E-07  0.5787811E-05  0.3818986E-08  0.2746901E-06 -0.7607329E-08 -0.5679327E-06
1715547.  0.3592067E-07  0.2688926E-05  0.1691296E-08  0.1271168E-06 -0.3265030E-08 -0.2549747E-06
1644969.  0.1537657E-07  0.1205052E-05  0.7216550E-09  0.5675913E-07 -0.1347028E-08 -0.1101836E-06
1574391.  0.6320895E-08  0.5194485E-06  0.2957651E-09  0.2438192E-07 -0.5325017E-09 -0.4569326E-07
1503812.  0.2486154E-08  0.2146827E-06  0.1160343E-09  0.1004142E-07 -0.2009738E-09 -0.1812158E-07
1433234.  0.9310397E-09  0.8483817E-07  0.4344106E-10  0.3945687E-08 -0.7212118E-10 -0.6845603E-08
1362656.  0.3274506E-09  0.3224292E-07  0.1558051E-10  0.1458194E-08 -0.2450257E-10 -0.2451098E-08
1292078.  0.9669361E-10  0.1297876E-07  0.5805055E-11  0.4481877E-09 -0.7860341E-11 -0.8266785E-09
1221500. -0.1991895E-10  0.1052831E-07  0.4055542E-11 -0.1250147E-09 -0.2378544E-11 -0.2660930E-09
1221500. -0.1991895E-10  0.3096242E-10  0.8846073E-13  0.1043530E-09 -0.2378544E-11 -0.2574640E-09
1183328. -0.1730715E-10 -0.7291199E-09 -0.2593662E-12  0.2381735E-10 -0.1228680E-11 -0.1379623E-09
1145156. -0.1252538E-10 -0.8007893E-09 -0.2970329E-12 -0.5733008E-11 -0.6191071E-12 -0.7215731E-10
1106984. -0.8161735E-11 -0.6386640E-09 -0.2342286E-12 -0.1299325E-10 -0.3038554E-12 -0.3678835E-10
1068812. -0.4936716E-11 -0.4402341E-09 -0.1575711E-12 -0.1187254E-10 -0.1450258E-12 -0.1825404E-10
1030641. -0.2813113E-11 -0.2767664E-09 -0.9616070E-13 -0.8524148E-11 -0.6721965E-13 -0.8792231E-11
 992469.  0.0000000E+00  0.0000000E+00  0.0000000E+00  0.0000000E+00  0.0000000E+00  0.0000000E+00
 954297.  0.0000000E+00  0.0000000E+00  0.0000000E+00  0.0000000E+00  0.0000000E+00  0.0000000E+00
 916125.  0.0000000E+00  0.0000000E+00  0.0000000E+00  0.0000000E+00  0.0000000E+00  0.0000000E+00
 877953.  0.0000000E+00  0.0000000E+00  0.0000000E+00  0.0000000E+00  0.0000000E+00  0.0000000E+00
 839781.  0.0000000E+00  0.0000000E+00  0.0000000E+00  0.0000000E+00  0.0000000E+00  0.0000000E+00
 801609.  0.0000000E+00  0.0000000E+00  0.0000000E+00  0.0000000E+00  0.0000000E+00  0.0000000E+00
 763438.  0.0000000E+00  0.0000000E+00  0.0000000E+00  0.0000000E+00  0.0000000E+00  0.0000000E+00
 725266.  0.0000000E+00  0.0000000E+00  0.0000000E+00  0.0000000E+00  0.0000000E+00  0.0000000E+00
 687094.  0.0000000E+00  0.0000000E+00  0.0000000E+00  0.0000000E+00  0.0000000E+00  0.0000000E+00
 648922.  0.0000000E+00  0.0000000E+00  0.0000000E+00  0.0000000E+00  0.0000000E+00  0.0000000E+00
 610750.  0.0000000E+00  0.0000000E+00  0.0000000E+00  0.0000000E+00  0.0000000E+00  0.0000000E+00
 572578.  0.0000000E+00  0.0000000E+00  0.0000000E+00  0.0000000E+00  0.0000000E+00  0.0000000E+00
 534406.  0.0000000E+00  0.0000000E+00  0.0000000E+00  0.0000000E+00  0.0000000E+00  0.0000000E+00
 496234.  0.0000000E+00  0.0000000E+00  0.0000000E+00  0.0000000E+00  0.0000000E+00  0.0000000E+00
 458062.  0.0000000E+00  0.0000000E+00  0.0000000E+00  0.0000000E+00  0.0000000E+00  0.0000000E+00
 419891.  0.0000000E+00  0.0000000E+00  0.0000000E+00  0.0000000E+00  0.0000000E+00  0.0000000E+00
 381719.  0.0000000E+00  0.0000000E+00  0.0000000E+00  0.0000000E+00  0.0000000E+00  0.0000000E+00
 343547.  0.0000000E+00  0.0000000E+00  0.0000000E+00  0.0000000E+00  0.0000000E+00  0.0000000E+00
 305375.  0.0000000E+00  0.0000000E+00  0.0000000E+00  0.0000000E+00  0.0000000E+00  0.0000000E+00
 267203.  0.0000000E+00  0.0000000E+00  0.0000000E+00  0.0000000E+00  0.0000000E+00  0.0000000E+00
 229031.  0.0000000E+00  0.0000000E+00  0.0000000E+00  0.0000000E+00  0.0000000E+00  0.0000000E+00
 190859.  0.0000000E+00  0.0000000E+00  0.0000000E+00  0.0000000E+00  0.0000000E+00  0.0000000E+00
 152688.  0.0000000E+00  0.0000000E+00  0.0000000E+00  0.0000000E+00  0.0000000E+00  0.0000000E+00
 114516.  0.0000000E+00  0.0000000E+00  0.0000000E+00  0.0000000E+00  0.0000000E+00  0.0000000E+00
  76344.  0.0000000E+00  0.0000000E+00  0.0000000E+00  0.0000000E+00  0.0000000E+00  0.0000000E+00
  38172.  0.0000000E+00  0.0000000E+00  0.0000000E+00  0.0000000E+00  0.0000000E+00  0.0000000E+00
      0.  0.0000000E+00  0.0000000E+00  0.0000000E+00  0.0000000E+00  0.0000000E+00  0.0000000E+00
