       2       38 S      202        133.98689          7.76005          6.08785        169.23410      185    7
6371000. -0.6091705E-01 -0.1448638E+01 -0.2569045E-02  0.5834801E-01  0.2992733E-02 -0.1841258E-02
6370000. -0.6068727E-01 -0.1479161E+01 -0.2578040E-02  0.5626549E-01  0.2993024E-02 -0.1878442E-02
6369000. -0.6045273E-01 -0.1509274E+01 -0.2586707E-02  0.5416657E-01  0.2993322E-02 -0.1920716E-02
6368000. -0.6021350E-01 -0.1538971E+01 -0.2595043E-02  0.5205159E-01  0.2993628E-02 -0.1968102E-02
6368000. -0.6021350E-01 -0.1538971E+01 -0.2595043E-02  0.5205159E-01  0.2993628E-02 -0.1968102E-02
6367000. -0.5996964E-01 -0.1568248E+01 -0.2603046E-02  0.4992091E-01  0.2993941E-02 -0.2020620E-02
6366000. -0.5972121E-01 -0.1597101E+01 -0.2610714E-02  0.4777486E-01  0.2994262E-02 -0.2078293E-02
6365000. -0.5946829E-01 -0.1625527E+01 -0.2618043E-02  0.4561381E-01  0.2994593E-02 -0.2141142E-02
6364000. -0.5921094E-01 -0.1653519E+01 -0.2625032E-02  0.4343811E-01  0.2994935E-02 -0.2209190E-02
6363000. -0.5894924E-01 -0.1681075E+01 -0.2631679E-02  0.4124812E-01  0.2995287E-02 -0.2282458E-02
6362000. -0.5868324E-01 -0.1708191E+01 -0.2637980E-02  0.3904421E-01  0.2995651E-02 -0.2360968E-02
6361000. -0.5841302E-01 -0.1734863E+01 -0.2643935E-02  0.3682674E-01  0.2996029E-02 -0.2444742E-02
6360000. -0.5813865E-01 -0.1761086E+01 -0.2649540E-02  0.3459609E-01  0.2996419E-02 -0.2533804E-02
6359000. -0.5786020E-01 -0.1786857E+01 -0.2654795E-02  0.3235261E-01  0.2996824E-02 -0.2628175E-02
6358000. -0.5757774E-01 -0.1812173E+01 -0.2659696E-02  0.3009668E-01  0.2997244E-02 -0.2727877E-02
6357000. -0.5729134E-01 -0.1837030E+01 -0.2664242E-02  0.2782869E-01  0.2997681E-02 -0.2832934E-02
6356000. -0.5700108E-01 -0.1861424E+01 -0.2668431E-02  0.2554900E-01  0.2998134E-02 -0.2943368E-02
6356000. -0.5700108E-01 -0.1551596E+01 -0.2668431E-02  0.3700979E-01  0.2998134E-02  0.9459405E-02
6355000. -0.5675604E-01 -0.1570713E+01 -0.2674156E-02  0.3592916E-01  0.2996645E-02  0.9518874E-02
6354000. -0.5650801E-01 -0.1589610E+01 -0.2679710E-02  0.3484145E-01  0.2995146E-02  0.9575346E-02
6353000. -0.5625704E-01 -0.1608285E+01 -0.2685093E-02  0.3374676E-01  0.2993639E-02  0.9628812E-02
6352000. -0.5600315E-01 -0.1626736E+01 -0.2690303E-02  0.3264521E-01  0.2992124E-02  0.9679267E-02
6351000. -0.5574638E-01 -0.1644961E+01 -0.2695340E-02  0.3153690E-01  0.2990600E-02  0.9726706E-02
6350000. -0.5548677E-01 -0.1662958E+01 -0.2700203E-02  0.3042195E-01  0.2989070E-02  0.9771119E-02
6349000. -0.5522435E-01 -0.1680726E+01 -0.2704890E-02  0.2930046E-01  0.2987533E-02  0.9812501E-02
6348000. -0.5495916E-01 -0.1698262E+01 -0.2709401E-02  0.2817254E-01  0.2985990E-02  0.9850846E-02
6347000. -0.5469124E-01 -0.1715566E+01 -0.2713734E-02  0.2703831E-01  0.2984441E-02  0.9886144E-02
6346600. -0.5458331E-01 -0.1722421E+01 -0.2715417E-02  0.2658287E-01  0.2983820E-02  0.9899409E-02
6346600. -0.5458331E-01 -0.1799149E+01 -0.2715417E-02  0.3486171E-01  0.2983820E-02  0.2893181E-01
6318800. -0.4589251E-01 -0.2168923E+01 -0.2838097E-02  0.2082549E-01  0.2850637E-02  0.3196349E-01
6291000. -0.3580577E-01 -0.2435257E+01 -0.2893063E-02  0.3976703E-02  0.2706053E-02  0.3418384E-01
6291000. -0.3580577E-01 -0.2500343E+01 -0.2893063E-02  0.2944943E-02  0.2706053E-02  0.3418384E-01
6263000. -0.2446137E-01 -0.2637822E+01 -0.2860393E-02 -0.1802692E-01  0.2553741E-02  0.3501700E-01
6235000. -0.1284255E-01 -0.2623688E+01 -0.2733720E-02 -0.3960412E-01  0.2399146E-02  0.3524498E-01
6207000. -0.1628736E-02 -0.2453576E+01 -0.2513434E-02 -0.6039454E-01  0.2244632E-02  0.3500314E-01
6179000.  0.8502899E-02 -0.2132945E+01 -0.2206027E-02 -0.7902817E-01  0.2091963E-02  0.3442756E-01
6151000.  0.1692096E-01 -0.1677123E+01 -0.1823804E-02 -0.9424568E-01  0.1942312E-02  0.3365165E-01
6151000.  0.1692096E-01 -0.1576635E+01 -0.1823804E-02 -0.8515829E-01  0.1942312E-02  0.3271550E-01
6128500.  0.2183686E-01 -0.1201893E+01 -0.1514286E-02 -0.8972380E-01  0.1826442E-02  0.3287851E-01
6106000.  0.2537845E-01 -0.8005215E+00 -0.1192931E-02 -0.9185608E-01  0.1710234E-02  0.3291256E-01
6083500.  0.2747514E-01 -0.3858166E+00 -0.8683467E-03 -0.9155969E-01  0.1594083E-02  0.3285180E-01
6061000.  0.2810321E-01  0.2902665E-01 -0.5489856E-03 -0.8891822E-01  0.1478269E-02  0.3272644E-01
6038500.  0.2728480E-01  0.4313202E+00 -0.2428747E-03 -0.8408731E-01  0.1362970E-02  0.3256524E-01
6016000.  0.2508539E-01  0.8092516E+00  0.4262070E-04 -0.7728404E-01  0.1248262E-02  0.3239604E-01
5993500.  0.2161014E-01  0.1152208E+01  0.3009932E-03 -0.6877524E-01  0.1134125E-02  0.3224650E-01
5971000.  0.1699919E-01  0.1451048E+01  0.5267492E-03 -0.5886634E-01  0.1020439E-02  0.3214652E-01
5971000.  0.1699919E-01  0.1338051E+01  0.5267492E-03 -0.5431751E-01  0.1020439E-02  0.2992119E-01
5937667.  0.9203720E-02  0.1623313E+01  0.7730246E-03 -0.3980669E-01  0.8681423E-03  0.2825305E-01
5904333.  0.2040821E-03  0.1798878E+01  0.9439686E-03 -0.2567625E-01  0.7252591E-03  0.2631917E-01
5871000. -0.9440968E-02  0.1871808E+01  0.1043784E-02 -0.1272916E-01  0.5932019E-03  0.2411759E-01
5837667. -0.1922506E-01  0.1854398E+01  0.1080169E-02 -0.1496802E-02  0.4733335E-03  0.2166347E-01
5804333. -0.2871525E-01  0.1762091E+01  0.1062950E-02  0.7731845E-02  0.3669066E-03  0.1898326E-01
5771000. -0.3756283E-01  0.1611698E+01  0.1002916E-02  0.1486985E-01  0.2750262E-03  0.1610974E-01
5771000. -0.3756283E-01  0.1611799E+01  0.1002916E-02  0.1487075E-01  0.2750262E-03  0.1610974E-01
5701000. -0.5330427E-01  0.1228508E+01  0.7908386E-03  0.2272950E-01  0.1427528E-03  0.7921997E-02
5701000. -0.5330427E-01  0.1081098E+01  0.7908386E-03  0.3063505E-01  0.1427528E-03  0.2294655E-01
5667333. -0.5828492E-01  0.8148351E+00  0.6269653E-03  0.3078240E-01  0.3884060E-04  0.1659796E-01
5633667. -0.6201040E-01  0.5998741E+00  0.4707602E-03  0.2812149E-01 -0.3563412E-04  0.1184370E-01
5600000. -0.6464686E-01  0.4002742E+00  0.3293527E-03  0.2543234E-01 -0.8819996E-04  0.8200824E-02
5600000. -0.6464686E-01  0.4002742E+00  0.3293527E-03  0.2543234E-01 -0.8819996E-04  0.8200824E-02
5563518. -0.6636345E-01  0.2026943E+00  0.1921998E-03  0.2246717E-01 -0.1261940E-03  0.5215045E-02
5527037. -0.6700838E-01  0.2617398E-01  0.7203832E-04  0.1950835E-01 -0.1493881E-03  0.2997793E-02
5490556. -0.6670506E-01 -0.1284213E+00 -0.3133288E-04  0.1661216E-01 -0.1616483E-03  0.1370938E-02
5454074. -0.6558001E-01 -0.2608405E+00 -0.1184327E-03  0.1383143E-01 -0.1659623E-03  0.2013574E-03
5417593. -0.6375957E-01 -0.3714106E+00 -0.1900214E-03  0.1120107E-01 -0.1645984E-03 -0.6285220E-03
5381111. -0.6136681E-01 -0.4608815E+00 -0.2470707E-03  0.8758222E-02 -0.1592654E-03 -0.1195978E-02
5344630. -0.5851952E-01 -0.5304172E+00 -0.2907307E-03  0.6527596E-02 -0.1512791E-03 -0.1565591E-02
5308148. -0.5532756E-01 -0.5814988E+00 -0.3222542E-03  0.4521342E-02 -0.1416087E-03 -0.1790898E-02
5271667. -0.5189220E-01 -0.6157557E+00 -0.3429705E-03  0.2754440E-02 -0.1309856E-03 -0.1903519E-02
5235185. -0.4830434E-01 -0.6350480E+00 -0.3542511E-03  0.1224179E-02 -0.1199608E-03 -0.1936368E-02
5198704. -0.4464445E-01 -0.6412581E+00 -0.3574297E-03 -0.7560512E-04 -0.1089134E-03 -0.1913893E-02
5162222. -0.4098196E-01 -0.6362347E+00 -0.3538224E-03 -0.1147904E-02 -0.9813125E-04 -0.1846089E-02
5125741. -0.3737590E-01 -0.6218949E+00 -0.3446790E-03 -0.2012661E-02 -0.8781865E-04 -0.1752684E-02
5089259. -0.3387433E-01 -0.5999788E+00 -0.3311403E-03 -0.2685123E-02 -0.7809203E-04 -0.1641986E-02
5052778. -0.3051613E-01 -0.5721247E+00 -0.3142661E-03 -0.3181308E-02 -0.6903845E-04 -0.1519046E-02
5016296. -0.2733059E-01 -0.5398766E+00 -0.2949981E-03 -0.3524613E-02 -0.6070073E-04 -0.1392879E-02
4979815. -0.2433917E-01 -0.5045664E+00 -0.2741592E-03 -0.3733114E-02 -0.5308890E-04 -0.1265818E-02
4943333. -0.2155573E-01 -0.4673940E+00 -0.2524644E-03 -0.3827058E-02 -0.4620040E-04 -0.1140966E-02
4906852. -0.1898801E-01 -0.4293985E+00 -0.2305085E-03 -0.3827421E-02 -0.4000965E-04 -0.1022318E-02
4870370. -0.1663813E-01 -0.3914150E+00 -0.2087819E-03 -0.3749497E-02 -0.3448333E-04 -0.9089085E-03
4833889. -0.1450399E-01 -0.3541784E+00 -0.1876822E-03 -0.3611655E-02 -0.2958544E-04 -0.8033307E-03
4797407. -0.1257950E-01 -0.3182463E+00 -0.1675048E-03 -0.3429229E-02 -0.2526642E-04 -0.7064945E-03
4760926. -0.1085606E-01 -0.2840351E+00 -0.1484738E-03 -0.3213474E-02 -0.2148097E-04 -0.6170261E-03
4724444. -0.9322735E-02 -0.2518762E+00 -0.1307414E-03 -0.2977456E-02 -0.1818303E-04 -0.5363329E-03
4687963. -0.7967209E-02 -0.2219703E+00 -0.1143963E-03 -0.2730309E-02 -0.1532310E-04 -0.4638572E-03
4651482. -0.6776185E-02 -0.1944338E+00 -0.9948087E-04 -0.2479390E-02 -0.1285704E-04 -0.3987642E-03
4615000. -0.5735876E-02 -0.1693204E+00 -0.8599447E-04 -0.2232015E-02 -0.1074145E-04 -0.3413752E-03
4578518. -0.4832479E-02 -0.1466065E+00 -0.7390395E-04 -0.1992476E-02 -0.8934800E-05 -0.2906916E-03
4542037. -0.4052431E-02 -0.1262323E+00 -0.6315363E-04 -0.1764652E-02 -0.7400557E-05 -0.2462374E-03
4505556. -0.3382576E-02 -0.1080977E+00 -0.5366663E-04 -0.1551521E-02 -0.6103238E-05 -0.2078043E-03
4469074. -0.2810454E-02 -0.9206772E-01 -0.4535519E-04 -0.1354164E-02 -0.5011448E-05 -0.1743272E-03
4432593. -0.2324441E-02 -0.7800231E-01 -0.3812555E-04 -0.1173912E-02 -0.4097660E-05 -0.1456111E-03
4396111. -0.1913709E-02 -0.6574143E-01 -0.3187792E-04 -0.1011056E-02 -0.3335748E-05 -0.1211413E-03
4359630. -0.1568422E-02 -0.5512071E-01 -0.2651447E-04 -0.8650827E-03 -0.2703691E-05 -0.1001947E-03
4323148. -0.1279626E-02 -0.4598083E-01 -0.2193902E-04 -0.7356787E-03 -0.2181909E-05 -0.8256540E-04
4286667. -0.1039317E-02 -0.3816183E-01 -0.1805950E-04 -0.6218596E-03 -0.1752813E-05 -0.6773583E-04
4250185. -0.8403576E-03 -0.3151190E-01 -0.1478973E-04 -0.5225000E-03 -0.1401651E-05 -0.5529504E-04
4213704. -0.6764717E-03 -0.2589014E-01 -0.1205002E-04 -0.4365471E-03 -0.1115452E-05 -0.4499487E-04
4177222. -0.5421513E-03 -0.2116286E-01 -0.9767266E-05 -0.3626553E-03 -0.8830166E-06 -0.3645953E-04
4140741. -0.4326311E-03 -0.1721015E-01 -0.7876071E-05 -0.2996128E-03 -0.6949947E-06 -0.2945336E-04
4104259. -0.3437877E-03 -0.1392253E-01 -0.6317528E-05 -0.2462452E-03 -0.5431662E-06 -0.2377487E-04
4067778. -0.2721062E-03 -0.1120132E-01 -0.5039921E-05 -0.2013119E-03 -0.4206844E-06 -0.1917313E-04
4031296. -0.2145918E-03 -0.8960160E-02 -0.3997911E-05 -0.1637813E-03 -0.3217694E-06 -0.1552395E-04
3994815. -0.1687227E-03 -0.7122295E-02 -0.3152015E-05 -0.1326565E-03 -0.2413363E-06 -0.1269356E-04
3958333. -0.1323851E-03 -0.5620361E-02 -0.2468293E-05 -0.1069885E-03 -0.1751003E-06 -0.1055014E-04
3921852. -0.1038258E-03 -0.4396799E-02 -0.1917815E-05 -0.8599810E-04 -0.1192980E-06 -0.9041584E-05
3885370. -0.8159725E-04 -0.3401221E-02 -0.1475918E-05 -0.6894110E-04 -0.7045316E-07 -0.8111639E-05
3848889. -0.6452101E-04 -0.2590842E-02 -0.1122025E-05 -0.5516384E-04 -0.2534384E-07 -0.7738167E-05
3812407. -0.5164254E-04 -0.1929315E-02 -0.8389966E-06 -0.4409377E-04  0.1927413E-07 -0.7944747E-05
3775926. -0.4220059E-04 -0.1386042E-02 -0.6129347E-06 -0.3518078E-04  0.6682530E-07 -0.8773864E-05
3739444. -0.3559143E-04 -0.9361285E-03 -0.4329680E-06 -0.2790564E-04  0.1211191E-06 -0.1031906E-04
3702963. -0.3133874E-04 -0.5603115E-03 -0.2912584E-06 -0.2172180E-04  0.1866325E-06 -0.1271904E-04
3666482. -0.2905836E-04 -0.2457215E-03 -0.1833643E-06 -0.1597398E-04  0.2687461E-06 -0.1615177E-04
3630000. -0.2841706E-04  0.1208260E-04 -0.1090677E-06 -0.9821460E-05  0.3740291E-06 -0.2085318E-04
3630000. -0.2841706E-04  0.1208260E-04 -0.1090677E-06 -0.9821460E-05  0.3740291E-06 -0.2085318E-04
3592500. -0.2910811E-04  0.2097319E-03 -0.7364031E-07 -0.1789207E-05  0.5148295E-06 -0.2728326E-04
3555000. -0.3069703E-04  0.3099280E-03 -0.9526737E-07  0.9983205E-05  0.6989474E-06 -0.3561575E-04
3517500. -0.3244340E-04  0.2485889E-03 -0.2047086E-06  0.2872565E-04  0.9382268E-06 -0.4604092E-04
3480000. -0.3307171E-04 -0.9717119E-04 -0.4572301E-06  0.5970887E-04  0.1244862E-05 -0.5844102E-04
3480000. -0.3307171E-04 -0.1891088E-02 -0.1007610E-05 -0.5868411E-04  0.1244862E-05  0.4702098E-04
3409422. -0.1735969E-04 -0.1027359E-02 -0.5230249E-06 -0.3145570E-04  0.7790283E-06  0.3601520E-04
3338844. -0.8912316E-05 -0.5453381E-03 -0.2658022E-06 -0.1649685E-04  0.4511971E-06  0.2349658E-04
3268266. -0.4474385E-05 -0.2828576E-03 -0.1322137E-06 -0.8463889E-05  0.2469037E-06  0.1397822E-04
3197688. -0.2196113E-05 -0.1433482E-03 -0.6434489E-07 -0.4247187E-05  0.1290528E-06  0.7797814E-05
3127109. -0.1053392E-05 -0.7096480E-04 -0.3062443E-07 -0.2083738E-05  0.6483351E-07  0.4136486E-05
3056531. -0.4935667E-06 -0.3430720E-04 -0.1424660E-07 -0.9991111E-06  0.3142422E-07  0.2102857E-05
2985953. -0.2257730E-06 -0.1618903E-04 -0.6473881E-08 -0.4679245E-06  0.1472799E-07  0.1029180E-05
2915375. -0.1007584E-06 -0.7452622E-05 -0.2871551E-08 -0.2139213E-06  0.6683538E-08  0.4862575E-06
2844797. -0.4383728E-07 -0.3344733E-05 -0.1242268E-08 -0.9539630E-07  0.2938592E-08  0.2221398E-06
2774219. -0.1857734E-07 -0.1462317E-05 -0.5236808E-09 -0.4146177E-07  0.1252047E-08  0.9820430E-07
2703641. -0.7660899E-08 -0.6222485E-06 -0.2148984E-09 -0.1754670E-07  0.5168544E-09  0.4202415E-07
2633062. -0.3070833E-08 -0.2574463E-06 -0.8574811E-10 -0.7222942E-08  0.2066160E-09  0.1740459E-07
2562484. -0.1195091E-08 -0.1034500E-06 -0.3322894E-10 -0.2888747E-08  0.7992711E-10  0.6973132E-08
2491906. -0.4509500E-09 -0.4032200E-07 -0.1248854E-10 -0.1121020E-08  0.2989002E-10  0.2700558E-08
2421328. -0.1647393E-09 -0.1522340E-07 -0.4545270E-11 -0.4215057E-09  0.1079286E-10  0.1009938E-08
2350750. -0.5816993E-10 -0.5558560E-08 -0.1599346E-11 -0.1533178E-09  0.3757570E-11  0.3642506E-09
2280172. -0.1981747E-10 -0.1959487E-08 -0.5430853E-12 -0.5385416E-10  0.1259283E-11  0.1265073E-09
2209594. -0.6500992E-11 -0.6656080E-09 -0.1776083E-12 -0.1823232E-10  0.4054807E-12  0.4223572E-10
2139016. -0.2048960E-11 -0.2174034E-09 -0.5581647E-13 -0.5936471E-11  0.1251770E-12  0.1352764E-10
2068438. -0.6189370E-12 -0.6811753E-10 -0.1681499E-13 -0.1854577E-11  0.3696124E-13  0.4147165E-11
1997859. -0.1787018E-12 -0.2041956E-10 -0.4842517E-14 -0.5544165E-12  0.1041021E-13  0.1213784E-11
1927281. -0.4916792E-13 -0.5839405E-11 -0.1329171E-14 -0.1581387E-12  0.2788462E-14  0.3381784E-12
1856703. -0.1284817E-13 -0.1587749E-11 -0.3465240E-15 -0.4289717E-13  0.7078850E-15  0.8940243E-13
1786125. -0.3178309E-14 -0.4087293E-12 -0.8543767E-16 -0.1103203E-13  0.1695498E-15  0.2235882E-13
1715547.  0.0000000E+00  0.0000000E+00  0.0000000E+00  0.0000000E+00  0.0000000E+00  0.0000000E+00
1644969.  0.0000000E+00  0.0000000E+00  0.0000000E+00  0.0000000E+00  0.0000000E+00  0.0000000E+00
1574391.  0.0000000E+00  0.0000000E+00  0.0000000E+00  0.0000000E+00  0.0000000E+00  0.0000000E+00
1503812.  0.0000000E+00  0.0000000E+00  0.0000000E+00  0.0000000E+00  0.0000000E+00  0.0000000E+00
1433234.  0.0000000E+00  0.0000000E+00  0.0000000E+00  0.0000000E+00  0.0000000E+00  0.0000000E+00
1362656.  0.0000000E+00  0.0000000E+00  0.0000000E+00  0.0000000E+00  0.0000000E+00  0.0000000E+00
1292078.  0.0000000E+00  0.0000000E+00  0.0000000E+00  0.0000000E+00  0.0000000E+00  0.0000000E+00
1221500.  0.0000000E+00  0.0000000E+00  0.0000000E+00  0.0000000E+00  0.0000000E+00  0.0000000E+00
1221500.  0.0000000E+00  0.0000000E+00  0.0000000E+00  0.0000000E+00  0.0000000E+00  0.0000000E+00
1183328.  0.0000000E+00  0.0000000E+00  0.0000000E+00  0.0000000E+00  0.0000000E+00  0.0000000E+00
1145156.  0.0000000E+00  0.0000000E+00  0.0000000E+00  0.0000000E+00  0.0000000E+00  0.0000000E+00
1106984.  0.0000000E+00  0.0000000E+00  0.0000000E+00  0.0000000E+00  0.0000000E+00  0.0000000E+00
1068812.  0.0000000E+00  0.0000000E+00  0.0000000E+00  0.0000000E+00  0.0000000E+00  0.0000000E+00
1030641.  0.0000000E+00  0.0000000E+00  0.0000000E+00  0.0000000E+00  0.0000000E+00  0.0000000E+00
 992469.  0.0000000E+00  0.0000000E+00  0.0000000E+00  0.0000000E+00  0.0000000E+00  0.0000000E+00
 954297.  0.0000000E+00  0.0000000E+00  0.0000000E+00  0.0000000E+00  0.0000000E+00  0.0000000E+00
 916125.  0.0000000E+00  0.0000000E+00  0.0000000E+00  0.0000000E+00  0.0000000E+00  0.0000000E+00
 877953.  0.0000000E+00  0.0000000E+00  0.0000000E+00  0.0000000E+00  0.0000000E+00  0.0000000E+00
 839781.  0.0000000E+00  0.0000000E+00  0.0000000E+00  0.0000000E+00  0.0000000E+00  0.0000000E+00
 801609.  0.0000000E+00  0.0000000E+00  0.0000000E+00  0.0000000E+00  0.0000000E+00  0.0000000E+00
 763438.  0.0000000E+00  0.0000000E+00  0.0000000E+00  0.0000000E+00  0.0000000E+00  0.0000000E+00
 725266.  0.0000000E+00  0.0000000E+00  0.0000000E+00  0.0000000E+00  0.0000000E+00  0.0000000E+00
 687094.  0.0000000E+00  0.0000000E+00  0.0000000E+00  0.0000000E+00  0.0000000E+00  0.0000000E+00
 648922.  0.0000000E+00  0.0000000E+00  0.0000000E+00  0.0000000E+00  0.0000000E+00  0.0000000E+00
 610750.  0.0000000E+00  0.0000000E+00  0.0000000E+00  0.0000000E+00  0.0000000E+00  0.0000000E+00
 572578.  0.0000000E+00  0.0000000E+00  0.0000000E+00  0.0000000E+00  0.0000000E+00  0.0000000E+00
 534406.  0.0000000E+00  0.0000000E+00  0.0000000E+00  0.0000000E+00  0.0000000E+00  0.0000000E+00
 496234.  0.0000000E+00  0.0000000E+00  0.0000000E+00  0.0000000E+00  0.0000000E+00  0.0000000E+00
 458062.  0.0000000E+00  0.0000000E+00  0.0000000E+00  0.0000000E+00  0.0000000E+00  0.0000000E+00
 419891.  0.0000000E+00  0.0000000E+00  0.0000000E+00  0.0000000E+00  0.0000000E+00  0.0000000E+00
 381719.  0.0000000E+00  0.0000000E+00  0.0000000E+00  0.0000000E+00  0.0000000E+00  0.0000000E+00
 343547.  0.0000000E+00  0.0000000E+00  0.0000000E+00  0.0000000E+00  0.0000000E+00  0.0000000E+00
 305375.  0.0000000E+00  0.0000000E+00  0.0000000E+00  0.0000000E+00  0.0000000E+00  0.0000000E+00
 267203.  0.0000000E+00  0.0000000E+00  0.0000000E+00  0.0000000E+00  0.0000000E+00  0.0000000E+00
 229031.  0.0000000E+00  0.0000000E+00  0.0000000E+00  0.0000000E+00  0.0000000E+00  0.0000000E+00
 190859.  0.0000000E+00  0.0000000E+00  0.0000000E+00  0.0000000E+00  0.0000000E+00  0.0000000E+00
 152688.  0.0000000E+00  0.0000000E+00  0.0000000E+00  0.0000000E+00  0.0000000E+00  0.0000000E+00
 114516.  0.0000000E+00  0.0000000E+00  0.0000000E+00  0.0000000E+00  0.0000000E+00  0.0000000E+00
  76344.  0.0000000E+00  0.0000000E+00  0.0000000E+00  0.0000000E+00  0.0000000E+00  0.0000000E+00
  38172.  0.0000000E+00  0.0000000E+00  0.0000000E+00  0.0000000E+00  0.0000000E+00  0.0000000E+00
      0.  0.0000000E+00  0.0000000E+00  0.0000000E+00  0.0000000E+00  0.0000000E+00  0.0000000E+00
