      15       10 S      627        126.30010         30.18522          7.70794        327.67880      185    7
6371000. -0.3544760E-01  0.2436551E+00  0.4991137E-02  0.4043874E-01 -0.1502499E-03  0.6849864E-01
6370000. -0.3548452E-01  0.2266460E+00  0.4984198E-02  0.4797078E-01 -0.1609945E-03  0.6840902E-01
6369000. -0.3551875E-01  0.2095246E+00  0.4976078E-02  0.5548772E-01 -0.1717248E-03  0.6831470E-01
6368000. -0.3555029E-01  0.1922922E+00  0.4966780E-02  0.6298778E-01 -0.1824398E-03  0.6821569E-01
6368000. -0.3555029E-01  0.1922922E+00  0.4966780E-02  0.6298778E-01 -0.1824398E-03  0.6821569E-01
6367000. -0.3557911E-01  0.1749503E+00  0.4956306E-02  0.7046916E-01 -0.1931389E-03  0.6811200E-01
6366000. -0.3560520E-01  0.1575004E+00  0.4944659E-02  0.7793005E-01 -0.2038214E-03  0.6800362E-01
6365000. -0.3562855E-01  0.1399438E+00  0.4931843E-02  0.8536865E-01 -0.2144866E-03  0.6789058E-01
6364000. -0.3564912E-01  0.1222821E+00  0.4917861E-02  0.9278320E-01 -0.2251336E-03  0.6777288E-01
6363000. -0.3566693E-01  0.1045169E+00  0.4902718E-02  0.1001719E+00 -0.2357617E-03  0.6765052E-01
6362000. -0.3568193E-01  0.8664965E-01  0.4886417E-02  0.1075330E+00 -0.2463704E-03  0.6752351E-01
6361000. -0.3569412E-01  0.6868204E-01  0.4868963E-02  0.1148647E+00 -0.2569587E-03  0.6739185E-01
6360000. -0.3570349E-01  0.5061566E-01  0.4850360E-02  0.1221652E+00 -0.2675259E-03  0.6725556E-01
6359000. -0.3571001E-01  0.3245218E-01  0.4830614E-02  0.1294329E+00 -0.2780714E-03  0.6711465E-01
6358000. -0.3571367E-01  0.1419328E-01  0.4809730E-02  0.1366659E+00 -0.2885945E-03  0.6696912E-01
6357000. -0.3571446E-01 -0.4159334E-02  0.4787713E-02  0.1438625E+00 -0.2990943E-03  0.6681898E-01
6356000. -0.3571236E-01 -0.2260391E-01  0.4764570E-02  0.1510209E+00 -0.3095702E-03  0.6666425E-01
6356000. -0.3571236E-01  0.3754813E-01  0.4764570E-02  0.1072387E+00 -0.3095702E-03  0.7443484E-01
6355000. -0.3571721E-01  0.2425895E-01  0.4747366E-02  0.1119763E+00 -0.3212413E-03  0.7427713E-01
6354000. -0.3571997E-01  0.1090920E-01  0.4729419E-02  0.1166937E+00 -0.3328873E-03  0.7411580E-01
6353000. -0.3572063E-01 -0.2500210E-02  0.4710734E-02  0.1213901E+00 -0.3445077E-03  0.7395083E-01
6352000. -0.3571918E-01 -0.1596835E-01  0.4691313E-02  0.1260647E+00 -0.3561019E-03  0.7378225E-01
6351000. -0.3571561E-01 -0.2949429E-01  0.4671161E-02  0.1307167E+00 -0.3676694E-03  0.7361005E-01
6350000. -0.3570992E-01 -0.4307710E-01  0.4650279E-02  0.1353455E+00 -0.3792096E-03  0.7343426E-01
6349000. -0.3570209E-01 -0.5671580E-01  0.4628674E-02  0.1399503E+00 -0.3907219E-03  0.7325486E-01
6348000. -0.3569211E-01 -0.7040943E-01  0.4606348E-02  0.1445303E+00 -0.4022057E-03  0.7307188E-01
6347000. -0.3567998E-01 -0.8415702E-01  0.4583304E-02  0.1490849E+00 -0.4136606E-03  0.7288533E-01
6346600. -0.3567453E-01 -0.8967094E-01  0.4573887E-02  0.1508994E+00 -0.4182343E-03  0.7280970E-01
6346600. -0.3567453E-01  0.5297805E-01  0.4573887E-02  0.1150037E+00 -0.4182343E-03  0.8524889E-01
6318800. -0.3527403E-01 -0.2424290E+00  0.3870658E-02  0.2043929E+00 -0.7782719E-03  0.7940461E-01
6291000. -0.3351811E-01 -0.5656961E+00  0.2821495E-02  0.2722976E+00 -0.1108073E-02  0.7141133E-01
6291000. -0.3351811E-01 -0.5707903E+00  0.2821495E-02  0.2804710E+00 -0.1108073E-02  0.7141133E-01
6263000. -0.3025492E-01 -0.9143271E+00  0.1486364E-02  0.3216596E+00 -0.1400362E-02  0.6127500E-01
6235000. -0.2549680E-01 -0.1247262E+01  0.4421914E-04  0.3287964E+00 -0.1643987E-02  0.4930908E-01
6207000. -0.1934151E-01 -0.1546225E+01 -0.1352969E-02  0.3014223E+00 -0.1831522E-02  0.3580396E-01
6179000. -0.1198917E-01 -0.1788336E+01 -0.2558989E-02  0.2425904E+00 -0.1956957E-02  0.2111270E-01
6151000. -0.3735721E-02 -0.1953206E+01 -0.3448227E-02  0.1585404E+00 -0.2015962E-02  0.5646706E-02
6151000. -0.3735721E-02 -0.1605266E+01 -0.3448227E-02  0.1393541E+00 -0.2015962E-02  0.5853387E-02
6128500.  0.1995097E-02 -0.1632403E+01 -0.3816775E-02  0.6847799E-01 -0.2019326E-02 -0.3933466E-02
6106000.  0.7738379E-02 -0.1612235E+01 -0.3928280E-02 -0.5475680E-02 -0.1988372E-02 -0.1355639E-01
6083500.  0.1332728E-01 -0.1545214E+01 -0.3779663E-02 -0.7810693E-01 -0.1923939E-02 -0.2286956E-01
6061000.  0.1860002E-01 -0.1433750E+01 -0.3383127E-02 -0.1452007E+00 -0.1827364E-02 -0.3173686E-01
6038500.  0.2340666E-01 -0.1282099E+01 -0.2765088E-02 -0.2029594E+00 -0.1700447E-02 -0.4003320E-01
6016000.  0.2761520E-01 -0.1096128E+01 -0.1964338E-02 -0.2482024E+00 -0.1545405E-02 -0.4764598E-01
5993500.  0.3111677E-01 -0.8830230E+00 -0.1029575E-02 -0.2785224E+00 -0.1364832E-02 -0.5447680E-01
5971000.  0.3382975E-01 -0.6509495E+00 -0.1645758E-04 -0.2923989E+00 -0.1161643E-02 -0.6044089E-01
5971000.  0.3382975E-01 -0.5912170E+00 -0.1645758E-04 -0.2641648E+00 -0.1161643E-02 -0.6486949E-01
5937667.  0.3602522E-01 -0.2498586E+00  0.1336109E-02 -0.2479452E+00 -0.8024514E-03 -0.7206839E-01
5904333.  0.3648287E-01  0.6953999E-01  0.2531636E-02 -0.2051688E+00 -0.4113541E-03 -0.7706448E-01
5871000.  0.3536879E-01  0.3482871E+00  0.3449061E-02 -0.1429483E+00  0.1976653E-06 -0.7990427E-01
5837667.  0.3293236E-01  0.5733253E+00  0.4007621E-02 -0.6936027E-01  0.4211668E-03 -0.8068360E-01
5804333.  0.2947592E-01  0.7374306E+00  0.4169147E-02  0.7523938E-02  0.8411139E-03 -0.7953294E-01
5771000.  0.2532526E-01  0.8388842E+00  0.3935962E-02  0.8040206E-01  0.1250316E-02 -0.7660837E-01
5771000.  0.2532526E-01  0.8389150E+00  0.3935962E-02  0.8039866E-01  0.1250316E-02 -0.7660837E-01
5701000.  0.1548571E-01  0.9129613E+00  0.2290780E-02  0.2103066E+00  0.2027680E-02 -0.6369753E-01
5701000.  0.1548571E-01  0.7664324E+00  0.2290780E-02  0.1631689E+00  0.2027680E-02 -0.6806239E-01
5667333.  0.1158633E-01  0.7112435E+00  0.1376226E-02  0.1829110E+00  0.2370032E-02 -0.6142334E-01
5633667.  0.7952885E-02  0.6622024E+00  0.3560078E-03  0.2022264E+00  0.2675436E-02 -0.5398822E-01
5600000.  0.4632950E-02  0.5907520E+00 -0.7358422E-03  0.2085545E+00  0.2938724E-02 -0.4550026E-01
5600000.  0.4632950E-02  0.5907520E+00 -0.7358422E-03  0.2085545E+00  0.2938724E-02 -0.4550026E-01
5563518.  0.1512396E-02  0.4971955E+00 -0.1913950E-02  0.2003417E+00  0.3170591E-02 -0.3533074E-01
5527037. -0.1048520E-02  0.3970333E+00 -0.3001749E-02  0.1772449E+00  0.3341810E-02 -0.2435658E-01
5490556. -0.3041093E-02  0.3002761E+00 -0.3918873E-02  0.1411212E+00  0.3448422E-02 -0.1280350E-01
5454074. -0.4510982E-02  0.2158269E+00 -0.4598325E-02  0.9475906E-01  0.3487776E-02 -0.9035125E-03
5417593. -0.5550433E-02  0.1509733E+00 -0.4991224E-02  0.4166614E-01  0.3458559E-02  0.1110765E-01
5381111. -0.6286913E-02  0.1106068E+00 -0.5070069E-02 -0.1426520E-01  0.3360795E-02  0.2299871E-01
5344630. -0.6868654E-02  0.9711516E-01 -0.4830122E-02 -0.6901825E-01  0.3195834E-02  0.3454233E-01
5308148. -0.7450137E-02  0.1102396E+00 -0.4289203E-02 -0.1187756E+00  0.2966280E-02  0.4552236E-01
5271667. -0.8176580E-02  0.1470729E+00 -0.3485905E-02 -0.1601543E+00  0.2675959E-02  0.5573644E-01
5235185. -0.9170146E-02  0.2025183E+00 -0.2476212E-02 -0.1904770E+00  0.2329781E-02  0.6499937E-01
5198704. -0.1051829E-01  0.2696451E+00 -0.1329154E-02 -0.2079101E+00  0.1933696E-02  0.7314619E-01
5162222. -0.1226485E-01  0.3402334E+00 -0.1215674E-03 -0.2115406E+00  0.1494480E-02  0.8003813E-01
5125741. -0.1440477E-01  0.4055957E+00  0.1067318E-02 -0.2014896E+00  0.1019691E-02  0.8555832E-01
5089259. -0.1688338E-01  0.4571204E+00  0.2161756E-02 -0.1787844E+00  0.5174189E-03  0.8962103E-01
5052778. -0.1959838E-01  0.4869876E+00  0.3094185E-02 -0.1452909E+00 -0.3788459E-05  0.9216931E-01
5016296. -0.2240690E-01  0.4888403E+00  0.3809969E-02 -0.1035820E+00 -0.5351872E-03  0.9317323E-01
4979815. -0.2513451E-01  0.4581923E+00  0.4270546E-02 -0.5669501E-01 -0.1067898E-02  0.9263546E-01
4943333. -0.2758782E-01  0.3928484E+00  0.4455686E-02 -0.7938714E-02 -0.1593194E-02  0.9058565E-01
4906852. -0.2956763E-01  0.2930844E+00  0.4364296E-02  0.3934299E-01 -0.2102534E-02  0.8707880E-01
4870370. -0.3088368E-01  0.1616668E+00  0.4013946E-02  0.8200912E-01 -0.2587833E-02  0.8220018E-01
4833889. -0.3136828E-01  0.3713972E-02  0.3439198E-02  0.1173101E+00 -0.3041494E-02  0.7605138E-01
4797407. -0.3088902E-01 -0.1736352E+00  0.2688712E-02  0.1430739E+00 -0.3456608E-02  0.6875488E-01
4760926. -0.2935950E-01 -0.3615615E+00  0.1821767E-02  0.1578102E+00 -0.3826985E-02  0.6045439E-01
4724444. -0.2674665E-01 -0.5503119E+00  0.9038384E-03  0.1608226E+00 -0.4147316E-02  0.5129748E-01
4687963. -0.2307523E-01 -0.7296008E+00  0.2228566E-05  0.1521983E+00 -0.4413137E-02  0.4144599E-01
4651482. -0.1842852E-01 -0.8893434E+00 -0.8185444E-03  0.1327933E+00 -0.4620957E-02  0.3106657E-01
4615000. -0.1294501E-01 -0.1020395E+01 -0.1500933E-02  0.1041676E+00 -0.4768227E-02  0.2032341E-01
4578518. -0.6812431E-02 -0.1114879E+01 -0.1997943E-02  0.6844073E-01 -0.4853335E-02  0.9382773E-02
4542037. -0.2582950E-03 -0.1166905E+01 -0.2276048E-02  0.2816542E-01 -0.4875613E-02 -0.1595150E-02
4505556.  0.6463132E-02 -0.1172899E+01 -0.2317153E-02 -0.1386111E-01 -0.4835286E-02 -0.1245904E-01
4469074.  0.1308366E-01 -0.1131624E+01 -0.2119429E-02 -0.5477670E-01 -0.4733415E-02 -0.2306727E-01
4432593.  0.1933544E-01 -0.1044639E+01 -0.1697225E-02 -0.9183059E-01 -0.4571855E-02 -0.3328726E-01
4396111.  0.2496737E-01 -0.9159173E+00 -0.1079842E-02 -0.1225629E+00 -0.4353161E-02 -0.4300225E-01
4359630.  0.2975684E-01 -0.7516684E+00 -0.3095934E-03 -0.1449325E+00 -0.4080537E-02 -0.5211016E-01
4323148.  0.3352365E-01 -0.5601988E+00  0.5611589E-03 -0.1574618E+00 -0.3757715E-02 -0.6051768E-01
4286667.  0.3613887E-01 -0.3511827E+00  0.1473236E-02 -0.1592847E+00 -0.3388945E-02 -0.6815158E-01
4250185.  0.3753224E-01 -0.1352395E+00  0.2364484E-02 -0.1502021E+00 -0.2978810E-02 -0.7495161E-01
4213704.  0.3769555E-01  0.7661517E-01  0.3173454E-02 -0.1306863E+00 -0.2532265E-02 -0.8086583E-01
4177222.  0.3668303E-01  0.2737128E+00  0.3843258E-02 -0.1018163E+00 -0.2054455E-02 -0.8586299E-01
4140741.  0.3460802E-01  0.4461948E+00  0.4324735E-02 -0.6522722E-01 -0.1550732E-02 -0.8991693E-01
4104259.  0.3163625E-01  0.5856447E+00  0.4579449E-02 -0.2298473E-01 -0.1026524E-02 -0.9301242E-01
4067778.  0.2797689E-01  0.6854561E+00  0.4581712E-02  0.2253091E-01 -0.4873476E-03 -0.9515009E-01
4031296.  0.2387032E-01  0.7412851E+00  0.4320010E-02  0.6878145E-01  0.6134042E-04 -0.9632997E-01
3994815.  0.1957531E-01  0.7511878E+00  0.3797493E-02  0.1132085E+00  0.6140501E-03 -0.9656300E-01
3958333.  0.1535434E-01  0.7156921E+00  0.3031661E-02  0.1533717E+00  0.1165447E-02 -0.9586927E-01
3921852.  0.1145988E-01  0.6378917E+00  0.2053300E-02  0.1871165E+00  0.1710246E-02 -0.9426765E-01
3885370.  0.8119828E-02  0.5230684E+00  0.9044430E-03  0.2126465E+00  0.2243352E-02 -0.9178460E-01
3848889.  0.5526387E-02  0.3785139E+00 -0.3637502E-03  0.2286339E+00  0.2759770E-02 -0.8844936E-01
3812407.  0.3824810E-02  0.2131209E+00 -0.1694239E-02  0.2343067E+00  0.3254735E-02 -0.8429138E-01
3775926.  0.3106540E-02  0.3679650E-01 -0.3026913E-02  0.2294171E+00  0.3723598E-02 -0.7934317E-01
3739444.  0.3404207E-02 -0.1399531E+00 -0.4302071E-02  0.2143107E+00  0.4161953E-02 -0.7363614E-01
3702963.  0.4690022E-02 -0.3066418E+00 -0.5463430E-02  0.1898652E+00  0.4565517E-02 -0.6720106E-01
3666482.  0.6877818E-02 -0.4534240E+00 -0.6461103E-02  0.1573981E+00  0.4930220E-02 -0.6006748E-01
3630000.  0.9827773E-02 -0.5714687E+00 -0.7254023E-02  0.1186596E+00  0.5252144E-02 -0.5225991E-01
3630000.  0.9827773E-02 -0.5714687E+00 -0.7254023E-02  0.1186596E+00  0.5252144E-02 -0.5225991E-01
3592500.  0.1345829E-01 -0.6552691E+00 -0.7823896E-02  0.7442109E-01  0.5534464E-02 -0.4355537E-01
3555000.  0.1745559E-01 -0.6953339E+00 -0.8125990E-02  0.2808240E-01  0.5763562E-02 -0.3417784E-01
3517500.  0.2155120E-01 -0.6883420E+00 -0.8155205E-02 -0.1789251E-01  0.5935495E-02 -0.2413112E-01
3480000.  0.2546496E-01 -0.6336612E+00 -0.7920760E-02 -0.6112081E-01  0.6046315E-02 -0.1341090E-01
3480000.  0.2546496E-01  0.1151247E+00 -0.2761126E-03  0.4713096E-01  0.6046315E-02 -0.9461582E-01
3409422.  0.2249222E-01  0.4115882E+00 -0.7839741E-03  0.4350487E-01  0.7096429E-02 -0.9050635E-01
3338844.  0.1662255E-01  0.6336273E+00 -0.1218412E-02  0.3405278E-01  0.7962148E-02 -0.6226086E-01
3268266.  0.8801189E-02  0.7620345E+00 -0.1521888E-02  0.2012977E-01  0.8411041E-02 -0.1649771E-01
3197688.  0.1018417E-03  0.7925836E+00 -0.1654401E-02  0.3501760E-02  0.8292058E-02  0.3890643E-01
3127109. -0.8428307E-02  0.7337763E+00 -0.1596556E-02 -0.1391902E-01  0.7543053E-02  0.9595513E-01
3056531. -0.1589112E-01  0.6034606E+00 -0.1349842E-02 -0.3031179E-01  0.6186602E-02  0.1474954E+00
2985953. -0.2162042E-01  0.4249497E+00 -0.9344934E-03 -0.4413894E-01  0.4316409E-02  0.1879264E+00
2915375. -0.2522100E-01  0.2232847E+00 -0.3855916E-03 -0.5427413E-01  0.2077661E-02  0.2135975E+00
2844797. -0.2656958E-01  0.2204577E-01  0.2519093E-03 -0.6006657E-01 -0.3554427E-03  0.2229170E+00
2774219. -0.2578457E-01 -0.1590301E+00  0.9285175E-03 -0.6134374E-01 -0.2801910E-02  0.2162084E+00
2703641. -0.2317458E-01 -0.3055126E+00  0.1595282E-02 -0.5836454E-01 -0.5093471E-02  0.1953778E+00
2633062. -0.1917554E-01 -0.4088655E+00  0.2208144E-02 -0.5173530E-01 -0.7089731E-02  0.1634655E+00
2562484. -0.1428606E-01 -0.4662502E+00  0.2731177E-02 -0.4230428E-01 -0.8687912E-02  0.1241568E+00
2491906. -0.9007706E-02 -0.4797787E+00  0.3138704E-02 -0.3105030E-01 -0.9827501E-02  0.8130591E-01
2421328. -0.3796488E-02 -0.4553655E+00  0.3416106E-02 -0.1897546E-01 -0.1048968E-01  0.3853096E-01
2350750.  0.9722162E-03 -0.4014276E+00  0.3559552E-02 -0.7011675E-02 -0.1069291E-01 -0.1096025E-02
2280172.  0.5023943E-02 -0.3275566E+00  0.3574819E-02  0.4047903E-02 -0.1048572E-01 -0.3524690E-01
2209594.  0.8191574E-02 -0.2433646E+00  0.3475475E-02  0.1359577E-01 -0.9937835E-02 -0.6242396E-01
2139016.  0.1041012E-01 -0.1575448E+00  0.3280677E-02  0.2123155E-01 -0.9131001E-02 -0.8194830E-01
2068438.  0.1170272E-01 -0.7723277E-01  0.3012866E-02  0.2676192E-01 -0.8150332E-02 -0.9387048E-01
1997859.  0.1216108E-01 -0.7628962E-02  0.2695550E-02  0.3018135E-01 -0.7076961E-02 -0.9882761E-01
1927281.  0.1192337E-01  0.4806345E-01  0.2351422E-02  0.3163903E-01 -0.5982553E-02 -0.9787193E-01
1856703.  0.1115258E-01  0.8853555E-01  0.2000826E-02  0.3140077E-01 -0.4925581E-02 -0.9229537E-01
1786125.  0.1001713E-01  0.1140574E+00  0.1660720E-02  0.2980571E-01 -0.3949656E-02 -0.8346691E-01
1715547.  0.8675398E-02  0.1260983E+00  0.1344086E-02  0.2722594E-01 -0.3083432E-02 -0.7269793E-01
1644969.  0.7264869E-02  0.1268907E+00  0.1059762E-02  0.2403299E-01 -0.2341839E-02 -0.6114163E-01
1574391.  0.5896073E-02  0.1189964E+00  0.8125951E-03  0.2057208E-01 -0.1728211E-02 -0.4973019E-01
1503812.  0.4651202E-02  0.1049022E+00  0.6038215E-03  0.1714836E-01 -0.1236926E-02 -0.3914528E-01
1433234.  0.3587162E-02  0.8662914E-01  0.4315269E-03  0.1402886E-01 -0.8562322E-03 -0.2981647E-01
1362656.  0.2742995E-02  0.6528569E-01  0.2909483E-03  0.1146569E-01 -0.5709465E-03 -0.2193287E-01
1292078.  0.2153521E-02  0.4037297E-01  0.1743484E-03  0.9759954E-02 -0.3650787E-03 -0.1545124E-01
1221500.  0.1874059E-02  0.8335954E-02  0.6975761E-04  0.9411208E-02 -0.2245360E-03 -0.1005898E-01
1221500.  0.1874059E-02 -0.1220319E-01  0.2988613E-04 -0.9618684E-02 -0.2245360E-03 -0.1087083E-01
1183328.  0.1833621E-02  0.2676681E-01  0.9077846E-04 -0.1028715E-01 -0.1671407E-03 -0.8379887E-02
1145156.  0.1548329E-02  0.6822473E-01  0.1484100E-03 -0.8594126E-02 -0.1231141E-03 -0.6392765E-02
1106984.  0.1026417E-02  0.1045477E+00  0.1901911E-03 -0.5122966E-02 -0.8970319E-04 -0.4823034E-02
1068812.  0.3185633E-03  0.1294125E+00  0.2079653E-03 -0.7367898E-03 -0.6463479E-04 -0.3596549E-02
1030641. -0.4933912E-03  0.1388843E+00  0.1990635E-03  0.3631374E-02 -0.4604821E-04 -0.2649746E-02
 992469. -0.1312715E-02  0.1319422E+00  0.1661119E-03  0.7175996E-02 -0.3243393E-04 -0.1928270E-02
 954297. -0.2045150E-02  0.1103915E+00  0.1158101E-03  0.9360785E-02 -0.2258436E-04 -0.1386014E-02
 916125. -0.2614319E-02  0.7825056E-01  0.5708003E-04  0.9984095E-02 -0.1554525E-04 -0.9842328E-03
 877953. -0.2972209E-02  0.4079279E-01 -0.9321712E-06  0.9164263E-02 -0.1057451E-04 -0.6907143E-03
 839781. -0.3103484E-02  0.3477230E-02 -0.5056576E-04  0.7261870E-02 -0.7104986E-05 -0.4792068E-03
 801609. -0.3023629E-02 -0.2900551E-01 -0.8676489E-04  0.4765576E-02 -0.4710525E-05 -0.3287539E-03
 763438. -0.2772179E-02 -0.5340425E-01 -0.1074874E-03  0.2174234E-02 -0.3076611E-05 -0.2229536E-03
 725266. -0.2402957E-02 -0.6821062E-01 -0.1134582E-03 -0.1013371E-03 -0.1974864E-05 -0.1493100E-03
 687094. -0.1973724E-02 -0.7358772E-01 -0.1074429E-03 -0.1796323E-02 -0.1241785E-05 -0.9856765E-04
 648922. -0.1537071E-02 -0.7101751E-01 -0.9330401E-04 -0.2809073E-02 -0.7616862E-06 -0.6391166E-04
 610750. -0.1134055E-02 -0.6277569E-01 -0.7506872E-04 -0.3180214E-02 -0.4534581E-06 -0.4052626E-04
 572578. -0.7911113E-03 -0.5137680E-01 -0.5620292E-04 -0.3047901E-02 -0.2604188E-06 -0.2498516E-04
 534406. -0.5201099E-03 -0.3910295E-01 -0.3918560E-04 -0.2594606E-02 -0.1432440E-06 -0.1486781E-04
 496234. -0.3207700E-03 -0.2769024E-01 -0.2539224E-04 -0.1999248E-02 -0.7484486E-07 -0.8467365E-05
 458062. -0.1844156E-03 -0.1819788E-01 -0.1522459E-04 -0.1403869E-02 -0.3678531E-07 -0.4571283E-05
 419891. -0.9800808E-04 -0.1104034E-01 -0.8386633E-05 -0.8983178E-03 -0.1680715E-07 -0.2312015E-05
 381719. -0.4760991E-04 -0.6131113E-02 -0.4201086E-05 -0.5210958E-03 -0.7035502E-08 -0.1080626E-05
 343547. -0.2082274E-04 -0.3078582E-02 -0.1886331E-05 -0.2712445E-03 -0.2648246E-08 -0.4585895E-06
 305375. -0.8030463E-05 -0.1373278E-02 -0.7439755E-06 -0.1246621E-03 -0.8746156E-09 -0.1727486E-06
 267203. -0.2651539E-05 -0.5304744E-03 -0.2503590E-06 -0.4936036E-04 -0.2449222E-09 -0.5599664E-07
 229031. -0.7176820E-06 -0.1708103E-03 -0.6884969E-07 -0.1622033E-04 -0.5535869E-10 -0.1493184E-07
 190859. -0.1488188E-06 -0.4318757E-04 -0.1446448E-07 -0.4169302E-05 -0.9361417E-11 -0.3059410E-08
 152688. -0.2110376E-07 -0.7753473E-05 -0.2072711E-08 -0.7583295E-06 -0.1043057E-11 -0.4295453E-09
 114516. -0.1653412E-08 -0.8178391E-06 -0.1636896E-09 -0.8078164E-07 -0.6037365E-13 -0.3335515E-10
  76344. -0.4432923E-10 -0.3311536E-07 -0.4413338E-11 -0.3293613E-08 -0.1065830E-14 -0.8870339E-12
  38172. -0.8815826E-13 -0.1322464E-09 -0.8806087E-14 -0.1320678E-10 -0.1049412E-17 -0.1749731E-14
      0.  0.0000000E+00  0.0000000E+00  0.0000000E+00  0.0000000E+00  0.0000000E+00  0.0000000E+00
