       2        1 S      165       2469.72803         10.80556         13.02255        395.53040      185    7
6371000. -0.3466508E-01  0.5333839E+00  0.6419122E+00  0.6765773E+00 -0.5778702E-07  0.6537034E-01
6370000. -0.3474879E-01  0.5332214E+00  0.6418058E+00  0.6789213E+00 -0.1030096E-04  0.6514814E-01
6369000. -0.3483247E-01  0.5330582E+00  0.6416991E+00  0.6812654E+00 -0.2050924E-04  0.6492577E-01
6368000. -0.3491613E-01  0.5328944E+00  0.6415920E+00  0.6836098E+00 -0.3068261E-04  0.6470325E-01
6368000. -0.3491613E-01  0.5328944E+00  0.6415920E+00  0.6836098E+00 -0.3068261E-04  0.6470325E-01
6367000. -0.3499975E-01  0.5327300E+00  0.6414845E+00  0.6859543E+00 -0.4082104E-04  0.6448056E-01
6366000. -0.3508336E-01  0.5325649E+00  0.6413767E+00  0.6882991E+00 -0.5092450E-04  0.6425771E-01
6365000. -0.3516694E-01  0.5323992E+00  0.6412684E+00  0.6906441E+00 -0.6099297E-04  0.6403470E-01
6364000. -0.3525049E-01  0.5322329E+00  0.6411598E+00  0.6929892E+00 -0.7102642E-04  0.6381153E-01
6363000. -0.3533402E-01  0.5320659E+00  0.6410509E+00  0.6953346E+00 -0.8102483E-04  0.6358819E-01
6362000. -0.3541752E-01  0.5318983E+00  0.6409416E+00  0.6976802E+00 -0.9098817E-04  0.6336470E-01
6361000. -0.3550099E-01  0.5317299E+00  0.6408319E+00  0.7000260E+00 -0.1009164E-03  0.6314105E-01
6360000. -0.3558444E-01  0.5315610E+00  0.6407218E+00  0.7023720E+00 -0.1108096E-03  0.6291723E-01
6359000. -0.3566786E-01  0.5313914E+00  0.6406114E+00  0.7047181E+00 -0.1206675E-03  0.6269325E-01
6358000. -0.3575126E-01  0.5312212E+00  0.6405005E+00  0.7070644E+00 -0.1304904E-03  0.6246911E-01
6357000. -0.3583463E-01  0.5310504E+00  0.6403894E+00  0.7094110E+00 -0.1402780E-03  0.6224481E-01
6356000. -0.3591796E-01  0.5308788E+00  0.6402779E+00  0.7117578E+00 -0.1500304E-03  0.6202035E-01
6356000. -0.3591796E-01  0.4656461E+00  0.6402779E+00  0.6982934E+00 -0.1500304E-03  0.6983569E-01
6355000. -0.3599105E-01  0.4655926E+00  0.6401681E+00  0.6997862E+00 -0.1609706E-03  0.6956382E-01
6354000. -0.3606413E-01  0.4655387E+00  0.6400582E+00  0.7012790E+00 -0.1718680E-03  0.6929182E-01
6353000. -0.3613719E-01  0.4654845E+00  0.6399480E+00  0.7027719E+00 -0.1827228E-03  0.6901968E-01
6352000. -0.3621025E-01  0.4654299E+00  0.6398376E+00  0.7042649E+00 -0.1935349E-03  0.6874739E-01
6351000. -0.3628330E-01  0.4653750E+00  0.6397269E+00  0.7057580E+00 -0.2043042E-03  0.6847497E-01
6350000. -0.3635634E-01  0.4653198E+00  0.6396160E+00  0.7072512E+00 -0.2150307E-03  0.6820240E-01
6349000. -0.3642938E-01  0.4652642E+00  0.6395049E+00  0.7087445E+00 -0.2257144E-03  0.6792969E-01
6348000. -0.3650240E-01  0.4652083E+00  0.6393936E+00  0.7102379E+00 -0.2363553E-03  0.6765683E-01
6347000. -0.3657541E-01  0.4651520E+00  0.6392819E+00  0.7117314E+00 -0.2469534E-03  0.6738383E-01
6346600. -0.3660462E-01  0.4651294E+00  0.6392373E+00  0.7123288E+00 -0.2511806E-03  0.6727459E-01
6346600. -0.3660462E-01  0.5419345E+00  0.6392373E+00  0.7013198E+00 -0.2511806E-03  0.8003809E-01
6318800. -0.3897767E-01  0.5456933E+00  0.6361110E+00  0.7315725E+00 -0.5827137E-03  0.7190682E-01
6291000. -0.4136641E-01  0.5491213E+00  0.6328529E+00  0.7617603E+00 -0.8786102E-03  0.6370378E-01
6291000. -0.4136641E-01  0.5774615E+00  0.6328529E+00  0.7662968E+00 -0.8786102E-03  0.6370378E-01
6263000. -0.4391120E-01  0.5805635E+00  0.6294137E+00  0.7987502E+00 -0.1140958E-02  0.5567057E-01
6235000. -0.4646878E-01  0.5832734E+00  0.6258321E+00  0.8311219E+00 -0.1367829E-02  0.4755851E-01
6207000. -0.4903741E-01  0.5855779E+00  0.6221085E+00  0.8634053E+00 -0.1558868E-02  0.3936381E-01
6179000. -0.5161526E-01  0.5874614E+00  0.6182431E+00  0.8955936E+00 -0.1713704E-02  0.3108250E-01
6151000. -0.5420045E-01  0.5889105E+00  0.6142365E+00  0.9276776E+00 -0.1831947E-02  0.2271158E-01
6151000. -0.5420045E-01  0.5808311E+00  0.6142365E+00  0.8968216E+00 -0.1831947E-02  0.2571024E-01
6128500. -0.5625828E-01  0.5846374E+00  0.6110341E+00  0.9166537E+00 -0.1911517E-02  0.1934406E-01
6106000. -0.5832947E-01  0.5883897E+00  0.6077624E+00  0.9360842E+00 -0.1968528E-02  0.1293455E-01
6083500. -0.6041382E-01  0.5920925E+00  0.6044227E+00  0.9551183E+00 -0.2002825E-02  0.6481047E-02
6061000. -0.6251115E-01  0.5957446E+00  0.6010166E+00  0.9737591E+00 -0.2014254E-02 -0.1580632E-04
6038500. -0.6462130E-01  0.5993447E+00  0.5975453E+00  0.9920117E+00 -0.2002661E-02 -0.6556740E-02
6016000. -0.6674408E-01  0.6028974E+00  0.5940102E+00  0.1009881E+01 -0.1967888E-02 -0.1314250E-01
5993500. -0.6887932E-01  0.6064014E+00  0.5904127E+00  0.1027370E+01 -0.1909780E-02 -0.1977242E-01
5971000. -0.7102685E-01  0.6098557E+00  0.5867541E+00  0.1044486E+01 -0.1828176E-02 -0.2644783E-01
5971000. -0.7102685E-01  0.5971456E+00  0.5867541E+00  0.1006738E+01 -0.1828176E-02 -0.1714982E-01
5937667. -0.7415269E-01  0.5977240E+00  0.5814568E+00  0.1017949E+01 -0.1713697E-02 -0.2664183E-01
5904333. -0.7728222E-01  0.5985205E+00  0.5761051E+00  0.1027493E+01 -0.1549078E-02 -0.3631427E-01
5871000. -0.8041638E-01  0.5995303E+00  0.5707076E+00  0.1035521E+01 -0.1333387E-02 -0.4616695E-01
5837667. -0.8355636E-01  0.6007496E+00  0.5652718E+00  0.1042176E+01 -0.1065674E-02 -0.5620048E-01
5804333. -0.8670336E-01  0.6021749E+00  0.5598043E+00  0.1047584E+01 -0.7449764E-03 -0.6641752E-01
5771000. -0.8985824E-01  0.6038048E+00  0.5543117E+00  0.1051857E+01 -0.3703538E-03 -0.7681800E-01
5771000. -0.8985824E-01  0.6038791E+00  0.5543117E+00  0.1051846E+01 -0.3703538E-03 -0.7681800E-01
5701000. -0.9653745E-01  0.6119673E+00  0.5425800E+00  0.1083314E+01  0.6217032E-03 -0.1038779E+00
5701000. -0.9653745E-01  0.5685852E+00  0.5425800E+00  0.1003836E+01  0.6217032E-03 -0.7666745E-01
5667333. -0.9950233E-01  0.5570678E+00  0.5373105E+00  0.9941635E+00  0.1066769E-02 -0.9169099E-01
5633667. -0.1024611E+00  0.5643137E+00  0.5320380E+00  0.1002850E+01  0.1589501E-02 -0.1061026E+00
5600000. -0.1054630E+00  0.5715742E+00  0.5267153E+00  0.1011269E+01  0.2188549E-02 -0.1206631E+00
5600000. -0.1054630E+00  0.5715742E+00  0.5267153E+00  0.1011269E+01  0.2188549E-02 -0.1206631E+00
5563518. -0.1087585E+00  0.5795066E+00  0.5208993E+00  0.1020024E+01  0.2925089E-02 -0.1366204E+00
5527037. -0.1120995E+00  0.5874867E+00  0.5150343E+00  0.1028449E+01  0.3753566E-02 -0.1527824E+00
5490556. -0.1154864E+00  0.5955279E+00  0.5091220E+00  0.1036541E+01  0.4675179E-02 -0.1691497E+00
5454074. -0.1189196E+00  0.6036540E+00  0.5031641E+00  0.1044285E+01  0.5691107E-02 -0.1857165E+00
5417593. -0.1223995E+00  0.6118433E+00  0.4971630E+00  0.1051723E+01  0.6802499E-02 -0.2025049E+00
5381111. -0.1259266E+00  0.6201222E+00  0.4911200E+00  0.1058839E+01  0.8010682E-02 -0.2195106E+00
5344630. -0.1295012E+00  0.6284941E+00  0.4850374E+00  0.1065641E+01  0.9316839E-02 -0.2367403E+00
5308148. -0.1331242E+00  0.6369568E+00  0.4789164E+00  0.1072157E+01  0.1072238E-01 -0.2542105E+00
5271667. -0.1367958E+00  0.6455295E+00  0.4727593E+00  0.1078356E+01  0.1222859E-01 -0.2719128E+00
5235185. -0.1405170E+00  0.6542139E+00  0.4665673E+00  0.1084270E+01  0.1383691E-01 -0.2898658E+00
5198704. -0.1442881E+00  0.6630116E+00  0.4603423E+00  0.1089911E+01  0.1554874E-01 -0.3080820E+00
5162222. -0.1481101E+00  0.6719450E+00  0.4540858E+00  0.1095242E+01  0.1736565E-01 -0.3265483E+00
5125741. -0.1519835E+00  0.6810082E+00  0.4477997E+00  0.1100311E+01  0.1928904E-01 -0.3452963E+00
5089259. -0.1559093E+00  0.6902145E+00  0.4414852E+00  0.1105108E+01  0.2132065E-01 -0.3643290E+00
5052778. -0.1598881E+00  0.6995746E+00  0.4351441E+00  0.1109619E+01  0.2346200E-01 -0.3836443E+00
5016296. -0.1639211E+00  0.7090897E+00  0.4287779E+00  0.1113874E+01  0.2571489E-01 -0.4032699E+00
4979815. -0.1680089E+00  0.7187766E+00  0.4223882E+00  0.1117856E+01  0.2808097E-01 -0.4232040E+00
4943333. -0.1721529E+00  0.7286444E+00  0.4159763E+00  0.1121571E+01  0.3056218E-01 -0.4434594E+00
4906852. -0.1763538E+00  0.7386959E+00  0.4095440E+00  0.1125039E+01  0.3316030E-01 -0.4640594E+00
4870370. -0.1806128E+00  0.7489489E+00  0.4030925E+00  0.1128228E+01  0.3587740E-01 -0.4849953E+00
4833889. -0.1849311E+00  0.7594082E+00  0.3966236E+00  0.1131164E+01  0.3871533E-01 -0.5062959E+00
4797407. -0.1893101E+00  0.7700859E+00  0.3901385E+00  0.1133855E+01  0.4167642E-01 -0.5279796E+00
4760926. -0.1937507E+00  0.7809999E+00  0.3836389E+00  0.1136267E+01  0.4476265E-01 -0.5500364E+00
4724444. -0.1982546E+00  0.7921544E+00  0.3771259E+00  0.1138436E+01  0.4797643E-01 -0.5725068E+00
4687963. -0.2028230E+00  0.8035646E+00  0.3706015E+00  0.1140349E+01  0.5132001E-01 -0.5953974E+00
4651482. -0.2074575E+00  0.8152435E+00  0.3640670E+00  0.1141994E+01  0.5479586E-01 -0.6187140E+00
4615000. -0.2121597E+00  0.8272072E+00  0.3575235E+00  0.1143395E+01  0.5840664E-01 -0.6424962E+00
4578518. -0.2169314E+00  0.8394657E+00  0.3509727E+00  0.1144530E+01  0.6215494E-01 -0.6667440E+00
4542037. -0.2217740E+00  0.8520372E+00  0.3444164E+00  0.1145403E+01  0.6604336E-01 -0.6914794E+00
4505556. -0.2266895E+00  0.8649353E+00  0.3378558E+00  0.1146029E+01  0.7007492E-01 -0.7167399E+00
4469074. -0.2316800E+00  0.8781794E+00  0.3312922E+00  0.1146374E+01  0.7425270E-01 -0.7425156E+00
4432593. -0.2367472E+00  0.8917831E+00  0.3247276E+00  0.1146461E+01  0.7857955E-01 -0.7688544E+00
4396111. -0.2418935E+00  0.9057665E+00  0.3181630E+00  0.1146289E+01  0.8305904E-01 -0.7957808E+00
4359630. -0.2471209E+00  0.9201529E+00  0.3116004E+00  0.1145828E+01  0.8769422E-01 -0.8232905E+00
4323148. -0.2524320E+00  0.9349572E+00  0.3050411E+00  0.1145104E+01  0.9248890E-01 -0.8514473E+00
4286667. -0.2578290E+00  0.9501997E+00  0.2984869E+00  0.1144100E+01  0.9744655E-01 -0.8802582E+00
4250185. -0.2633147E+00  0.9659074E+00  0.2919390E+00  0.1142805E+01  0.1025712E+00 -0.9097469E+00
4213704. -0.2688916E+00  0.9821027E+00  0.2853996E+00  0.1141233E+01  0.1078667E+00 -0.9399678E+00
4177222. -0.2745628E+00  0.9988102E+00  0.2788698E+00  0.1139359E+01  0.1133375E+00 -0.9709266E+00
4140741. -0.2803311E+00  0.1016055E+01  0.2723518E+00  0.1137184E+01  0.1189876E+00 -0.1002670E+01
4104259. -0.2861999E+00  0.1033868E+01  0.2658469E+00  0.1134714E+01  0.1248220E+00 -0.1035251E+01
4067778. -0.2921723E+00  0.1052273E+01  0.2593573E+00  0.1131913E+01  0.1308452E+00 -0.1068663E+01
4031296. -0.2982519E+00  0.1071305E+01  0.2528844E+00  0.1128798E+01  0.1370625E+00 -0.1102988E+01
3994815. -0.3044423E+00  0.1091001E+01  0.2464305E+00  0.1125358E+01  0.1434789E+00 -0.1138267E+01
3958333. -0.3107475E+00  0.1111386E+01  0.2399971E+00  0.1121564E+01  0.1501002E+00 -0.1174503E+01
3921852. -0.3171715E+00  0.1132509E+01  0.2335866E+00  0.1117430E+01  0.1569317E+00 -0.1211793E+01
3885370. -0.3237187E+00  0.1154400E+01  0.2272006E+00  0.1112932E+01  0.1639801E+00 -0.1250166E+01
3848889. -0.3303934E+00  0.1177101E+01  0.2208416E+00  0.1108054E+01  0.1712512E+00 -0.1289659E+01
3812407. -0.3372007E+00  0.1200666E+01  0.2145115E+00  0.1102798E+01  0.1787521E+00 -0.1330373E+01
3775926. -0.3441453E+00  0.1225128E+01  0.2082127E+00  0.1097134E+01  0.1864895E+00 -0.1372317E+01
3739444. -0.3512329E+00  0.1250542E+01  0.2019475E+00  0.1091053E+01  0.1944709E+00 -0.1415580E+01
3702963. -0.3584687E+00  0.1276973E+01  0.1957184E+00  0.1084546E+01  0.2027039E+00 -0.1460255E+01
3666482. -0.3658588E+00  0.1304455E+01  0.1895279E+00  0.1077581E+01  0.2111968E+00 -0.1506350E+01
3630000. -0.3734097E+00  0.1333074E+01  0.1833785E+00  0.1070149E+01  0.2199582E+00 -0.1554003E+01
3630000. -0.3734097E+00  0.1333074E+01  0.1833785E+00  0.1070149E+01  0.2199582E+00 -0.1554003E+01
3592500. -0.3813456E+00  0.1363717E+01  0.1771033E+00  0.1061993E+01  0.2292533E+00 -0.1604641E+01
3555000. -0.3894658E+00  0.1395686E+01  0.1708777E+00  0.1053292E+01  0.2388516E+00 -0.1657059E+01
3517500. -0.3977783E+00  0.1429077E+01  0.1647049E+00  0.1044022E+01  0.2487642E+00 -0.1711411E+01
3480000. -0.4062917E+00  0.1463964E+01  0.1585885E+00  0.1034153E+01  0.2590024E+00 -0.1767761E+01
3480000. -0.4062917E+00  0.5437986E+00 -0.4847973E+00  0.1504484E+00  0.2590024E+00 -0.4721419E+00
3409422. -0.4121575E+00  0.5155580E+00 -0.4864239E+00  0.1433678E+00  0.2638983E+00 -0.4120480E+00
3338844. -0.4177218E+00  0.4893363E+00 -0.4879764E+00  0.1369938E+00  0.2681386E+00 -0.3537882E+00
3268266. -0.4230058E+00  0.4649143E+00 -0.4894611E+00  0.1311503E+00  0.2717434E+00 -0.2973036E+00
3197688. -0.4280284E+00  0.4421018E+00 -0.4908842E+00  0.1258534E+00  0.2747320E+00 -0.2425468E+00
3127109. -0.4328064E+00  0.4207231E+00 -0.4922512E+00  0.1210269E+00  0.2771235E+00 -0.1894750E+00
3056531. -0.4373548E+00  0.4006262E+00 -0.4935670E+00  0.1165732E+00  0.2789361E+00 -0.1380519E+00
2985953. -0.4416870E+00  0.3816742E+00 -0.4948353E+00  0.1124537E+00  0.2801881E+00 -0.8823785E-01
2915375. -0.4458149E+00  0.3637406E+00 -0.4960599E+00  0.1086811E+00  0.2808970E+00 -0.4000422E-01
2844797. -0.4497493E+00  0.3467127E+00 -0.4972443E+00  0.1051939E+00  0.2810802E+00  0.6673596E-02
2774219. -0.4534996E+00  0.3304852E+00 -0.4983913E+00  0.1019322E+00  0.2807548E+00  0.5181947E-01
2703641. -0.4570742E+00  0.3149622E+00 -0.4995036E+00  0.9893108E-01  0.2799376E+00  0.9545347E-01
2633062. -0.4604803E+00  0.3000517E+00 -0.5005842E+00  0.9617504E-01  0.2786454E+00  0.1375853E+00
2562484. -0.4637241E+00  0.2856671E+00 -0.5016351E+00  0.9356175E-01  0.2768948E+00  0.1782264E+00
2491906. -0.4668112E+00  0.2717263E+00 -0.5026579E+00  0.9114290E-01  0.2747021E+00  0.2173879E+00
2421328. -0.4697458E+00  0.2581436E+00 -0.5036553E+00  0.8896509E-01  0.2720838E+00  0.2550662E+00
2350750. -0.4725316E+00  0.2448365E+00 -0.5046296E+00  0.8694167E-01  0.2690563E+00  0.2912551E+00
2280172. -0.4751711E+00  0.2317194E+00 -0.5055822E+00  0.8509617E-01  0.2656363E+00  0.3259498E+00
2209594. -0.4776659E+00  0.2186997E+00 -0.5065157E+00  0.8345400E-01  0.2618402E+00  0.3591315E+00
2139016. -0.4800166E+00  0.2056768E+00 -0.5074322E+00  0.8205927E-01  0.2576850E+00  0.3907765E+00
2068438. -0.4822225E+00  0.1925363E+00 -0.5083348E+00  0.8092590E-01  0.2531880E+00  0.4208441E+00
1997859. -0.4842816E+00  0.1791475E+00 -0.5092261E+00  0.8005528E-01  0.2483667E+00  0.4492921E+00
1927281. -0.4861902E+00  0.1653569E+00 -0.5101099E+00  0.7956784E-01  0.2432396E+00  0.4760556E+00
1856703. -0.4879430E+00  0.1509726E+00 -0.5109906E+00  0.7951297E-01  0.2378257E+00  0.5010511E+00
1786125. -0.4895321E+00  0.1357625E+00 -0.5118734E+00  0.7995855E-01  0.2321452E+00  0.5241741E+00
1715547. -0.4909469E+00  0.1194310E+00 -0.5127648E+00  0.8110229E-01  0.2262195E+00  0.5452890E+00
1644969. -0.4921727E+00  0.1015907E+00 -0.5136734E+00  0.8309364E-01  0.2200719E+00  0.5642117E+00
1574391. -0.4931903E+00  0.8174087E-01 -0.5146097E+00  0.8615507E-01  0.2137278E+00  0.5807148E+00
1503812. -0.4939739E+00  0.5920629E-01 -0.5155876E+00  0.9064976E-01  0.2072155E+00  0.5944912E+00
1433234. -0.4944889E+00  0.3307268E-01 -0.5166251E+00  0.9701557E-01  0.2005676E+00  0.6051385E+00
1362656. -0.4946887E+00  0.2069921E-02 -0.5177465E+00  0.1059355E+00  0.1938216E+00  0.6121146E+00
1292078. -0.4945103E+00 -0.3559177E-01 -0.5189847E+00  0.1182551E+00  0.1870219E+00  0.6146859E+00
1221500. -0.4938661E+00 -0.8248118E-01 -0.5203840E+00  0.1353604E+00  0.1802225E+00  0.6118495E+00
1221500. -0.4938661E+00  0.6168990E-01 -0.5061262E+00 -0.6394533E-01  0.1802225E+00  0.8257943E+00
1183328. -0.4942290E+00  0.5945094E-01 -0.5057472E+00 -0.6253814E-01  0.1752431E+00  0.8362840E+00
1145156. -0.4945785E+00  0.5724321E-01 -0.5053769E+00 -0.6107066E-01  0.1702019E+00  0.8464502E+00
1106984. -0.4949149E+00  0.5506595E-01 -0.5050156E+00 -0.5954548E-01  0.1651008E+00  0.8562850E+00
1068812. -0.4952385E+00  0.5291752E-01 -0.5046635E+00 -0.5796513E-01  0.1599416E+00  0.8657982E+00
1030641. -0.4955491E+00  0.5079660E-01 -0.5043210E+00 -0.5633218E-01  0.1547267E+00  0.8749821E+00
 992469. -0.4958472E+00  0.4870246E-01 -0.5039886E+00 -0.5464893E-01  0.1494575E+00  0.8838360E+00
 954297. -0.4961328E+00  0.4663288E-01 -0.5036663E+00 -0.5291778E-01  0.1441363E+00  0.8923666E+00
 916125. -0.4964060E+00  0.4458791E-01 -0.5033545E+00 -0.5114102E-01  0.1387649E+00  0.9005623E+00
 877953. -0.4966671E+00  0.4256547E-01 -0.5030535E+00 -0.4932088E-01  0.1333454E+00  0.9084296E+00
 839781. -0.4969161E+00  0.4056488E-01 -0.5027636E+00 -0.4745953E-01  0.1278798E+00  0.9159681E+00
 801609. -0.4971533E+00  0.3858492E-01 -0.5024849E+00 -0.4555915E-01  0.1223700E+00  0.9231735E+00
 763438. -0.4973785E+00  0.3662445E-01 -0.5022178E+00 -0.4362181E-01  0.1168182E+00  0.9300489E+00
 725266. -0.4975922E+00  0.3468233E-01 -0.5019622E+00 -0.4164951E-01  0.1112260E+00  0.9365942E+00
 687094. -0.4977942E+00  0.3275790E-01 -0.5017187E+00 -0.3964426E-01  0.1055956E+00  0.9428011E+00
 648922. -0.4979847E+00  0.3084965E-01 -0.5014873E+00 -0.3760799E-01  0.9992900E-01  0.9486802E+00
 610750. -0.4981639E+00  0.2895689E-01 -0.5012681E+00 -0.3554268E-01  0.9422818E-01  0.9542241E+00
 572578. -0.4983317E+00  0.2707863E-01 -0.5010614E+00 -0.3345017E-01  0.8849515E-01  0.9594319E+00
 534406. -0.4984884E+00  0.2521384E-01 -0.5008674E+00 -0.3133231E-01  0.8273192E-01  0.9643069E+00
 496234. -0.4986339E+00  0.2336140E-01 -0.5006860E+00 -0.2919095E-01  0.7694048E-01  0.9688489E+00
 458062. -0.4987684E+00  0.2152056E-01 -0.5005176E+00 -0.2702786E-01  0.7112283E-01  0.9730541E+00
 419891. -0.4988918E+00  0.1969027E-01 -0.5003622E+00 -0.2484488E-01  0.6528115E-01  0.9769256E+00
 381719. -0.4990043E+00  0.1786979E-01 -0.5002199E+00 -0.2264363E-01  0.5941712E-01  0.9804596E+00
 343547. -0.4991060E+00  0.1605793E-01 -0.5000909E+00 -0.2042587E-01  0.5353292E-01  0.9836593E+00
 305375. -0.4991968E+00  0.1425404E-01 -0.4999752E+00 -0.1819333E-01  0.4763056E-01  0.9865209E+00
 267203. -0.4992768E+00  0.1245709E-01 -0.4998729E+00 -0.1594767E-01  0.4171206E-01  0.9890476E+00
 229031. -0.4993460E+00  0.1066620E-01 -0.4997841E+00 -0.1369058E-01  0.3577942E-01  0.9912397E+00
 190859. -0.4994046E+00  0.8880563E-02 -0.4997089E+00 -0.1142372E-01  0.2983466E-01  0.9930937E+00
 152688. -0.4994525E+00  0.7099328E-02 -0.4996472E+00 -0.9148788E-02  0.2387996E-01  0.9946090E+00
 114516. -0.4994897E+00  0.5321456E-02 -0.4995992E+00 -0.6867291E-02  0.1791704E-01  0.9957888E+00
  76344. -0.4995162E+00  0.3546151E-02 -0.4995649E+00 -0.4580921E-02  0.1194804E-01  0.9966353E+00
  38172. -0.4995322E+00  0.1772511E-02 -0.4995444E+00 -0.2291383E-02  0.5974950E-02  0.9971674E+00
      0. -0.4995375E+00  0.0000000E+00 -0.4995375E+00  0.0000000E+00  0.0000000E+00  0.9972670E+00
