       6        8 S      369        266.52390         17.66983          8.80800        287.00009      185    7
6371000. -0.8095877E-01 -0.3313935E+00 -0.1395078E-01  0.6700800E-01  0.2243042E-02  0.1324819E+00
6370000. -0.8090606E-01 -0.3402478E+00 -0.1396095E-01  0.6256541E-01  0.2222234E-02  0.1326484E+00
6369000. -0.8085196E-01 -0.3490644E+00 -0.1397042E-01  0.5811536E-01  0.2201400E-02  0.1328129E+00
6368000. -0.8079648E-01 -0.3578431E+00 -0.1397919E-01  0.5365805E-01  0.2180541E-02  0.1329753E+00
6368000. -0.8079648E-01 -0.3578431E+00 -0.1397919E-01  0.5365805E-01  0.2180541E-02  0.1329753E+00
6367000. -0.8073962E-01 -0.3665836E+00 -0.1398726E-01  0.4919373E-01  0.2159657E-02  0.1331357E+00
6366000. -0.8068141E-01 -0.3752857E+00 -0.1399463E-01  0.4472262E-01  0.2138747E-02  0.1332940E+00
6365000. -0.8062182E-01 -0.3839493E+00 -0.1400130E-01  0.4024495E-01  0.2117813E-02  0.1334502E+00
6364000. -0.8056088E-01 -0.3925740E+00 -0.1400726E-01  0.3576095E-01  0.2096854E-02  0.1336044E+00
6363000. -0.8049858E-01 -0.4011598E+00 -0.1401253E-01  0.3127084E-01  0.2075871E-02  0.1337565E+00
6362000. -0.8043495E-01 -0.4097064E+00 -0.1401708E-01  0.2677486E-01  0.2054865E-02  0.1339065E+00
6361000. -0.8036997E-01 -0.4182135E+00 -0.1402093E-01  0.2227325E-01  0.2033836E-02  0.1340545E+00
6360000. -0.8030366E-01 -0.4266811E+00 -0.1402407E-01  0.1776622E-01  0.2012782E-02  0.1342004E+00
6359000. -0.8023603E-01 -0.4351089E+00 -0.1402651E-01  0.1325401E-01  0.1991707E-02  0.1343442E+00
6358000. -0.8016707E-01 -0.4434966E+00 -0.1402823E-01  0.8736852E-02  0.1970609E-02  0.1344859E+00
6357000. -0.8009680E-01 -0.4518442E+00 -0.1402925E-01  0.4214978E-02  0.1949489E-02  0.1346256E+00
6356000. -0.8002523E-01 -0.4601514E+00 -0.1402956E-01 -0.3113800E-03  0.1928347E-02  0.1347631E+00
6356000. -0.8002523E-01 -0.3749214E+00 -0.1402956E-01  0.2603477E-01  0.1928347E-02  0.1521757E+00
6355000. -0.7996590E-01 -0.3811079E+00 -0.1403341E-01  0.2309483E-01  0.1904447E-02  0.1523584E+00
6354000. -0.7990559E-01 -0.3872696E+00 -0.1403681E-01  0.2015141E-01  0.1880519E-02  0.1525396E+00
6353000. -0.7984433E-01 -0.3934062E+00 -0.1403974E-01  0.1720460E-01  0.1856562E-02  0.1527193E+00
6352000. -0.7978210E-01 -0.3995179E+00 -0.1404221E-01  0.1425449E-01  0.1832577E-02  0.1528974E+00
6351000. -0.7971891E-01 -0.4056044E+00 -0.1404421E-01  0.1130120E-01  0.1808564E-02  0.1530740E+00
6350000. -0.7965477E-01 -0.4116656E+00 -0.1404575E-01  0.8344808E-02  0.1784523E-02  0.1532491E+00
6349000. -0.7958968E-01 -0.4177014E+00 -0.1404683E-01  0.5385426E-02  0.1760455E-02  0.1534226E+00
6348000. -0.7952365E-01 -0.4237118E+00 -0.1404744E-01  0.2423150E-02  0.1736361E-02  0.1535945E+00
6347000. -0.7945666E-01 -0.4296965E+00 -0.1404759E-01 -0.5419198E-03  0.1712239E-02  0.1537649E+00
6346600. -0.7942961E-01 -0.4320832E+00 -0.1404752E-01 -0.1728708E-02  0.1702583E-02  0.1538326E+00
6346600. -0.7942961E-01 -0.4270059E+00 -0.1404752E-01  0.2015446E-01  0.1702583E-02  0.1815286E+00
6318800. -0.7729962E-01 -0.5469114E+00 -0.1399942E-01 -0.4240136E-01  0.8992223E-03  0.1865329E+00
6291000. -0.7467835E-01 -0.6519483E+00 -0.1367663E-01 -0.1055446E+00  0.7608244E-04  0.1905881E+00
6291000. -0.7467835E-01 -0.6694031E+00 -0.1367663E-01 -0.1122898E+00  0.7608244E-04  0.1905881E+00
6263000. -0.7153347E-01 -0.7587671E+00 -0.1303804E-01 -0.1780582E+00 -0.7682650E-03  0.1934772E+00
6235000. -0.6803580E-01 -0.8298299E+00 -0.1211479E-01 -0.2416026E+00 -0.1623010E-02  0.1953163E+00
6207000. -0.6426698E-01 -0.8821161E+00 -0.1091964E-01 -0.3015715E+00 -0.2483498E-02  0.1960878E+00
6179000. -0.6030973E-01 -0.9156048E+00 -0.9471148E-02 -0.3566810E+00 -0.3345011E-02  0.1957824E+00
6151000. -0.5624590E-01 -0.9307232E+00 -0.7793345E-02 -0.4057370E+00 -0.4202814E-02  0.1944007E+00
6151000. -0.5624590E-01 -0.7862196E+00 -0.7793345E-02 -0.3493393E+00 -0.4202814E-02  0.1975125E+00
6128500. -0.5348961E-01 -0.7731824E+00 -0.6511901E-02 -0.3756872E+00 -0.4900608E-02  0.1975726E+00
6106000. -0.5079542E-01 -0.7511759E+00 -0.5144637E-02 -0.3979042E+00 -0.5597739E-02  0.1971391E+00
6083500. -0.4819350E-01 -0.7210827E+00 -0.3706485E-02 -0.4158046E+00 -0.6292482E-02  0.1962220E+00
6061000. -0.4571075E-01 -0.6838501E+00 -0.2212944E-02 -0.4292543E+00 -0.6983151E-02  0.1948336E+00
6038500. -0.4337060E-01 -0.6404856E+00 -0.6798818E-03 -0.4381789E+00 -0.7668102E-02  0.1929858E+00
6016000. -0.4119290E-01 -0.5920315E+00  0.8766724E-03 -0.4425583E+00 -0.8345733E-02  0.1906915E+00
5993500. -0.3919372E-01 -0.5395551E+00  0.2440701E-02 -0.4424213E+00 -0.9014497E-02  0.1879654E+00
5971000. -0.3738536E-01 -0.4841444E+00  0.3996389E-02 -0.4378527E+00 -0.9672889E-02  0.1848216E+00
5971000. -0.3738536E-01 -0.4255843E+00  0.3996389E-02 -0.3847516E+00 -0.9672889E-02  0.1897156E+00
5937667. -0.3538013E-01 -0.3414429E+00  0.5940183E-02 -0.3574095E+00 -0.1065423E-01  0.1853021E+00
5904333. -0.3380530E-01 -0.2614090E+00  0.7728344E-02 -0.3254632E+00 -0.1161080E-01  0.1802507E+00
5871000. -0.3263418E-01 -0.1874212E+00  0.9340117E-02 -0.2902102E+00 -0.1253939E-01  0.1746240E+00
5837667. -0.3183107E-01 -0.1209439E+00  0.1076140E-01 -0.2528322E+00 -0.1343717E-01  0.1684835E+00
5804333. -0.3135376E-01 -0.6302007E-01  0.1198393E-01 -0.2143862E+00 -0.1430163E-01  0.1618894E+00
5771000. -0.3115563E-01 -0.1430994E-01  0.1300452E-01 -0.1757967E+00 -0.1513052E-01  0.1549024E+00
5771000. -0.3115563E-01 -0.1425907E-01  0.1300452E-01 -0.1757894E+00 -0.1513052E-01  0.1549024E+00
5701000. -0.3128530E-01  0.3178858E-01  0.1456978E-01 -0.1082119E+00 -0.1673786E-01  0.1374196E+00
5701000. -0.3128530E-01  0.8248740E-01  0.1456978E-01 -0.7457881E-01 -0.1673786E-01  0.1462378E+00
5667333. -0.3174799E-01  0.9061754E-01  0.1486876E-01 -0.4093122E-01 -0.1748505E-01  0.1365884E+00
5633667. -0.3222531E-01  0.8871076E-01  0.1501912E-01 -0.1650785E-01 -0.1818176E-01  0.1271054E+00
5600000. -0.3267369E-01  0.7990783E-01  0.1504331E-01  0.7271968E-02 -0.1882810E-01  0.1174933E+00
5600000. -0.3267369E-01  0.7990783E-01  0.1504331E-01  0.7271968E-02 -0.1882810E-01  0.1174933E+00
5563518. -0.3308572E-01  0.6269545E-01  0.1493047E-01  0.3192230E-01 -0.1947084E-01  0.1069824E+00
5527037. -0.3337660E-01  0.3765240E-01  0.1468052E-01  0.5511000E-01 -0.2005319E-01  0.9641071E-01
5490556. -0.3350258E-01  0.5178938E-02  0.1430266E-01  0.7655954E-01 -0.2057492E-01  0.8582263E-01
5454074. -0.3342270E-01 -0.3416000E-01  0.1380752E-01  0.9602750E-01 -0.2103611E-01  0.7526373E-01
5417593. -0.3309909E-01 -0.7984647E-01  0.1320709E-01  0.1133134E+00 -0.2143699E-01  0.6477024E-01
5381111. -0.3249753E-01 -0.1310981E+00  0.1251430E-01  0.1282535E+00 -0.2177809E-01  0.5438345E-01
5344630. -0.3158853E-01 -0.1871111E+00  0.1174300E-01  0.1407247E+00 -0.2206009E-01  0.4414083E-01
5308148. -0.3034701E-01 -0.2470681E+00  0.1090752E-01  0.1506526E+00 -0.2228394E-01  0.3407424E-01
5271667. -0.2875341E-01 -0.3099368E+00  0.1002263E-01  0.1579853E+00 -0.2245073E-01  0.2422043E-01
5235185. -0.2679362E-01 -0.3748023E+00  0.9103159E-02  0.1627275E+00 -0.2256178E-01  0.1460715E-01
5198704. -0.2445902E-01 -0.4406835E+00  0.8163889E-02  0.1649161E+00 -0.2261853E-01  0.5261313E-02
5162222. -0.2174698E-01 -0.5064414E+00  0.7219261E-02  0.1646040E+00 -0.2262260E-01 -0.3788152E-02
5125741. -0.1866097E-01 -0.5711796E+00  0.6283335E-02  0.1619068E+00 -0.2257575E-01 -0.1252171E-01
5089259. -0.1520952E-01 -0.6338648E+00  0.5369364E-02  0.1569485E+00 -0.2247984E-01 -0.2091936E-01
5052778. -0.1140764E-01 -0.6934650E+00  0.4489942E-02  0.1498767E+00 -0.2233685E-01 -0.2896209E-01
5016296. -0.7275170E-02 -0.7491457E+00  0.3656597E-02  0.1408789E+00 -0.2214885E-01 -0.3663758E-01
4979815. -0.2837480E-02 -0.7999610E+00  0.2879864E-02  0.1301439E+00 -0.2191799E-01 -0.4393346E-01
4943333.  0.1875427E-02 -0.8451146E+00  0.2169055E-02  0.1178840E+00 -0.2164645E-01 -0.5084131E-01
4906852.  0.6828967E-02 -0.8839314E+00  0.1532281E-02  0.1043291E+00 -0.2133649E-01 -0.5735533E-01
4870370.  0.1198490E-01 -0.9156513E+00  0.9762963E-03  0.8969940E-01 -0.2099035E-01 -0.6347349E-01
4833889.  0.1730082E-01 -0.9397920E+00  0.5065905E-03  0.7424041E-01 -0.2061033E-01 -0.6919423E-01
4797407.  0.2273237E-01 -0.9559002E+00  0.1271972E-03  0.5818975E-01 -0.2019867E-01 -0.7452063E-01
4760926.  0.2823179E-01 -0.9635006E+00 -0.1591276E-03  0.4177669E-01 -0.1975763E-01 -0.7945991E-01
4724444.  0.3375014E-01 -0.9624364E+00 -0.3510099E-03  0.2523996E-01 -0.1928939E-01 -0.8401705E-01
4687963.  0.3923695E-01 -0.9525020E+00 -0.4483738E-03  0.8800849E-02 -0.1879614E-01 -0.8820391E-01
4651482.  0.4464117E-01 -0.9335966E+00 -0.4523885E-03 -0.7329583E-02 -0.1827994E-01 -0.9203549E-01
4615000.  0.4991188E-01 -0.9058328E+00 -0.3654138E-03 -0.2294668E-01 -0.1774278E-01 -0.9552311E-01
4578518.  0.5499839E-01 -0.8692862E+00 -0.1909210E-03 -0.3786748E-01 -0.1718657E-01 -0.9868861E-01
4542037.  0.5985090E-01 -0.8242090E+00  0.6659867E-04 -0.5192044E-01 -0.1661314E-01 -0.1015511E+00
4505556.  0.6442177E-01 -0.7709641E+00  0.4017329E-03 -0.6495316E-01 -0.1602414E-01 -0.1041289E+00
4469074.  0.6866521E-01 -0.7098783E+00  0.8082706E-03 -0.7683558E-01 -0.1542109E-01 -0.1064557E+00
4432593.  0.7253761E-01 -0.6415080E+00  0.1279262E-02 -0.8745208E-01 -0.1480541E-01 -0.1085500E+00
4396111.  0.7599909E-01 -0.5664045E+00  0.1807212E-02 -0.9671138E-01 -0.1417832E-01 -0.1104416E+00
4359630.  0.7901246E-01 -0.4851389E+00  0.2384107E-02 -0.1045420E+00 -0.1354090E-01 -0.1121698E+00
4323148.  0.8154470E-01 -0.3984479E+00  0.3001639E-02 -0.1108927E+00 -0.1289399E-01 -0.1137565E+00
4286667.  0.8356660E-01 -0.3070306E+00  0.3651205E-02 -0.1157330E+00 -0.1223831E-01 -0.1152434E+00
4250185.  0.8505329E-01 -0.2116311E+00  0.4324153E-02 -0.1190530E+00 -0.1157429E-01 -0.1166704E+00
4213704.  0.8598426E-01 -0.1130718E+00  0.5011756E-02 -0.1208610E+00 -0.1090222E-01 -0.1180695E+00
4177222.  0.8634367E-01 -0.1212569E-01  0.5705463E-02 -0.1211845E+00 -0.1022207E-01 -0.1194925E+00
4140741.  0.8612020E-01  0.9037529E-01  0.6396855E-02 -0.1200679E+00 -0.9533624E-02 -0.1209801E+00
4104259.  0.8530727E-01  0.1936157E+00  0.7077889E-02 -0.1175710E+00 -0.8836359E-02 -0.1225761E+00
4067778.  0.8390299E-01  0.2968003E+00  0.7740830E-02 -0.1137691E+00 -0.8129505E-02 -0.1243449E+00
4031296.  0.8190987E-01  0.3991357E+00  0.8378489E-02 -0.1087497E+00 -0.7411905E-02 -0.1263299E+00
3994815.  0.7933509E-01  0.4998605E+00  0.8984135E-02 -0.1026113E+00 -0.6682205E-02 -0.1285906E+00
3958333.  0.7618982E-01  0.5982470E+00  0.9551704E-02 -0.9546354E-01 -0.5938564E-02 -0.1312025E+00
3921852.  0.7248960E-01  0.6936135E+00  0.1007571E-01 -0.8742259E-01 -0.5178853E-02 -0.1342214E+00
3885370.  0.6825338E-01  0.7853196E+00  0.1055143E-01 -0.7861092E-01 -0.4400480E-02 -0.1377282E+00
3848889.  0.6350408E-01  0.8727702E+00  0.1097477E-01 -0.6915749E-01 -0.3600446E-02 -0.1418074E+00
3812407.  0.5826727E-01  0.9554642E+00  0.1134246E-01 -0.5919054E-01 -0.2775204E-02 -0.1465407E+00
3775926.  0.5257192E-01  0.1032907E+01  0.1165192E-01 -0.4884367E-01 -0.1920755E-02 -0.1520351E+00
3739444.  0.4644892E-01  0.1104721E+01  0.1190136E-01 -0.3824781E-01 -0.1032389E-02 -0.1583963E+00
3702963.  0.3993171E-01  0.1170600E+01  0.1208972E-01 -0.2753107E-01 -0.1048694E-03 -0.1657409E+00
3666482.  0.3305503E-01  0.1230246E+01  0.1221667E-01 -0.1682216E-01  0.8678630E-03 -0.1742122E+00
3630000.  0.2585477E-01  0.1283530E+01  0.1228262E-01 -0.6241587E-02  0.1892697E-02 -0.1839551E+00
3630000.  0.2585477E-01  0.1283530E+01  0.1228262E-01 -0.6241587E-02  0.1892697E-02 -0.1839551E+00
3592500.  0.1815531E-01  0.1331519E+01  0.1228795E-01  0.4376124E-02  0.3008578E-02 -0.1954772E+00
3555000.  0.1019371E-01  0.1372615E+01  0.1223185E-01  0.1461224E-01  0.4197274E-02 -0.2087331E+00
3517500.  0.2010232E-02  0.1406926E+01  0.1211690E-01  0.2435642E-01  0.5469662E-02 -0.2239565E+00
3480000. -0.6355478E-02  0.1434563E+01  0.1194630E-01  0.3350592E-01  0.6838097E-02 -0.2414165E+00
3480000. -0.6355478E-02  0.3752778E+00 -0.6136290E-02 -0.2920691E-03  0.6838097E-02 -0.2211496E+00
3409422. -0.1016657E-01  0.3125595E+00 -0.6092119E-02 -0.7540097E-02  0.8939764E-02 -0.1596633E+00
3338844. -0.1328039E-01  0.2497849E+00 -0.5972521E-02 -0.1389856E-01  0.1040594E-01 -0.1063887E+00
3268266. -0.1570854E-01  0.1890862E+00 -0.5787665E-02 -0.1931511E-01  0.1132627E-01 -0.6105952E-01
3197688. -0.1748362E-01  0.1321179E+00 -0.5548126E-02 -0.2377115E-01  0.1178665E-01 -0.2327301E-01
3127109. -0.1865401E-01  0.8008051E-01 -0.5264487E-02 -0.2728032E-01  0.1186789E-01  0.7480667E-02
3056531. -0.1927915E-01  0.3378593E-01 -0.4947054E-02 -0.2988136E-01  0.1164471E-01  0.3178879E-01
2985953. -0.1942553E-01 -0.6302208E-02 -0.4605577E-02 -0.3163199E-01  0.1118501E-01  0.5029259E-01
2915375. -0.1916310E-01 -0.4001300E-01 -0.4249092E-02 -0.3260399E-01  0.1054940E-01  0.6366062E-01
2844797. -0.1856233E-01 -0.6741326E-01 -0.3885772E-02 -0.3288023E-01  0.9791015E-02  0.7256837E-01
2774219. -0.1769185E-01 -0.8876361E-01 -0.3522838E-02 -0.3254961E-01  0.8955583E-02  0.7768012E-01
2703641. -0.1661653E-01 -0.1044695E+00 -0.3166508E-02 -0.3170282E-01  0.8081590E-02  0.7963364E-01
2633062. -0.1539617E-01 -0.1150413E+00 -0.2821994E-02 -0.3043085E-01  0.7200650E-02  0.7902808E-01
2562484. -0.1408448E-01 -0.1210591E+00 -0.2493519E-02 -0.2882254E-01  0.6338034E-02  0.7641548E-01
2491906. -0.1272852E-01 -0.1231396E+00 -0.2184337E-02 -0.2696088E-01  0.5513151E-02  0.7229415E-01
2421328. -0.1136842E-01 -0.1219110E+00 -0.1896823E-02 -0.2492291E-01  0.4740220E-02  0.6710467E-01
2350750. -0.1003740E-01 -0.1179886E+00 -0.1632534E-02 -0.2277909E-01  0.4028907E-02  0.6122873E-01
2280172. -0.8762032E-02 -0.1119598E+00 -0.1392290E-02 -0.2059129E-01  0.3384969E-02  0.5498959E-01
2209594. -0.7562580E-02 -0.1043691E+00 -0.1176276E-02 -0.1841308E-01  0.2810907E-02  0.4865363E-01
2139016. -0.6453573E-02 -0.9570833E-01 -0.9841266E-03 -0.1628963E-01  0.2306564E-02  0.4243384E-01
2068438. -0.5444413E-02 -0.8640972E-01 -0.8150229E-03 -0.1425800E-01  0.1869703E-02  0.3649385E-01
1997859. -0.4540051E-02 -0.7684177E-01 -0.6677757E-03 -0.1234753E-01  0.1496522E-02  0.3095298E-01
1927281. -0.3741762E-02 -0.6730659E-01 -0.5409188E-03 -0.1058036E-01  0.1182128E-02  0.2589166E-01
1856703. -0.3047809E-02 -0.5803863E-01 -0.4327676E-03 -0.8972680E-02  0.9209187E-03  0.2135655E-01
1786125. -0.2454255E-02 -0.4920223E-01 -0.3414885E-03 -0.7535891E-02  0.7069370E-03  0.1736637E-01
1715547. -0.1955746E-02 -0.4088782E-01 -0.2651403E-03 -0.6278329E-02  0.5341494E-03  0.1391714E-01
1644969. -0.1546382E-02 -0.3310115E-01 -0.2016944E-03 -0.5208091E-02  0.3966698E-03  0.1098707E-01
1574391. -0.1220769E-02 -0.2573924E-01 -0.1490150E-03 -0.4337193E-02  0.2889315E-03  0.8540932E-02
1503812. -0.9754694E-03 -0.1853947E-01 -0.1047795E-03 -0.3688964E-02  0.2058147E-03  0.6533519E-02
1433234. -0.8113028E-03 -0.1097256E-01 -0.6628615E-04 -0.3311955E-02  0.1427480E-03  0.4911885E-02
1362656. -0.7373820E-03 -0.2015294E-02 -0.3003757E-04 -0.3307259E-02  0.9578648E-04  0.3614926E-02
1292078. -0.7789565E-03  0.1033815E-01  0.9116285E-05 -0.3885763E-02  0.6172722E-04  0.2568534E-02
1221500. -0.9935093E-03  0.3016430E-01  0.5979614E-04 -0.5493275E-02  0.3832347E-04  0.1670253E-02
1221500. -0.9935093E-03  0.1090071E-01  0.1590172E-04  0.5264804E-02  0.3832347E-04  0.2100646E-02
1183328. -0.1032308E-02  0.2360475E-02 -0.1133328E-04  0.3858179E-02  0.2740742E-04  0.1565829E-02
1145156. -0.1025412E-02 -0.4370505E-02 -0.3071898E-04  0.2645537E-02  0.1931653E-04  0.1153111E-02
1106984. -0.9832907E-03 -0.9422613E-02 -0.4342606E-04  0.1628569E-02  0.1339513E-04  0.8379270E-03
1068812. -0.9155280E-03 -0.1295903E-01 -0.5061580E-04  0.8025432E-03  0.9121576E-05  0.5999922E-03
1030641. -0.8306578E-03 -0.1516649E-01 -0.5340357E-04  0.1570362E-03  0.6084736E-05  0.4226236E-03
 992469. -0.7360407E-03 -0.1624596E-01 -0.5282773E-04 -0.3231175E-03  0.3963716E-05  0.2922310E-03
 954297. -0.6378216E-03 -0.1640307E-01 -0.4982457E-04 -0.6565476E-03  0.2511121E-05  0.1978675E-03
 916125. -0.5409175E-03 -0.1583998E-01 -0.4521137E-04 -0.8641739E-03  0.1538383E-05  0.1307536E-03
 877953. -0.4490639E-03 -0.1474785E-01 -0.3967608E-04 -0.9680422E-03  0.9038150E-06  0.8396595E-04
 839781. -0.3648992E-03 -0.1330076E-01 -0.3377451E-04 -0.9900349E-03  0.5025372E-06  0.5208749E-04
 801609. -0.2900811E-03 -0.1165140E-01 -0.2793386E-04 -0.9510568E-03  0.2582981E-06  0.3093960E-04
 763438. -0.2254263E-03 -0.9928065E-02 -0.2246166E-04 -0.8700737E-03  0.1167503E-06  0.1735430E-04
 725266. -0.1710545E-03 -0.8233299E-02 -0.1755830E-04 -0.7636655E-03  0.4001749E-07  0.8965272E-05
 687094. -0.1265529E-03 -0.6644155E-02 -0.1333364E-04 -0.6455662E-03  0.2442468E-08  0.4039981E-05
 648922. -0.9111864E-04 -0.5213523E-02 -0.9823912E-05 -0.5265826E-03 -0.1281969E-07  0.1345547E-05
 610750. -0.6369866E-04 -0.3972485E-02 -0.7009294E-05 -0.4146216E-03 -0.1639376E-07  0.2084444E-07
 572578. -0.4311137E-04 -0.2933455E-02 -0.4830821E-05 -0.3148987E-03 -0.1463466E-07 -0.5119165E-06
 534406. -0.2814780E-04 -0.2093772E-02 -0.3205515E-05 -0.2302761E-03 -0.1108570E-07 -0.6251763E-06
 496234. -0.1765071E-04 -0.1439463E-02 -0.2039275E-05 -0.1616789E-03 -0.7517926E-08 -0.5468688E-06
 458062. -0.1057120E-04 -0.9489222E-03 -0.1237124E-05 -0.1085512E-03 -0.4651626E-08 -0.4063843E-06
 419891. -0.6004209E-05 -0.5963170E-03 -0.7107211E-06 -0.6931237E-04 -0.2639301E-08 -0.2688693E-06
 381719. -0.3204452E-05 -0.3544747E-03 -0.3831630E-06 -0.4177883E-04 -0.1369392E-08 -0.1607494E-06
 343547. -0.1587619E-05 -0.1972868E-03 -0.1915303E-06 -0.2353463E-04 -0.6438529E-09 -0.8687338E-07
 305375. -0.7182261E-06 -0.1013731E-03 -0.8732255E-07 -0.1221960E-04 -0.2700753E-09 -0.4205560E-07
 267203. -0.2898826E-06 -0.4714804E-04 -0.3548151E-07 -0.5734125E-05 -0.9864029E-10 -0.1790215E-07
 229031. -0.1008905E-06 -0.1927930E-04 -0.1241972E-07 -0.2362446E-05 -0.3022082E-10 -0.6496216E-08
 190859. -0.2872176E-07 -0.6624840E-05 -0.3552551E-08 -0.8168646E-06 -0.7320609E-11 -0.1910501E-08
 152688. -0.6121894E-08 -0.1773408E-05 -0.7601238E-09 -0.2197629E-06 -0.1268249E-11 -0.4174185E-09
 114516. -0.8274772E-09 -0.3207719E-06 -0.1030480E-09 -0.3990306E-07 -0.1300505E-12 -0.5744262E-10
  76344. -0.4886322E-10 -0.2848595E-07 -0.6097826E-11 -0.3553165E-08 -0.5158381E-14 -0.3432694E-11
  38172. -0.3837747E-12 -0.4481394E-09 -0.4795189E-13 -0.5598748E-10 -0.2033637E-16 -0.2712810E-13
      0.  0.0000000E+00  0.0000000E+00  0.0000000E+00  0.0000000E+00  0.0000000E+00  0.0000000E+00
