       2        3 S      167        803.54248         14.23346          6.09264        407.97821      185    7
6371000. -0.1478418E+00  0.6071767E+00  0.1038631E+00  0.2517049E+00 -0.6493864E-02  0.3047705E+00
6370000. -0.1479369E+00  0.6051601E+00  0.1038233E+00  0.2553304E+00 -0.6541688E-02  0.3046014E+00
6369000. -0.1480318E+00  0.6031370E+00  0.1037829E+00  0.2589549E+00 -0.6589485E-02  0.3044318E+00
6368000. -0.1481263E+00  0.6011074E+00  0.1037420E+00  0.2625785E+00 -0.6637256E-02  0.3042617E+00
6368000. -0.1481263E+00  0.6011074E+00  0.1037420E+00  0.2625785E+00 -0.6637256E-02  0.3042617E+00
6367000. -0.1482205E+00  0.5990714E+00  0.1037005E+00  0.2662009E+00 -0.6684999E-02  0.3040910E+00
6366000. -0.1483143E+00  0.5970291E+00  0.1036584E+00  0.2698222E+00 -0.6732717E-02  0.3039199E+00
6365000. -0.1484079E+00  0.5949802E+00  0.1036158E+00  0.2734425E+00 -0.6780407E-02  0.3037482E+00
6364000. -0.1485011E+00  0.5929250E+00  0.1035726E+00  0.2770617E+00 -0.6828070E-02  0.3035759E+00
6363000. -0.1485940E+00  0.5908633E+00  0.1035288E+00  0.2806796E+00 -0.6875706E-02  0.3034032E+00
6362000. -0.1486866E+00  0.5887952E+00  0.1034845E+00  0.2842965E+00 -0.6923315E-02  0.3032299E+00
6361000. -0.1487789E+00  0.5867207E+00  0.1034396E+00  0.2879121E+00 -0.6970897E-02  0.3030561E+00
6360000. -0.1488708E+00  0.5846397E+00  0.1033941E+00  0.2915266E+00 -0.7018451E-02  0.3028817E+00
6359000. -0.1489624E+00  0.5825524E+00  0.1033480E+00  0.2951398E+00 -0.7065978E-02  0.3027069E+00
6358000. -0.1490537E+00  0.5804586E+00  0.1033014E+00  0.2987518E+00 -0.7113478E-02  0.3025315E+00
6357000. -0.1491446E+00  0.5783584E+00  0.1032543E+00  0.3023625E+00 -0.7160950E-02  0.3023556E+00
6356000. -0.1492352E+00  0.5762518E+00  0.1032065E+00  0.3059720E+00 -0.7208393E-02  0.3021791E+00
6356000. -0.1492352E+00  0.5112841E+00  0.1032065E+00  0.2849885E+00 -0.7208393E-02  0.3346510E+00
6355000. -0.1493154E+00  0.5098240E+00  0.1031616E+00  0.2872658E+00 -0.7260904E-02  0.3344299E+00
6354000. -0.1493953E+00  0.5083601E+00  0.1031163E+00  0.2895423E+00 -0.7313379E-02  0.3342084E+00
6353000. -0.1494749E+00  0.5068923E+00  0.1030707E+00  0.2918180E+00 -0.7365819E-02  0.3339866E+00
6352000. -0.1495544E+00  0.5054204E+00  0.1030247E+00  0.2940928E+00 -0.7418225E-02  0.3337644E+00
6351000. -0.1496336E+00  0.5039446E+00  0.1029784E+00  0.2963667E+00 -0.7470595E-02  0.3335418E+00
6350000. -0.1497126E+00  0.5024649E+00  0.1029317E+00  0.2986398E+00 -0.7522931E-02  0.3333188E+00
6349000. -0.1497913E+00  0.5009812E+00  0.1028846E+00  0.3009121E+00 -0.7575231E-02  0.3330954E+00
6348000. -0.1498699E+00  0.4994936E+00  0.1028372E+00  0.3031834E+00 -0.7627497E-02  0.3328716E+00
6347000. -0.1499481E+00  0.4980021E+00  0.1027895E+00  0.3054539E+00 -0.7679727E-02  0.3326475E+00
6346600. -0.1499794E+00  0.4974043E+00  0.1027702E+00  0.3063618E+00 -0.7700610E-02  0.3325577E+00
6346600. -0.1499794E+00  0.5958436E+00  0.1027702E+00  0.2892611E+00 -0.7700610E-02  0.3848533E+00
6318800. -0.1525221E+00  0.5691154E+00  0.1014092E+00  0.3344329E+00 -0.9365298E-02  0.3781179E+00
6291000. -0.1549417E+00  0.5393902E+00  0.9985273E-01  0.3788504E+00 -0.1100019E-01  0.3711943E+00
6291000. -0.1549417E+00  0.5649897E+00  0.9985273E-01  0.3847373E+00 -0.1100019E-01  0.3711943E+00
6263000. -0.1573512E+00  0.5309721E+00  0.9805913E-01  0.4313175E+00 -0.1261647E-01  0.3642965E+00
6235000. -0.1596039E+00  0.4936365E+00  0.9606306E-01  0.4768544E+00 -0.1420199E-01  0.3571912E+00
6207000. -0.1616852E+00  0.4529476E+00  0.9386935E-01  0.5212376E+00 -0.1575581E-01  0.3498709E+00
6179000. -0.1635802E+00  0.4088760E+00  0.9148332E-01  0.5643595E+00 -0.1727697E-01  0.3423279E+00
6151000. -0.1652742E+00  0.3614071E+00  0.8891074E-01  0.6061114E+00 -0.1876448E-01  0.3345575E+00
6151000. -0.1652742E+00  0.4042729E+00  0.8891074E-01  0.5624490E+00 -0.1876448E-01  0.3437014E+00
6128500. -0.1666562E+00  0.3783285E+00  0.8688017E-01  0.5872762E+00 -0.1997085E-01  0.3394684E+00
6106000. -0.1679453E+00  0.3516765E+00  0.8476412E-01  0.6108556E+00 -0.2116216E-01  0.3351770E+00
6083500. -0.1691391E+00  0.3243484E+00  0.8256701E-01  0.6331822E+00 -0.2233822E-01  0.3308301E+00
6061000. -0.1702352E+00  0.2963709E+00  0.8029328E-01  0.6542498E+00 -0.2349884E-01  0.3264343E+00
6038500. -0.1712314E+00  0.2677691E+00  0.7794736E-01  0.6740572E+00 -0.2464386E-01  0.3219926E+00
6016000. -0.1721256E+00  0.2385757E+00  0.7553373E-01  0.6926055E+00 -0.2577310E-01  0.3175077E+00
5993500. -0.1729156E+00  0.2088193E+00  0.7305679E-01  0.7098939E+00 -0.2688645E-01  0.3129864E+00
5971000. -0.1735997E+00  0.1785247E+00  0.7052103E-01  0.7259284E+00 -0.2798377E-01  0.3084301E+00
5971000. -0.1735997E+00  0.2024886E+00  0.7052103E-01  0.6746508E+00 -0.2798377E-01  0.3311558E+00
5937667. -0.1745650E+00  0.1666771E+00  0.6697780E-01  0.6792793E+00 -0.2970551E-01  0.3270024E+00
5904333. -0.1753458E+00  0.1318970E+00  0.6341811E-01  0.6809622E+00 -0.3140556E-01  0.3228498E+00
5871000. -0.1759472E+00  0.9815866E-01  0.5985668E-01  0.6800309E+00 -0.3308390E-01  0.3187236E+00
5837667. -0.1763749E+00  0.6546389E-01  0.5630631E-01  0.6767878E+00 -0.3474077E-01  0.3146486E+00
5804333. -0.1766342E+00  0.3380658E-01  0.5277823E-01  0.6715105E+00 -0.3637655E-01  0.3106451E+00
5771000. -0.1767306E+00  0.3186201E-02  0.4928264E-01  0.6644469E+00 -0.3799157E-01  0.3067369E+00
5771000. -0.1767306E+00  0.3234676E-02  0.4928264E-01  0.6644334E+00 -0.3799157E-01  0.3067369E+00
5701000. -0.1762711E+00 -0.8724310E-01  0.4192116E-01  0.6744213E+00 -0.4126682E-01  0.2894702E+00
5701000. -0.1762711E+00 -0.2906874E-01  0.4192116E-01  0.5826603E+00 -0.4126682E-01  0.3391547E+00
5667333. -0.1760535E+00 -0.5426473E-01  0.3891142E-01  0.5607735E+00 -0.4303683E-01  0.3310729E+00
5633667. -0.1756852E+00 -0.8578642E-01  0.3595428E-01  0.5600139E+00 -0.4476920E-01  0.3247496E+00
5600000. -0.1751475E+00 -0.1176107E+00  0.3299802E-01  0.5583528E+00 -0.4646886E-01  0.3185124E+00
5600000. -0.1751475E+00 -0.1176107E+00  0.3299802E-01  0.5583528E+00 -0.4646886E-01  0.3185124E+00
5563518. -0.1743748E+00 -0.1522985E+00  0.2980838E-01  0.5555167E+00 -0.4827372E-01  0.3118869E+00
5527037. -0.1734027E+00 -0.1872518E+00  0.2663795E-01  0.5516821E+00 -0.5004093E-01  0.3053844E+00
5490556. -0.1722299E+00 -0.2224109E+00  0.2349226E-01  0.5468722E+00 -0.5177131E-01  0.2990240E+00
5454074. -0.1708553E+00 -0.2576817E+00  0.2037682E-01  0.5410989E+00 -0.5346580E-01  0.2928356E+00
5417593. -0.1692784E+00 -0.2931161E+00  0.1729709E-01  0.5344325E+00 -0.5512526E-01  0.2868055E+00
5381111. -0.1674983E+00 -0.3286211E+00  0.1425799E-01  0.5268866E+00 -0.5675076E-01  0.2809613E+00
5344630. -0.1655148E+00 -0.3641641E+00  0.1126461E-01  0.5184984E+00 -0.5834331E-01  0.2753132E+00
5308148. -0.1633276E+00 -0.3997634E+00  0.8321451E-02  0.5093220E+00 -0.5990411E-01  0.2698606E+00
5271667. -0.1609367E+00 -0.4353025E+00  0.5433173E-02  0.4993621E+00 -0.6143429E-01  0.2646337E+00
5235185. -0.1583424E+00 -0.4708045E+00  0.2603962E-02  0.4886754E+00 -0.6293522E-01  0.2596316E+00
5198704. -0.1555449E+00 -0.5062581E+00 -0.1620152E-03  0.4773035E+00 -0.6440812E-01  0.2548593E+00
5162222. -0.1525449E+00 -0.5415305E+00 -0.2860969E-02  0.4652461E+00 -0.6585448E-01  0.2503529E+00
5125741. -0.1493433E+00 -0.5766923E+00 -0.5489018E-02  0.4525735E+00 -0.6727573E-01  0.2460992E+00
5089259. -0.1459408E+00 -0.6116839E+00 -0.8042873E-02  0.4393083E+00 -0.6867341E-01  0.2421166E+00
5052778. -0.1423386E+00 -0.6464255E+00 -0.1051904E-01  0.4254704E+00 -0.7004910E-01  0.2384278E+00
5016296. -0.1385380E+00 -0.6809629E+00 -0.1291453E-01  0.4111137E+00 -0.7140452E-01  0.2350293E+00
4979815. -0.1345406E+00 -0.7152082E+00 -0.1522631E-01  0.3962565E+00 -0.7274134E-01  0.2319433E+00
4943333. -0.1303479E+00 -0.7491428E+00 -0.1745171E-01  0.3809332E+00 -0.7406145E-01  0.2291818E+00
4906852. -0.1259617E+00 -0.7827873E+00 -0.1958809E-01  0.3651878E+00 -0.7536663E-01  0.2267475E+00
4870370. -0.1213840E+00 -0.8160244E+00 -0.2163318E-01  0.3490290E+00 -0.7665893E-01  0.2246697E+00
4833889. -0.1166171E+00 -0.8488944E+00 -0.2358461E-01  0.3325050E+00 -0.7794032E-01  0.2229503E+00
4797407. -0.1116629E+00 -0.8813852E+00 -0.2544051E-01  0.3156468E+00 -0.7921293E-01  0.2216002E+00
4760926. -0.1065242E+00 -0.9133773E+00 -0.2719889E-01  0.2984670E+00 -0.8047892E-01  0.2206480E+00
4724444. -0.1012034E+00 -0.9449461E+00 -0.2885814E-01  0.2810123E+00 -0.8174063E-01  0.2200945E+00
4687963. -0.9570336E-01 -0.9760299E+00 -0.3041667E-01  0.2633047E+00 -0.8300032E-01  0.2199589E+00
4651482. -0.9002688E-01 -0.1006568E+01 -0.3187311E-01  0.2453653E+00 -0.8426049E-01  0.2202629E+00
4615000. -0.8417678E-01 -0.1036614E+01 -0.3322631E-01  0.2272328E+00 -0.8552370E-01  0.2210132E+00
4578518. -0.7815626E-01 -0.1066079E+01 -0.3447516E-01  0.2089227E+00 -0.8679254E-01  0.2222342E+00
4542037. -0.7196888E-01 -0.1094960E+01 -0.3561869E-01  0.1904645E+00 -0.8806974E-01  0.2239428E+00
4505556. -0.6561770E-01 -0.1123284E+01 -0.3665618E-01  0.1718872E+00 -0.8935814E-01  0.2261520E+00
4469074. -0.5910606E-01 -0.1150934E+01 -0.3758699E-01  0.1532019E+00 -0.9066073E-01  0.2288916E+00
4432593. -0.5243807E-01 -0.1177971E+01 -0.3841056E-01  0.1344422E+00 -0.9198052E-01  0.2321753E+00
4396111. -0.4561682E-01 -0.1204378E+01 -0.3912657E-01  0.1156275E+00 -0.9332076E-01  0.2360251E+00
4359630. -0.3864666E-01 -0.1230048E+01 -0.3973469E-01  0.9677181E-01 -0.9468471E-01  0.2404700E+00
4323148. -0.3153120E-01 -0.1255071E+01 -0.4023481E-01  0.7790276E-01 -0.9607588E-01  0.2455287E+00
4286667. -0.2427464E-01 -0.1279379E+01 -0.4062687E-01  0.5903482E-01 -0.9749782E-01  0.2512295E+00
4250185. -0.1688088E-01 -0.1302929E+01 -0.4091093E-01  0.4018314E-01 -0.9895434E-01  0.2576016E+00
4213704. -0.9354469E-02 -0.1325781E+01 -0.4108714E-01  0.2136938E-01 -0.1004493E+00  0.2646720E+00
4177222. -0.1699235E-02 -0.1347839E+01 -0.4115574E-01  0.2601932E-02 -0.1019869E+00  0.2724738E+00
4140741.  0.6079835E-02 -0.1369120E+01 -0.4111706E-01 -0.1610230E-01 -0.1035712E+00  0.2810403E+00
4104259.  0.1397889E-01 -0.1389658E+01 -0.4097148E-01 -0.3473102E-01 -0.1052070E+00  0.2904074E+00
4067778.  0.2199283E-01 -0.1409317E+01 -0.4071946E-01 -0.5327761E-01 -0.1068987E+00  0.3006115E+00
4031296.  0.3011726E-01 -0.1428188E+01 -0.4036151E-01 -0.7172924E-01 -0.1086514E+00  0.3116970E+00
3994815.  0.3834728E-01 -0.1446252E+01 -0.3989819E-01 -0.9007914E-01 -0.1104701E+00  0.3237067E+00
3958333.  0.4667830E-01 -0.1463388E+01 -0.3933009E-01 -0.1083252E+00 -0.1123604E+00  0.3366837E+00
3921852.  0.5510484E-01 -0.1479704E+01 -0.3865783E-01 -0.1264589E+00 -0.1143279E+00  0.3506851E+00
3885370.  0.6362252E-01 -0.1495120E+01 -0.3788204E-01 -0.1444820E+00 -0.1163786E+00  0.3657618E+00
3848889.  0.7222551E-01 -0.1509594E+01 -0.3700339E-01 -0.1623931E+00 -0.1185189E+00  0.3819695E+00
3812407.  0.8090913E-01 -0.1523192E+01 -0.3602247E-01 -0.1801948E+00 -0.1207554E+00  0.3993803E+00
3775926.  0.8966756E-01 -0.1535789E+01 -0.3493994E-01 -0.1978923E+00 -0.1230951E+00  0.4180502E+00
3739444.  0.9849552E-01 -0.1547414E+01 -0.3375632E-01 -0.2154920E+00 -0.1255456E+00  0.4380597E+00
3702963.  0.1073872E+00 -0.1558095E+01 -0.3247222E-01 -0.2330034E+00 -0.1281147E+00  0.4594941E+00
3666482.  0.1163368E+00 -0.1567676E+01 -0.3108806E-01 -0.2504402E+00 -0.1308107E+00  0.4824206E+00
3630000.  0.1253387E+00 -0.1576243E+01 -0.2960420E-01 -0.2678172E+00 -0.1336426E+00  0.5069513E+00
3630000.  0.1253387E+00 -0.1576243E+01 -0.2960420E-01 -0.2678172E+00 -0.1336426E+00  0.5069513E+00
3592500.  0.1346394E+00 -0.1583855E+01 -0.2797536E-01 -0.2856366E+00 -0.1367050E+00  0.5339265E+00
3555000.  0.1439814E+00 -0.1590233E+01 -0.2624170E-01 -0.3034354E+00 -0.1399318E+00  0.5628058E+00
3517500.  0.1533573E+00 -0.1595427E+01 -0.2440328E-01 -0.3212422E+00 -0.1433344E+00  0.5937372E+00
3480000.  0.1627601E+00 -0.1599309E+01 -0.2245993E-01 -0.3390910E+00 -0.1469255E+00  0.6268448E+00
3480000.  0.1627601E+00 -0.4287955E+00  0.9133383E-01  0.1291894E+00 -0.1469255E+00  0.1078210E+00
3409422.  0.1669410E+00 -0.3272139E+00  0.8982454E-01  0.1430522E+00 -0.1476368E+00  0.2188560E-01
3338844.  0.1700353E+00 -0.2325309E+00  0.8816937E-01  0.1555551E+00 -0.1474387E+00 -0.5638623E-01
3268266.  0.1721170E+00 -0.1443411E+00  0.8638279E-01  0.1667762E+00 -0.1464148E+00 -0.1272612E+00
3197688.  0.1732559E+00 -0.6226286E-01  0.8447890E-01  0.1767460E+00 -0.1446455E+00 -0.1910120E+00
3127109.  0.1735176E+00  0.1409019E-01  0.8247124E-01  0.1855108E+00 -0.1422080E+00 -0.2479178E+00
3056531.  0.1729635E+00  0.8508479E-01  0.8037297E-01  0.1931149E+00 -0.1391768E+00 -0.2982602E+00
2985953.  0.1716509E+00  0.1510882E+00  0.7819676E-01  0.1995840E+00 -0.1356229E+00 -0.3423291E+00
2915375.  0.1696330E+00  0.2124716E+00  0.7595515E-01  0.2049269E+00 -0.1316142E+00 -0.3804131E+00
2844797.  0.1669590E+00  0.2696086E+00  0.7366050E-01  0.2091587E+00 -0.1272155E+00 -0.4128029E+00
2774219.  0.1636738E+00  0.3228911E+00  0.7132510E-01  0.2122838E+00 -0.1224881E+00 -0.4397908E+00
2703641.  0.1598178E+00  0.3727327E+00  0.6896131E-01  0.2142777E+00 -0.1174903E+00 -0.4616694E+00
2633062.  0.1554265E+00  0.4195838E+00  0.6658182E-01  0.2151111E+00 -0.1122771E+00 -0.4787285E+00
2562484.  0.1505306E+00  0.4639466E+00  0.6419968E-01  0.2147506E+00 -0.1069003E+00 -0.4912592E+00
2491906.  0.1451544E+00  0.5063936E+00  0.6182851E-01  0.2131142E+00 -0.1014084E+00 -0.4995527E+00
2421328.  0.1393155E+00  0.5475997E+00  0.5948303E-01  0.2100931E+00 -0.9584676E-01 -0.5038955E+00
2350750.  0.1330234E+00  0.5883698E+00  0.5717925E-01  0.2055601E+00 -0.9025759E-01 -0.5045738E+00
2280172.  0.1262776E+00  0.6296936E+00  0.5493492E-01  0.1993213E+00 -0.8467988E-01 -0.5018741E+00
2209594.  0.1190653E+00  0.6728109E+00  0.5277034E-01  0.1911163E+00 -0.7914948E-01 -0.4960807E+00
2139016.  0.1113584E+00  0.7193034E+00  0.5070909E-01  0.1805928E+00 -0.7369909E-01 -0.4874777E+00
2068438.  0.1031085E+00  0.7712237E+00  0.4877940E-01  0.1672803E+00 -0.6835824E-01 -0.4763492E+00
1997859.  0.9424107E-01  0.8312809E+00  0.4701543E-01  0.1505403E+00 -0.6315327E-01 -0.4629840E+00
1927281.  0.8464721E-01  0.9030973E+00  0.4545989E-01  0.1294861E+00 -0.5810746E-01 -0.4476758E+00
1856703.  0.7417061E-01  0.9916046E+00  0.4416688E-01  0.1029069E+00 -0.5324061E-01 -0.4307279E+00
1786125.  0.6259080E-01  0.1103597E+01  0.4320643E-01  0.6911426E-01 -0.4856912E-01 -0.4124610E+00
1715547.  0.4959792E-01  0.1248588E+01  0.4267092E-01  0.2571658E-01 -0.4410571E-01 -0.3932224E+00
1644969.  0.3475598E-01  0.1440102E+01  0.4268450E-01 -0.3068770E-01 -0.3985904E-01 -0.3733998E+00
1574391.  0.1744821E-01  0.1697662E+01  0.4341679E-01 -0.1050271E+00 -0.3583315E-01 -0.3534468E+00
1503812. -0.3205867E-02  0.2049958E+01  0.4510411E-01 -0.2045599E+00 -0.3202648E-01 -0.3339157E+00
1433234. -0.2847649E-01  0.2539883E+01  0.4808146E-01 -0.3401374E+00 -0.2843070E-01 -0.3155164E+00
1362656. -0.6022515E-01  0.3232899E+01  0.5283338E-01 -0.5283291E+00 -0.2502823E-01 -0.2992043E+00
1292078. -0.1012242E+00  0.4231037E+01  0.6007486E-01 -0.7949344E+00 -0.2178891E-01 -0.2863293E+00
1221500. -0.1556838E+00  0.5697154E+01  0.7088449E-01 -0.1181132E+01 -0.1866440E-01 -0.2788815E+00
1221500. -0.1556838E+00  0.2385421E+00 -0.1511093E-01  0.7331888E+00 -0.1866440E-01 -0.2114386E+00
1183328. -0.1565159E+00  0.4120087E-01 -0.1918168E-01  0.6262824E+00 -0.1740246E-01 -0.2095869E+00
1145156. -0.1562021E+00 -0.1438664E+00 -0.2262381E-01  0.5234331E+00 -0.1615538E-01 -0.2064966E+00
1106984. -0.1548175E+00 -0.3161753E+00 -0.2546300E-01  0.4250892E+00 -0.1493025E-01 -0.2022788E+00
1068812. -0.1524397E+00 -0.4753126E+00 -0.2772748E-01  0.3316561E+00 -0.1373351E-01 -0.1970374E+00
1030641. -0.1491488E+00 -0.6209362E+00 -0.2944774E-01  0.2434955E+00 -0.1257100E-01 -0.1908808E+00
 992469. -0.1450265E+00 -0.7527887E+00 -0.3065640E-01  0.1609175E+00 -0.1144783E-01 -0.1839134E+00
 954297. -0.1401559E+00 -0.8706705E+00 -0.3138770E-01  0.8419478E-01 -0.1036857E-01 -0.1762362E+00
 916125. -0.1346212E+00 -0.9744618E+00 -0.3167744E-01  0.1355404E-01 -0.9337187E-02 -0.1679531E+00
 877953. -0.1285070E+00 -0.1064111E+01 -0.3156260E-01 -0.5083303E-01 -0.8356999E-02 -0.1591614E+00
 839781. -0.1218980E+00 -0.1139634E+01 -0.3108107E-01 -0.1088251E+00 -0.7430769E-02 -0.1499580E+00
 801609. -0.1148786E+00 -0.1201119E+01 -0.3027145E-01 -0.1603429E+00 -0.6560675E-02 -0.1404381E+00
 763438. -0.1075327E+00 -0.1248711E+01 -0.2917273E-01 -0.2053312E+00 -0.5748361E-02 -0.1306933E+00
 725266. -0.9994260E-01 -0.1282631E+01 -0.2782398E-01 -0.2438003E+00 -0.4994864E-02 -0.1208121E+00
 687094. -0.9218954E-01 -0.1303151E+01 -0.2626420E-01 -0.2757818E+00 -0.4300757E-02 -0.1108827E+00
 648922. -0.8435284E-01 -0.1310609E+01 -0.2453204E-01 -0.3013591E+00 -0.3666085E-02 -0.1009860E+00
 610750. -0.7650962E-01 -0.1305399E+01 -0.2266552E-01 -0.3206545E+00 -0.3090407E-02 -0.9120331E-01
 572578. -0.6873446E-01 -0.1287970E+01 -0.2070183E-01 -0.3338274E+00 -0.2572810E-02 -0.8161090E-01
 534406. -0.6109910E-01 -0.1258821E+01 -0.1867707E-01 -0.3410726E+00 -0.2111934E-02 -0.7228105E-01
 496234. -0.5367215E-01 -0.1218504E+01 -0.1662609E-01 -0.3426207E+00 -0.1705999E-02 -0.6328269E-01
 458062. -0.4651873E-01 -0.1167615E+01 -0.1458226E-01 -0.3387356E+00 -0.1352821E-02 -0.5468121E-01
 419891. -0.3970048E-01 -0.1106797E+01 -0.1257731E-01 -0.3297113E+00 -0.1049845E-02 -0.4653725E-01
 381719. -0.3327452E-01 -0.1036727E+01 -0.1064096E-01 -0.3158719E+00 -0.7941434E-03 -0.3890726E-01
 343547. -0.2729431E-01 -0.9581257E+00 -0.8801111E-02 -0.2975629E+00 -0.5824863E-03 -0.3184325E-01
 305375. -0.2180873E-01 -0.8717498E+00 -0.7083397E-02 -0.2751666E+00 -0.4113376E-03 -0.2539299E-01
 267203. -0.1686202E-01 -0.7783811E+00 -0.5511148E-02 -0.2490738E+00 -0.2768892E-03 -0.1959920E-01
 229031. -0.1249365E-01 -0.6788357E+00 -0.4105258E-02 -0.2197073E+00 -0.1750916E-03 -0.1449997E-01
 190859. -0.8738149E-02 -0.5739474E+00 -0.2884053E-02 -0.1874984E+00 -0.1016810E-03 -0.1012863E-01
 152688. -0.5625021E-02 -0.4645810E+00 -0.1863246E-02 -0.1528994E+00 -0.5221032E-04 -0.6513443E-02
 114516. -0.3178332E-02 -0.3516069E+00 -0.1055721E-02 -0.1163735E+00 -0.2207502E-04 -0.3677396E-02
  76344. -0.1417120E-02 -0.2359156E+00 -0.4716376E-03 -0.7839300E-01 -0.6551051E-05 -0.1638705E-02
  38172. -0.3549652E-03 -0.1184100E+00 -0.1182744E-03 -0.3943843E-01 -0.8196558E-06 -0.4103091E-03
      0.  0.0000000E+00  0.0000000E+00  0.0000000E+00  0.0000000E+00  0.0000000E+00  0.0000000E+00
