      18       13 S      678         99.38448         29.83562          6.42971        282.72751      185    7
6371000.  0.4390120E-02  0.2454624E+00  0.3480463E-02 -0.9096566E-03  0.0000000E+00  0.0000000E+00
6370000.  0.4351335E-02  0.2486979E+00  0.3479942E-02  0.7550167E-02  0.0000000E+00  0.0000000E+00
6369000.  0.4312058E-02  0.2517367E+00  0.3478093E-02  0.1601084E-01  0.0000000E+00  0.0000000E+00
6368000.  0.4272319E-02  0.2545784E+00  0.3474916E-02  0.2446909E-01  0.0000000E+00  0.0000000E+00
6368000.  0.4272319E-02  0.2545784E+00  0.3474916E-02  0.2446909E-01  0.0000000E+00  0.0000000E+00
6367000.  0.4232151E-02  0.2572227E+00  0.3470412E-02  0.3292166E-01  0.0000000E+00  0.0000000E+00
6366000.  0.4191582E-02  0.2596692E+00  0.3464581E-02  0.4136528E-01  0.0000000E+00  0.0000000E+00
6365000.  0.4150645E-02  0.2619179E+00  0.3457427E-02  0.4979671E-01  0.0000000E+00  0.0000000E+00
6364000.  0.4109370E-02  0.2639686E+00  0.3448950E-02  0.5821267E-01  0.0000000E+00  0.0000000E+00
6363000.  0.4067789E-02  0.2658213E+00  0.3439153E-02  0.6660992E-01  0.0000000E+00  0.0000000E+00
6362000.  0.4025933E-02  0.2674762E+00  0.3428041E-02  0.7498521E-01  0.0000000E+00  0.0000000E+00
6361000.  0.3983833E-02  0.2689334E+00  0.3415615E-02  0.8333531E-01  0.0000000E+00  0.0000000E+00
6360000.  0.3941519E-02  0.2701932E+00  0.3401881E-02  0.9165698E-01  0.0000000E+00  0.0000000E+00
6359000.  0.3899024E-02  0.2712559E+00  0.3386843E-02  0.9994701E-01  0.0000000E+00  0.0000000E+00
6358000.  0.3856376E-02  0.2721221E+00  0.3370507E-02  0.1082022E+00  0.0000000E+00  0.0000000E+00
6357000.  0.3813609E-02  0.2727921E+00  0.3352879E-02  0.1164193E+00  0.0000000E+00  0.0000000E+00
6356000.  0.3770751E-02  0.2732666E+00  0.3333963E-02  0.1245952E+00  0.0000000E+00  0.0000000E+00
6356000.  0.3770751E-02  0.2308671E+00  0.3333963E-02  0.7503157E-01  0.0000000E+00  0.0000000E+00
6355000.  0.3734464E-02  0.2314783E+00  0.3321761E-02  0.8043935E-01  0.0000000E+00  0.0000000E+00
6354000.  0.3698091E-02  0.2319657E+00  0.3308712E-02  0.8582880E-01  0.0000000E+00  0.0000000E+00
6353000.  0.3661651E-02  0.2323298E+00  0.3294819E-02  0.9119850E-01  0.0000000E+00  0.0000000E+00
6352000.  0.3625164E-02  0.2325707E+00  0.3280084E-02  0.9654707E-01  0.0000000E+00  0.0000000E+00
6351000.  0.3588649E-02  0.2326889E+00  0.3264511E-02  0.1018731E+00  0.0000000E+00  0.0000000E+00
6350000.  0.3552124E-02  0.2326846E+00  0.3248105E-02  0.1071753E+00  0.0000000E+00  0.0000000E+00
6349000.  0.3515610E-02  0.2325584E+00  0.3230868E-02  0.1124522E+00  0.0000000E+00  0.0000000E+00
6348000.  0.3479125E-02  0.2323105E+00  0.3212805E-02  0.1177024E+00  0.0000000E+00  0.0000000E+00
6347000.  0.3442689E-02  0.2319416E+00  0.3193920E-02  0.1229247E+00  0.0000000E+00  0.0000000E+00
6346600.  0.3428132E-02  0.2317602E+00  0.3186137E-02  0.1250055E+00  0.0000000E+00  0.0000000E+00
6346600.  0.3428132E-02  0.2507685E+00  0.3186137E-02  0.8431749E-01  0.0000000E+00  0.0000000E+00
6318800.  0.2399303E-02  0.2090757E+00  0.2586665E-02  0.1870355E+00  0.0000000E+00  0.0000000E+00
6291000.  0.1695199E-02  0.1047484E+00  0.1594461E-02  0.2619910E+00  0.0000000E+00  0.0000000E+00
6291000.  0.1695199E-02  0.1081010E+00  0.1594461E-02  0.2706199E+00  0.0000000E+00  0.0000000E+00
6263000.  0.1545080E-02 -0.4432325E-01  0.3081383E-03  0.3069471E+00  0.0000000E+00  0.0000000E+00
6235000.  0.2098739E-02 -0.2061509E+00 -0.1032335E-02  0.2949242E+00  0.0000000E+00  0.0000000E+00
6207000.  0.3317062E-02 -0.3407474E+00 -0.2215767E-02  0.2364437E+00  0.0000000E+00  0.0000000E+00
6179000.  0.5004326E-02 -0.4145487E+00 -0.3055902E-02  0.1408026E+00  0.0000000E+00  0.0000000E+00
6151000.  0.6835349E-02 -0.4031399E+00 -0.3421040E-02  0.2319147E-01  0.0000000E+00  0.0000000E+00
6151000.  0.6835349E-02 -0.3774393E+00 -0.3421040E-02  0.1911808E-01  0.0000000E+00  0.0000000E+00
6128500.  0.8068330E-02 -0.3125494E+00 -0.3333967E-02 -0.6780998E-01  0.0000000E+00  0.0000000E+00
6106000.  0.8986961E-02 -0.2003339E+00 -0.2951018E-02 -0.1471768E+00  0.0000000E+00  0.0000000E+00
6083500.  0.9436567E-02 -0.4859578E-01 -0.2311628E-02 -0.2119758E+00  0.0000000E+00  0.0000000E+00
6061000.  0.9297448E-02  0.1308190E+00 -0.1477496E-02 -0.2566939E+00  0.0000000E+00  0.0000000E+00
6038500.  0.8497301E-02  0.3231201E+00 -0.5264642E-03 -0.2777601E+00  0.0000000E+00  0.0000000E+00
6016000.  0.7019295E-02  0.5119210E+00  0.4548454E-03 -0.2738002E+00  0.0000000E+00  0.0000000E+00
5993500.  0.4905125E-02  0.6807148E+00  0.1378937E-02 -0.2456847E+00  0.0000000E+00  0.0000000E+00
5971000.  0.2252813E-02  0.8143446E+00  0.2165173E-02 -0.1963865E+00  0.0000000E+00  0.0000000E+00
5971000.  0.2252813E-02  0.7499013E+00  0.2165173E-02 -0.1747616E+00  0.0000000E+00  0.0000000E+00
5937667. -0.1918926E-02  0.8266510E+00  0.2836704E-02 -0.7947217E-01  0.0000000E+00  0.0000000E+00
5904333. -0.6203825E-02  0.7929644E+00  0.2987356E-02  0.2128262E-01  0.0000000E+00  0.0000000E+00
5871000. -0.1003683E-01  0.6566182E+00  0.2634279E-02  0.1105622E+00  0.0000000E+00  0.0000000E+00
5837667. -0.1293434E-01  0.4400749E+00  0.1872853E-02  0.1757070E+00  0.0000000E+00  0.0000000E+00
5804333. -0.1455766E-01  0.1753648E+00  0.8506043E-03  0.2095328E+00  0.0000000E+00  0.0000000E+00
5771000. -0.1474815E-01 -0.1016134E+00 -0.2620426E-03  0.2104492E+00  0.0000000E+00  0.0000000E+00
5771000. -0.1474815E-01 -0.1016157E+00 -0.2620426E-03  0.2104428E+00  0.0000000E+00  0.0000000E+00
5701000. -0.1067597E-01 -0.6086387E+00 -0.2247798E-02  0.1318113E+00  0.0000000E+00  0.0000000E+00
5701000. -0.1067597E-01 -0.5233050E+00 -0.2247798E-02  0.1062336E+00  0.0000000E+00  0.0000000E+00
5667333. -0.7629659E-02 -0.6220428E+00 -0.2645719E-02  0.4521321E-01  0.0000000E+00  0.0000000E+00
5633667. -0.4172690E-02 -0.6773909E+00 -0.2728592E-02 -0.1403682E-01  0.0000000E+00  0.0000000E+00
5600000. -0.5953199E-03 -0.6648490E+00 -0.2499955E-02 -0.7162268E-01  0.0000000E+00  0.0000000E+00
5600000. -0.5953199E-03 -0.6648490E+00 -0.2499955E-02 -0.7162268E-01  0.0000000E+00  0.0000000E+00
5563518.  0.2998843E-02 -0.5787444E+00 -0.1931354E-02 -0.1248019E+00  0.0000000E+00  0.0000000E+00
5527037.  0.5913112E-02 -0.4302807E+00 -0.1101334E-02 -0.1619970E+00  0.0000000E+00  0.0000000E+00
5490556.  0.7846124E-02 -0.2398856E+00 -0.1152785E-03 -0.1787706E+00  0.0000000E+00  0.0000000E+00
5454074.  0.8627953E-02 -0.3258386E-01  0.9034015E-03 -0.1733168E+00  0.0000000E+00  0.0000000E+00
5417593.  0.8237761E-02  0.1651193E+00  0.1828925E-02 -0.1466311E+00  0.0000000E+00  0.0000000E+00
5381111.  0.6802564E-02  0.3286136E+00  0.2548729E-02 -0.1022334E+00  0.0000000E+00  0.0000000E+00
5344630.  0.4578127E-02  0.4380224E+00  0.2976504E-02 -0.4570400E-01  0.0000000E+00  0.0000000E+00
5308148.  0.1914403E-02  0.4805677E+00  0.3062100E-02  0.1607147E-01  0.0000000E+00  0.0000000E+00
5271667. -0.7889306E-03  0.4519018E+00  0.2796485E-02  0.7574960E-01  0.0000000E+00  0.0000000E+00
5235185. -0.3133029E-02  0.3565383E+00  0.2211869E-02  0.1264126E+00  0.0000000E+00  0.0000000E+00
5198704. -0.4768513E-02  0.2071301E+00  0.1376985E-02  0.1623516E+00  0.0000000E+00  0.0000000E+00
5162222. -0.5438273E-02  0.2285310E-01  0.3882546E-03  0.1796671E+00  0.0000000E+00  0.0000000E+00
5125741. -0.5008273E-02 -0.1728869E+00 -0.6417856E-03  0.1767096E+00  0.0000000E+00  0.0000000E+00
5089259. -0.3483840E-02 -0.3552962E+00 -0.1597911E-02  0.1541397E+00  0.0000000E+00  0.0000000E+00
5052778. -0.1009675E-02 -0.5010044E+00 -0.2374936E-02  0.1148060E+00  0.0000000E+00  0.0000000E+00
5016296.  0.2146745E-02 -0.5908376E+00 -0.2889542E-02  0.6337640E-01  0.0000000E+00  0.0000000E+00
4979815.  0.5624952E-02 -0.6118953E+00 -0.3088865E-02  0.5738729E-02  0.0000000E+00  0.0000000E+00
4943333.  0.9012723E-02 -0.5590572E+00 -0.2955710E-02 -0.5166861E-01  0.0000000E+00  0.0000000E+00
4906852.  0.1189198E-01 -0.4355334E+00 -0.2509599E-02 -0.1025787E+00  0.0000000E+00  0.0000000E+00
4870370.  0.1388644E-01 -0.2524667E+00 -0.1803782E-02 -0.1415690E+00  0.0000000E+00  0.0000000E+00
4833889.  0.1470358E-01 -0.2779455E-01 -0.9188188E-03 -0.1646322E+00  0.0000000E+00  0.0000000E+00
4797407.  0.1416848E-01  0.2157720E+00  0.4690727E-04 -0.1695603E+00  0.0000000E+00  0.0000000E+00
4760926.  0.1224451E-01  0.4530663E+00  0.9878384E-03 -0.1561104E+00  0.0000000E+00  0.0000000E+00
4724444.  0.9039328E-02  0.6592697E+00  0.1802869E-02 -0.1260203E+00  0.0000000E+00  0.0000000E+00
4687963.  0.4796061E-02  0.8123784E+00  0.2405793E-02 -0.8273046E-01  0.0000000E+00  0.0000000E+00
4651482. -0.1301849E-03  0.8955545E+00  0.2734149E-02 -0.3099750E-01  0.0000000E+00  0.0000000E+00
4615000. -0.5307263E-02  0.8989291E+00  0.2755248E-02  0.2362932E-01  0.0000000E+00  0.0000000E+00
4578518. -0.1026836E-01  0.8204663E+00  0.2468999E-02  0.7540651E-01  0.0000000E+00  0.0000000E+00
4542037. -0.1455854E-01  0.6663288E+00  0.1907384E-02  0.1189834E+00  0.0000000E+00  0.0000000E+00
4505556. -0.1778052E-01  0.4501986E+00  0.1130535E-02  0.1499474E+00  0.0000000E+00  0.0000000E+00
4469074. -0.1963349E-01  0.1918708E+00  0.2201879E-03  0.1652203E+00  0.0000000E+00  0.0000000E+00
4432593. -0.1994323E-01 -0.8456233E-01 -0.7288311E-03  0.1633688E+00  0.0000000E+00  0.0000000E+00
4396111. -0.1867991E-01 -0.3532150E+00 -0.1618531E-02  0.1446824E+00  0.0000000E+00  0.0000000E+00
4359630. -0.1596147E-01 -0.5887977E+00 -0.2357270E-02  0.1111047E+00  0.0000000E+00  0.0000000E+00
4323148. -0.1204254E-01 -0.7691687E+00 -0.2868925E-02  0.6602827E-01  0.0000000E+00  0.0000000E+00
4286667. -0.7291010E-02 -0.8773373E+00 -0.3099967E-02  0.1390616E-01  0.0000000E+00  0.0000000E+00
4250185. -0.2152761E-02 -0.9031323E+00 -0.3024403E-02 -0.4019052E-01  0.0000000E+00  0.0000000E+00
4213704.  0.2889643E-02 -0.8441769E+00 -0.2645860E-02 -0.9107076E-01  0.0000000E+00  0.0000000E+00
4177222.  0.7363232E-02 -0.7059801E+00 -0.1996802E-02 -0.1339219E+00  0.0000000E+00  0.0000000E+00
4140741.  0.1084790E-01 -0.5015423E+00 -0.1135160E-02 -0.1647540E+00  0.0000000E+00  0.0000000E+00
4104259.  0.1301690E-01 -0.2500402E+00 -0.1383545E-03 -0.1807644E+00  0.0000000E+00  0.0000000E+00
4067778.  0.1366649E-01  0.2494344E-01  0.9039241E-03 -0.1805376E+00  0.0000000E+00  0.0000000E+00
4031296.  0.1273576E-01  0.2975551E+00  0.1898379E-02 -0.1641972E+00  0.0000000E+00  0.0000000E+00
3994815.  0.1031262E-01  0.5420692E+00  0.2756538E-02 -0.1333165E+00  0.0000000E+00  0.0000000E+00
3958333.  0.6626184E-02  0.7352051E+00  0.3402780E-02 -0.9074433E-01  0.0000000E+00  0.0000000E+00
3921852.  0.2027097E-02  0.8582304E+00  0.3780823E-02 -0.4035504E-01  0.0000000E+00  0.0000000E+00
3885370. -0.3044294E-02  0.8986170E+00  0.3858557E-02  0.1336847E-01  0.0000000E+00  0.0000000E+00
3848889. -0.8095914E-02  0.8511561E+00  0.3630375E-02  0.6571265E-01  0.0000000E+00  0.0000000E+00
3812407. -0.1262874E-01  0.7184440E+00  0.3117247E-02  0.1121770E+00  0.0000000E+00  0.0000000E+00
3775926. -0.1617991E-01  0.5106088E+00  0.2364460E-02  0.1488387E+00  0.0000000E+00  0.0000000E+00
3739444. -0.1836472E-01  0.2444752E+00  0.1437191E-02  0.1727030E+00  0.0000000E+00  0.0000000E+00
3702963. -0.1891034E-01 -0.5789011E-01  0.4146247E-03  0.1819279E+00  0.0000000E+00  0.0000000E+00
3666482. -0.1768106E-01 -0.3710518E+00 -0.6171396E-03  0.1759296E+00  0.0000000E+00  0.0000000E+00
3630000. -0.1469115E-01 -0.6684007E+00 -0.1572461E-02  0.1554454E+00  0.0000000E+00  0.0000000E+00
3630000. -0.1469115E-01 -0.6684007E+00 -0.1572461E-02  0.1554454E+00  0.0000000E+00  0.0000000E+00
3592500. -0.9957444E-02 -0.9305872E+00 -0.2392779E-02  0.1213106E+00  0.0000000E+00  0.0000000E+00
3555000. -0.3870356E-02 -0.1124627E+01 -0.2980702E-02  0.7709198E-01  0.0000000E+00  0.0000000E+00
3517500.  0.3110947E-02 -0.1231884E+01 -0.3288366E-02  0.2679732E-01  0.0000000E+00  0.0000000E+00
3480000.  0.1043802E-01 -0.1240867E+01 -0.3292941E-02 -0.2513791E-01  0.0000000E+00  0.0000000E+00
3480000.  0.1043802E-01 -0.9434195E+00  0.8900214E-03  0.1746425E-01  0.0000000E+00  0.0000000E+00
3409422.  0.1924857E-01 -0.6217371E+00  0.5951249E-03  0.3484964E-01  0.0000000E+00  0.0000000E+00
3338844.  0.2382801E-01 -0.1959472E+00  0.1441192E-03  0.4519134E-01  0.0000000E+00  0.0000000E+00
3268266.  0.2356704E-01  0.2365707E+00 -0.3731726E-03  0.4666954E-01  0.0000000E+00  0.0000000E+00
3197688.  0.1887146E-01  0.5928994E+00 -0.8570498E-03  0.3930803E-01  0.0000000E+00  0.0000000E+00
3127109.  0.1091892E-01  0.8181251E+00 -0.1217286E-02  0.2472534E-01  0.0000000E+00  0.0000000E+00
3056531.  0.1313844E-02  0.8903329E+00 -0.1388148E-02  0.5629804E-02  0.0000000E+00  0.0000000E+00
2985953. -0.8271425E-02  0.8181959E+00 -0.1337114E-02 -0.1479876E-01  0.0000000E+00  0.0000000E+00
2915375. -0.1639646E-01  0.6333863E+00 -0.1066709E-02 -0.3350336E-01  0.0000000E+00  0.0000000E+00
2844797. -0.2205315E-01  0.3805296E+00 -0.6103776E-03 -0.4802348E-01  0.0000000E+00  0.0000000E+00
2774219. -0.2475218E-01  0.1070842E+00 -0.2407713E-04 -0.5678815E-01  0.0000000E+00  0.0000000E+00
2703641. -0.2450600E-01 -0.1449983E+00  0.6243089E-03 -0.5921661E-01  0.0000000E+00  0.0000000E+00
2633062. -0.2173418E-01 -0.3448358E+00  0.1265701E-02 -0.5564801E-01  0.0000000E+00  0.0000000E+00
2562484. -0.1712442E-01 -0.4750839E+00  0.1838977E-02 -0.4714458E-01  0.0000000E+00  0.0000000E+00
2491906. -0.1148150E-01 -0.5316941E+00  0.2297604E-02 -0.3522569E-01  0.0000000E+00  0.0000000E+00
2421328. -0.5591439E-02 -0.5216014E+00  0.2613095E-02 -0.2158600E-01  0.0000000E+00  0.0000000E+00
2350750. -0.1182176E-03 -0.4592749E+00  0.2775513E-02 -0.7842178E-02  0.0000000E+00  0.0000000E+00
2280172.  0.4458524E-02 -0.3629040E+00  0.2791490E-02  0.4657005E-02  0.0000000E+00  0.0000000E+00
2209594.  0.7865149E-02 -0.2509755E+00  0.2680543E-02  0.1494717E-01  0.0000000E+00  0.0000000E+00
2139016.  0.1002179E-01 -0.1396284E+00  0.2470520E-02  0.2248878E-01  0.0000000E+00  0.0000000E+00
2068438.  0.1100642E-01 -0.4103223E-01  0.2192982E-02  0.2714359E-01  0.0000000E+00  0.0000000E+00
1997859.  0.1100635E-01  0.3727715E-01  0.1879101E-02  0.2910364E-01  0.0000000E+00  0.0000000E+00
1927281.  0.1026743E-01  0.9217408E-01  0.1556555E-02  0.2879356E-01  0.0000000E+00  0.0000000E+00
1856703.  0.9048894E-02  0.1242041E+00  0.1247489E-02  0.2676805E-01  0.0000000E+00  0.0000000E+00
1786125.  0.7588676E-02  0.1364805E+00  0.9676358E-03  0.2361622E-01  0.0000000E+00  0.0000000E+00
1715547.  0.6081202E-02  0.1335583E+00  0.7263718E-03  0.1988602E-01  0.0000000E+00  0.0000000E+00
1644969.  0.4667235E-02  0.1204198E+00  0.5274772E-03  0.1603361E-01  0.0000000E+00  0.0000000E+00
1574391.  0.3433667E-02  0.1017046E+00  0.3703195E-03  0.1239675E-01  0.0000000E+00  0.0000000E+00
1503812.  0.2420202E-02  0.8123517E-01  0.2512118E-03  0.9189637E-02  0.0000000E+00  0.0000000E+00
1433234.  0.1629761E-02  0.6182851E-01  0.1647417E-03  0.6512849E-02  0.0000000E+00  0.0000000E+00
1362656.  0.1039373E-02  0.4536701E-01  0.1049334E-03  0.4369384E-02  0.0000000E+00  0.0000000E+00
1292078.  0.6090088E-03  0.3313082E-01  0.6625809E-04  0.2676593E-02  0.0000000E+00  0.0000000E+00
1221500.  0.2847536E-03  0.2651577E-01  0.4461707E-04  0.1252802E-02  0.0000000E+00  0.0000000E+00
1221500.  0.2847536E-03 -0.5219438E-01 -0.5101233E-04 -0.1751261E-02  0.0000000E+00  0.0000000E+00
1183328.  0.5641486E-03 -0.3843231E-01 -0.3262946E-04 -0.4202879E-02  0.0000000E+00  0.0000000E+00
1145156.  0.7187999E-03 -0.1152797E-01 -0.3372040E-05 -0.5307485E-02  0.0000000E+00  0.0000000E+00
1106984.  0.6904719E-03  0.2125256E-01  0.2787119E-04 -0.4876602E-02  0.0000000E+00  0.0000000E+00
1068812.  0.4694615E-03  0.5140728E-01  0.5254337E-04 -0.3194410E-02  0.0000000E+00  0.0000000E+00
1030641.  0.9438132E-04  0.7169638E-01  0.6484737E-04 -0.8633886E-03  0.0000000E+00  0.0000000E+00
 992469. -0.3614680E-03  0.7799365E-01  0.6298294E-04  0.1424697E-02  0.0000000E+00  0.0000000E+00
 954297. -0.8114791E-03  0.7001261E-01  0.4900724E-04  0.3104613E-02  0.0000000E+00  0.0000000E+00
 916125. -0.1177996E-02  0.5086492E-01  0.2761580E-04  0.3875204E-02  0.0000000E+00  0.0000000E+00
 877953. -0.1409069E-02  0.2575681E-01  0.4413891E-05  0.3730445E-02  0.0000000E+00  0.0000000E+00
 839781. -0.1486113E-02  0.3469783E-03 -0.1570386E-04  0.2897225E-02  0.0000000E+00  0.0000000E+00
 801609. -0.1422063E-02 -0.2070467E-01 -0.2961612E-04  0.1719473E-02  0.0000000E+00  0.0000000E+00
 763438. -0.1252386E-02 -0.3463133E-01 -0.3630612E-04  0.5374692E-03  0.0000000E+00  0.0000000E+00
 725266. -0.1022747E-02 -0.4077055E-01 -0.3655104E-04 -0.4011922E-03  0.0000000E+00  0.0000000E+00
 687094. -0.7773213E-03 -0.4018749E-01 -0.3222691E-04 -0.9791022E-03  0.0000000E+00  0.0000000E+00
 648922. -0.5504524E-03 -0.3496685E-01 -0.2553678E-04 -0.1199786E-02  0.0000000E+00  0.0000000E+00
 610750. -0.3628777E-03 -0.2744612E-01 -0.1839691E-04 -0.1147318E-02  0.0000000E+00  0.0000000E+00
 572578. -0.2221314E-03 -0.1961711E-01 -0.1210262E-04 -0.9369616E-03  0.0000000E+00  0.0000000E+00
 534406. -0.1257230E-03 -0.1280535E-01 -0.7270853E-05 -0.6744528E-03  0.0000000E+00  0.0000000E+00
 496234. -0.6538898E-04 -0.7623965E-02 -0.3975748E-05 -0.4330325E-03  0.0000000E+00  0.0000000E+00
 458062. -0.3099126E-04 -0.4120253E-02 -0.1965989E-05 -0.2485406E-03  0.0000000E+00  0.0000000E+00
 419891. -0.1323615E-04 -0.2004686E-02 -0.8705908E-06 -0.1269996E-03  0.0000000E+00  0.0000000E+00
 381719. -0.5018256E-05 -0.8673816E-03 -0.3404390E-06 -0.5721885E-04  0.0000000E+00  0.0000000E+00
 343547. -0.1655224E-05 -0.3279881E-03 -0.1152997E-06 -0.2237711E-04  0.0000000E+00  0.0000000E+00
 305375. -0.4619708E-06 -0.1057538E-03 -0.3291355E-07 -0.7420525E-05  0.0000000E+00  0.0000000E+00
 267203. -0.1048931E-06 -0.2806333E-04 -0.7617124E-08 -0.2015682E-05  0.0000000E+00  0.0000000E+00
 229031. -0.1828440E-07 -0.5814699E-05 -0.1349138E-08 -0.4257777E-06  0.0000000E+00  0.0000000E+00
 190859. -0.2235802E-08 -0.8663740E-06 -0.1671490E-09 -0.6444179E-07  0.0000000E+00  0.0000000E+00
 152688. -0.1648348E-09 -0.8082092E-07 -0.1245280E-10 -0.6086623E-08  0.0000000E+00  0.0000000E+00
 114516. -0.5512928E-11 -0.3637734E-08 -0.4198274E-12 -0.2765484E-09  0.0000000E+00  0.0000000E+00
  76344. -0.4416420E-13 -0.4399789E-10 -0.3382131E-14 -0.3366868E-11  0.0000000E+00  0.0000000E+00
  38172.  0.0000000E+00  0.0000000E+00  0.0000000E+00  0.0000000E+00  0.0000000E+00  0.0000000E+00
      0.  0.0000000E+00  0.0000000E+00  0.0000000E+00  0.0000000E+00  0.0000000E+00  0.0000000E+00
