      11       10 S      538        147.99260         25.76074          7.54926        331.02060      185    7
6371000. -0.4676177E-01  0.2654295E+00  0.5288114E-02  0.5204989E-01 -0.1945783E-03  0.9032213E-01
6370000. -0.4680215E-01  0.2489984E+00  0.5279492E-02  0.5781316E-01 -0.2087482E-03  0.9023034E-01
6369000. -0.4683994E-01  0.2324797E+00  0.5269966E-02  0.6356252E-01 -0.2229034E-03  0.9013414E-01
6368000. -0.4687512E-01  0.2158746E+00  0.5259539E-02  0.6929695E-01 -0.2370431E-03  0.9003352E-01
6368000. -0.4687512E-01  0.2158746E+00  0.5259539E-02  0.6929695E-01 -0.2370431E-03  0.9003352E-01
6367000. -0.4690770E-01  0.1991839E+00  0.5248213E-02  0.7501546E-01 -0.2511667E-03  0.8992850E-01
6366000. -0.4693765E-01  0.1824088E+00  0.5235991E-02  0.8071706E-01 -0.2652735E-03  0.8981908E-01
6365000. -0.4696496E-01  0.1655503E+00  0.5222875E-02  0.8640075E-01 -0.2793627E-03  0.8970526E-01
6364000. -0.4698961E-01  0.1486095E+00  0.5208869E-02  0.9206553E-01 -0.2934337E-03  0.8958704E-01
6363000. -0.4701161E-01  0.1315875E+00  0.5193974E-02  0.9771042E-01 -0.3074859E-03  0.8946443E-01
6362000. -0.4703092E-01  0.1144853E+00  0.5178196E-02  0.1033344E+00 -0.3215184E-03  0.8933745E-01
6361000. -0.4704754E-01  0.9730418E-01  0.5161537E-02  0.1089366E+00 -0.3355307E-03  0.8920608E-01
6360000. -0.4706146E-01  0.8004518E-01  0.5144000E-02  0.1145159E+00 -0.3495220E-03  0.8907034E-01
6359000. -0.4707266E-01  0.6270949E-01  0.5125589E-02  0.1200714E+00 -0.3634916E-03  0.8893023E-01
6358000. -0.4708114E-01  0.4529826E-01  0.5106308E-02  0.1256021E+00 -0.3774389E-03  0.8878577E-01
6357000. -0.4708688E-01  0.2781271E-01  0.5086161E-02  0.1311071E+00 -0.3913632E-03  0.8863694E-01
6356000. -0.4708987E-01  0.1025403E-01  0.5065152E-02  0.1365854E+00 -0.4052638E-03  0.8848377E-01
6356000. -0.4708987E-01  0.6389849E-01  0.5065152E-02  0.1031656E+00 -0.4052638E-03  0.9872998E-01
6355000. -0.4709890E-01  0.5121261E-01  0.5048675E-02  0.1067737E+00 -0.4207483E-03  0.9857193E-01
6354000. -0.4710594E-01  0.3847881E-01  0.5031634E-02  0.1103668E+00 -0.4362076E-03  0.9841047E-01
6353000. -0.4711098E-01  0.2569773E-01  0.5014030E-02  0.1139447E+00 -0.4516413E-03  0.9824563E-01
6352000. -0.4711401E-01  0.1287002E-01  0.4995865E-02  0.1175069E+00 -0.4670489E-03  0.9807739E-01
6351000. -0.4711502E-01 -0.3681218E-05  0.4977142E-02  0.1210529E+00 -0.4824298E-03  0.9790576E-01
6350000. -0.4711400E-01 -0.1292272E-01  0.4957865E-02  0.1245824E+00 -0.4977836E-03  0.9773076E-01
6349000. -0.4711096E-01 -0.2588644E-01  0.4938034E-02  0.1280949E+00 -0.5131096E-03  0.9755238E-01
6348000. -0.4710587E-01 -0.3889416E-01  0.4917653E-02  0.1315901E+00 -0.5284073E-03  0.9737064E-01
6347000. -0.4709875E-01 -0.5194521E-01  0.4896726E-02  0.1350675E+00 -0.5436762E-03  0.9718554E-01
6346600. -0.4709532E-01 -0.5717761E-01  0.4888203E-02  0.1364534E+00 -0.5497756E-03  0.9711055E-01
6346600. -0.4709532E-01  0.8383664E-01  0.4888203E-02  0.1090776E+00 -0.5497756E-03  0.1135320E+00
6318800. -0.4686389E-01 -0.1947906E+00  0.4258792E-02  0.1774090E+00 -0.1033343E-02  0.1077653E+00
6291000. -0.4535985E-01 -0.4977573E+00  0.3360647E-02  0.2315427E+00 -0.1487299E-02  0.9997193E-01
6291000. -0.4535985E-01 -0.5014274E+00  0.3360647E-02  0.2380822E+00 -0.1487299E-02  0.9997193E-01
6263000. -0.4244424E-01 -0.8265579E+00  0.2224140E-02  0.2756263E+00 -0.1905703E-02  0.9010863E-01
6235000. -0.3809512E-01 -0.1151259E+01  0.9701299E-03  0.2912523E+00 -0.2276608E-02  0.7838316E-01
6207000. -0.3234834E-01 -0.1459936E+01 -0.3023038E-03  0.2839907E+00 -0.2592214E-02  0.6497759E-01
6179000. -0.2530945E-01 -0.1736611E+01 -0.1493570E-02  0.2545787E+00 -0.2845620E-02  0.5011961E-01
6151000. -0.1715336E-01 -0.1965877E+01 -0.2510972E-02  0.2053969E+00 -0.3031027E-02  0.3408271E-01
6151000. -0.1715336E-01 -0.1604414E+01 -0.2510972E-02  0.1822333E+00 -0.3031027E-02  0.3503173E-01
6128500. -0.1132498E-01 -0.1690816E+01 -0.3075883E-02  0.1365928E+00 -0.3136549E-02  0.2469282E-01
6106000. -0.5251087E-02 -0.1743117E+01 -0.3469371E-02  0.8552860E-01 -0.3205271E-02  0.1421096E-01
6083500.  0.9449198E-03 -0.1759808E+01 -0.3676330E-02  0.3135370E-01 -0.3236895E-02  0.3702905E-02
6061000.  0.7136172E-02 -0.1740442E+01 -0.3689976E-02 -0.2354909E-01 -0.3231529E-02 -0.6718148E-02
6038500.  0.1319616E-01 -0.1685667E+01 -0.3511917E-02 -0.7682589E-01 -0.3189673E-02 -0.1694386E-01
6016000.  0.1900251E-01 -0.1597167E+01 -0.3151882E-02 -0.1262476E+00 -0.3112201E-02 -0.2687158E-01
5993500.  0.2444055E-01 -0.1477606E+01 -0.2627126E-02 -0.1697947E+00 -0.3000336E-02 -0.3640560E-01
5971000.  0.2940663E-01 -0.1330539E+01 -0.1961549E-02 -0.2057338E+00 -0.2855628E-02 -0.4545707E-01
5971000.  0.2940663E-01 -0.1212971E+01 -0.1961549E-02 -0.1867560E+00 -0.2855628E-02 -0.4930664E-01
5937667.  0.3507145E-01 -0.9485384E+00 -0.9037825E-03 -0.2143107E+00 -0.2566102E-02 -0.6110723E-01
5904333.  0.3930519E-01 -0.6684979E+00  0.2470334E-03 -0.2224237E+00 -0.2218995E-02 -0.7130261E-01
5871000.  0.4206599E-01 -0.3879320E+00  0.1392101E-02 -0.2124632E+00 -0.1822866E-02 -0.7984658E-01
5837667.  0.4338697E-01 -0.1201577E+00  0.2443084E-02 -0.1869552E+00 -0.1386369E-02 -0.8673618E-01
5804333.  0.4336500E-01  0.1237971E+00  0.3327020E-02 -0.1491887E+00 -0.9180817E-03 -0.9200078E-01
5771000.  0.4214796E-01  0.3354910E+00  0.3989266E-02 -0.1028507E+00 -0.4263991E-03 -0.9569585E-01
5771000.  0.4214796E-01  0.3355137E+00  0.3989266E-02 -0.1028487E+00 -0.4263991E-03 -0.9569585E-01
5701000.  0.3641674E-01  0.6821713E+00  0.4524346E-02  0.8665696E-02  0.6342336E-03 -0.9623373E-01
5701000.  0.3641674E-01  0.5857720E+00  0.4524346E-02 -0.6281494E-03  0.6342336E-03 -0.1064983E+00
5667333.  0.3312398E-01  0.6589651E+00  0.4415150E-02  0.4160568E-01  0.1196328E-02 -0.1061492E+00
5633667.  0.2945906E-01  0.7252348E+00  0.4081983E-02  0.8462345E-01  0.1754735E-02 -0.1050057E+00
5600000.  0.2552062E-01  0.7596017E+00  0.3527266E-02  0.1244862E+00  0.2303757E-02 -0.1025729E+00
5600000.  0.2552062E-01  0.7596017E+00  0.3527266E-02  0.1244862E+00  0.2303757E-02 -0.1025729E+00
5563518.  0.2114682E-01  0.7622734E+00  0.2704007E-02  0.1618794E+00  0.2880333E-02 -0.9857541E-01
5527037.  0.1685337E-01  0.7322565E+00  0.1688588E-02  0.1913148E+00  0.3430112E-02 -0.9323359E-01
5490556.  0.1281433E-01  0.6743059E+00  0.5311844E-03  0.2112564E+00  0.3945678E-02 -0.8664218E-01
5454074.  0.9173080E-02  0.5943696E+00 -0.7107146E-03  0.2206995E+00  0.4420188E-02 -0.7890805E-01
5417593.  0.6036080E-02  0.4994156E+00 -0.1975539E-02  0.2192576E+00  0.4847398E-02 -0.7014520E-01
5381111.  0.3468442E-02  0.3967033E+00 -0.3201207E-02  0.2070830E+00  0.5221788E-02 -0.6047727E-01
5344630.  0.1493555E-02  0.2936255E+00 -0.4327986E-02  0.1848960E+00  0.5538529E-02 -0.5003548E-01
5308148.  0.9285293E-04  0.1972549E+00 -0.5301901E-02  0.1539189E+00  0.5793591E-02 -0.3895489E-01
5271667. -0.7903348E-03  0.1138547E+00 -0.6076995E-02  0.1157622E+00  0.5983704E-02 -0.2737619E-01
5235185. -0.1246151E-02  0.4877253E-01 -0.6617664E-02  0.7238118E-01  0.6106433E-02 -0.1544146E-01
5198704. -0.1391764E-02  0.6054871E-02 -0.6900073E-02  0.2593143E-01  0.6160142E-02 -0.3294638E-02
5162222. -0.1363104E-02 -0.1179451E-01 -0.6913060E-02 -0.2134412E-01  0.6144029E-02  0.8922143E-02
5125741. -0.1306433E-02 -0.3682477E-02 -0.6658340E-02 -0.6720900E-01  0.6058101E-02  0.2106720E-01
5089259. -0.1369561E-02  0.2981856E-01 -0.6150065E-02 -0.1095648E+00  0.5903155E-02  0.3300451E-01
5052778. -0.1692521E-02  0.8661304E-01 -0.5413889E-02 -0.1465254E+00  0.5680771E-02  0.4460184E-01
5016296. -0.2399618E-02  0.1633076E+00 -0.4485290E-02 -0.1765339E+00  0.5393243E-02  0.5573508E-01
4979815. -0.3591947E-02  0.2552411E+00 -0.3407760E-02 -0.1983853E+00  0.5043583E-02  0.6628758E-01
4943333. -0.5341315E-02  0.3568764E+00 -0.2230388E-02 -0.2113043E+00  0.4635405E-02  0.7615322E-01
4906852. -0.7685842E-02  0.4620678E+00 -0.1005522E-02 -0.2149645E+00  0.4172945E-02  0.8523575E-01
4870370. -0.1062736E-01  0.5642714E+00  0.2139182E-03 -0.2094502E+00  0.3660905E-02  0.9345297E-01
4833889. -0.1413004E-01  0.6570540E+00  0.1376681E-02 -0.1953048E+00  0.3104479E-02  0.1007328E+00
4797407. -0.1812245E-01  0.7342991E+00  0.2435867E-02 -0.1734402E+00  0.2509175E-02  0.1070186E+00
4760926. -0.2249909E-01  0.7904516E+00  0.3350561E-02 -0.1450791E+00  0.1880841E-02  0.1122688E+00
4724444. -0.2712597E-01  0.8209904E+00  0.4087852E-02 -0.1117392E+00  0.1225469E-02  0.1164522E+00
4687963. -0.3184567E-01  0.8224397E+00  0.4623939E-02 -0.7509989E-01  0.5492533E-03  0.1195548E+00
4651482. -0.3648484E-01  0.7926244E+00  0.4945013E-02 -0.3694300E-01 -0.1416340E-03  0.1215770E+00
4615000. -0.4086186E-01  0.7308230E+00  0.5047588E-02  0.9200501E-03 -0.8410432E-03  0.1225275E+00
4578518. -0.4479463E-01  0.6377005E+00  0.4938359E-02  0.3675297E-01 -0.1542889E-02  0.1224337E+00
4542037. -0.4810915E-01  0.5153843E+00  0.4633637E-02  0.6895033E-01 -0.2241272E-02  0.1213305E+00
4505556. -0.5064762E-01  0.3673225E+00  0.4158344E-02  0.9611730E-01 -0.2930542E-02  0.1192600E+00
4469074. -0.5227543E-01  0.1981589E+00  0.3544656E-02  0.1171173E+00 -0.3605352E-02  0.1162834E+00
4432593. -0.5288742E-01  0.1354176E-01  0.2830460E-02  0.1311167E+00 -0.4260637E-02  0.1124565E+00
4396111. -0.5241312E-01 -0.1801348E+00  0.2057402E-02  0.1376125E+00 -0.4891748E-02  0.1078464E+00
4359630. -0.5082048E-01 -0.3758982E+00  0.1269139E-02  0.1364363E+00 -0.5494389E-02  0.1025305E+00
4323148. -0.4811766E-01 -0.5666838E+00  0.5092058E-03  0.1277669E+00 -0.6064740E-02  0.9657460E-01
4286667. -0.4435372E-01 -0.7453886E+00 -0.1807117E-03  0.1120956E+00 -0.6599325E-02  0.9005695E-01
4250185. -0.3961718E-01 -0.9052838E+00 -0.7626630E-03  0.9020419E-01 -0.7095175E-02  0.8305204E-01
4213704. -0.3403357E-01 -0.1040348E+01 -0.1203855E-02  0.6312678E-01 -0.7549665E-02  0.7562723E-01
4177222. -0.2776036E-01 -0.1145286E+01 -0.1478041E-02  0.3208823E-01 -0.7960619E-02  0.6785318E-01
4140741. -0.2098288E-01 -0.1215967E+01 -0.1566398E-02 -0.1539951E-02 -0.8326197E-02  0.5979133E-01
4104259. -0.1390564E-01 -0.1249525E+01 -0.1458214E-02 -0.3631332E-01 -0.8644924E-02  0.5149559E-01
4067778. -0.6747258E-02 -0.1244220E+01 -0.1151161E-02 -0.7075805E-01 -0.8915598E-02  0.4301782E-01
4031296.  0.2691700E-03 -0.1199982E+01 -0.6512045E-03 -0.1034557E+00 -0.9137306E-02  0.3439691E-01
3994815.  0.6923214E-02 -0.1118004E+01  0.2777474E-04 -0.1330801E+00 -0.9309312E-02  0.2566427E-01
3958333.  0.1300534E-01 -0.1000703E+01  0.8647312E-03 -0.1584440E+00 -0.9431049E-02  0.1684074E-01
3921852.  0.1832368E-01 -0.8520264E+00  0.1832327E-02 -0.1785726E+00 -0.9502033E-02  0.7939593E-02
3885370.  0.2271224E-01 -0.6767884E+00  0.2898336E-02 -0.1926981E+00 -0.9521823E-02 -0.1041259E-02
3848889.  0.2603483E-01 -0.4807914E+00  0.4026708E-02 -0.2003025E+00 -0.9489934E-02 -0.1011372E-01
3812407.  0.2819138E-01 -0.2706226E+00  0.5179354E-02 -0.2011445E+00 -0.9405782E-02 -0.1929965E-01
3775926.  0.2912024E-01 -0.5318618E-01  0.6317354E-02 -0.1952206E+00 -0.9268614E-02 -0.2863994E-01
3739444.  0.2880046E-01  0.1642817E+00  0.7402679E-02 -0.1828028E+00 -0.9077397E-02 -0.3818453E-01
3702963.  0.2725261E-01  0.3745922E+00  0.8399448E-02 -0.1644007E+00 -0.8830802E-02 -0.4799757E-01
3666482.  0.2453728E-01  0.5709547E+00  0.9275328E-02 -0.1407145E+00 -0.8527037E-02 -0.5816767E-01
3630000.  0.2075281E-01  0.7469772E+00  0.1000260E-01 -0.1126502E+00 -0.8163778E-02 -0.6879213E-01
3630000.  0.2075281E-01  0.7469772E+00  0.1000260E-01 -0.1126502E+00 -0.8163778E-02 -0.6879213E-01
3592500.  0.1588850E-01  0.9008564E+00  0.1057196E-01 -0.8032122E-01 -0.7725280E-02 -0.8031765E-01
3555000.  0.1021172E-01  0.1022291E+01  0.1094363E-01 -0.4569068E-01 -0.7216764E-02 -0.9261165E-01
3517500.  0.3925524E-02  0.1107396E+01  0.1110786E-01 -0.1005570E-01 -0.6633178E-02 -0.1058595E+00
3480000. -0.2748194E-02  0.1153664E+01  0.1106259E-01  0.2528405E-01 -0.5968271E-02 -0.1202833E+00
3480000. -0.2748194E-02  0.1291386E+00 -0.3056425E-03 -0.4466457E-02 -0.5968271E-02 -0.1115196E+00
3409422. -0.4018962E-02  0.9905750E-01 -0.2413944E-03 -0.7056162E-02 -0.4913086E-02 -0.7994524E-01
3338844. -0.4923487E-02  0.6370731E-01 -0.1513121E-03 -0.9104939E-02 -0.4175480E-02 -0.5419093E-01
3268266. -0.5425644E-02  0.2703227E-01 -0.4210888E-04 -0.1049429E-01 -0.3691239E-02 -0.3416725E-01
3197688. -0.5530034E-02 -0.7605743E-02  0.7857359E-04 -0.1117461E-01 -0.3398510E-02 -0.1954178E-01
3127109. -0.5274277E-02 -0.3762852E-01  0.2029009E-03 -0.1115885E-01 -0.3240307E-02 -0.9775340E-02
3056531. -0.4719819E-02 -0.6131957E-01  0.3234746E-03 -0.1051166E-01 -0.3166527E-02 -0.4175505E-02
2985953. -0.3942369E-02 -0.7780807E-01  0.4338437E-03 -0.9336229E-02 -0.3135306E-02 -0.1956623E-02
2915375. -0.3023015E-02 -0.8697470E-01  0.5288482E-03 -0.7760345E-02 -0.3113712E-02 -0.2301484E-02
2844797. -0.2040622E-02 -0.8931416E-01  0.6048155E-03 -0.5922652E-02 -0.3077787E-02 -0.4416218E-02
2774219. -0.1065930E-02 -0.8577003E-01  0.6596131E-03 -0.3960699E-02 -0.3012022E-02 -0.7575494E-02
2703641. -0.1575107E-03 -0.7756908E-01  0.6925805E-03 -0.2001293E-02 -0.2908406E-02 -0.1115554E-01
2633062.  0.6405105E-03 -0.6606573E-01  0.7043668E-03 -0.1529267E-03 -0.2765173E-02 -0.1465449E-01
2562484.  0.1299047E-02 -0.5260690E-01  0.6966980E-03  0.1498855E-02 -0.2585409E-02 -0.1770008E-01
2491906.  0.1803436E-02 -0.3842849E-01  0.6721115E-03  0.2893316E-02 -0.2375603E-02 -0.2004735E-01
2421328.  0.2151720E-02 -0.2458104E-01  0.6336787E-03  0.3994699E-02 -0.2144306E-02 -0.2156727E-01
2350750.  0.2352348E-02 -0.1188786E-01  0.5847351E-03  0.4790666E-02 -0.1900934E-02 -0.2222976E-01
2280172.  0.2421532E-02 -0.9264228E-03  0.5286387E-03  0.5288750E-02 -0.1654778E-02 -0.2208310E-01
2209594.  0.2380551E-02  0.7963085E-02  0.4685717E-03  0.5512565E-02 -0.1414266E-02 -0.2123187E-01
2139016.  0.2253240E-02  0.1465442E-01  0.4073854E-03  0.5497420E-02 -0.1186452E-02 -0.1981578E-01
2068438.  0.2063813E-02  0.1919881E-01  0.3474959E-03  0.5286002E-02 -0.9767384E-03 -0.1799055E-01
1997859.  0.1835111E-02  0.2178469E-01  0.2908231E-03  0.4924234E-02 -0.7887850E-03 -0.1591193E-01
1927281.  0.1587351E-02  0.2269243E-01  0.2387803E-03  0.4457668E-02 -0.6245937E-03 -0.1372347E-01
1856703.  0.1337304E-02  0.2225542E-01  0.1922885E-03  0.3928749E-02 -0.4846767E-03 -0.1154793E-01
1786125.  0.1097934E-02  0.2082298E-01  0.1518271E-03  0.3374606E-02 -0.3683272E-03 -0.9482595E-02
1715547.  0.8783737E-03  0.1873310E-01  0.1175006E-03  0.2825622E-02 -0.2739109E-03 -0.7597610E-02
1644969.  0.6841720E-03  0.1629272E-01  0.8911799E-04  0.2304697E-02 -0.1991631E-03 -0.5936979E-02
1574391.  0.5176990E-03  0.1376780E-01  0.6627775E-04  0.1826827E-02 -0.1414632E-03 -0.4521569E-02
1503812.  0.3786033E-03  0.1138476E-01  0.4845742E-04  0.1398794E-02 -0.9806776E-04 -0.3353433E-02
1433234.  0.2641825E-03  0.9347015E-02  0.3510851E-04  0.1018396E-02 -0.6629161E-04 -0.2421266E-02
1362656.  0.1694297E-03  0.7876086E-02  0.2576682E-04  0.6718026E-03 -0.4361854E-04 -0.1706759E-02
1292078.  0.8639455E-04  0.7304596E-02  0.2021527E-04  0.3264368E-03 -0.2773576E-04 -0.1193375E-02
1221500.  0.1931926E-05  0.8290615E-02  0.1877877E-04 -0.8773387E-04 -0.1644087E-04 -0.8810838E-03
1221500.  0.1931926E-05 -0.1170947E-01 -0.2082292E-04 -0.1186829E-03 -0.1644087E-04 -0.8819208E-03
1183328.  0.7322615E-04 -0.1191033E-01 -0.1916326E-04 -0.4269206E-03 -0.1185581E-04 -0.6582998E-03
1145156.  0.1425746E-03 -0.1107357E-01 -0.1584345E-04 -0.6673208E-03 -0.8448804E-05 -0.4866424E-03
1106984.  0.2041275E-03 -0.9341168E-02 -0.1135325E-04 -0.8148132E-03 -0.5942717E-05 -0.3559219E-03
1068812.  0.2531979E-03 -0.6952866E-02 -0.6282722E-05 -0.8610088E-03 -0.4119887E-05 -0.2572429E-03
1030641.  0.2867234E-03 -0.4204009E-02 -0.1224808E-05 -0.8129578E-03 -0.2810546E-05 -0.1834682E-03
 992469.  0.3034666E-03 -0.1400162E-02  0.3308204E-05 -0.6896846E-03 -0.1883119E-05 -0.1289056E-03
 954297.  0.3039463E-03  0.1183244E-02  0.6941781E-05 -0.5174332E-03 -0.1236544E-05 -0.8905329E-04
 916125.  0.2901606E-03  0.3332303E-02  0.9467661E-05 -0.3245892E-03 -0.7937742E-06 -0.6035138E-04
 877953.  0.2651563E-03  0.4912706E-02  0.1084246E-04 -0.1371405E-03 -0.4966789E-06 -0.4001861E-04
 839781.  0.2325321E-03  0.5874215E-02  0.1116285E-04  0.2458614E-04 -0.3018848E-06 -0.2588542E-04
 801609.  0.1959526E-03  0.6242930E-02  0.1062521E-04  0.1477962E-03 -0.1774946E-06 -0.1627356E-04
 763438.  0.1587388E-03  0.6104365E-02  0.9479238E-05  0.2274312E-03 -0.1004349E-06 -0.9901716E-05
 725266.  0.1235725E-03  0.5581559E-02  0.7983640E-05  0.2652668E-03 -0.5432981E-07 -0.5800672E-05
 687094.  0.9234643E-04  0.4812110E-02  0.6370715E-05  0.2680172E-03 -0.2784920E-07 -0.3248911E-05
 648922.  0.6613586E-04  0.3928014E-02  0.4823011E-05  0.2452022E-03 -0.1335742E-07 -0.1725348E-05
 610750.  0.4528147E-04  0.3040435E-02  0.3462980E-05  0.2070363E-03 -0.5874895E-08 -0.8577686E-06
 572578.  0.2954391E-04  0.2230896E-02  0.2354132E-05  0.1627468E-03 -0.2284832E-08 -0.3915559E-06
 534406.  0.1829200E-04  0.1548730E-02  0.1510500E-05  0.1194966E-03 -0.7222914E-09 -0.1586868E-06
 496234.  0.1068977E-04  0.1013756E-02  0.9106444E-06  0.8193907E-04 -0.1329661E-09 -0.5300511E-07
 458062.  0.5855996E-05  0.6224955E-03  0.5126300E-06  0.5231552E-04  0.3802808E-10 -0.1119881E-07
 419891.  0.2980645E-05  0.3560420E-03  0.2672111E-06  0.3092637E-04  0.5741858E-10  0.1764768E-08
 381719.  0.1393290E-05  0.1878457E-03  0.1275313E-06  0.1678102E-04  0.3807433E-10  0.3712148E-08
 343547.  0.5889702E-06  0.9021688E-04  0.5489412E-07  0.8254263E-05  0.1869916E-10  0.2576768E-08
 305375.  0.2204507E-06  0.3872529E-04  0.2087080E-07  0.3615743E-05  0.7355212E-11  0.1275225E-08
 267203.  0.7092463E-07  0.1447399E-04  0.6805264E-08  0.1374765E-05  0.2325717E-11  0.4920107E-09
 229031.  0.1877573E-07  0.4532440E-05  0.1822064E-08  0.4366989E-06  0.5733329E-12  0.1475688E-09
 190859.  0.3821770E-08  0.1119790E-05  0.3743736E-09  0.1091643E-06  0.1032183E-12  0.3281620E-10
 152688.  0.5338708E-09  0.1973290E-06  0.5269274E-10  0.1941770E-07  0.1202170E-13  0.4876477E-11
 114516.  0.4134427E-10  0.2051887E-07  0.4104318E-11  0.2033564E-08  0.7168721E-15  0.3931801E-12
  76344.  0.1099366E-11  0.8224698E-09  0.1095826E-12  0.8192251E-10  0.1288345E-16  0.1069410E-13
  38172.  0.2175569E-14  0.3264768E-11  0.2173816E-15  0.3261552E-12  0.1278001E-19  0.2128833E-16
      0.  0.0000000E+00  0.0000000E+00  0.0000000E+00  0.0000000E+00  0.0000000E+00  0.0000000E+00
