       8       12 S      450        170.19080         18.81661          5.91446        273.93011      185    7
6371000. -0.2221178E-01  0.4313259E+00  0.6747830E-02  0.2895961E-01 -0.6185206E-03  0.4992698E-01
6370000. -0.2227900E-01  0.4252182E+00  0.6742863E-02  0.3432973E-01 -0.6263441E-03  0.4975998E-01
6369000. -0.2234526E-01  0.4190002E+00  0.6737053E-02  0.3969501E-01 -0.6341413E-03  0.4959146E-01
6368000. -0.2241053E-01  0.4126723E+00  0.6730401E-02  0.4505476E-01 -0.6419119E-03  0.4942142E-01
6368000. -0.2241053E-01  0.4126723E+00  0.6730401E-02  0.4505476E-01 -0.6419119E-03  0.4942142E-01
6367000. -0.2247480E-01  0.4062347E+00  0.6722909E-02  0.5040829E-01 -0.6496557E-03  0.4924988E-01
6366000. -0.2253805E-01  0.3996878E+00  0.6714578E-02  0.5575491E-01 -0.6573725E-03  0.4907683E-01
6365000. -0.2260026E-01  0.3930319E+00  0.6705407E-02  0.6109392E-01 -0.6650619E-03  0.4890228E-01
6364000. -0.2266142E-01  0.3862673E+00  0.6695400E-02  0.6642464E-01 -0.6727239E-03  0.4872625E-01
6363000. -0.2272152E-01  0.3793945E+00  0.6684555E-02  0.7174638E-01 -0.6803581E-03  0.4854874E-01
6362000. -0.2278052E-01  0.3724137E+00  0.6672877E-02  0.7705846E-01 -0.6879644E-03  0.4836975E-01
6361000. -0.2283842E-01  0.3653255E+00  0.6660365E-02  0.8236019E-01 -0.6955424E-03  0.4818928E-01
6360000. -0.2289520E-01  0.3581301E+00  0.6647023E-02  0.8765089E-01 -0.7030920E-03  0.4800735E-01
6359000. -0.2295084E-01  0.3508281E+00  0.6632850E-02  0.9292986E-01 -0.7106129E-03  0.4782397E-01
6358000. -0.2300532E-01  0.3434198E+00  0.6617851E-02  0.9819645E-01 -0.7181049E-03  0.4763914E-01
6357000. -0.2305864E-01  0.3359057E+00  0.6602025E-02  0.1034499E+00 -0.7255679E-03  0.4745286E-01
6356000. -0.2311077E-01  0.3282864E+00  0.6585376E-02  0.1086897E+00 -0.7330014E-03  0.4726514E-01
6356000. -0.2311077E-01  0.3084736E+00  0.6585376E-02  0.7740409E-01 -0.7330014E-03  0.5229377E-01
6355000. -0.2315876E-01  0.3030796E+00  0.6572960E-02  0.8080380E-01 -0.7411923E-03  0.5207430E-01
6354000. -0.2320591E-01  0.2976193E+00  0.6560010E-02  0.8419634E-01 -0.7493486E-03  0.5185374E-01
6353000. -0.2325219E-01  0.2920928E+00  0.6546529E-02  0.8758143E-01 -0.7574703E-03  0.5163210E-01
6352000. -0.2329760E-01  0.2865004E+00  0.6532517E-02  0.9095879E-01 -0.7655571E-03  0.5140939E-01
6351000. -0.2334213E-01  0.2808423E+00  0.6517975E-02  0.9432812E-01 -0.7736088E-03  0.5118561E-01
6350000. -0.2338576E-01  0.2751189E+00  0.6502906E-02  0.9768914E-01 -0.7816253E-03  0.5096077E-01
6349000. -0.2342849E-01  0.2693303E+00  0.6487309E-02  0.1010416E+00 -0.7896064E-03  0.5073487E-01
6348000. -0.2347030E-01  0.2634768E+00  0.6471187E-02  0.1043851E+00 -0.7975521E-03  0.5050792E-01
6347000. -0.2351120E-01  0.2575587E+00  0.6454541E-02  0.1077195E+00 -0.8054620E-03  0.5027992E-01
6346600. -0.2352729E-01  0.2551734E+00  0.6447736E-02  0.1090506E+00 -0.8086159E-03  0.5018843E-01
6346600. -0.2352729E-01  0.3556827E+00  0.6447736E-02  0.8339966E-01 -0.8086159E-03  0.5839206E-01
6318800. -0.2479248E-01  0.2174967E+00  0.5936249E-02  0.1499686E+00 -0.1048825E-02  0.5161052E-01
6291000. -0.2537004E-01  0.4134317E-01  0.5150642E-02  0.2085147E+00 -0.1258226E-02  0.4428110E-01
6291000. -0.2537004E-01  0.4853508E-01  0.5150642E-02  0.2150751E+00 -0.1258226E-02  0.4428110E-01
6263000. -0.2511925E-01 -0.1676202E+00  0.4091281E-02  0.2647882E+00 -0.1435860E-02  0.3647537E-01
6235000. -0.2386024E-01 -0.4085744E+00  0.2844481E-02  0.3000005E+00 -0.1578187E-02  0.2822537E-01
6207000. -0.2150786E-01 -0.6631860E+00  0.1478272E-02  0.3188972E+00 -0.1683410E-02  0.1960295E-01
6179000. -0.1802940E-01 -0.9188245E+00  0.6674395E-04  0.3205450E+00 -0.1750067E-02  0.1068925E-01
6151000. -0.1344983E-01 -0.1161980E+01 -0.1313939E-02  0.3049376E+00 -0.1777076E-02  0.1577552E-02
6151000. -0.1344983E-01 -0.9509972E+00 -0.1313939E-02  0.2692032E+00 -0.1777076E-02  0.2321670E-02
6128500. -0.9856741E-02 -0.1080950E+01 -0.2226571E-02  0.2463693E+00 -0.1775554E-02 -0.3161138E-02
6106000. -0.5837728E-02 -0.1191577E+01 -0.3045763E-02  0.2164526E+00 -0.1754934E-02 -0.8486104E-02
6083500. -0.1467429E-02 -0.1279358E+01 -0.3748363E-02  0.1805357E+00 -0.1715848E-02 -0.1361310E-01
6061000.  0.3168178E-02 -0.1341405E+01 -0.4315313E-02  0.1398483E+00 -0.1659059E-02 -0.1850532E-01
6038500.  0.7974171E-02 -0.1375555E+01 -0.4732105E-02  0.9572895E-01 -0.1585455E-02 -0.2312976E-01
6016000.  0.1284933E-01 -0.1380408E+01 -0.4989082E-02  0.4957954E-01 -0.1496037E-02 -0.2745726E-01
5993500.  0.1768888E-01 -0.1355360E+01 -0.5081583E-02  0.2821063E-02 -0.1391897E-02 -0.3146297E-01
5971000.  0.2238737E-01 -0.1300630E+01 -0.5009942E-02 -0.4314689E-01 -0.1274210E-02 -0.3512586E-01
5971000.  0.2238737E-01 -0.1204736E+01 -0.5009942E-02 -0.4161400E-01 -0.1274210E-02 -0.3805656E-01
5937667.  0.2832574E-01 -0.1057688E+01 -0.4641308E-02 -0.9769554E-01 -0.1064245E-02 -0.4203713E-01
5904333.  0.3338509E-01 -0.8703979E+00 -0.4006151E-02 -0.1431939E+00 -0.8360464E-03 -0.4503293E-01
5871000.  0.3738254E-01 -0.6536809E+00 -0.3163686E-02 -0.1768090E+00 -0.5946201E-03 -0.4710879E-01
5837667.  0.4019357E-01 -0.4187532E+00 -0.2177534E-02 -0.1981153E+00 -0.3445570E-03 -0.4835003E-01
5804333.  0.4175195E-01 -0.1766118E+00 -0.1111543E-02 -0.2074204E+00 -0.8996369E-04 -0.4885481E-01
5771000.  0.4204716E-01  0.6246004E-01 -0.2646775E-04 -0.2056116E+00  0.1655686E-03 -0.4873013E-01
5771000.  0.4204716E-01  0.6245638E-01 -0.2646775E-04 -0.2056064E+00  0.1655686E-03 -0.4873013E-01
5701000.  0.3866534E-01  0.5455049E+00  0.2135830E-02 -0.1810000E+00  0.6800304E-03 -0.4454793E-01
5701000.  0.3866534E-01  0.4640925E+00  0.2135830E-02 -0.1515572E+00  0.6800304E-03 -0.5544629E-01
5667333.  0.3581980E-01  0.6117033E+00  0.2864138E-02 -0.1250765E+00  0.9692659E-03 -0.5409689E-01
5633667.  0.3219642E-01  0.7584158E+00  0.3463582E-02 -0.1015313E+00  0.1252201E-02 -0.5296580E-01
5600000.  0.2785113E-01  0.8813080E+00  0.3929580E-02 -0.7423762E-01  0.1528461E-02 -0.5154578E-01
5600000.  0.2785113E-01  0.8813080E+00  0.3929580E-02 -0.7423762E-01  0.1528461E-02 -0.5154578E-01
5563518.  0.2249621E-01  0.9833435E+00  0.4262621E-02 -0.4167145E-01  0.1818617E-02 -0.4975401E-01
5527037.  0.1665735E-01  0.1049963E+01  0.4403431E-02 -0.7330162E-02  0.2097819E-02 -0.4772928E-01
5490556.  0.1054332E-01  0.1079241E+01  0.4345833E-02  0.2739679E-01  0.2364850E-02 -0.4550919E-01
5454074.  0.4370166E-02  0.1070587E+01  0.4091542E-02  0.6114656E-01  0.2618700E-02 -0.4312841E-01
5417593. -0.1646622E-02  0.1024941E+01  0.3649869E-02  0.9264524E-01  0.2858520E-02 -0.4061509E-01
5381111. -0.7300956E-02  0.9443824E+00  0.3037039E-02  0.1207415E+00  0.3083634E-02 -0.3799417E-01
5344630. -0.1240161E-01  0.8322635E+00  0.2275488E-02  0.1444487E+00  0.3293479E-02 -0.3528732E-01
5308148. -0.1678040E-01  0.6930093E+00  0.1392636E-02  0.1629859E+00  0.3487628E-02 -0.3251246E-01
5271667. -0.2029620E-01  0.5318147E+00  0.4199320E-03  0.1757617E+00  0.3665718E-02 -0.2968241E-01
5235185. -0.2284035E-01  0.3546454E+00 -0.6085918E-03  0.1824360E+00  0.3827481E-02 -0.2681009E-01
5198704. -0.2433941E-01  0.1678861E+00 -0.1657508E-02  0.1828899E+00  0.3972697E-02 -0.2390550E-01
5162222. -0.2475719E-01 -0.2192123E-01 -0.2691376E-02  0.1772051E+00  0.4101200E-02 -0.2097236E-01
5125741. -0.2409530E-01 -0.2081321E+00 -0.3675830E-02  0.1657112E+00  0.4212847E-02 -0.1802107E-01
5089259. -0.2239261E-01 -0.3844098E+00 -0.4579003E-02  0.1489018E+00  0.4307556E-02 -0.1505583E-01
5052778. -0.1972336E-01 -0.5448072E+00 -0.5372211E-02  0.1274364E+00  0.4385252E-02 -0.1208050E-01
5016296. -0.1619388E-01 -0.6840097E+00 -0.6031103E-02  0.1021241E+00  0.4445902E-02 -0.9102654E-02
4979815. -0.1193918E-01 -0.7974617E+00 -0.6536144E-02  0.7386309E-01  0.4489503E-02 -0.6127245E-02
4943333. -0.7117359E-02 -0.8815210E+00 -0.6873231E-02  0.4362496E-01  0.4516089E-02 -0.3160927E-02
4906852. -0.1905047E-02 -0.9335444E+00 -0.7033907E-02  0.1241718E-01  0.4525737E-02 -0.2123527E-03
4870370.  0.3509482E-02 -0.9519236E+00 -0.7015493E-02 -0.1876097E-01  0.4518569E-02  0.2710507E-02
4833889.  0.8931351E-02 -0.9361699E+00 -0.6820973E-02 -0.4893600E-01  0.4494763E-02  0.5597996E-02
4797407.  0.1416657E-01 -0.8868582E+00 -0.6458700E-02 -0.7720583E-01  0.4454545E-02  0.8439869E-02
4760926.  0.1902675E-01 -0.8055829E+00 -0.5942004E-02 -0.1027477E+00  0.4398217E-02  0.1122350E-01
4724444.  0.2333612E-01 -0.6949282E+00 -0.5288541E-02 -0.1248631E+00  0.4326137E-02  0.1393973E-01
4687963.  0.2693565E-01 -0.5583297E+00 -0.4519683E-02 -0.1429736E+00  0.4238727E-02  0.1657608E-01
4651482.  0.2968854E-01 -0.3999664E+00 -0.3659671E-02 -0.1566412E+00  0.4136480E-02  0.1912026E-01
4615000.  0.3148365E-01 -0.2246156E+00 -0.2734788E-02 -0.1655884E+00  0.4019943E-02  0.2156505E-01
4578518.  0.3223845E-01 -0.3751617E-01 -0.1772561E-02 -0.1696729E+00  0.3889719E-02  0.2389883E-01
4542037.  0.3190141E-01  0.1558032E+00 -0.8008934E-03 -0.1689108E+00  0.3746470E-02  0.2611479E-01
4505556.  0.3045299E-01  0.3497266E+00  0.1528912E-03 -0.1634630E+00  0.3590875E-02  0.2821042E-01
4469074.  0.2790584E-01  0.5386177E+00  0.1062713E-02 -0.1536045E+00  0.3423639E-02  0.3017886E-01
4432593.  0.2430448E-01  0.7170985E+00  0.1904390E-02 -0.1397475E+00  0.3245491E-02  0.3202393E-01
4396111.  0.1972292E-01  0.8801280E+00  0.2656471E-02 -0.1223925E+00  0.3057116E-02  0.3374991E-01
4359630.  0.1426345E-01  0.1023059E+01  0.3300493E-02 -0.1021159E+00  0.2859194E-02  0.3536201E-01
4323148.  0.8052413E-02  0.1141977E+01  0.3821600E-02 -0.7956702E-01  0.2652327E-02  0.3687494E-01
4286667.  0.1237502E-02  0.1233539E+01  0.4208681E-02 -0.5542348E-01  0.2437049E-02  0.3830467E-01
4250185. -0.6017232E-02  0.1295179E+01  0.4454614E-02 -0.3038194E-01  0.2213766E-02  0.3967264E-01
4213704. -0.1353486E-01  0.1325209E+01  0.4556254E-02 -0.5141835E-02  0.1982772E-02  0.4100554E-01
4177222. -0.2113162E-01  0.1322660E+01  0.4514397E-02  0.1962842E-01  0.1744159E-02  0.4233710E-01
4140741. -0.2861997E-01  0.1287480E+01  0.4333580E-02  0.4329273E-01  0.1497844E-02  0.4370459E-01
4104259. -0.3581534E-01  0.1220438E+01  0.4021805E-02  0.6527574E-01  0.1243488E-02  0.4515171E-01
4067778. -0.4253861E-01  0.1122970E+01  0.3590211E-02  0.8506688E-01  0.9804898E-03  0.4673491E-01
4031296. -0.4862214E-01  0.9973667E+00  0.3052596E-02  0.1022369E+00  0.7079025E-03  0.4850779E-01
3994815. -0.5391246E-01  0.8464946E+00  0.2425022E-02  0.1164427E+00  0.4244724E-03  0.5053790E-01
3958333. -0.5827454E-01  0.6737186E+00  0.1725202E-02  0.1274297E+00  0.1284714E-03  0.5290890E-01
3921852. -0.6159377E-01  0.4829688E+00  0.9721025E-03  0.1350406E+00 -0.1822534E-03  0.5569781E-01
3885370. -0.6377926E-01  0.2784260E+00  0.1852490E-03  0.1392072E+00 -0.5103939E-03  0.5900748E-01
3848889. -0.6476457E-01  0.6455197E-01 -0.6156074E-03  0.1399501E+00 -0.8592401E-03  0.6295168E-01
3812407. -0.6450940E-01 -0.1540886E+00 -0.1411176E-02  0.1373765E+00 -0.1232774E-02  0.6764933E-01
3775926. -0.6299961E-01 -0.3728983E+00 -0.2182898E-02  0.1316644E+00 -0.1635717E-02  0.7325416E-01
3739444. -0.6024709E-01 -0.5873978E+00 -0.2913524E-02  0.1230623E+00 -0.2073747E-02  0.7992838E-01
3702963. -0.5628902E-01 -0.7932954E+00 -0.3587316E-02  0.1118746E+00 -0.2553476E-02  0.8785781E-01
3666482. -0.5118638E-01 -0.9865338E+00 -0.4190457E-02  0.9844676E-01 -0.3082754E-02  0.9727480E-01
3630000. -0.4502203E-01 -0.1163499E+01 -0.4711218E-02  0.8316153E-01 -0.3670813E-02  0.1084280E+00
3630000. -0.4502203E-01 -0.1163499E+01 -0.4711218E-02  0.8316153E-01 -0.3670813E-02  0.1084280E+00
3592500. -0.3768753E-01 -0.1324977E+01 -0.5150659E-02  0.6593546E-01 -0.4347892E-02  0.1220244E+00
3555000. -0.2947092E-01 -0.1462780E+01 -0.5485277E-02  0.4761817E-01 -0.5112277E-02  0.1381617E+00
3517500. -0.2051882E-01 -0.1574535E+01 -0.5709955E-02  0.2865190E-01 -0.5980205E-02  0.1572890E+00
3480000. -0.1099038E-01 -0.1658350E+01 -0.5822134E-02  0.9461744E-02 -0.6970821E-02  0.1799477E+00
3480000. -0.1099038E-01 -0.5561100E+00  0.3238485E-02 -0.2610779E-01 -0.6970821E-02  0.2149947E+00
3409422. -0.5031317E-02 -0.5151213E+00  0.3471131E-02 -0.1593044E-01 -0.8971834E-02  0.1474842E+00
3338844.  0.3378218E-03 -0.4511484E+00  0.3593254E-02 -0.6239724E-02 -0.1026780E-01  0.8789686E-01
3268266.  0.4912633E-02 -0.3731381E+00  0.3612839E-02  0.2518554E-02 -0.1095183E-01  0.3710727E-01
3197688.  0.8582694E-02 -0.2890188E+00  0.3542047E-02  0.1003719E-01 -0.1112384E-01 -0.4521583E-02
3127109.  0.1131793E-01 -0.2053245E+00  0.3395691E-02  0.1614116E-01 -0.1088513E-01 -0.3709423E-01
3056531.  0.1315221E-01 -0.1270755E+00  0.3189879E-02  0.2077038E-01 -0.1033363E-01 -0.6110589E-01
2985953.  0.1416662E-01 -0.5776962E-01  0.2940830E-02  0.2395926E-01 -0.9559965E-02 -0.7735384E-01
2915375.  0.1447309E-01  0.4899934E-03  0.2663968E-02  0.2581435E-01 -0.8644762E-02 -0.8683798E-01
2844797.  0.1420002E-01  0.4679555E-01  0.2373232E-02  0.2649362E-01 -0.7656858E-02 -0.9066925E-01
2774219.  0.1348028E-01  0.8121070E-01  0.2080623E-02  0.2618557E-01 -0.6652551E-02 -0.8998806E-01
2703641.  0.1244178E-01  0.1045226E+00  0.1795968E-02  0.2509120E-01 -0.5675662E-02 -0.8589695E-01
2633062.  0.1120077E-01  0.1180120E+00  0.1526861E-02  0.2341051E-01 -0.4758237E-02 -0.7940966E-01
2562484.  0.9857574E-02  0.1232485E+00  0.1278749E-02  0.2133146E-01 -0.3921787E-02 -0.7141723E-01
2491906.  0.8494332E-02  0.1219138E+00  0.1055092E-02  0.1902110E-01 -0.3178692E-02 -0.6266770E-01
2421328.  0.7174574E-02  0.1156662E+00  0.8576421E-03  0.1662169E-01 -0.2533888E-02 -0.5375956E-01
2350750.  0.5944089E-02  0.1060381E+00  0.6867209E-03  0.1424861E-01 -0.1986490E-02 -0.4514590E-01
2280172.  0.4832688E-02  0.9437245E-01  0.5415248E-03  0.1198972E-01 -0.1531354E-02 -0.3714582E-01
2209594.  0.3856544E-02  0.8178528E-01  0.4204221E-03  0.9907214E-02 -0.1160464E-02 -0.2996100E-01
2139016.  0.3020785E-02  0.6915424E-01  0.3212220E-03  0.8040257E-02 -0.8641340E-03 -0.2369528E-01
2068438.  0.2322110E-02  0.5712586E-01  0.2414117E-03  0.6408470E-02 -0.6319727E-03 -0.1837509E-01
1997859.  0.1751235E-02  0.4613698E-01  0.1783514E-03  0.5015566E-02 -0.4536315E-03 -0.1396926E-01
1927281.  0.1295087E-02  0.3644391E-01  0.1294337E-03  0.3853136E-02 -0.3193486E-03 -0.1040710E-01
1856703.  0.9385804E-03  0.2815585E-01  0.9219233E-04  0.2904159E-02 -0.2202853E-03 -0.7593690E-02
1786125.  0.6660815E-03  0.2126902E-01  0.6438344E-04  0.2146179E-02 -0.1487300E-03 -0.5422780E-02
1715547.  0.4624745E-03  0.1569903E-01  0.4402937E-04  0.1553965E-02 -0.9816449E-04 -0.3786522E-02
1644969.  0.3138926E-03  0.1130900E-01  0.2943705E-04  0.1101716E-02 -0.6324094E-04 -0.2582478E-02
1574391.  0.2081686E-03  0.7932309E-02  0.1919439E-04  0.7647359E-03 -0.3969396E-04 -0.1718206E-02
1503812.  0.1350656E-03  0.5388941E-02  0.1215045E-04  0.5207653E-03 -0.2421444E-04 -0.1113733E-02
1433234.  0.8637729E-04  0.3493264E-02  0.7382162E-05  0.3511731E-03 -0.1430615E-04 -0.7024207E-03
1362656.  0.5600068E-04  0.2048061E-02  0.4145992E-05  0.2424613E-03 -0.8138477E-05 -0.4304446E-03
1292078.  0.4021380E-04  0.8116708E-03  0.1806548E-05  0.1893893E-03 -0.4412951E-05 -0.2552301E-03
1221500.  0.3862732E-04 -0.6025676E-03 -0.2920571E-06  0.2029898E-03 -0.2253697E-05 -0.1423624E-03
1221500.  0.3862732E-04 -0.9585056E-03 -0.1018360E-05 -0.2067807E-03 -0.2253697E-05 -0.1590960E-03
1183328.  0.4212706E-04 -0.2449827E-03  0.1434629E-07 -0.1400621E-03 -0.1465668E-05 -0.1070824E-03
1145156.  0.4196355E-04  0.2681726E-03  0.6851994E-06 -0.8593924E-04 -0.9386566E-06 -0.7107777E-04
1106984.  0.3926279E-04  0.6065630E-03  0.1068267E-05 -0.4387364E-04 -0.5912495E-06 -0.4647493E-04
1068812.  0.3498621E-04  0.7991935E-03  0.1233120E-05 -0.1290545E-04 -0.3657793E-06 -0.2989727E-04
1030641.  0.2991643E-04  0.8764511E-03  0.1242430E-05  0.8293866E-05 -0.2219039E-06 -0.1889520E-04
 992469.  0.2465450E-04  0.8680947E-03  0.1150069E-05  0.2131163E-04 -0.1317678E-06 -0.1171266E-04
 954297.  0.1962998E-04  0.8014932E-03  0.9999749E-06  0.2785172E-04 -0.7642748E-07 -0.7108027E-05
 916125.  0.1511881E-04  0.7003255E-03  0.8258748E-06  0.2959744E-04 -0.4319485E-07 -0.4213788E-05
 877953.  0.1126826E-04  0.5837762E-03  0.6517698E-06  0.2809425E-04 -0.2372075E-07 -0.2434150E-05
 839781.  0.8124957E-05  0.4662572E-03  0.4930524E-06  0.2465898E-04 -0.1261455E-07 -0.1366137E-05
 801609.  0.5663069E-05  0.3575964E-03  0.3580251E-06  0.2033679E-04 -0.6469790E-08 -0.7422829E-06
 763438.  0.3810433E-05  0.2635656E-03  0.2495925E-06  0.1588606E-04 -0.3184278E-08 -0.3888116E-06
 725266.  0.2470463E-05  0.1866330E-03  0.1669165E-06  0.1180037E-04 -0.1494219E-08 -0.1953071E-06
 687094.  0.1539682E-05  0.1268219E-03  0.1069098E-06  0.8347604E-05 -0.6628570E-09 -0.9342867E-07
 648922.  0.9196693E-06  0.8253855E-04  0.6542399E-07  0.5622370E-05 -0.2747189E-09 -0.4219435E-07
 610750.  0.5245286E-06  0.5130591E-04  0.3812753E-07  0.3599825E-05 -0.1044579E-09 -0.1776247E-07
 572578.  0.2843535E-06  0.3034736E-04  0.2107110E-07  0.2184816E-05 -0.3533222E-10 -0.6836506E-08
 534406.  0.1456967E-06  0.1699997E-04  0.1098375E-07  0.1251768E-05 -0.9964946E-11 -0.2327406E-08
 496234.  0.7006482E-07  0.8964197E-05  0.5363911E-08  0.6732494E-06 -0.1912150E-11 -0.6529547E-09
 458062.  0.3134672E-07  0.4415138E-05  0.2432988E-08  0.3374145E-06  0.7217927E-13 -0.1193040E-09
 419891.  0.1290275E-07  0.2011080E-05  0.1013784E-08  0.1560602E-06  0.2950589E-12  0.9865827E-11
 381719.  0.4815818E-08  0.8362001E-06  0.3825162E-09  0.6576664E-07  0.1750122E-12  0.2196406E-10
 343547.  0.1599050E-08  0.3119638E-06  0.1282336E-09  0.2482535E-07  0.7068778E-13  0.1231910E-10
 305375.  0.4602366E-09  0.1020028E-06  0.3721877E-10  0.8200270E-08  0.2193336E-13  0.4738022E-11
 267203.  0.1107099E-09  0.2827939E-07  0.9018146E-11  0.2293452E-08  0.5272072E-14  0.1374158E-11
 229031.  0.2109840E-10  0.6332832E-08  0.1729280E-11  0.5174174E-09  0.9464927E-15  0.2977195E-12
 190859.  0.2931747E-11  0.1062319E-08  0.2415357E-12  0.8733236E-10  0.1172997E-15  0.4529056E-13
 152688.  0.2584878E-12  0.1176453E-09  0.2138475E-13  0.9719641E-11  0.8677476E-17  0.4254176E-14
 114516.  0.1114016E-13  0.6784892E-11  0.9245335E-15  0.5626601E-12  0.2895445E-18  0.1902664E-15
  76344.  0.0000000E+00  0.0000000E+00  0.0000000E+00  0.0000000E+00  0.0000000E+00  0.0000000E+00
  38172.  0.0000000E+00  0.0000000E+00  0.0000000E+00  0.0000000E+00  0.0000000E+00  0.0000000E+00
      0.  0.0000000E+00  0.0000000E+00  0.0000000E+00  0.0000000E+00  0.0000000E+00  0.0000000E+00
