       9        8 S      480        194.28250         24.24013         10.41421        480.09381      185    7
6371000. -0.4190412E-01  0.2562857E+00  0.7888545E-02  0.4979267E-01 -0.2617940E-03  0.8137751E-01
6370000. -0.4194367E-01  0.2476876E+00  0.7880339E-02  0.5476283E-01 -0.2745602E-03  0.8128780E-01
6369000. -0.4198187E-01  0.2390402E+00  0.7871355E-02  0.5972608E-01 -0.2873120E-03  0.8119579E-01
6368000. -0.4201871E-01  0.2303436E+00  0.7861591E-02  0.6468189E-01 -0.3000492E-03  0.8110148E-01
6368000. -0.4201871E-01  0.2303436E+00  0.7861591E-02  0.6468189E-01 -0.3000492E-03  0.8110148E-01
6367000. -0.4205418E-01  0.2215983E+00  0.7851049E-02  0.6962978E-01 -0.3127714E-03  0.8100487E-01
6366000. -0.4208827E-01  0.2128046E+00  0.7839733E-02  0.7456923E-01 -0.3254784E-03  0.8090596E-01
6365000. -0.4212098E-01  0.2039627E+00  0.7827641E-02  0.7949977E-01 -0.3381695E-03  0.8080477E-01
6364000. -0.4215230E-01  0.1950730E+00  0.7814777E-02  0.8442089E-01 -0.3508447E-03  0.8070128E-01
6363000. -0.4218221E-01  0.1861358E+00  0.7801140E-02  0.8933207E-01 -0.3635033E-03  0.8059550E-01
6362000. -0.4221072E-01  0.1771514E+00  0.7786734E-02  0.9423286E-01 -0.3761453E-03  0.8048744E-01
6361000. -0.4223782E-01  0.1681203E+00  0.7771559E-02  0.9912272E-01 -0.3887700E-03  0.8037709E-01
6360000. -0.4226350E-01  0.1590426E+00  0.7755618E-02  0.1040012E+00 -0.4013773E-03  0.8026446E-01
6359000. -0.4228775E-01  0.1499188E+00  0.7738911E-02  0.1088677E+00 -0.4139667E-03  0.8014956E-01
6358000. -0.4231056E-01  0.1407493E+00  0.7721442E-02  0.1137219E+00 -0.4265380E-03  0.8003239E-01
6357000. -0.4233193E-01  0.1315343E+00  0.7703213E-02  0.1185632E+00 -0.4390906E-03  0.7991294E-01
6356000. -0.4235185E-01  0.1222743E+00  0.7684223E-02  0.1233911E+00 -0.4516243E-03  0.7979122E-01
6356000. -0.4235185E-01  0.1358248E+00  0.7684223E-02  0.9435966E-01 -0.4516243E-03  0.8900649E-01
6355000. -0.4237264E-01  0.1291490E+00  0.7669163E-02  0.9753580E-01 -0.4655844E-03  0.8887246E-01
6354000. -0.4239239E-01  0.1224441E+00  0.7653605E-02  0.1007045E+00 -0.4795233E-03  0.8873667E-01
6353000. -0.4241108E-01  0.1157102E+00  0.7637550E-02  0.1038655E+00 -0.4934407E-03  0.8859911E-01
6352000. -0.4242871E-01  0.1089475E+00  0.7621000E-02  0.1070186E+00 -0.5073365E-03  0.8845978E-01
6351000. -0.4244528E-01  0.1021563E+00  0.7603955E-02  0.1101637E+00 -0.5212101E-03  0.8831870E-01
6350000. -0.4246078E-01  0.9533670E-01  0.7586417E-02  0.1133005E+00 -0.5350616E-03  0.8817585E-01
6349000. -0.4247521E-01  0.8848891E-01  0.7568387E-02  0.1164287E+00 -0.5488904E-03  0.8803125E-01
6348000. -0.4248856E-01  0.8161313E-01  0.7549868E-02  0.1195482E+00 -0.5626965E-03  0.8788489E-01
6347000. -0.4250083E-01  0.7470958E-01  0.7530859E-02  0.1226588E+00 -0.5764794E-03  0.8773679E-01
6346600. -0.4250543E-01  0.7194042E-01  0.7523119E-02  0.1239004E+00 -0.5819860E-03  0.8767705E-01
6346600. -0.4250543E-01  0.1624505E+00  0.7523119E-02  0.9996502E-01 -0.5819860E-03  0.1024981E+00
6318800. -0.4289803E-01  0.1433133E-01  0.6946940E-02  0.1630877E+00 -0.1019726E-02  0.9796027E-01
6291000. -0.4260491E-01 -0.1513496E+00  0.6110671E-02  0.2187781E+00 -0.1435355E-02  0.9236780E-01
6291000. -0.4260491E-01 -0.1494808E+00  0.6110671E-02  0.2252053E+00 -0.1435355E-02  0.9236780E-01
6263000. -0.4154504E-01 -0.3349794E+00  0.5011071E-02  0.2732663E+00 -0.1827048E-02  0.8570646E-01
6235000. -0.3964517E-01 -0.5309081E+00  0.3726985E-02  0.3088692E+00 -0.2187202E-02  0.7802245E-01
6207000. -0.3687102E-01 -0.7318882E+00  0.2316580E-02  0.3305558E+00 -0.2511430E-02  0.6936805E-01
6179000. -0.3321334E-01 -0.9319398E+00  0.8431280E-03  0.3374694E+00 -0.2795609E-02  0.5980936E-01
6151000. -0.2869015E-01 -0.1124667E+01 -0.6277153E-03  0.3293853E+00 -0.3035939E-02  0.4942817E-01
6151000. -0.2869015E-01 -0.9051470E+00 -0.6277153E-03  0.2925484E+00 -0.3035939E-02  0.5101546E-01
6128500. -0.2531255E-01 -0.1006003E+01 -0.1633594E-02  0.2759198E+00 -0.3204320E-02  0.4430357E-01
6106000. -0.2159734E-01 -0.1096047E+01 -0.2568698E-02  0.2525768E+00 -0.3348630E-02  0.3739142E-01
6083500. -0.1758570E-01 -0.1173627E+01 -0.3410550E-02  0.2232415E+00 -0.3468246E-02  0.3032676E-01
6061000. -0.1332424E-01 -0.1237304E+01 -0.4139446E-02  0.1887586E+00 -0.3562713E-02  0.2315717E-01
6038500. -0.8864225E-02 -0.1285904E+01 -0.4738854E-02  0.1500754E+00 -0.3631742E-02  0.1592885E-01
6016000. -0.4260574E-02 -0.1318518E+01 -0.5195724E-02  0.1082134E+00 -0.3675207E-02  0.8686790E-02
5993500.  0.4290671E-03 -0.1334527E+01 -0.5500708E-02  0.6424141E-01 -0.3693135E-02  0.1474579E-02
5971000.  0.5145428E-02 -0.1333625E+01 -0.5648280E-02  0.1925163E-01 -0.3685706E-02 -0.5666174E-02
5971000.  0.5145428E-02 -0.1220642E+01 -0.5648280E-02  0.1586198E-01 -0.3685706E-02 -0.6339754E-02
5937667.  0.1139005E-01 -0.1161631E+01 -0.5572659E-02 -0.4383242E-01 -0.3627872E-02 -0.1567447E-01
5904333.  0.1725444E-01 -0.1075914E+01 -0.5201262E-02 -0.9686487E-01 -0.3522721E-02 -0.2441607E-01
5871000.  0.2260974E-01 -0.9678541E+00 -0.4573632E-02 -0.1415607E+00 -0.3373505E-02 -0.3251345E-01
5837667.  0.2735141E-01 -0.8421567E+00 -0.3736368E-02 -0.1768749E+00 -0.3183677E-02 -0.3993693E-01
5804333.  0.3139996E-01 -0.7036602E+00 -0.2740018E-02 -0.2023242E+00 -0.2956796E-02 -0.4667407E-01
5771000.  0.3470074E-01 -0.5571457E+00 -0.1636454E-02 -0.2179065E+00 -0.2696467E-02 -0.5272755E-01
5771000.  0.3470074E-01 -0.5571628E+00 -0.1636454E-02 -0.2179007E+00 -0.2696467E-02 -0.5272755E-01
5701000.  0.3920766E-01 -0.2581912E+00  0.8803175E-03 -0.2335900E+00 -0.2065787E-02 -0.6164424E-01
5701000.  0.3920766E-01 -0.2142532E+00  0.8803175E-03 -0.1934734E+00 -0.2065787E-02 -0.7269546E-01
5667333.  0.3998071E-01 -0.8191273E-01  0.1859870E-02 -0.1784066E+00 -0.1673433E-02 -0.7574962E-01
5633667.  0.4009446E-01  0.3822815E-01  0.2774783E-02 -0.1676798E+00 -0.1265535E-02 -0.7857484E-01
5600000.  0.3958349E-01  0.1541904E+00  0.3621341E-02 -0.1517670E+00 -0.8440013E-03 -0.8086914E-01
5600000.  0.3958349E-01  0.1541904E+00  0.3621341E-02 -0.1517670E+00 -0.8440013E-03 -0.8086914E-01
5563518.  0.3835835E-01  0.2721473E+00  0.4428439E-02 -0.1292800E+00 -0.3752047E-03 -0.8276361E-01
5527037.  0.3648742E-01  0.3793222E+00  0.5093027E-02 -0.1021458E+00  0.1026685E-03 -0.8404575E-01
5490556.  0.3403974E-01  0.4732026E+00  0.5591137E-02 -0.7129676E-01  0.5861636E-03 -0.8473046E-01
5454074.  0.3109766E-01  0.5516676E+00  0.5904406E-02 -0.3776004E-01  0.1071932E-02 -0.8483770E-01
5417593.  0.2775440E-01  0.6131283E+00  0.6020536E-02 -0.2627196E-02  0.1556679E-02 -0.8438142E-01
5381111.  0.2411065E-01  0.6564381E+00  0.5933555E-02  0.3299597E-01  0.2037269E-02 -0.8338523E-01
5344630.  0.2027255E-01  0.6809989E+00  0.5643825E-02  0.6801026E-01  0.2510649E-02 -0.8187164E-01
5308148.  0.1634755E-01  0.6867797E+00  0.5157829E-02  0.1013723E+00  0.2973946E-02 -0.7986276E-01
5271667.  0.1244253E-01  0.6741736E+00  0.4487928E-02  0.1320929E+00  0.3424374E-02 -0.7738567E-01
5235185.  0.8659990E-02  0.6441686E+00  0.3651755E-02  0.1593051E+00  0.3859348E-02 -0.7446501E-01
5198704.  0.5095854E-02  0.5981839E+00  0.2671644E-02  0.1822588E+00  0.4276377E-02 -0.7112654E-01
5162222.  0.1836660E-02  0.5379617E+00  0.1573819E-02  0.2003186E+00  0.4673170E-02 -0.6739794E-01
5125741. -0.1042141E-02  0.4657449E+00  0.3877081E-03  0.2130453E+00  0.5047549E-02 -0.6330600E-01
5089259. -0.3478894E-02  0.3839575E+00 -0.8552782E-03  0.2201319E+00  0.5397531E-02 -0.5887758E-01
5052778. -0.5426113E-02  0.2952461E+00 -0.2122256E-02  0.2214289E+00  0.5721248E-02 -0.5414031E-01
5016296. -0.6852358E-02  0.2024521E+00 -0.3380189E-02  0.2169794E+00  0.6017029E-02 -0.4912193E-01
4979815. -0.7742311E-02  0.1084174E+00 -0.4596526E-02  0.2069531E+00  0.6283326E-02 -0.4384986E-01
4943333. -0.8097084E-02  0.1599456E-01 -0.5740265E-02  0.1916802E+00  0.6518781E-02 -0.3835167E-01
4906852. -0.7933938E-02 -0.7203425E-01 -0.6782603E-02  0.1716324E+00  0.6722167E-02 -0.3265592E-01
4870370. -0.7285447E-02 -0.1531050E+00 -0.7697804E-02  0.1473702E+00  0.6892440E-02 -0.2678904E-01
4833889. -0.6198473E-02 -0.2248181E+00 -0.8463613E-02  0.1195833E+00  0.7028694E-02 -0.2077978E-01
4797407. -0.4732671E-02 -0.2850913E+00 -0.9062016E-02  0.8902242E-01  0.7130198E-02 -0.1465538E-01
4760926. -0.2958756E-02 -0.3321869E+00 -0.9479361E-02  0.5648748E-01  0.7196364E-02 -0.8442871E-02
4724444. -0.9562777E-03 -0.3647061E+00 -0.9706777E-02  0.2282391E-01  0.7226771E-02 -0.2169376E-02
4687963.  0.1188201E-02 -0.3816783E+00 -0.9740214E-02 -0.1112219E-01  0.7221144E-02  0.4138449E-02
4651482.  0.3383945E-02 -0.3825542E+00 -0.9580459E-02 -0.4451612E-01  0.7179360E-02  0.1045495E-01
4615000.  0.5538254E-02 -0.3671996E+00 -0.9232977E-02 -0.7655901E-01  0.7101439E-02  0.1675559E-01
4578518.  0.7558804E-02 -0.3359229E+00 -0.8707684E-02 -0.1065000E+00  0.6987543E-02  0.2301590E-01
4542037.  0.9356248E-02 -0.2894425E+00 -0.8018617E-02 -0.1336611E+00  0.6837973E-02  0.2921319E-01
4505556.  0.1084653E-01 -0.2288539E+00 -0.7183397E-02 -0.1574564E+00  0.6653146E-02  0.3532721E-01
4469074.  0.1195299E-01 -0.1556427E+00 -0.6222768E-02 -0.1773801E+00  0.6433592E-02  0.4133731E-01
4432593.  0.1260823E-01 -0.7158030E-01 -0.5160099E-02 -0.1930524E+00  0.6179966E-02  0.4722718E-01
4396111.  0.1275588E-01  0.2128372E-01 -0.4020503E-02 -0.2041997E+00  0.5892986E-02  0.5298225E-01
4359630.  0.1235207E-01  0.1206382E+00 -0.2830511E-02 -0.2106490E+00  0.5573480E-02  0.5858829E-01
4323148.  0.1136643E-01  0.2240855E+00 -0.1617095E-02 -0.2123735E+00  0.5222308E-02  0.6403795E-01
4286667.  0.9782852E-02  0.3290632E+00 -0.4072380E-03 -0.2094363E+00  0.4840408E-02  0.6932381E-01
4250185.  0.7599918E-02  0.4329796E+00  0.7728737E-03 -0.2020132E+00  0.4428705E-02  0.7444289E-01
4213704.  0.4831104E-02  0.5332994E+00  0.1898288E-02 -0.1903978E+00  0.3988177E-02  0.7939663E-01
4177222.  0.1504087E-02  0.6275086E+00  0.2946052E-02 -0.1749491E+00  0.3519733E-02  0.8418950E-01
4140741. -0.2339146E-02  0.7132662E+00  0.3895426E-02 -0.1561259E+00  0.3024299E-02  0.8883031E-01
4104259. -0.6644249E-02  0.7884430E+00  0.4728621E-02 -0.1344525E+00  0.2502681E-02  0.9333295E-01
4067778. -0.1134457E-01  0.8510506E+00  0.5430846E-02 -0.1104873E+00  0.1955645E-02  0.9771606E-01
4031296. -0.1636368E-01  0.8994992E+00  0.5990775E-02 -0.8485295E-01  0.1383787E-02  0.1020018E+00
3994815. -0.2161629E-01  0.9324551E+00  0.6400639E-02 -0.5818257E-01  0.7876174E-03  0.1062185E+00
3958333. -0.2701080E-01  0.9488760E+00  0.6656326E-02 -0.3110781E-01  0.1673943E-03  0.1104032E+00
3921852. -0.3245042E-01  0.9481938E+00  0.6757368E-02 -0.4275600E-02 -0.4767638E-03  0.1145912E+00
3885370. -0.3783654E-01  0.9301224E+00  0.6706915E-02  0.2170610E-01 -0.1145044E-02  0.1188311E+00
3848889. -0.4306941E-01  0.8947749E+00  0.6511524E-02  0.4625410E-01 -0.1837861E-02  0.1231762E+00
3812407. -0.4805174E-01  0.8426787E+00  0.6180962E-02  0.6883045E-01 -0.2556005E-02  0.1276810E+00
3775926. -0.5268956E-01  0.7746571E+00  0.5727941E-02  0.8895436E-01 -0.3300554E-02  0.1324182E+00
3739444. -0.5689521E-01  0.6919261E+00  0.5167711E-02  0.1062062E+00 -0.4073085E-02  0.1374589E+00
3702963. -0.6058852E-01  0.5960218E+00  0.4517784E-02  0.1202366E+00 -0.4875507E-02  0.1428810E+00
3666482. -0.6369914E-01  0.4887279E+00  0.3797416E-02  0.1307705E+00 -0.5710316E-02  0.1487878E+00
3630000. -0.6616775E-01  0.3721210E+00  0.3027209E-02  0.1376105E+00 -0.6580575E-02  0.1552709E+00
3630000. -0.6616775E-01  0.3721210E+00  0.3027209E-02  0.1376105E+00 -0.6580575E-02  0.1552709E+00
3592500. -0.6798678E-01  0.2449486E+00  0.2206244E-02  0.1406642E+00 -0.7515871E-02  0.1626640E+00
3555000. -0.6904191E-01  0.1130133E+00  0.1379302E-02  0.1396410E+00 -0.8497186E-02  0.1709307E+00
3517500. -0.6931327E-01 -0.2089453E-01  0.5703068E-03  0.1345787E+00 -0.9530074E-02  0.1802144E+00
3480000. -0.6879775E-01 -0.1538695E+00 -0.1972629E-03  0.1255902E+00 -0.1062103E-01  0.1906931E+00
3480000. -0.6879775E-01 -0.5436216E-01  0.1008231E-02 -0.1278190E+00 -0.1062103E-01  0.4100814E+00
3409422. -0.6664456E-01 -0.3270703E+00  0.2436519E-02 -0.1291203E+00 -0.1520597E-01  0.4137268E+00
3338844. -0.6172856E-01 -0.5518954E+00  0.3849583E-02 -0.1251641E+00 -0.1970586E-01  0.3952724E+00
3268266. -0.5461381E-01 -0.7234915E+00  0.5192648E-02 -0.1166065E+00 -0.2389532E-01  0.3583341E+00
3197688. -0.4590080E-01 -0.8405130E+00  0.6419088E-02 -0.1042516E+00 -0.2759194E-01  0.3070004E+00
3127109. -0.3618596E-01 -0.9048910E+00  0.7491706E-02 -0.8898464E-01 -0.3065986E-01  0.2455316E+00
3056531. -0.2602992E-01 -0.9211146E+00  0.8383264E-02 -0.7171700E-01 -0.3301002E-01  0.1781043E+00
2985953. -0.1593239E-01 -0.8954908E+00  0.9076572E-02 -0.5333766E-01 -0.3459831E-01  0.1085960E+00
2915375. -0.6316543E-02 -0.8354552E+00  0.9563982E-02 -0.3467555E-01 -0.3542111E-01  0.4043124E-01
2844797.  0.2480341E-02 -0.7489799E+00  0.9846531E-02 -0.1646643E-01 -0.3550972E-01 -0.2352526E-01
2774219.  0.1020972E-01 -0.6440353E+00  0.9932803E-02  0.6661315E-03 -0.3492380E-01 -0.8102690E-01
2703641.  0.1670944E-01 -0.5281905E+00  0.9837617E-02  0.1622008E-01 -0.3374436E-01 -0.1304606E+00
2633062.  0.2189755E-01 -0.4082959E+00  0.9580644E-02  0.2982363E-01 -0.3206683E-01 -0.1708280E+00
2562484.  0.2576270E-01 -0.2902536E+00  0.9184957E-02  0.4123309E-01 -0.2999461E-01 -0.2016948E+00
2491906.  0.2835325E-01 -0.1788959E+00  0.8675671E-02  0.5032058E-01 -0.2763298E-01 -0.2231252E+00
2421328.  0.2976482E-01 -0.7792998E-01  0.8078715E-02  0.5706594E-01 -0.2508417E-01 -0.2355962E+00
2350750.  0.3012799E-01  0.1003745E-01  0.7419694E-02  0.6154507E-01 -0.2244326E-01 -0.2399087E+00
2280172.  0.2959629E-01  0.8345237E-01  0.6722942E-02  0.6390811E-01 -0.1979507E-01 -0.2370977E+00
2209594.  0.2833515E-01  0.1416943E+00  0.6010790E-02  0.6436460E-01 -0.1721207E-01 -0.2283427E+00
2139016.  0.2651233E-01  0.1849473E+00  0.5302993E-02  0.6316614E-01 -0.1475325E-01 -0.2148887E+00
2068438.  0.2428979E-01  0.2140443E+00  0.4616367E-02  0.6059047E-01 -0.1246376E-01 -0.1979760E+00
1997859.  0.2181730E-01  0.2303232E+00  0.3964561E-02  0.5692585E-01 -0.1037527E-01 -0.1787830E+00
1927281.  0.1922789E-01  0.2354590E+00  0.3358077E-02  0.5245663E-01 -0.8507055E-02 -0.1583816E+00
1856703.  0.1663466E-01  0.2313364E+00  0.2804298E-02  0.4745388E-01 -0.6867165E-02 -0.1377043E+00
1786125.  0.1412936E-01  0.2199094E+00  0.2307738E-02  0.4216552E-01 -0.5454214E-02 -0.1175260E+00
1715547.  0.1178221E-01  0.2030986E+00  0.1870325E-02  0.3680927E-01 -0.4259143E-02 -0.9845636E-01
1644969.  0.9642722E-02  0.1827026E+00  0.1491757E-02  0.3156954E-01 -0.3267054E-02 -0.8094126E-01
1574391.  0.7741523E-02  0.1603280E+00  0.1169887E-02  0.2659458E-01 -0.2458967E-02 -0.6527390E-01
1503812.  0.6092680E-02  0.1373459E+00  0.9011276E-03  0.2199638E-01 -0.1813418E-02 -0.5161122E-01
1433234.  0.4696579E-02  0.1148644E+00  0.6808481E-03  0.1785298E-01 -0.1307882E-02 -0.3999712E-01
1362656.  0.3542784E-02  0.9371618E-01  0.5037212E-03  0.1421119E-01 -0.9198323E-03 -0.3038754E-01
1292078.  0.2613193E-02  0.7445651E-01  0.3640517E-03  0.1109222E-01 -0.6275797E-03 -0.2268266E-01
1221500.  0.1885098E-02  0.5736019E-01  0.2560207E-03  0.8498610E-02 -0.4106758E-03 -0.1676608E-01
1221500.  0.1885098E-02 -0.1017465E+00 -0.2307916E-03 -0.1103589E-01 -0.4106758E-03 -0.1758271E-01
1183328.  0.2446891E-02 -0.8513849E-01 -0.1621425E-03 -0.1174547E-01 -0.3164224E-03 -0.1399656E-01
1145156.  0.2898962E-02 -0.6534733E-01 -0.9162311E-04 -0.1166672E-01 -0.2416628E-03 -0.1105754E-01
1106984.  0.3226418E-02 -0.4378273E-01 -0.2377122E-04 -0.1087257E-01 -0.1828299E-03 -0.8664425E-02
1068812.  0.3422957E-02 -0.2188303E-01  0.3749254E-04 -0.9493047E-02 -0.1369221E-03 -0.6729533E-02
1030641.  0.3490678E-02 -0.9942595E-03  0.8914789E-04 -0.7695694E-02 -0.1014274E-03 -0.5177053E-02
 992469.  0.3439203E-02  0.1773386E-01  0.1292425E-03 -0.5664633E-02 -0.7425350E-04 -0.3941680E-02
 954297.  0.3284268E-02  0.3341915E-01  0.1569237E-03 -0.3581088E-02 -0.5367273E-04 -0.2967632E-02
 916125.  0.3045972E-02  0.4549247E-01  0.1723740E-03 -0.1606408E-02 -0.3826615E-04 -0.2207193E-02
 877953.  0.2746850E-02  0.5370792E-01  0.1766498E-03  0.1307130E-03 -0.2687828E-04 -0.1619998E-02
 839781.  0.2409987E-02  0.5812401E-01  0.1714625E-03  0.1541080E-02 -0.1857611E-04 -0.1171976E-02
 801609.  0.2057304E-02  0.5906067E-01  0.1589302E-03  0.2578139E-02 -0.1261387E-04 -0.8345889E-03
 763438.  0.1708183E-02  0.5703774E-01  0.1413302E-03  0.3234829E-02 -0.8401930E-05 -0.5841737E-03
 725266.  0.1378439E-02  0.5270458E-01  0.1208735E-03  0.3538436E-02 -0.5479333E-05 -0.4012305E-03
 687094.  0.1079821E-02  0.4676691E-01  0.9952988E-04  0.3541281E-02 -0.3491181E-05 -0.2698826E-03
 648922.  0.8198359E-03  0.3992026E-01  0.7890244E-04  0.3311526E-02 -0.2167895E-05 -0.1774028E-03
 610750.  0.6020037E-03  0.3279312E-01  0.6016339E-04  0.2923329E-02 -0.1308140E-05 -0.1136616E-03
 572578.  0.4263835E-03  0.2590599E-01  0.4404442E-04  0.2448275E-02 -0.7644005E-06 -0.7076336E-04
 534406.  0.2903049E-03  0.1964713E-01  0.3087320E-04  0.1948730E-02 -0.4307562E-06 -0.4265571E-04
 496234.  0.1891893E-03  0.1426525E-01  0.2064280E-04  0.1473500E-02 -0.2329003E-06 -0.2478578E-04
 458062.  0.1173709E-03  0.9876928E-02  0.1309985E-04  0.1055903E-02 -0.1200570E-06 -0.1380635E-04
 419891.  0.6883640E-04  0.6485993E-02  0.7837757E-05  0.7140176E-03 -0.5853514E-07 -0.7321968E-05
 381719.  0.3781888E-04  0.4009998E-02  0.4382296E-05  0.4526550E-03 -0.2671444E-07 -0.3663672E-05
 343547.  0.1923073E-04  0.2310966E-02  0.2262845E-05  0.2665186E-03 -0.1125773E-07 -0.1709361E-05
 305375.  0.8903052E-05  0.1224434E-02  0.1061672E-05  0.1438167E-03 -0.4299674E-08 -0.7317312E-06
 267203.  0.3666813E-05  0.5848667E-03  0.4423046E-06  0.6976738E-04 -0.1449853E-08 -0.2809178E-06
 229031.  0.1298642E-05  0.2446801E-03  0.1581780E-06  0.2956789E-04 -0.4152861E-09 -0.9353368E-07
 190859.  0.3751690E-06  0.8570099E-04  0.4606715E-07  0.1046724E-04 -0.9515030E-10 -0.2562896E-07
 152688.  0.8092778E-07  0.2330001E-04  0.1000202E-07  0.2870092E-05 -0.1576711E-10 -0.5292450E-08
 114516.  0.1104071E-07  0.4265302E-05  0.1371380E-08  0.5288214E-06 -0.1563416E-11 -0.6979797E-09
  76344.  0.6562882E-09  0.3820195E-06  0.8180703E-10  0.4758061E-07 -0.6060295E-13 -0.4051099E-10
  38172.  0.5174997E-11  0.6040639E-08  0.6464212E-12  0.7543991E-09 -0.2359223E-15 -0.3151619E-12
      0.  0.0000000E+00  0.0000000E+00  0.0000000E+00  0.0000000E+00  0.0000000E+00  0.0000000E+00
