       4        9 S      278        269.43481         15.63904          6.34423        326.98340      185    7
6371000. -0.9637190E-01  0.4799563E+00  0.1141655E-01  0.1077885E+00  0.5542934E-04  0.1811806E+00
6370000. -0.9644639E-01  0.4693146E+00  0.1139935E-01  0.1113385E+00  0.2700387E-04  0.1810163E+00
6369000. -0.9651922E-01  0.4586274E+00  0.1138160E-01  0.1148805E+00 -0.1395622E-05  0.1808496E+00
6368000. -0.9659036E-01  0.4478950E+00  0.1136329E-01  0.1184143E+00 -0.2976877E-04  0.1806805E+00
6368000. -0.9659036E-01  0.4478950E+00  0.1136329E-01  0.1184143E+00 -0.2976877E-04  0.1806805E+00
6367000. -0.9665982E-01  0.4371175E+00  0.1134443E-01  0.1219398E+00 -0.5811518E-04  0.1805090E+00
6366000. -0.9672759E-01  0.4262953E+00  0.1132501E-01  0.1254568E+00 -0.8643447E-04  0.1803350E+00
6365000. -0.9679364E-01  0.4154286E+00  0.1130504E-01  0.1289650E+00 -0.1147263E-03  0.1801587E+00
6364000. -0.9685799E-01  0.4045176E+00  0.1128452E-01  0.1324644E+00 -0.1429902E-03  0.1799798E+00
6363000. -0.9692063E-01  0.3935626E+00  0.1126346E-01  0.1359546E+00 -0.1712259E-03  0.1797986E+00
6362000. -0.9698154E-01  0.3825637E+00  0.1124185E-01  0.1394356E+00 -0.1994329E-03  0.1796150E+00
6361000. -0.9704072E-01  0.3715212E+00  0.1121969E-01  0.1429071E+00 -0.2276109E-03  0.1794289E+00
6360000. -0.9709816E-01  0.3604355E+00  0.1119698E-01  0.1463691E+00 -0.2557595E-03  0.1792404E+00
6359000. -0.9715386E-01  0.3493066E+00  0.1117374E-01  0.1498212E+00 -0.2838784E-03  0.1790495E+00
6358000. -0.9720782E-01  0.3381349E+00  0.1114995E-01  0.1532633E+00 -0.3119670E-03  0.1788562E+00
6357000. -0.9726001E-01  0.3269206E+00  0.1112563E-01  0.1566953E+00 -0.3400252E-03  0.1786604E+00
6356000. -0.9731045E-01  0.3156641E+00  0.1110076E-01  0.1601170E+00 -0.3680525E-03  0.1784623E+00
6356000. -0.9731045E-01  0.3108702E+00  0.1110076E-01  0.1397220E+00 -0.3680525E-03  0.1996359E+00
6355000. -0.9735860E-01  0.3027119E+00  0.1107866E-01  0.1418962E+00 -0.3993699E-03  0.1994107E+00
6354000. -0.9740547E-01  0.2945269E+00  0.1105622E-01  0.1440641E+00 -0.4306519E-03  0.1991837E+00
6353000. -0.9745105E-01  0.2863155E+00  0.1103344E-01  0.1462257E+00 -0.4618980E-03  0.1989550E+00
6352000. -0.9749535E-01  0.2780778E+00  0.1101032E-01  0.1483809E+00 -0.4931082E-03  0.1987246E+00
6351000. -0.9753835E-01  0.2698138E+00  0.1098686E-01  0.1505296E+00 -0.5242820E-03  0.1984924E+00
6350000. -0.9758005E-01  0.2615238E+00  0.1096306E-01  0.1526719E+00 -0.5554194E-03  0.1982585E+00
6349000. -0.9762045E-01  0.2532080E+00  0.1093893E-01  0.1548075E+00 -0.5865198E-03  0.1980228E+00
6348000. -0.9765954E-01  0.2448663E+00  0.1091446E-01  0.1569365E+00 -0.6175830E-03  0.1977855E+00
6347000. -0.9769732E-01  0.2364990E+00  0.1088967E-01  0.1590587E+00 -0.6486090E-03  0.1975463E+00
6346600. -0.9771205E-01  0.2331449E+00  0.1087965E-01  0.1599056E+00 -0.6610088E-03  0.1974502E+00
6346600. -0.9771205E-01  0.3651260E+00  0.1087965E-01  0.1433715E+00 -0.6610088E-03  0.2315210E+00
6318800. -0.9892230E-01  0.1866339E+00  0.1016328E-01  0.1842540E+00 -0.1656098E-02  0.2244161E+00
6291000. -0.9931638E-01 -0.8640888E-02  0.9278537E-02  0.2204119E+00 -0.2618123E-02  0.2163659E+00
6291000. -0.9931638E-01 -0.8707414E-04  0.9278537E-02  0.2248730E+00 -0.2618123E-02  0.2163659E+00
6263000. -0.9884526E-01 -0.2166888E+00  0.8216761E-02  0.2572689E+00 -0.3549640E-02  0.2073755E+00
6235000. -0.9739275E-01 -0.4462016E+00  0.7026816E-02  0.2830966E+00 -0.4439466E-02  0.1973942E+00
6207000. -0.9490886E-01 -0.6854949E+00  0.5738811E-02  0.3018168E+00 -0.5283256E-02  0.1864267E+00
6179000. -0.9135812E-01 -0.9310855E+00  0.4384880E-02  0.3130464E+00 -0.6076695E-02  0.1744833E+00
6151000. -0.8672111E-01 -0.1179169E+01  0.2998493E-02  0.3165640E+00 -0.6815532E-02  0.1615825E+00
6151000. -0.8672111E-01 -0.9133162E+00  0.2998493E-02  0.2888923E+00 -0.6815532E-02  0.1663803E+00
6128500. -0.8324709E-01 -0.1053277E+01  0.1983832E-02  0.2850605E+00 -0.7389380E-02  0.1585514E+00
6106000. -0.7928801E-01 -0.1187809E+01  0.9896072E-03  0.2773482E+00 -0.7935123E-02  0.1504688E+00
6083500. -0.7486520E-01 -0.1315703E+01  0.2919381E-04  0.2659477E+00 -0.8451916E-02  0.1421623E+00
6061000. -0.7000414E-01 -0.1435816E+01 -0.8847773E-03  0.2510888E+00 -0.8939024E-02  0.1336627E+00
6038500. -0.6473421E-01 -0.1547091E+01 -0.1740552E-02  0.2330375E+00 -0.9395816E-02  0.1249983E+00
6016000. -0.5908838E-01 -0.1648550E+01 -0.2527371E-02  0.2120900E+00 -0.9821759E-02  0.1161971E+00
5993500. -0.5310288E-01 -0.1739311E+01 -0.3235566E-02  0.1885672E+00 -0.1021642E-01  0.1072873E+00
5971000. -0.4681688E-01 -0.1818612E+01 -0.3856641E-02  0.1628121E+00 -0.1057946E-01  0.9829446E-01
5971000. -0.4681688E-01 -0.1653820E+01 -0.3856641E-02  0.1499255E+00 -0.1057946E-01  0.1044232E+00
5937667. -0.3803817E-01 -0.1697709E+01 -0.4537789E-02  0.1103773E+00 -0.1109656E-01  0.9330270E-01
5904333. -0.2909467E-01 -0.1716912E+01 -0.5011801E-02  0.7091562E-01 -0.1155645E-01  0.8256119E-01
5871000. -0.2011267E-01 -0.1712780E+01 -0.5281707E-02  0.3250584E-01 -0.1196127E-01  0.7226373E-01
5837667. -0.1120981E-01 -0.1686958E+01 -0.5355150E-02 -0.4069391E-02 -0.1231348E-01  0.6245880E-01
5804333. -0.2494481E-02 -0.1641316E+01 -0.5243399E-02 -0.3819616E-01 -0.1261576E-01  0.5318007E-01
5771000.  0.5934254E-02 -0.1577852E+01 -0.4960546E-02 -0.6941253E-01 -0.1287092E-01  0.4444929E-01
5771000.  0.5934254E-02 -0.1577897E+01 -0.4960546E-02 -0.6941066E-01 -0.1287092E-01  0.4444929E-01
5701000.  0.2280059E-01 -0.1478496E+01 -0.3846502E-02 -0.1319653E+00 -0.1326546E-01  0.2755595E-01
5701000.  0.2280059E-01 -0.1241969E+01 -0.3846502E-02 -0.1104095E+00 -0.1326546E-01  0.2112928E-01
5667333.  0.2902782E-01 -0.1124681E+01 -0.3227661E-02 -0.1242445E+00 -0.1336400E-01  0.1633039E-01
5633667.  0.3477228E-01 -0.1051679E+01 -0.2526887E-02 -0.1411758E+00 -0.1343868E-01  0.1194450E-01
5600000.  0.4011572E-01 -0.9683120E+00 -0.1740018E-02 -0.1561803E+00 -0.1349061E-01  0.7758601E-02
5600000.  0.4011572E-01 -0.9683120E+00 -0.1740018E-02 -0.1561803E+00 -0.1349061E-01  0.7758601E-02
5563518.  0.4537649E-01 -0.8674181E+00 -0.8048029E-03 -0.1700345E+00 -0.1352270E-01  0.3497085E-02
5527037.  0.5003139E-01 -0.7569735E+00  0.2022769E-03 -0.1812704E+00 -0.1353121E-01 -0.4800585E-03
5490556.  0.5402987E-01 -0.6383721E+00  0.1265952E-02 -0.1897874E+00 -0.1351774E-01 -0.4178009E-02
5454074.  0.5732936E-01 -0.5130662E+00  0.2370475E-02 -0.1955227E+00 -0.1348387E-01 -0.7606776E-02
5417593.  0.5989607E-01 -0.3827184E+00  0.3499845E-02 -0.1984790E+00 -0.1343115E-01 -0.1076426E-01
5381111.  0.6170567E-01 -0.2488653E+00  0.4638259E-02 -0.1986772E+00 -0.1336108E-01 -0.1366407E-01
5344630.  0.6274260E-01 -0.1131321E+00  0.5770031E-02 -0.1961857E+00 -0.1327514E-01 -0.1631404E-01
5308148.  0.6300083E-01  0.2286302E-01  0.6880128E-02 -0.1911151E+00 -0.1317472E-01 -0.1871959E-01
5271667.  0.6248327E-01  0.1575790E+00  0.7954055E-02 -0.1835875E+00 -0.1306119E-01 -0.2089784E-01
5235185.  0.6120163E-01  0.2894750E+00  0.8978277E-02 -0.1737753E+00 -0.1293581E-01 -0.2285449E-01
5198704.  0.5917639E-01  0.4170852E+00  0.9940199E-02 -0.1618684E+00 -0.1279986E-01 -0.2459764E-01
5162222.  0.5643590E-01  0.5390460E+00  0.1082842E-01 -0.1480634E+00 -0.1265448E-01 -0.2614721E-01
5125741.  0.5301645E-01  0.6540550E+00  0.1163271E-01 -0.1326000E+00 -0.1250078E-01 -0.2750404E-01
5089259.  0.4896107E-01  0.7609419E+00  0.1234429E-01 -0.1157121E+00 -0.1233983E-01 -0.2868051E-01
5052778.  0.4431962E-01  0.8586246E+00  0.1295564E-01 -0.9764637E-01 -0.1217264E-01 -0.2968948E-01
5016296.  0.3914728E-01  0.9461805E+00  0.1346081E-01 -0.7866175E-01 -0.1200013E-01 -0.3053466E-01
4979815.  0.3350472E-01  0.1022786E+01  0.1385524E-01 -0.5901220E-01 -0.1182324E-01 -0.3122667E-01
4943333.  0.2745632E-01  0.1087775E+01  0.1413586E-01 -0.3895322E-01 -0.1164279E-01 -0.3177239E-01
4906852.  0.2107049E-01  0.1140628E+01  0.1430105E-01 -0.1873666E-01 -0.1145964E-01 -0.3217533E-01
4870370.  0.1441763E-01  0.1180924E+01  0.1435060E-01  0.1396817E-02 -0.1127456E-01 -0.3244347E-01
4833889.  0.7570728E-02  0.1208440E+01  0.1428566E-01  0.2121215E-01 -0.1108834E-01 -0.3257901E-01
4797407.  0.6029215E-03  0.1223076E+01  0.1410869E-01  0.4049267E-01 -0.1090170E-01 -0.3258429E-01
4760926. -0.6411564E-02  0.1224827E+01  0.1382335E-01  0.5903026E-01 -0.1071541E-01 -0.3246136E-01
4724444. -0.1339983E-01  0.1213891E+01  0.1343442E-01  0.7664017E-01 -0.1053019E-01 -0.3221090E-01
4687963. -0.2028959E-01  0.1190544E+01  0.1294774E-01  0.9315219E-01 -0.1034677E-01 -0.3183149E-01
4651482. -0.2701103E-01  0.1155178E+01  0.1237002E-01  0.1084144E+00 -0.1016590E-01 -0.3132017E-01
4615000. -0.3349702E-01  0.1108341E+01  0.1170876E-01  0.1223021E+00 -0.9988330E-02 -0.3067592E-01
4578518. -0.3968337E-01  0.1050627E+01  0.1097219E-01  0.1347034E+00 -0.9814849E-02 -0.2989147E-01
4542037. -0.4550964E-01  0.9827614E+00  0.1016910E-01  0.1455316E+00 -0.9646281E-02 -0.2896157E-01
4505556. -0.5092015E-01  0.9055454E+00  0.9308653E-02  0.1547254E+00 -0.9483458E-02 -0.2788203E-01
4469074. -0.5586387E-01  0.8198201E+00  0.8400346E-02  0.1622342E+00 -0.9327282E-02 -0.2663724E-01
4432593. -0.6029447E-01  0.7265298E+00  0.7453944E-02  0.1680384E+00 -0.9178720E-02 -0.2522340E-01
4396111. -0.6417162E-01  0.6266373E+00  0.6479168E-02  0.1721354E+00 -0.9038758E-02 -0.2362856E-01
4359630. -0.6746017E-01  0.5211533E+00  0.5485834E-02  0.1745340E+00 -0.8908505E-02 -0.2183237E-01
4323148. -0.7013123E-01  0.4111051E+00  0.4483509E-02  0.1752730E+00 -0.8789118E-02 -0.1982944E-01
4286667. -0.7216152E-01  0.2975426E+00  0.3481625E-02  0.1743986E+00 -0.8681847E-02 -0.1759773E-01
4250185. -0.7353403E-01  0.1815148E+00  0.2489196E-02  0.1719730E+00 -0.8588061E-02 -0.1511633E-01
4213704. -0.7423753E-01  0.6405782E-01  0.1514934E-02  0.1680772E+00 -0.8509230E-02 -0.1237122E-01
4177222. -0.7426684E-01 -0.5379811E-01  0.5669626E-03  0.1627958E+00 -0.8446947E-02 -0.9330823E-02
4140741. -0.7362255E-01 -0.1710540E+00 -0.3470099E-03  0.1562292E+00 -0.8402975E-02 -0.5972640E-02
4104259. -0.7231078E-01 -0.2867695E+00 -0.1219983E-02  0.1484850E+00 -0.8379199E-02 -0.2271015E-02
4067778. -0.7034319E-01 -0.3999781E+00 -0.2045475E-02  0.1396728E+00 -0.8377709E-02  0.1818036E-02
4031296. -0.6773646E-01 -0.5098496E+00 -0.2817756E-02  0.1299125E+00 -0.8400810E-02  0.6322084E-02
3994815. -0.6451219E-01 -0.6155621E+00 -0.3531701E-02  0.1193240E+00 -0.8450982E-02  0.1128287E-01
3958333. -0.6069636E-01 -0.7163126E+00 -0.4182942E-02  0.1080257E+00 -0.8531010E-02  0.1675732E-01
3921852. -0.5631948E-01 -0.8114585E+00 -0.4767732E-02  0.9614021E-01 -0.8643950E-02  0.2278782E-01
3885370. -0.5141526E-01 -0.9003410E+00 -0.5283073E-02  0.8378281E-01 -0.8793171E-02  0.2943915E-01
3848889. -0.4602163E-01 -0.9823715E+00 -0.5726563E-02  0.7106774E-01 -0.8982418E-02  0.3678153E-01
3812407. -0.4017879E-01 -0.1057105E+01 -0.6096487E-02  0.5810170E-01 -0.9215860E-02  0.4488647E-01
3775926. -0.3393031E-01 -0.1124034E+01 -0.6391680E-02  0.4498513E-01 -0.9498108E-02  0.5384757E-01
3739444. -0.2732160E-01 -0.1182818E+01 -0.6611562E-02  0.3180974E-01 -0.9834364E-02  0.6376322E-01
3702963. -0.2040043E-01 -0.1233173E+01 -0.6756023E-02  0.1865655E-01 -0.1023038E-01  0.7474452E-01
3666482. -0.1321596E-01 -0.1274747E+01 -0.6825400E-02  0.5596145E-02 -0.1069265E-01  0.8692688E-01
3630000. -0.5818701E-02 -0.1307401E+01 -0.6820398E-02 -0.7314095E-02 -0.1122847E-01  0.1004576E+00
3630000. -0.5818701E-02 -0.1307401E+01 -0.6820398E-02 -0.7314095E-02 -0.1122847E-01  0.1004576E+00
3592500.  0.1952092E-02 -0.1331405E+01 -0.6738781E-02 -0.2038134E-01 -0.1186453E-01  0.1159523E+00
3555000.  0.9835253E-02 -0.1345566E+01 -0.6580939E-02 -0.3321019E-01 -0.1259704E-01  0.1332679E+00
3517500.  0.1777264E-01 -0.1349806E+01 -0.6348323E-02 -0.4578814E-01 -0.1343743E-01  0.1526528E+00
3480000.  0.2570529E-01 -0.1343928E+01 -0.6042399E-02 -0.5812199E-01 -0.1439870E-01  0.1743916E+00
3480000.  0.2570529E-01 -0.2362711E+00  0.7695023E-02  0.3283669E-01 -0.1439870E-01  0.9242032E-01
3409422.  0.2781639E-01 -0.1465505E+00  0.7299859E-02  0.3825079E-01 -0.1509951E-01  0.3611399E-01
3338844.  0.2899168E-01 -0.6748687E-01  0.6852981E-02  0.4219169E-01 -0.1524123E-01 -0.8715953E-02
3268266.  0.2935364E-01  0.2212828E-03  0.6370069E-02  0.4477672E-01 -0.1494423E-01 -0.4330178E-01
3197688.  0.2902927E-01  0.5643774E-01  0.5865413E-02  0.4614188E-01 -0.1431502E-01 -0.6890040E-01
3127109.  0.2814448E-01  0.1014830E+00  0.5351690E-02  0.4643802E-01 -0.1344624E-01 -0.8675545E-01
3056531.  0.2681969E-01  0.1360053E+00  0.4839892E-02  0.4582191E-01 -0.1241701E-01 -0.9806553E-01
2985953.  0.2516674E-01  0.1608931E+00  0.4339252E-02  0.4444925E-01 -0.1129348E-01 -0.1039621E+00
2915375.  0.2328667E-01  0.1771895E+00  0.3857312E-02  0.4247022E-01 -0.1012975E-01 -0.1054896E+00
2844797.  0.2126850E-01  0.1860185E+00  0.3399993E-02  0.4002715E-01 -0.8968878E-02 -0.1035943E+00
2774219.  0.1918857E-01  0.1885311E+00  0.2971699E-02  0.3725082E-01 -0.7844032E-02 -0.9911697E-01
2703641.  0.1711055E-01  0.1858576E+00  0.2575460E-02  0.3425807E-01 -0.6779655E-02 -0.9279052E-01
2633062.  0.1508585E-01  0.1790726E+00  0.2213088E-02  0.3115194E-01 -0.5792656E-02 -0.8524035E-01
2562484.  0.1315447E-01  0.1691717E+00  0.1885341E-02  0.2802128E-01 -0.4893630E-02 -0.7698927E-01
2491906.  0.1134586E-01  0.1570517E+00  0.1592066E-02  0.2493932E-01 -0.4087886E-02 -0.6846277E-01
2421328.  0.9680098E-02  0.1435022E+00  0.1332384E-02  0.2196538E-01 -0.3376534E-02 -0.5999697E-01
2350750.  0.8169184E-02  0.1291999E+00  0.1104829E-02  0.1914596E-01 -0.2757414E-02 -0.5184783E-01
2280172.  0.6818220E-02  0.1147106E+00  0.9074895E-03  0.1651483E-01 -0.2225930E-02 -0.4420083E-01
2209594.  0.5626638E-02  0.1004931E+00  0.7381457E-03  0.1409468E-01 -0.1775779E-02 -0.3718037E-01
2139016.  0.4589351E-02  0.8690673E-01  0.5943800E-03  0.1189833E-01 -0.1399572E-02 -0.3085968E-01
2068438.  0.3697793E-02  0.7422171E-01  0.4736830E-03  0.9930018E-02 -0.1089348E-02 -0.2526999E-01
1997859.  0.2940832E-02  0.6263158E-01  0.3735384E-03  0.8186419E-02 -0.8369915E-03 -0.2040919E-01
1927281.  0.2305579E-02  0.5226839E-01  0.2915094E-03  0.6657550E-02 -0.6345654E-03 -0.1624991E-01
1856703.  0.1777913E-02  0.4322049E-01  0.2252993E-03  0.5327331E-02 -0.4745362E-03 -0.1274610E-01
1786125.  0.1342877E-02  0.3555625E-01  0.1728251E-03  0.4173396E-02 -0.3499566E-03 -0.9839451E-02
1715547.  0.9847212E-03  0.2935828E-01  0.1322923E-03  0.3165628E-02 -0.2545693E-03 -0.7464534E-02
1644969.  0.6864612E-03  0.2477775E-01  0.1022986E-03  0.2262519E-02 -0.1828605E-03 -0.5553205E-02
1574391.  0.4286472E-03  0.2213022E-01  0.8199916E-04  0.1402866E-02 -0.1300681E-03 -0.4038570E-02
1503812.  0.1866371E-03  0.2207859E-01  0.7141066E-04  0.4883260E-03 -0.9214569E-04 -0.2858902E-02
1433234. -0.7503852E-04  0.2600269E-01  0.7200081E-04 -0.6533689E-03 -0.6568028E-04 -0.1962953E-02
1362656. -0.4144317E-03  0.3678427E-01  0.8789136E-04 -0.2348158E-02 -0.4772753E-04 -0.1319272E-02
1292078. -0.9371520E-03  0.6054937E-01  0.1284120E-03 -0.5253304E-02 -0.3549570E-04 -0.9368883E-03
1221500. -0.1851528E-02  0.1107127E+00  0.2137325E-03 -0.1077020E-01 -0.2566313E-04 -0.9148516E-03
1221500. -0.1851528E-02  0.1508640E-01  0.1880075E-04  0.9755109E-02 -0.2566313E-04 -0.1127621E-03
1183328. -0.1881504E-02 -0.4052337E-02 -0.2935563E-04  0.6445035E-02 -0.2416829E-04 -0.3615671E-03
1145156. -0.1814321E-02 -0.1750646E-01 -0.5984904E-04  0.3845082E-02 -0.2157730E-04 -0.4863584E-03
1106984. -0.1681171E-02 -0.2622772E-01 -0.7667659E-04  0.1868629E-02 -0.1850661E-04 -0.5274870E-03
1068812. -0.1507672E-02 -0.3112036E-01 -0.8330859E-04  0.4269918E-03 -0.1536293E-04 -0.5149934E-03
1030641. -0.1314225E-02 -0.3302076E-01 -0.8268550E-04 -0.5675564E-03 -0.1239827E-04 -0.4708362E-03
 992469. -0.1116449E-02 -0.3268176E-01 -0.7723161E-04 -0.1199106E-02 -0.9752770E-05 -0.4105650E-03
 954297. -0.9257449E-03 -0.3076181E-01 -0.6888473E-04 -0.1545647E-02 -0.7489165E-05 -0.3447878E-03
 916125. -0.7498599E-03 -0.2781975E-01 -0.5913794E-04 -0.1677406E-02 -0.5618130E-05 -0.2804160E-03
 877953. -0.5934959E-03 -0.2431375E-01 -0.4908961E-04 -0.1655736E-02 -0.4117747E-05 -0.2215622E-03
 839781. -0.4589042E-03 -0.2060446E-01 -0.3949950E-04 -0.1532260E-02 -0.2947740E-05 -0.1703605E-03
 801609. -0.3464504E-03 -0.1696201E-01 -0.3084685E-04 -0.1349019E-02 -0.2059437E-05 -0.1275659E-03
 763438. -0.2551329E-03 -0.1357518E-01 -0.2338776E-04 -0.1138615E-02 -0.1402605E-05 -0.9301791E-04
 725266. -0.1830282E-03 -0.1056251E-01 -0.1720843E-04 -0.9251133E-03 -0.9297424E-06 -0.6600232E-04
 687094. -0.1276890E-03 -0.7984803E-02 -0.1227486E-04 -0.7249485E-03 -0.5986327E-06 -0.4551922E-04
 648922. -0.8644376E-04 -0.5857312E-02 -0.8474149E-05 -0.5481761E-03 -0.3734568E-06 -0.3045500E-04
 610750. -0.5663602E-04 -0.4161677E-02 -0.5649152E-05 -0.3997132E-03 -0.2250439E-06 -0.1972021E-04
 572578. -0.3579246E-04 -0.2856843E-02 -0.3625526E-05 -0.2805901E-03 -0.1304955E-06 -0.1231978E-04
 534406. -0.2172959E-04 -0.1888566E-02 -0.2231440E-05 -0.1891219E-03 -0.7247699E-07 -0.7396265E-05
 496234. -0.1260847E-04 -0.1197242E-02 -0.1310689E-05 -0.1219366E-03 -0.3833319E-07 -0.4245974E-05
 458062. -0.6947827E-05 -0.7239308E-03 -0.7301414E-06 -0.7482854E-04 -0.1916815E-07 -0.2316170E-05
 419891. -0.3606537E-05 -0.4146387E-03 -0.3826852E-06 -0.4341621E-04 -0.8979180E-08 -0.1190942E-05
 381719. -0.1745035E-05 -0.2229213E-03 -0.1867527E-06 -0.2360681E-04 -0.3893812E-08 -0.5712013E-06
 343547. -0.7761744E-06 -0.1111511E-03 -0.8369283E-07 -0.1188678E-04 -0.1538837E-08 -0.2520249E-06
 305375. -0.3114255E-06 -0.5056203E-04 -0.3380154E-07 -0.5453385E-05 -0.5425657E-09 -0.1003850E-06
 267203. -0.1097660E-06 -0.2050379E-04 -0.1198159E-07 -0.2227603E-05 -0.1656446E-09 -0.3515226E-07
 229031. -0.3268936E-07 -0.7164601E-05 -0.3585509E-08 -0.7831932E-06 -0.4191338E-10 -0.1040882E-07
 190859. -0.7743830E-08 -0.2046360E-05 -0.8528002E-09 -0.2248403E-06 -0.8212687E-11 -0.2453687E-08
 152688. -0.1318880E-08 -0.4373215E-06 -0.1457159E-09 -0.4824728E-07 -0.1112143E-11 -0.4161917E-09
 114516. -0.1335770E-09 -0.5923047E-07 -0.1479512E-10 -0.6555143E-08 -0.8407084E-13 -0.4201429E-10
  76344. -0.5255228E-11 -0.3502512E-08 -0.5830847E-12 -0.3884765E-09 -0.2197188E-14 -0.1648591E-11
  38172.  0.0000000E+00  0.0000000E+00  0.0000000E+00  0.0000000E+00  0.0000000E+00  0.0000000E+00
      0.  0.0000000E+00  0.0000000E+00  0.0000000E+00  0.0000000E+00  0.0000000E+00  0.0000000E+00
