       2       37 S      201        136.78751          7.80386          6.12232        170.42970      185    7
6371000. -0.6073024E-01 -0.1475127E+01 -0.2755525E-02  0.5797472E-01  0.3122085E-02 -0.4116215E-02
6370000. -0.6049642E-01 -0.1504242E+01 -0.2764456E-02  0.5581449E-01  0.3122733E-02 -0.4134812E-02
6369000. -0.6025805E-01 -0.1532952E+01 -0.2773046E-02  0.5363853E-01  0.3123384E-02 -0.4158372E-02
6368000. -0.6001521E-01 -0.1561255E+01 -0.2781293E-02  0.5144719E-01  0.3124039E-02 -0.4186916E-02
6368000. -0.6001521E-01 -0.1561255E+01 -0.2781293E-02  0.5144719E-01  0.3124039E-02 -0.4186916E-02
6367000. -0.5976796E-01 -0.1589145E+01 -0.2789195E-02  0.4924082E-01  0.3124699E-02 -0.4220465E-02
6366000. -0.5951636E-01 -0.1616619E+01 -0.2796750E-02  0.4701976E-01  0.3125364E-02 -0.4259039E-02
6365000. -0.5926049E-01 -0.1643673E+01 -0.2803955E-02  0.4478438E-01  0.3126036E-02 -0.4302660E-02
6364000. -0.5900040E-01 -0.1670304E+01 -0.2810808E-02  0.4253502E-01  0.3126715E-02 -0.4351348E-02
6363000. -0.5873616E-01 -0.1696507E+01 -0.2817307E-02  0.4027204E-01  0.3127402E-02 -0.4405125E-02
6362000. -0.5846785E-01 -0.1722279E+01 -0.2823450E-02  0.3799580E-01  0.3128098E-02 -0.4464012E-02
6361000. -0.5819552E-01 -0.1747617E+01 -0.2829234E-02  0.3570668E-01  0.3128804E-02 -0.4528030E-02
6360000. -0.5791926E-01 -0.1772516E+01 -0.2834658E-02  0.3340502E-01  0.3129520E-02 -0.4597201E-02
6359000. -0.5763911E-01 -0.1796975E+01 -0.2839720E-02  0.3109122E-01  0.3130247E-02 -0.4671546E-02
6358000. -0.5735517E-01 -0.1820988E+01 -0.2844418E-02  0.2876561E-01  0.3130986E-02 -0.4751087E-02
6357000. -0.5706749E-01 -0.1844553E+01 -0.2848750E-02  0.2642860E-01  0.3131739E-02 -0.4835846E-02
6356000. -0.5677615E-01 -0.1867668E+01 -0.2852714E-02  0.2408054E-01  0.3132505E-02 -0.4925844E-02
6356000. -0.5677615E-01 -0.1560664E+01 -0.2852714E-02  0.3596084E-01  0.3132505E-02  0.7427987E-02
6355000. -0.5652976E-01 -0.1578806E+01 -0.2858270E-02  0.3484058E-01  0.3131333E-02  0.7508754E-02
6354000. -0.5628053E-01 -0.1596732E+01 -0.2863651E-02  0.3371361E-01  0.3130148E-02  0.7586549E-02
6353000. -0.5602852E-01 -0.1614440E+01 -0.2868854E-02  0.3258000E-01  0.3128951E-02  0.7661363E-02
6352000. -0.5577374E-01 -0.1631929E+01 -0.2873878E-02  0.3143988E-01  0.3127743E-02  0.7733191E-02
6351000. -0.5551623E-01 -0.1649197E+01 -0.2878723E-02  0.3029335E-01  0.3126524E-02  0.7802028E-02
6350000. -0.5525603E-01 -0.1666242E+01 -0.2883387E-02  0.2914053E-01  0.3125294E-02  0.7867866E-02
6349000. -0.5499317E-01 -0.1683063E+01 -0.2887870E-02  0.2798151E-01  0.3124054E-02  0.7930699E-02
6348000. -0.5472769E-01 -0.1699658E+01 -0.2892171E-02  0.2681642E-01  0.3122804E-02  0.7990520E-02
6347000. -0.5445962E-01 -0.1716026E+01 -0.2896288E-02  0.2564536E-01  0.3121546E-02  0.8047324E-02
6346600. -0.5435168E-01 -0.1722509E+01 -0.2897884E-02  0.2517530E-01  0.3121040E-02  0.8069199E-02
6346600. -0.5435168E-01 -0.1808757E+01 -0.2897884E-02  0.3377635E-01  0.3121040E-02  0.2702083E-01
6318800. -0.4566512E-01 -0.2157634E+01 -0.3014515E-02  0.1916538E-01  0.2994980E-02  0.3060112E-01
6291000. -0.3566889E-01 -0.2405650E+01 -0.3061268E-02  0.1897110E-02  0.2855235E-02  0.3331992E-01
6291000. -0.3566889E-01 -0.2470723E+01 -0.3061268E-02  0.7983067E-03  0.2855235E-02  0.3331992E-01
6263000. -0.2448776E-01 -0.2594114E+01 -0.3018453E-02 -0.2047402E-01  0.2705707E-02  0.3460613E-01
6235000. -0.1308040E-01 -0.2572325E+01 -0.2880591E-02 -0.4223178E-01  0.2552009E-02  0.3523993E-01
6207000. -0.2095994E-02 -0.2401768E+01 -0.2648511E-02 -0.6312488E-01  0.2396711E-02  0.3535698E-01
6179000.  0.7820279E-02 -0.2087910E+01 -0.2328947E-02 -0.8182906E-01  0.2241785E-02  0.3509307E-01
6151000.  0.1606731E-01 -0.1645294E+01 -0.1934245E-02 -0.9712854E-01  0.2088612E-02  0.3458095E-01
6151000.  0.1606731E-01 -0.1552139E+01 -0.1934245E-02 -0.8759225E-01  0.2088612E-02  0.3369202E-01
6128500.  0.2091881E-01 -0.1190137E+01 -0.1616046E-02 -0.9220975E-01  0.1969045E-02  0.3399155E-01
6106000.  0.2444283E-01 -0.8024076E+00 -0.1285787E-02 -0.9441603E-01  0.1848697E-02  0.3414071E-01
6083500.  0.2657050E-01 -0.4014228E+00 -0.9519985E-03 -0.9421574E-01  0.1728036E-02  0.3417411E-01
6061000.  0.2727695E-01  0.4311368E-03 -0.6230593E-03 -0.9168906E-01  0.1607416E-02  0.3412250E-01
6038500.  0.2658037E-01  0.3912216E+00 -0.3069408E-03 -0.8698528E-01  0.1487086E-02  0.3401498E-01
6016000.  0.2453980E-01  0.7598047E+00 -0.1097940E-04 -0.8031285E-01  0.1367193E-02  0.3387958E-01
5993500.  0.2125177E-01  0.1096123E+01  0.2583126E-03 -0.7192831E-01  0.1247786E-02  0.3374381E-01
5971000.  0.1684604E-01  0.1391454E+01  0.4953993E-03 -0.6212607E-01  0.1128818E-02  0.3363702E-01
5971000.  0.1684604E-01  0.1281292E+01  0.4953993E-03 -0.5720381E-01  0.1128818E-02  0.3143173E-01
5937667.  0.9348624E-02  0.1567061E+01  0.7565383E-03 -0.4258865E-01  0.9685399E-03  0.2979008E-01
5904333.  0.6306234E-03  0.1748253E+01  0.9415817E-03 -0.2826943E-01  0.8175848E-03  0.2786524E-01
5871000. -0.8773425E-02  0.1830888E+01  0.1054286E-02 -0.1504986E-01  0.6774426E-03  0.2566040E-01
5837667. -0.1837523E-01  0.1825995E+01  0.1101937E-02 -0.3471226E-02  0.5495293E-03  0.2319495E-01
5804333. -0.2775308E-01  0.1747691E+01  0.1094013E-02  0.6160899E-02  0.4351290E-03  0.2049927E-01
5771000. -0.3656270E-01  0.1611530E+01  0.1041058E-02  0.1373925E-01  0.3353581E-03  0.1761042E-01
5771000. -0.3656270E-01  0.1611630E+01  0.1041058E-02  0.1374016E-01  0.3353581E-03  0.1761042E-01
5701000. -0.5245869E-01  0.1255733E+01  0.8359713E-03  0.2260699E-01  0.1863330E-03  0.9490463E-02
5701000. -0.5245869E-01  0.1103674E+01  0.8359713E-03  0.3035226E-01  0.1863330E-03  0.2427668E-01
5667333. -0.5758628E-01  0.8475850E+00  0.6727524E-03  0.3081113E-01  0.7539286E-04  0.1791351E-01
5633667. -0.6150861E-01  0.6413040E+00  0.5156210E-03  0.2843874E-01 -0.5841247E-05  0.1307959E-01
5600000. -0.6438119E-01  0.4477690E+00  0.3718837E-03  0.2598736E-01 -0.6466210E-04  0.9328810E-02
5600000. -0.6438119E-01  0.4477690E+00  0.3718837E-03  0.2598736E-01 -0.6466210E-04  0.9328810E-02
5563518. -0.6638220E-01  0.2541019E+00  0.2309506E-03  0.2322301E-01 -0.1087379E-03  0.6209532E-02
5527037. -0.6732674E-01  0.7903210E-01  0.1060176E-03  0.2041032E-01 -0.1372306E-03  0.3853999E-02
5490556. -0.6732508E-01 -0.7623973E-01 -0.2815977E-05  0.1761016E-01 -0.1540044E-03  0.2092315E-02
5454074. -0.6649256E-01 -0.2111154E+00 -0.9579690E-04  0.1488047E-01 -0.1620827E-03  0.7964612E-03
5417593. -0.6494633E-01 -0.3255685E+00 -0.1734431E-03  0.1226168E-01 -0.1637914E-03 -0.1484119E-03
5381111. -0.6280228E-01 -0.4200114E+00 -0.2365171E-03  0.9796714E-02 -0.1609085E-03 -0.8181660E-03
5344630. -0.6017287E-01 -0.4952856E+00 -0.2859924E-03  0.7516115E-02 -0.1548237E-03 -0.1277104E-02
5308148. -0.5716446E-01 -0.5525761E+00 -0.3229791E-03  0.5437733E-02 -0.1465795E-03 -0.1579241E-02
5271667. -0.5387639E-01 -0.5932493E+00 -0.3486956E-03  0.3582193E-02 -0.1369770E-03 -0.1756754E-02
5235185. -0.5039904E-01 -0.6189348E+00 -0.3644338E-03  0.1951833E-02 -0.1266330E-03 -0.1843708E-02
5198704. -0.4681358E-01 -0.6313221E+00 -0.3714752E-03  0.5451617E-03 -0.1159843E-03 -0.1865720E-02
5162222. -0.4319116E-01 -0.6321058E+00 -0.3711099E-03 -0.6364179E-03 -0.1053720E-03 -0.1833571E-02
5125741. -0.3959325E-01 -0.6230830E+00 -0.3645839E-03 -0.1609514E-02 -0.9504695E-04 -0.1768431E-02
5089259. -0.3607102E-01 -0.6059098E+00 -0.3530524E-03 -0.2386327E-02 -0.8516481E-04 -0.1679539E-02
5052778. -0.3266677E-01 -0.5821705E+00 -0.3376055E-03 -0.2980354E-02 -0.7584756E-04 -0.1572737E-02
5016296. -0.2941348E-01 -0.5533848E+00 -0.3192270E-03 -0.3413408E-02 -0.6716727E-04 -0.1458139E-02
4979815. -0.2633636E-01 -0.5208828E+00 -0.2987904E-03 -0.3702169E-02 -0.5915819E-04 -0.1338707E-02
4943333. -0.2345297E-01 -0.4858834E+00 -0.2770673E-03 -0.3866155E-02 -0.5183841E-04 -0.1218239E-02
4906852. -0.2077460E-01 -0.4494614E+00 -0.2547117E-03 -0.3926152E-02 -0.4519866E-04 -0.1101488E-02
4870370. -0.1830667E-01 -0.4124976E+00 -0.2322744E-03 -0.3897286E-02 -0.3921891E-04 -0.9877882E-03
4833889. -0.1605008E-01 -0.3757836E+00 -0.2102122E-03 -0.3798439E-02 -0.3387406E-04 -0.8803515E-03
4797407. -0.1400144E-01 -0.3399377E+00 -0.1888762E-03 -0.3645591E-02 -0.2912207E-04 -0.7805153E-03
4760926. -0.1215446E-01 -0.3054381E+00 -0.1685429E-03 -0.3450577E-02 -0.2492383E-04 -0.6870600E-03
4724444. -0.1050015E-01 -0.2726811E+00 -0.1494121E-03 -0.3227551E-02 -0.2123763E-04 -0.6018404E-03
4687963. -0.9027817E-02 -0.2419275E+00 -0.1316143E-03 -0.2986558E-02 -0.1801642E-04 -0.5244844E-03
4651482. -0.7725418E-02 -0.2133508E+00 -0.1152283E-03 -0.2735883E-02 -0.1521779E-04 -0.4542824E-03
4615000. -0.6580106E-02 -0.1870585E+00 -0.1002842E-03 -0.2483946E-02 -0.1279888E-04 -0.3918108E-03
4578518. -0.5578742E-02 -0.1630735E+00 -0.8677372E-04 -0.2235891E-02 -0.1071782E-04 -0.3361168E-03
4542037. -0.4708173E-02 -0.1413778E+00 -0.7466146E-04 -0.1996503E-02 -0.8937446E-05 -0.2868247E-03
4505556. -0.3955420E-02 -0.1219070E+00 -0.6388535E-04 -0.1769621E-02 -0.7420866E-05 -0.2438467E-03
4469074. -0.3308023E-02 -0.1045546E+00 -0.5436829E-04 -0.1556945E-02 -0.6135117E-05 -0.2060774E-03
4432593. -0.2754207E-02 -0.8920539E-01 -0.4602361E-04 -0.1360497E-02 -0.5051013E-05 -0.1734107E-03
4396111. -0.2282868E-02 -0.7571737E-01 -0.3875484E-04 -0.1181100E-02 -0.4140361E-05 -0.1453469E-03
4359630. -0.1883808E-02 -0.6393953E-01 -0.3246507E-04 -0.1018623E-02 -0.3379250E-05 -0.1211214E-03
4323148. -0.1547638E-02 -0.5372237E-01 -0.2705668E-04 -0.8731591E-03 -0.2746167E-05 -0.1005723E-03
4286667. -0.1265882E-02 -0.4491134E-01 -0.2243430E-04 -0.7439723E-03 -0.2221534E-05 -0.8314937E-04
4250185. -0.1030905E-02 -0.3735706E-01 -0.1850724E-04 -0.6301242E-03 -0.1788815E-05 -0.6841866E-04
4213704. -0.8359281E-03 -0.3091884E-01 -0.1519028E-04 -0.5307269E-03 -0.1433290E-05 -0.5613336E-04
4177222. -0.6749453E-03 -0.2546053E-01 -0.1240410E-04 -0.4444934E-03 -0.1142115E-05 -0.4587998E-04
4140741. -0.5427130E-03 -0.2085865E-01 -0.1007690E-04 -0.3702577E-03 -0.9044638E-06 -0.3740954E-04
4104259. -0.4346513E-03 -0.1699879E-01 -0.8143090E-05 -0.3068581E-03 -0.7106846E-06 -0.3050818E-04
4067778. -0.3468225E-03 -0.1377635E-01 -0.6544466E-05 -0.2530065E-03 -0.5526466E-06 -0.2489326E-04
4031296. -0.2758415E-03 -0.1109888E-01 -0.5229386E-05 -0.2076375E-03 -0.4233841E-06 -0.2043734E-04
3994815. -0.2188344E-03 -0.8883040E-02 -0.4152363E-05 -0.1696906E-03 -0.3166537E-06 -0.1699651E-04
3958333. -0.1733718E-03 -0.7054780E-02 -0.3273874E-05 -0.1381297E-03 -0.2270898E-06 -0.1442600E-04
3921852. -0.1374236E-03 -0.5550187E-02 -0.2559885E-05 -0.1121030E-03 -0.1498605E-06 -0.1268227E-04
3885370. -0.1093007E-03 -0.4312552E-02 -0.1981082E-05 -0.9077201E-04 -0.8037177E-07 -0.1171511E-04
3848889. -0.8761882E-04 -0.3293233E-02 -0.1512811E-05 -0.7338609E-04 -0.1423046E-07 -0.1151889E-04
3812407. -0.7124915E-04 -0.2450505E-02 -0.1134393E-05 -0.5927258E-04  0.5312470E-07 -0.1214943E-04
3775926. -0.5928582E-04 -0.1748994E-02 -0.8290412E-06 -0.4775921E-04  0.1266365E-06 -0.1368866E-04
3739444. -0.5100506E-04 -0.1159941E-02 -0.5837335E-06 -0.3818573E-04  0.2119137E-06 -0.1628937E-04
3702963. -0.4582947E-04 -0.6614530E-03 -0.3893998E-06 -0.2982322E-04  0.3156235E-06 -0.2016736E-04
3666482. -0.4328392E-04 -0.2398903E-03 -0.2416082E-06 -0.2175879E-04  0.4458209E-06 -0.2559289E-04
3630000. -0.4294082E-04  0.1070454E-03 -0.1419080E-06 -0.1278647E-04  0.6123459E-06 -0.3291722E-04
3630000. -0.4294082E-04  0.1070454E-03 -0.1419080E-06 -0.1278647E-04  0.6123459E-06 -0.3291722E-04
3592500. -0.4440034E-04  0.3705675E-03 -0.1000860E-06 -0.7458636E-06  0.8339804E-06 -0.4282971E-04
3555000. -0.4703350E-04  0.4950892E-03 -0.1443686E-06  0.1707974E-04  0.1122102E-05 -0.5557282E-04
3517500. -0.4977842E-04  0.3875649E-03 -0.3215049E-06  0.4537389E-04  0.1494325E-05 -0.7142957E-04
3480000. -0.5080807E-04 -0.1259000E-03 -0.7136128E-06  0.9171029E-04  0.1968860E-05 -0.9025503E-04
3480000. -0.5080807E-04 -0.2819364E-02 -0.1592459E-05 -0.9007426E-04  0.1968860E-05  0.7176625E-04
3409422. -0.2718064E-04 -0.1561403E-02 -0.8423265E-06 -0.4920722E-04  0.1251961E-05  0.5594992E-04
3338844. -0.1422874E-04 -0.8453056E-03 -0.4364367E-06 -0.2631450E-04  0.7381529E-06  0.3720842E-04
3268266. -0.7287687E-05 -0.4473854E-03 -0.2214479E-06 -0.1377370E-04  0.4116836E-06  0.2258272E-04
3197688. -0.3651079E-05 -0.2314684E-03 -0.1099958E-06 -0.7055005E-05  0.2195086E-06  0.1286096E-04
3127109. -0.1788562E-05 -0.1170461E-03 -0.5346106E-07 -0.3535012E-05  0.1125815E-06  0.6969010E-05
3056531. -0.8563516E-06 -0.5782975E-04 -0.2541189E-07 -0.1732040E-05  0.5574715E-07  0.3621132E-05
2985953. -0.4005209E-06 -0.2790536E-04 -0.1180604E-07 -0.8294121E-06  0.2671083E-07  0.1812502E-05
2915375. -0.1828713E-06 -0.1314424E-04 -0.5357188E-08 -0.3879385E-06  0.1240018E-07  0.8763334E-06
2844797. -0.8145054E-07 -0.6039738E-05 -0.2372432E-08 -0.1771045E-06  0.5581258E-08  0.4099373E-06
2774219. -0.3535957E-07 -0.2705275E-05 -0.1024454E-08 -0.7885362E-07  0.2436041E-08  0.1856916E-06
2703641. -0.1494776E-07 -0.1180166E-05 -0.4309314E-09 -0.3420933E-07  0.1030890E-08  0.8147542E-07
2633062. -0.6146665E-08 -0.5009404E-06 -0.1763861E-09 -0.1444616E-07  0.4227740E-09  0.3462312E-07
2562484. -0.2455840E-08 -0.2066696E-06 -0.7017002E-10 -0.5931515E-08  0.1679081E-09  0.1424390E-07
2491906. -0.9521149E-09 -0.8277096E-07 -0.2709503E-10 -0.2365011E-08  0.6451873E-10  0.5668842E-08
2421328. -0.3576714E-09 -0.3213657E-07 -0.1014018E-10 -0.9144311E-09  0.2395764E-10  0.2180393E-08
2350750. -0.1299857E-09 -0.1207770E-07 -0.3672162E-11 -0.3423354E-09  0.8585140E-11  0.8095044E-09
2280172. -0.4562066E-10 -0.4386345E-08 -0.1284542E-11 -0.1238786E-09  0.2964171E-11  0.2896778E-09
2209594. -0.1543261E-10 -0.1536548E-08 -0.4331873E-12 -0.4324810E-10  0.9842823E-12  0.9974391E-10
2139016. -0.5021075E-11 -0.5181032E-09 -0.1405285E-12 -0.1453644E-10  0.3136897E-12  0.3298286E-10
2068438. -0.1567469E-11 -0.1677707E-09 -0.4374973E-13 -0.4693160E-11  0.9572691E-13  0.1045105E-10
1997859. -0.4682630E-12 -0.5203893E-10 -0.1303606E-13 -0.1451664E-11  0.2789825E-13  0.3165249E-11
1927281. -0.1334767E-12 -0.1541802E-10 -0.3706872E-14 -0.4289748E-12  0.7742222E-14  0.9137375E-12
1856703. -0.3618457E-13 -0.4349225E-11 -0.1002549E-14 -0.1207209E-12  0.2039103E-14  0.2506269E-12
1786125. -0.9299951E-14 -0.1163241E-11 -0.2568051E-15 -0.3225619E-13  0.5074364E-15  0.6512886E-13
1715547.  0.0000000E+00  0.0000000E+00  0.0000000E+00  0.0000000E+00  0.0000000E+00  0.0000000E+00
1644969.  0.0000000E+00  0.0000000E+00  0.0000000E+00  0.0000000E+00  0.0000000E+00  0.0000000E+00
1574391.  0.0000000E+00  0.0000000E+00  0.0000000E+00  0.0000000E+00  0.0000000E+00  0.0000000E+00
1503812.  0.0000000E+00  0.0000000E+00  0.0000000E+00  0.0000000E+00  0.0000000E+00  0.0000000E+00
1433234.  0.0000000E+00  0.0000000E+00  0.0000000E+00  0.0000000E+00  0.0000000E+00  0.0000000E+00
1362656.  0.0000000E+00  0.0000000E+00  0.0000000E+00  0.0000000E+00  0.0000000E+00  0.0000000E+00
1292078.  0.0000000E+00  0.0000000E+00  0.0000000E+00  0.0000000E+00  0.0000000E+00  0.0000000E+00
1221500.  0.0000000E+00  0.0000000E+00  0.0000000E+00  0.0000000E+00  0.0000000E+00  0.0000000E+00
1221500.  0.0000000E+00  0.0000000E+00  0.0000000E+00  0.0000000E+00  0.0000000E+00  0.0000000E+00
1183328.  0.0000000E+00  0.0000000E+00  0.0000000E+00  0.0000000E+00  0.0000000E+00  0.0000000E+00
1145156.  0.0000000E+00  0.0000000E+00  0.0000000E+00  0.0000000E+00  0.0000000E+00  0.0000000E+00
1106984.  0.0000000E+00  0.0000000E+00  0.0000000E+00  0.0000000E+00  0.0000000E+00  0.0000000E+00
1068812.  0.0000000E+00  0.0000000E+00  0.0000000E+00  0.0000000E+00  0.0000000E+00  0.0000000E+00
1030641.  0.0000000E+00  0.0000000E+00  0.0000000E+00  0.0000000E+00  0.0000000E+00  0.0000000E+00
 992469.  0.0000000E+00  0.0000000E+00  0.0000000E+00  0.0000000E+00  0.0000000E+00  0.0000000E+00
 954297.  0.0000000E+00  0.0000000E+00  0.0000000E+00  0.0000000E+00  0.0000000E+00  0.0000000E+00
 916125.  0.0000000E+00  0.0000000E+00  0.0000000E+00  0.0000000E+00  0.0000000E+00  0.0000000E+00
 877953.  0.0000000E+00  0.0000000E+00  0.0000000E+00  0.0000000E+00  0.0000000E+00  0.0000000E+00
 839781.  0.0000000E+00  0.0000000E+00  0.0000000E+00  0.0000000E+00  0.0000000E+00  0.0000000E+00
 801609.  0.0000000E+00  0.0000000E+00  0.0000000E+00  0.0000000E+00  0.0000000E+00  0.0000000E+00
 763438.  0.0000000E+00  0.0000000E+00  0.0000000E+00  0.0000000E+00  0.0000000E+00  0.0000000E+00
 725266.  0.0000000E+00  0.0000000E+00  0.0000000E+00  0.0000000E+00  0.0000000E+00  0.0000000E+00
 687094.  0.0000000E+00  0.0000000E+00  0.0000000E+00  0.0000000E+00  0.0000000E+00  0.0000000E+00
 648922.  0.0000000E+00  0.0000000E+00  0.0000000E+00  0.0000000E+00  0.0000000E+00  0.0000000E+00
 610750.  0.0000000E+00  0.0000000E+00  0.0000000E+00  0.0000000E+00  0.0000000E+00  0.0000000E+00
 572578.  0.0000000E+00  0.0000000E+00  0.0000000E+00  0.0000000E+00  0.0000000E+00  0.0000000E+00
 534406.  0.0000000E+00  0.0000000E+00  0.0000000E+00  0.0000000E+00  0.0000000E+00  0.0000000E+00
 496234.  0.0000000E+00  0.0000000E+00  0.0000000E+00  0.0000000E+00  0.0000000E+00  0.0000000E+00
 458062.  0.0000000E+00  0.0000000E+00  0.0000000E+00  0.0000000E+00  0.0000000E+00  0.0000000E+00
 419891.  0.0000000E+00  0.0000000E+00  0.0000000E+00  0.0000000E+00  0.0000000E+00  0.0000000E+00
 381719.  0.0000000E+00  0.0000000E+00  0.0000000E+00  0.0000000E+00  0.0000000E+00  0.0000000E+00
 343547.  0.0000000E+00  0.0000000E+00  0.0000000E+00  0.0000000E+00  0.0000000E+00  0.0000000E+00
 305375.  0.0000000E+00  0.0000000E+00  0.0000000E+00  0.0000000E+00  0.0000000E+00  0.0000000E+00
 267203.  0.0000000E+00  0.0000000E+00  0.0000000E+00  0.0000000E+00  0.0000000E+00  0.0000000E+00
 229031.  0.0000000E+00  0.0000000E+00  0.0000000E+00  0.0000000E+00  0.0000000E+00  0.0000000E+00
 190859.  0.0000000E+00  0.0000000E+00  0.0000000E+00  0.0000000E+00  0.0000000E+00  0.0000000E+00
 152688.  0.0000000E+00  0.0000000E+00  0.0000000E+00  0.0000000E+00  0.0000000E+00  0.0000000E+00
 114516.  0.0000000E+00  0.0000000E+00  0.0000000E+00  0.0000000E+00  0.0000000E+00  0.0000000E+00
  76344.  0.0000000E+00  0.0000000E+00  0.0000000E+00  0.0000000E+00  0.0000000E+00  0.0000000E+00
  38172.  0.0000000E+00  0.0000000E+00  0.0000000E+00  0.0000000E+00  0.0000000E+00  0.0000000E+00
      0.  0.0000000E+00  0.0000000E+00  0.0000000E+00  0.0000000E+00  0.0000000E+00  0.0000000E+00
