       1       16 S      112        299.57880          8.09827          6.33423        164.87010      185    7
6371000.  0.1573344E+00  0.7900163E+00  0.8540392E-02 -0.1487940E+00 -0.1444587E-01 -0.5111593E-01
6370000.  0.1572091E+00  0.8056469E+00  0.8563636E-02 -0.1473801E+00 -0.1443787E-01 -0.5087458E-01
6369000.  0.1570814E+00  0.8212308E+00  0.8586657E-02 -0.1459574E+00 -0.1442990E-01 -0.5063072E-01
6368000.  0.1569513E+00  0.8367674E+00  0.8609455E-02 -0.1445259E+00 -0.1442198E-01 -0.5038434E-01
6368000.  0.1569513E+00  0.8367674E+00  0.8609455E-02 -0.1445259E+00 -0.1442198E-01 -0.5038434E-01
6367000.  0.1568188E+00  0.8522563E+00  0.8632027E-02 -0.1430856E+00 -0.1441409E-01 -0.5013544E-01
6366000.  0.1566838E+00  0.8676971E+00  0.8654373E-02 -0.1416366E+00 -0.1440624E-01 -0.4988401E-01
6365000.  0.1565464E+00  0.8830892E+00  0.8676490E-02 -0.1401790E+00 -0.1439843E-01 -0.4963005E-01
6364000.  0.1564066E+00  0.8984324E+00  0.8698377E-02 -0.1387127E+00 -0.1439066E-01 -0.4937355E-01
6363000.  0.1562643E+00  0.9137260E+00  0.8720035E-02 -0.1372379E+00 -0.1438293E-01 -0.4911451E-01
6362000.  0.1561197E+00  0.9289697E+00  0.8741459E-02 -0.1357545E+00 -0.1437524E-01 -0.4885292E-01
6361000.  0.1559727E+00  0.9441631E+00  0.8762649E-02 -0.1342627E+00 -0.1436759E-01 -0.4858879E-01
6360000.  0.1558233E+00  0.9593056E+00  0.8783607E-02 -0.1327624E+00 -0.1435999E-01 -0.4832210E-01
6359000.  0.1556716E+00  0.9743968E+00  0.8804327E-02 -0.1312538E+00 -0.1435242E-01 -0.4805286E-01
6358000.  0.1555175E+00  0.9894363E+00  0.8824809E-02 -0.1297368E+00 -0.1434490E-01 -0.4778105E-01
6357000.  0.1553610E+00  0.1004424E+01  0.8845054E-02 -0.1282115E+00 -0.1433742E-01 -0.4750668E-01
6356000.  0.1552022E+00  0.1019359E+01  0.8865057E-02 -0.1266780E+00 -0.1432999E-01 -0.4722973E-01
6356000.  0.1552022E+00  0.8497281E+00  0.8865057E-02 -0.1346078E+00 -0.1432999E-01 -0.8099991E-01
6355000.  0.1550679E+00  0.8611394E+00  0.8886125E-02 -0.1338350E+00 -0.1431729E-01 -0.8082473E-01
6354000.  0.1549318E+00  0.8725255E+00  0.8907071E-02 -0.1330574E+00 -0.1430462E-01 -0.8064818E-01
6353000.  0.1547940E+00  0.8838863E+00  0.8927895E-02 -0.1322750E+00 -0.1429197E-01 -0.8047024E-01
6352000.  0.1546543E+00  0.8952217E+00  0.8948595E-02 -0.1314881E+00 -0.1427935E-01 -0.8029093E-01
6351000.  0.1545129E+00  0.9065312E+00  0.8969172E-02 -0.1306964E+00 -0.1426677E-01 -0.8011024E-01
6350000.  0.1543698E+00  0.9178146E+00  0.8989624E-02 -0.1299001E+00 -0.1425421E-01 -0.7992817E-01
6349000.  0.1542248E+00  0.9290719E+00  0.9009950E-02 -0.1290991E+00 -0.1424167E-01 -0.7974471E-01
6348000.  0.1540781E+00  0.9403027E+00  0.9030150E-02 -0.1282935E+00 -0.1422917E-01 -0.7955987E-01
6347000.  0.1539296E+00  0.9515067E+00  0.9050223E-02 -0.1274833E+00 -0.1421670E-01 -0.7937364E-01
6346600.  0.1538698E+00  0.9559808E+00  0.9058218E-02 -0.1271580E+00 -0.1421172E-01 -0.7929876E-01
6346600.  0.1538698E+00  0.9956533E+00  0.9058218E-02 -0.1330737E+00 -0.1421172E-01 -0.1329509E+00
6318800.  0.1489624E+00  0.1252236E+01  0.9614090E-02 -0.1213004E+00 -0.1363986E-01 -0.1290912E+00
6291000.  0.1429559E+00  0.1498879E+01  0.1011334E-01 -0.1071380E+00 -0.1308573E-01 -0.1248209E+00
6291000.  0.1429559E+00  0.1544531E+01  0.1011334E-01 -0.1060095E+00 -0.1308573E-01 -0.1248209E+00
6263000.  0.1356377E+00  0.1782951E+01  0.1053977E-01 -0.8765118E-01 -0.1254854E-01 -0.1195492E+00
6235000.  0.1273124E+00  0.2002162E+01  0.1088045E-01 -0.6702523E-01 -0.1203571E-01 -0.1137319E+00
6207000.  0.1180725E+00  0.2198584E+01  0.1112592E-01 -0.4436171E-01 -0.1154971E-01 -0.1073331E+00
6179000.  0.1080257E+00  0.2368830E+01  0.1126778E-01 -0.1992353E-01 -0.1109318E-01 -0.1003177E+00
6151000.  0.9729391E-01  0.2509744E+01  0.1129887E-01  0.5995324E-02 -0.1066889E-01 -0.9265376E-01
6151000.  0.9729391E-01  0.2256118E+01  0.1129887E-01 -0.5801021E-02 -0.1066889E-01 -0.9803659E-01
6128500.  0.8920635E-01  0.2321513E+01  0.1129358E-01  0.8804368E-02 -0.1032794E-01 -0.9502025E-01
6106000.  0.8091581E-01  0.2371063E+01  0.1123670E-01  0.2340330E-01 -0.9997902E-02 -0.9185964E-01
6083500.  0.7247828E-01  0.2404762E+01  0.1112841E-01  0.3789388E-01 -0.9679278E-02 -0.8855643E-01
6061000.  0.6394961E-01  0.2422688E+01  0.1096929E-01  0.5217926E-01 -0.9372571E-02 -0.8511217E-01
6038500.  0.5538525E-01  0.2425019E+01  0.1076021E-01  0.6616990E-01 -0.9078277E-02 -0.8152497E-01
6016000.  0.4683979E-01  0.2412025E+01  0.1050236E-01  0.7978334E-01 -0.8796911E-02 -0.7779106E-01
5993500.  0.3836680E-01  0.2384042E+01  0.1019721E-01  0.9294347E-01 -0.8528995E-02 -0.7390592E-01
5971000.  0.3001847E-01  0.2341491E+01  0.9846490E-02  0.1055832E+00 -0.8275080E-02 -0.6986160E-01
5971000.  0.3001847E-01  0.2207672E+01  0.9846490E-02  0.9158030E-01 -0.8275080E-02 -0.7379127E-01
5937667.  0.1873886E-01  0.2101412E+01  0.9343286E-02  0.1003780E+00 -0.7897721E-02 -0.7048900E-01
5904333.  0.8052247E-02  0.1981509E+01  0.8800099E-02  0.1068934E+00 -0.7537175E-02 -0.6735905E-01
5871000. -0.1978965E-02  0.1851574E+01  0.8228342E-02  0.1113424E+00 -0.7192582E-02 -0.6439273E-01
5837667. -0.1131116E-01  0.1714811E+01  0.7638216E-02  0.1139540E+00 -0.6863112E-02 -0.6157503E-01
5804333. -0.1991639E-01  0.1574028E+01  0.7038707E-02  0.1149614E+00 -0.6548029E-02 -0.5888611E-01
5771000. -0.2777964E-01  0.1431654E+01  0.6437641E-02  0.1145940E+00 -0.6246738E-02 -0.5630220E-01
5771000. -0.2777964E-01  0.1431765E+01  0.6437641E-02  0.1145915E+00 -0.6246738E-02 -0.5630220E-01
5701000. -0.4207229E-01  0.1166071E+01  0.5164769E-02  0.1166353E+00 -0.5650537E-02 -0.5212671E-01
5701000. -0.4207229E-01  0.1039045E+01  0.5164769E-02  0.1031538E+00 -0.5650537E-02 -0.4026804E-01
5667333. -0.4716239E-01  0.8968292E+00  0.4639943E-02  0.9597991E-01 -0.5435592E-02 -0.4106260E-01
5633667. -0.5163069E-01  0.7974945E+00  0.4145809E-02  0.9121450E-01 -0.5217470E-02 -0.4140516E-01
5600000. -0.5559069E-01  0.7014234E+00  0.3676278E-02  0.8645117E-01 -0.4998443E-02 -0.4145758E-01
5600000. -0.5559069E-01  0.7014234E+00  0.3676278E-02  0.8645117E-01 -0.4998443E-02 -0.4145758E-01
5563518. -0.5931878E-01  0.6014619E+00  0.3196181E-02  0.8122596E-01 -0.4761517E-02 -0.4125160E-01
5527037. -0.6248758E-01  0.5061574E+00  0.2746077E-02  0.7598620E-01 -0.4526451E-02 -0.4081630E-01
5490556. -0.6512468E-01  0.4157901E+00  0.2325936E-02  0.7076579E-01 -0.4294452E-02 -0.4018523E-01
5454074. -0.6725909E-01  0.3305898E+00  0.1935544E-02  0.6559660E-01 -0.4066563E-02 -0.3938401E-01
5417593. -0.6892078E-01  0.2507197E+00  0.1574549E-02  0.6050669E-01 -0.3843659E-02 -0.3845129E-01
5381111. -0.7014073E-01  0.1763000E+00  0.1242398E-02  0.5552306E-01 -0.3626420E-02 -0.3740620E-01
5344630. -0.7095031E-01  0.1073985E+00  0.9384305E-03  0.5066910E-01 -0.3415439E-02 -0.3627228E-01
5308148. -0.7138117E-01  0.4402107E-01  0.6618369E-03  0.4596272E-01 -0.3211136E-02 -0.3507472E-01
5271667. -0.7146496E-01 -0.1383418E-01  0.4117242E-03  0.4142552E-01 -0.3013855E-02 -0.3382354E-01
5235185. -0.7123310E-01 -0.6624378E-01  0.1870728E-03  0.3706891E-01 -0.2823838E-02 -0.3253995E-01
5198704. -0.7071651E-01 -0.1133035E+00 -0.1316702E-04  0.3290379E-01 -0.2641222E-02 -0.3124101E-01
5162222. -0.6994554E-01 -0.1551112E+00 -0.1901506E-03  0.2894574E-01 -0.2466086E-02 -0.2992799E-01
5125741. -0.6894980E-01 -0.1918442E+00 -0.3450594E-03  0.2519530E-01 -0.2298458E-02 -0.2862317E-01
5089259. -0.6775785E-01 -0.2236629E+00 -0.4791045E-03  0.2165886E-01 -0.2138255E-02 -0.2733301E-01
5052778. -0.6639741E-01 -0.2507400E+00 -0.5935272E-03  0.1834278E-01 -0.1985397E-02 -0.2606120E-01
5016296. -0.6489491E-01 -0.2733017E+00 -0.6895827E-03  0.1524240E-01 -0.1839728E-02 -0.2482217E-01
4979815. -0.6327574E-01 -0.2915407E+00 -0.7685070E-03  0.1236048E-01 -0.1701058E-02 -0.2361806E-01
4943333. -0.6156393E-01 -0.3056829E+00 -0.8315507E-03  0.9693675E-02 -0.1569169E-02 -0.2245473E-01
4906852. -0.5978234E-01 -0.3159652E+00 -0.8799174E-03  0.7234408E-02 -0.1443799E-02 -0.2134218E-01
4870370. -0.5795241E-01 -0.3225881E+00 -0.9148017E-03  0.4983643E-02 -0.1324662E-02 -0.2027730E-01
4833889. -0.5609449E-01 -0.3257995E+00 -0.9373684E-03  0.2930229E-02 -0.1211466E-02 -0.1926991E-01
4797407. -0.5422735E-01 -0.3258222E+00 -0.9487187E-03  0.1065488E-02 -0.1103856E-02 -0.1832496E-01
4760926. -0.5236882E-01 -0.3228505E+00 -0.9499303E-03 -0.6123565E-03 -0.1001491E-02 -0.1743939E-01
4724444. -0.5053524E-01 -0.3171214E+00 -0.9420318E-03 -0.2118647E-02 -0.9039993E-03 -0.1662331E-01
4687963. -0.4874196E-01 -0.3088243E+00 -0.9259814E-03 -0.3460331E-02 -0.8109794E-03 -0.1587813E-01
4651482. -0.4700311E-01 -0.2981430E+00 -0.9027061E-03 -0.4644279E-02 -0.7220246E-03 -0.1520449E-01
4615000. -0.4533173E-01 -0.2852727E+00 -0.8730648E-03 -0.5685266E-02 -0.6366978E-03 -0.1461094E-01
4578518. -0.4373995E-01 -0.2703640E+00 -0.8378598E-03 -0.6588437E-02 -0.5545406E-03 -0.1409747E-01
4542037. -0.4223904E-01 -0.2535762E+00 -0.7978550E-03 -0.7364423E-02 -0.4750870E-03 -0.1366890E-01
4505556. -0.4083928E-01 -0.2350529E+00 -0.7537394E-03 -0.8025185E-02 -0.3978228E-03 -0.1333311E-01
4469074. -0.3955027E-01 -0.2149012E+00 -0.7061646E-03 -0.8573350E-02 -0.3222178E-03 -0.1308937E-01
4432593. -0.3838104E-01 -0.1932463E+00 -0.6557450E-03 -0.9021320E-02 -0.2477221E-03 -0.1294820E-01
4396111. -0.3733986E-01 -0.1701780E+00 -0.6030262E-03 -0.9376083E-02 -0.1737213E-03 -0.1291620E-01
4359630. -0.3643467E-01 -0.1457711E+00 -0.5485446E-03 -0.9638620E-02 -0.9958826E-04 -0.1299668E-01
4323148. -0.3567285E-01 -0.1201050E+00 -0.4927974E-03 -0.9818614E-02 -0.2463531E-04 -0.1320388E-01
4286667. -0.3506150E-01 -0.9323294E-01 -0.4362564E-03 -0.9915925E-02  0.5188265E-04 -0.1354514E-01
4250185. -0.3460734E-01 -0.6520554E-01 -0.3793970E-03 -0.9929636E-02  0.1307641E-03 -0.1403119E-01
4213704. -0.3431685E-01 -0.3607371E-01 -0.3226934E-03 -0.9861421E-02  0.2128822E-03 -0.1467875E-01
4177222. -0.3419624E-01 -0.5879557E-02 -0.2666357E-03 -0.9701795E-02  0.2992002E-03 -0.1549963E-01
4140741. -0.3425143E-01  0.2531840E-01 -0.2117740E-03 -0.9443082E-02  0.3907570E-03 -0.1651321E-01
4104259. -0.3448800E-01  0.5745764E-01 -0.1586991E-03 -0.9073822E-02  0.4887268E-03 -0.1774161E-01
4067778. -0.3491106E-01  0.9043844E-01 -0.1081192E-03 -0.8568126E-02  0.5943826E-03 -0.1920272E-01
4031296. -0.3552509E-01  0.1241330E+00 -0.6087400E-04 -0.7904395E-02  0.7091479E-03 -0.2092778E-01
3994815. -0.3633368E-01  0.1583571E+00 -0.1796349E-04 -0.7046737E-02  0.8346159E-03 -0.2294643E-01
3958333. -0.3733913E-01  0.1928332E+00  0.1935622E-04 -0.5942696E-02  0.9725525E-03 -0.2528764E-01
3921852. -0.3854185E-01  0.2271978E+00  0.4952481E-04 -0.4538504E-02  0.1124921E-02 -0.2799575E-01
3885370. -0.3993987E-01  0.2609275E+00  0.7060551E-04 -0.2752784E-02  0.1293947E-02 -0.3111113E-01
3848889. -0.4152748E-01  0.2932966E+00  0.8013214E-04 -0.4852640E-03  0.1482081E-02 -0.3468030E-01
3812407. -0.4329439E-01  0.3233515E+00  0.7501538E-04  0.2385582E-02  0.1692100E-02 -0.3876240E-01
3775926. -0.4522363E-01  0.3497545E+00  0.5134565E-04  0.6025416E-02  0.1927080E-02 -0.4341078E-01
3739444. -0.4728960E-01  0.3707549E+00  0.4164052E-05  0.1063408E-01  0.2190468E-02 -0.4869421E-01
3702963. -0.4945493E-01  0.3840295E+00 -0.7276536E-04  0.1646488E-01  0.2486100E-02 -0.5468735E-01
3666482. -0.5166686E-01  0.3864357E+00 -0.1873581E-03  0.2384968E-01  0.2818239E-02 -0.6145797E-01
3630000. -0.5385211E-01  0.3739177E+00 -0.3496312E-03  0.3319320E-01  0.3191597E-02 -0.6909563E-01
3630000. -0.5385211E-01  0.3739177E+00 -0.3496312E-03  0.3319320E-01  0.3191597E-02 -0.6909563E-01
3592500. -0.5596481E-01  0.3397914E+00 -0.5794629E-03  0.4539259E-01  0.3623786E-02 -0.7793029E-01
3555000. -0.5779504E-01  0.2764788E+00 -0.8905439E-03  0.6093510E-01  0.4111133E-02 -0.8785310E-01
3517500. -0.5914269E-01  0.1738884E+00 -0.1305136E-02  0.8073697E-01  0.4660322E-02 -0.9895711E-01
3480000. -0.5973905E-01  0.1864772E-01 -0.1851636E-02  0.1059772E+00  0.5278513E-02 -0.1113089E+00
3480000. -0.5973905E-01 -0.1342188E+01 -0.4316571E-02 -0.1013946E+00  0.5278513E-02  0.7919224E-01
3409422. -0.4635376E-01 -0.1081486E+01 -0.3313380E-02 -0.8039070E-01  0.4406075E-02  0.7722865E-01
3338844. -0.3562570E-01 -0.8618870E+00 -0.2521539E-02 -0.6314987E-01  0.3585245E-02  0.7039945E-01
3268266. -0.2712008E-01 -0.6795609E+00 -0.1902262E-02 -0.4915114E-01  0.2854630E-02  0.6128472E-01
3197688. -0.2044761E-01 -0.5301968E+00 -0.1422392E-02 -0.3790333E-01  0.2229678E-02  0.5153664E-01
3127109. -0.1526758E-01 -0.4093736E+00 -0.1053973E-02 -0.2895826E-01  0.1711379E-02  0.4215188E-01
3056531. -0.1128787E-01 -0.3128173E+00 -0.7737646E-03 -0.2191659E-01  0.1292359E-02  0.3367651E-01
2985953. -0.8261914E-02 -0.2365533E+00 -0.5626570E-03 -0.1642884E-01  0.9609546E-03  0.2635592E-01
2915375. -0.5985113E-02 -0.1770065E+00 -0.4051423E-03 -0.1219504E-01  0.7039389E-03  0.2024413E-01
2844797. -0.4290067E-02 -0.1310387E+00 -0.2887739E-03 -0.8961800E-02  0.5081765E-03  0.1528094E-01
2774219. -0.3041680E-02 -0.9595449E-01 -0.2036738E-03 -0.6518041E-02  0.3615779E-03  0.1134497E-01
2703641. -0.2132349E-02 -0.6948101E-01 -0.1420894E-03 -0.4690300E-02  0.2535679E-03  0.8288832E-02
2633062. -0.1477451E-02 -0.4973443E-01 -0.9800287E-04 -0.3337932E-02  0.1752399E-03  0.5961337E-02
2562484. -0.1011293E-02 -0.3517831E-01 -0.6679658E-04 -0.2348371E-02  0.1193216E-03  0.4220858E-02
2491906. -0.6834685E-03 -0.2457672E-01 -0.4496406E-04 -0.1632503E-02  0.8002047E-04  0.2941945E-02
2421328. -0.4558094E-03 -0.1695061E-01 -0.2987508E-04 -0.1120737E-02  0.5283083E-04  0.2018149E-02
2350750. -0.2997701E-03 -0.1153483E-01 -0.1957917E-04 -0.7593756E-03  0.3431981E-04  0.1362098E-02
2280172. -0.1942764E-03 -0.7739675E-02 -0.1264735E-04 -0.5074841E-03  0.2192285E-04  0.9040674E-03
2209594. -0.1239742E-03 -0.5116917E-02 -0.8045831E-05 -0.3342554E-03  0.1376014E-04  0.5897636E-03
2139016. -0.7782805E-04 -0.3330574E-02 -0.5036361E-05 -0.2168035E-03  0.8479182E-05  0.3778641E-03
2068438. -0.4801830E-04 -0.2132385E-02 -0.3098877E-05 -0.1383529E-03  0.5124733E-05  0.2375822E-03
1997859. -0.2908464E-04 -0.1341557E-02 -0.1872185E-05 -0.8677603E-04  0.3034563E-05  0.1464515E-03
1927281. -0.1727357E-04 -0.8284519E-03 -0.1109229E-05 -0.5343312E-04  0.1758319E-05  0.8841016E-04
1856703. -0.1004536E-04 -0.5015238E-03 -0.6436089E-06 -0.3226010E-04  0.9955538E-06  0.5220202E-04
1786125. -0.5711469E-05 -0.2972132E-03 -0.3651600E-06 -0.1906975E-04  0.5499344E-06  0.3010395E-04
1715547. -0.3169403E-05 -0.1721505E-03 -0.2022351E-06 -0.1101909E-04  0.2958410E-06  0.1692767E-04
1644969. -0.1713147E-05 -0.9728524E-04 -0.1091211E-06 -0.6212471E-05  0.1546768E-06  0.9263867E-05
1574391. -0.8998623E-06 -0.5353918E-04 -0.5724529E-07 -0.3409837E-05  0.7841707E-07  0.4923498E-05
1503812. -0.4578464E-06 -0.2865026E-04 -0.2914330E-07 -0.1816288E-05  0.3844852E-07  0.2534865E-05
1433234. -0.2241984E-06 -0.1493125E-04 -0.1440480E-07 -0.9326165E-06  0.1817998E-07  0.1260576E-05
1362656. -0.1032187E-06 -0.7726870E-05 -0.7013734E-08 -0.4498281E-06  0.8265818E-08  0.6033644E-06
1292078. -0.3871593E-07 -0.4443910E-05 -0.3684831E-08 -0.1727521E-06  0.3605445E-08  0.2769805E-06
1221500.  0.6133173E-08 -0.4182103E-05 -0.2971249E-08  0.4746438E-07  0.1501735E-08  0.1229718E-06
1221500.  0.6133173E-08  0.1116860E-07 -0.1716595E-10 -0.3207844E-07  0.1501735E-08  0.1203148E-06
1183328.  0.5565800E-08  0.1544417E-06  0.1048595E-09 -0.1099348E-07  0.9214630E-09  0.7643120E-07
1145156.  0.4490399E-08  0.1924100E-06  0.1360152E-09 -0.7413041E-09  0.5556215E-09  0.4775497E-07
1106984.  0.3359990E-08  0.1796010E-06  0.1256536E-09  0.3483435E-08  0.3288648E-09  0.2931701E-07
1068812.  0.2376832E-08  0.1469738E-06  0.1004217E-09  0.4588079E-08  0.1908361E-09  0.1766359E-07
1030641.  0.1605288E-08  0.1108115E-06  0.7349473E-10  0.4254842E-08  0.1084233E-09  0.1043162E-07
 992469.  0.1040672E-08  0.7865020E-07  0.5044591E-10  0.3400416E-08  0.6021839E-10  0.6029913E-08
 954297.  0.6494003E-09  0.5312182E-07  0.3285696E-10  0.2482049E-08  0.3263966E-10  0.3406197E-08
 916125.  0.3905649E-09  0.3433755E-07  0.2043135E-10  0.1695033E-08  0.1723211E-10  0.1876945E-08
 877953.  0.2264264E-09  0.2130235E-07  0.1216574E-10  0.1095699E-08  0.8842300E-11  0.1006876E-08
 839781.  0.1264533E-09  0.1269731E-07  0.6944282E-11  0.6743205E-09  0.4399021E-11  0.5246195E-09
 801609.  0.6794166E-10  0.7270048E-08  0.3798928E-11  0.3961429E-09  0.2115863E-11  0.2647988E-09
 763438.  0.3505747E-10  0.3993850E-08  0.1989352E-11  0.2222342E-09  0.9807702E-12  0.1290818E-09
 725266.  0.1733428E-10  0.2102223E-08  0.9958604E-12  0.1186942E-09  0.4365812E-12  0.6052180E-10
 687094.  0.0000000E+00  0.0000000E+00  0.0000000E+00  0.0000000E+00  0.0000000E+00  0.0000000E+00
 648922.  0.0000000E+00  0.0000000E+00  0.0000000E+00  0.0000000E+00  0.0000000E+00  0.0000000E+00
 610750.  0.0000000E+00  0.0000000E+00  0.0000000E+00  0.0000000E+00  0.0000000E+00  0.0000000E+00
 572578.  0.0000000E+00  0.0000000E+00  0.0000000E+00  0.0000000E+00  0.0000000E+00  0.0000000E+00
 534406.  0.0000000E+00  0.0000000E+00  0.0000000E+00  0.0000000E+00  0.0000000E+00  0.0000000E+00
 496234.  0.0000000E+00  0.0000000E+00  0.0000000E+00  0.0000000E+00  0.0000000E+00  0.0000000E+00
 458062.  0.0000000E+00  0.0000000E+00  0.0000000E+00  0.0000000E+00  0.0000000E+00  0.0000000E+00
 419891.  0.0000000E+00  0.0000000E+00  0.0000000E+00  0.0000000E+00  0.0000000E+00  0.0000000E+00
 381719.  0.0000000E+00  0.0000000E+00  0.0000000E+00  0.0000000E+00  0.0000000E+00  0.0000000E+00
 343547.  0.0000000E+00  0.0000000E+00  0.0000000E+00  0.0000000E+00  0.0000000E+00  0.0000000E+00
 305375.  0.0000000E+00  0.0000000E+00  0.0000000E+00  0.0000000E+00  0.0000000E+00  0.0000000E+00
 267203.  0.0000000E+00  0.0000000E+00  0.0000000E+00  0.0000000E+00  0.0000000E+00  0.0000000E+00
 229031.  0.0000000E+00  0.0000000E+00  0.0000000E+00  0.0000000E+00  0.0000000E+00  0.0000000E+00
 190859.  0.0000000E+00  0.0000000E+00  0.0000000E+00  0.0000000E+00  0.0000000E+00  0.0000000E+00
 152688.  0.0000000E+00  0.0000000E+00  0.0000000E+00  0.0000000E+00  0.0000000E+00  0.0000000E+00
 114516.  0.0000000E+00  0.0000000E+00  0.0000000E+00  0.0000000E+00  0.0000000E+00  0.0000000E+00
  76344.  0.0000000E+00  0.0000000E+00  0.0000000E+00  0.0000000E+00  0.0000000E+00  0.0000000E+00
  38172.  0.0000000E+00  0.0000000E+00  0.0000000E+00  0.0000000E+00  0.0000000E+00  0.0000000E+00
      0.  0.0000000E+00  0.0000000E+00  0.0000000E+00  0.0000000E+00  0.0000000E+00  0.0000000E+00
