      13        5 S      583        170.89850         42.58792         17.53808        184.81960      185    7
6371000.  0.4905966E-01 -0.6132333E-01 -0.1928567E-02 -0.5098822E-01 -0.6409634E-04 -0.9213046E-01
6370000.  0.4906829E-01 -0.4860537E-01 -0.1920436E-02 -0.5261819E-01 -0.4963548E-04 -0.9212925E-01
6369000.  0.4907492E-01 -0.3587614E-01 -0.1912049E-02 -0.5423724E-01 -0.3517509E-04 -0.9212440E-01
6368000.  0.4907955E-01 -0.2313620E-01 -0.1903410E-02 -0.5584513E-01 -0.2071575E-04 -0.9211592E-01
6368000.  0.4907955E-01 -0.2313620E-01 -0.1903410E-02 -0.5584513E-01 -0.2071575E-04 -0.9211592E-01
6367000.  0.4908218E-01 -0.1038607E-01 -0.1894519E-02 -0.5744165E-01 -0.6258025E-05 -0.9210381E-01
6366000.  0.4908281E-01  0.2373691E-02 -0.1885378E-02 -0.5902659E-01  0.8197514E-05 -0.9208807E-01
6365000.  0.4908143E-01  0.1514254E-01 -0.1875990E-02 -0.6059974E-01  0.2265030E-04 -0.9206868E-01
6364000.  0.4907805E-01  0.2791993E-01 -0.1866355E-02 -0.6216088E-01  0.3709975E-04 -0.9204566E-01
6363000.  0.4907267E-01  0.4070532E-01 -0.1856477E-02 -0.6370979E-01  0.5154530E-04 -0.9201900E-01
6362000.  0.4906527E-01  0.5349815E-01 -0.1846356E-02 -0.6524627E-01  0.6598639E-04 -0.9198871E-01
6361000.  0.4905587E-01  0.6629787E-01 -0.1835995E-02 -0.6677011E-01  0.8042243E-04 -0.9195478E-01
6360000.  0.4904446E-01  0.7910393E-01 -0.1825396E-02 -0.6828111E-01  0.9485287E-04 -0.9191722E-01
6359000.  0.4903104E-01  0.9191578E-01 -0.1814561E-02 -0.6977906E-01  0.1092771E-03 -0.9187602E-01
6358000.  0.4901561E-01  0.1047329E+00 -0.1803492E-02 -0.7126375E-01  0.1236946E-03 -0.9183118E-01
6357000.  0.4899816E-01  0.1175546E+00 -0.1792190E-02 -0.7273500E-01  0.1381048E-03 -0.9178271E-01
6356000.  0.4897870E-01  0.1303805E+00 -0.1780659E-02 -0.7419260E-01  0.1525071E-03 -0.9173061E-01
6356000.  0.4897870E-01  0.7175697E-01 -0.1780659E-02 -0.6495105E-01  0.1525071E-03 -0.1023878E+00
6355000.  0.4896671E-01  0.8108187E-01 -0.1770388E-02 -0.6591699E-01  0.1685747E-03 -0.1023455E+00
6354000.  0.4895325E-01  0.9041042E-01 -0.1759967E-02 -0.6687447E-01  0.1846355E-03 -0.1023003E+00
6353000.  0.4893833E-01  0.9974231E-01 -0.1749396E-02 -0.6782342E-01  0.2006889E-03 -0.1022522E+00
6352000.  0.4892194E-01  0.1090772E+00 -0.1738676E-02 -0.6876375E-01  0.2167346E-03 -0.1022012E+00
6351000.  0.4890409E-01  0.1184149E+00 -0.1727809E-02 -0.6969536E-01  0.2327720E-03 -0.1021472E+00
6350000.  0.4888476E-01  0.1277550E+00 -0.1716797E-02 -0.7061818E-01  0.2488008E-03 -0.1020904E+00
6349000.  0.4886398E-01  0.1370973E+00 -0.1705641E-02 -0.7153212E-01  0.2648204E-03 -0.1020307E+00
6348000.  0.4884173E-01  0.1464414E+00 -0.1694342E-02 -0.7243710E-01  0.2808303E-03 -0.1019680E+00
6347000.  0.4881801E-01  0.1557871E+00 -0.1682902E-02 -0.7333303E-01  0.2968302E-03 -0.1019025E+00
6346600.  0.4880811E-01  0.1595258E+00 -0.1678287E-02 -0.7368886E-01  0.3032273E-03 -0.1018754E+00
6346600.  0.4880811E-01  0.7042301E-01 -0.1678287E-02 -0.6621439E-01  0.3032273E-03 -0.1188941E+00
6318800.  0.4808744E-01  0.2605043E+00 -0.1351492E-02 -0.8260375E-01  0.8176880E-03 -0.1165963E+00
6291000.  0.4653195E-01  0.4524509E+00 -0.9664129E-03 -0.9280874E-01  0.1318061E-02 -0.1124382E+00
6291000.  0.4653195E-01  0.4581712E+00 -0.9664129E-03 -0.9446149E-01  0.1318061E-02 -0.1124382E+00
6263000.  0.4408978E-01  0.6525116E+00 -0.5408170E-03 -0.9799177E-01  0.1799448E-02 -0.1063147E+00
6235000.  0.4080559E-01  0.8406475E+00 -0.1158488E-03 -0.9418741E-01  0.2249852E-02 -0.9835097E-01
6207000.  0.3671593E-01  0.1018350E+01  0.2767331E-03 -0.8333839E-01  0.2661368E-02 -0.8863532E-01
6179000.  0.3187587E-01  0.1181446E+01  0.6073911E-03 -0.6616046E-01  0.3026551E-02 -0.7728928E-01
6151000.  0.2635853E-01  0.1325916E+01  0.8505950E-03 -0.4375283E-01  0.3338564E-02 -0.6446797E-01
6151000.  0.2635853E-01  0.1066272E+01  0.8505950E-03 -0.4163413E-01  0.3338564E-02 -0.6592628E-01
6128500.  0.2248451E-01  0.1125583E+01  0.9661799E-03 -0.2357324E-01  0.3556034E-02 -0.5714015E-01
6106000.  0.1842319E-01  0.1172300E+01  0.1015744E-02 -0.4362273E-02  0.3741583E-02 -0.4786399E-01
6083500.  0.1421946E-01  0.1206215E+01  0.9964695E-03  0.1529269E-01  0.3893634E-02 -0.3818385E-01
6061000.  0.9918633E-02  0.1227291E+01  0.9080403E-03  0.3468370E-01  0.4010914E-02 -0.2818775E-01
6038500.  0.5565867E-02  0.1235669E+01  0.7526110E-03  0.5312407E-01  0.4092463E-02 -0.1796403E-01
6016000.  0.1205517E-02  0.1231646E+01  0.5346917E-03  0.6996971E-01  0.4137635E-02 -0.7601096E-02
5993500. -0.3119360E-02  0.1215668E+01  0.2609645E-03  0.8463760E-01  0.4146091E-02  0.2813351E-02
5971000. -0.7367560E-02  0.1188331E+01 -0.5996435E-04  0.9662380E-01  0.4117804E-02  0.1319318E-01
5971000. -0.7367560E-02  0.1075421E+01 -0.5996435E-04  0.8683806E-01  0.4117804E-02  0.1415765E-01
5937667. -0.1278333E-01  0.9924698E+00 -0.5372288E-03  0.9452945E-01  0.4005913E-02  0.2850991E-01
5904333. -0.1773178E-01  0.8973510E+00 -0.1038033E-02  0.9586800E-01  0.3820725E-02  0.4214428E-01
5871000. -0.2215850E-01  0.7936684E+00 -0.1530007E-02  0.9125425E-01  0.3566456E-02  0.5489362E-01
5837667. -0.2602763E-01  0.6847280E+00 -0.1983738E-02  0.8138526E-01  0.3248101E-02  0.6662196E-01
5804333. -0.2931966E-01  0.5734928E+00 -0.2374036E-02  0.6716446E-01  0.2871285E-02  0.7722092E-01
5771000. -0.3202931E-01  0.4625458E+00 -0.2680756E-02  0.4961828E-01  0.2442167E-02  0.8660813E-01
5771000. -0.3202931E-01  0.4625512E+00 -0.2680756E-02  0.4961772E-01  0.2442167E-02  0.8660813E-01
5701000. -0.3599523E-01  0.2582876E+00 -0.2991453E-02  0.5136030E-02  0.1408556E-02  0.1006107E+00
5701000. -0.3599523E-01  0.2126966E+00 -0.2991453E-02  0.1180429E-01  0.1408556E-02  0.1107565E+00
5667333. -0.3685602E-01  0.1163820E+00 -0.3006303E-02 -0.6360998E-02  0.8111733E-03  0.1151543E+00
5633667. -0.3724719E-01  0.3247512E-01 -0.2919464E-02 -0.2684725E-01  0.1932452E-03  0.1185333E+00
5600000. -0.3720462E-01 -0.4792533E-01 -0.2723224E-02 -0.4727101E-01 -0.4392093E-03  0.1206077E+00
5600000. -0.3720462E-01 -0.4792533E-01 -0.2723224E-02 -0.4727101E-01 -0.4392093E-03  0.1206077E+00
5563518. -0.3669234E-01 -0.1300540E+00 -0.2391204E-02 -0.6845908E-01 -0.1132767E-02  0.1213715E+00
5527037. -0.3572679E-01 -0.2061215E+00 -0.1942722E-02 -0.8780923E-01 -0.1826254E-02  0.1205926E+00
5490556. -0.3434465E-01 -0.2754651E+00 -0.1390654E-02 -0.1045112E+00 -0.2510921E-02  0.1182971E+00
5454074. -0.3258582E-01 -0.3376224E+00 -0.7522273E-03 -0.1178635E+00 -0.3178227E-02  0.1145303E+00
5417593. -0.3049215E-01 -0.3924195E+00 -0.4825760E-04 -0.1273325E+00 -0.3819856E-02  0.1093458E+00
5381111. -0.2810586E-01 -0.4398068E+00  0.6978466E-03 -0.1325203E+00 -0.4427932E-02  0.1028192E+00
5344630. -0.2546922E-01 -0.4799363E+00  0.1460817E-02 -0.1332119E+00 -0.4994985E-02  0.9503812E-01
5308148. -0.2262267E-01 -0.5131503E+00  0.2214795E-02 -0.1293789E+00 -0.5514131E-02  0.8609953E-01
5271667. -0.1960504E-01 -0.5397877E+00  0.2934088E-02 -0.1211404E+00 -0.5979036E-02  0.7611723E-01
5235185. -0.1645237E-01 -0.5603883E+00  0.3594314E-02 -0.1088071E+00 -0.6384085E-02  0.6520935E-01
5198704. -0.1319774E-01 -0.5755076E+00  0.4173228E-02 -0.9283004E-01 -0.6724315E-02  0.5350347E-01
5162222. -0.9871099E-02 -0.5855980E+00  0.4651539E-02 -0.7377005E-01 -0.6995562E-02  0.4113577E-01
5125741. -0.6499640E-02 -0.5912933E+00  0.5013508E-02 -0.5232026E-01 -0.7194418E-02  0.2824431E-01
5089259. -0.3106917E-02 -0.5930560E+00  0.5247589E-02 -0.2922813E-01 -0.7318296E-02  0.1497084E-01
5052778.  0.2854463E-03 -0.5912717E+00  0.5346626E-02 -0.5290376E-02 -0.7365419E-02  0.1460561E-02
5016296.  0.3658579E-02 -0.5863608E+00  0.5308111E-02  0.1868081E-01 -0.7334842E-02 -0.1214344E-01
4979815.  0.6995067E-02 -0.5785319E+00  0.5134146E-02  0.4188983E-01 -0.7226443E-02 -0.2569803E-01
4943333.  0.1027887E-01 -0.5679584E+00  0.4831260E-02  0.6358791E-01 -0.7040898E-02 -0.3906385E-01
4906852.  0.1349451E-01 -0.5547521E+00  0.4410094E-02  0.8309939E-01 -0.6779694E-02 -0.5210402E-01
4870370.  0.1662685E-01 -0.5388182E+00  0.3884886E-02  0.9983280E-01 -0.6445049E-02 -0.6469044E-01
4833889.  0.1965995E-01 -0.5201114E+00  0.3272973E-02  0.1133221E+00 -0.6039944E-02 -0.7669712E-01
4797407.  0.2257774E-01 -0.4984703E+00  0.2593931E-02  0.1232249E+00 -0.5568013E-02 -0.8800853E-01
4760926.  0.2536245E-01 -0.4736231E+00  0.1869045E-02  0.1293169E+00 -0.5033568E-02 -0.9851900E-01
4724444.  0.2799536E-01 -0.4453892E+00  0.1120333E-02  0.1315411E+00 -0.4441459E-02 -0.1081280E+00
4687963.  0.3045621E-01 -0.4135026E+00  0.3698647E-03  0.1299576E+00 -0.3797136E-02 -0.1167483E+00
4651482.  0.3272341E-01 -0.3777208E+00 -0.3610521E-03  0.1247567E+00 -0.3106464E-02 -0.1243047E+00
4615000.  0.3477425E-01 -0.3378882E+00 -0.1052615E-02  0.1162679E+00 -0.2375718E-02 -0.1307281E+00
4578518.  0.3658503E-01 -0.2938615E+00 -0.1687114E-02  0.1049027E+00 -0.1611560E-02 -0.1359667E+00
4542037.  0.3813156E-01 -0.2456112E+00 -0.2249487E-02  0.9117537E-01 -0.8209222E-03 -0.1399773E+00
4505556.  0.3938986E-01 -0.1932042E+00 -0.2727878E-02  0.7566889E-01 -0.1092103E-04 -0.1427264E+00
4469074.  0.4033655E-01 -0.1368035E+00 -0.3113834E-02  0.5899205E-01  0.8111997E-03 -0.1442005E+00
4432593.  0.4094952E-01 -0.7671455E-01 -0.3402495E-02  0.4179913E-01  0.1638057E-02 -0.1443876E+00
4396111.  0.4120882E-01 -0.1335308E-01 -0.3592769E-02  0.2472955E-01  0.2462328E-02 -0.1432917E+00
4359630.  0.4109727E-01  0.5271311E-01 -0.3687111E-02  0.8394113E-02  0.3276675E-02 -0.1409325E+00
4323148.  0.4060117E-01  0.1208369E+00 -0.3691409E-02 -0.6629836E-02  0.4073961E-02 -0.1373294E+00
4286667.  0.3971098E-01  0.1902218E+00 -0.3614653E-02 -0.1983919E-01  0.4847120E-02 -0.1325208E+00
4250185.  0.3842196E-01  0.2599774E+00 -0.3468479E-02 -0.3081064E-01  0.5589423E-02 -0.1265523E+00
4213704.  0.3673468E-01  0.3291737E+00 -0.3266714E-02 -0.3921109E-01  0.6294322E-02 -0.1194735E+00
4177222.  0.3465522E-01  0.3967587E+00 -0.3024760E-02 -0.4481657E-01  0.6955680E-02 -0.1113487E+00
4140741.  0.3219593E-01  0.4616935E+00 -0.2759026E-02 -0.4750932E-01  0.7567659E-02 -0.1022443E+00
4104259.  0.2937473E-01  0.5229564E+00 -0.2486243E-02 -0.4728398E-01  0.8124882E-02 -0.9223172E-01
4067778.  0.2621605E-01  0.5794265E+00 -0.2222889E-02 -0.4424527E-01  0.8622359E-02 -0.8139487E-01
4031296.  0.2274982E-01  0.6301920E+00 -0.1984510E-02 -0.3860119E-01  0.9055621E-02 -0.6981249E-01
3994815.  0.1901151E-01  0.6743377E+00 -0.1785212E-02 -0.3065497E-01  0.9420619E-02 -0.5757123E-01
3958333.  0.1504146E-01  0.7109724E+00 -0.1637100E-02 -0.2079277E-01  0.9713863E-02 -0.4476213E-01
3921852.  0.1088466E-01  0.7395118E+00 -0.1549877E-02 -0.9469467E-02  0.9932336E-02 -0.3147295E-01
3885370.  0.6588917E-02  0.7593710E+00 -0.1530478E-02  0.2808870E-02  0.1007356E-01 -0.1779404E-01
3848889.  0.2205458E-02  0.7701530E+00 -0.1582832E-02  0.1550005E-01  0.1013555E-01 -0.3816681E-02
3812407. -0.2213589E-02  0.7717397E+00 -0.1707722E-02  0.2805009E-01  0.1011686E-01  0.1037198E-01
3775926. -0.6614975E-02  0.7640319E+00 -0.1902738E-02  0.3990340E-01  0.1001653E-01  0.2468472E-01
3739444. -0.1094621E-01  0.7472570E+00 -0.2162367E-02  0.5053012E-01  0.9834087E-02  0.3903814E-01
3702963. -0.1515630E-01  0.7218257E+00 -0.2478146E-02  0.5943966E-01  0.9569534E-02  0.5335103E-01
3666482. -0.1919696E-01  0.6881852E+00 -0.2838957E-02  0.6619108E-01  0.9223316E-02  0.6755036E-01
3630000. -0.2302350E-01  0.6471484E+00 -0.3231370E-02  0.7041918E-01  0.8796280E-02  0.8156269E-01
3630000. -0.2302350E-01  0.6471484E+00 -0.3231370E-02  0.7041918E-01  0.8796280E-02  0.8156269E-01
3592500. -0.2669147E-01  0.5981092E+00 -0.3651531E-02  0.7182907E-01  0.8274430E-02  0.9570517E-01
3555000. -0.3005299E-01  0.5432274E+00 -0.4070683E-02  0.7004969E-01  0.7670275E-02  0.1095187E+00
3517500. -0.3307745E-01  0.4837944E+00 -0.4469685E-02  0.6497244E-01  0.6985933E-02  0.1229425E+00
3480000. -0.3574178E-01  0.4210782E+00 -0.4829059E-02  0.5659338E-01  0.6223839E-02  0.1359306E+00
3480000. -0.3574178E-01  0.8481383E+00 -0.1848346E-02 -0.6201865E-01  0.6223839E-02  0.2499072E+00
3409422. -0.4339751E-01  0.5267761E+00 -0.1061565E-02 -0.7909913E-01  0.3103682E-02  0.3093098E+00
3338844. -0.4731012E-01  0.1774906E+00 -0.1185291E-03 -0.9004834E-01 -0.5318148E-03  0.3424116E+00
3268266. -0.4733662E-01 -0.1701221E+00  0.9078247E-03 -0.9404969E-01 -0.4378005E-02  0.3472135E+00
3197688. -0.4364387E-01 -0.4900137E+00  0.1938475E-02 -0.9082051E-01 -0.8121120E-02  0.3240394E+00
3127109. -0.3666070E-01 -0.7611010E+00  0.2894135E-02 -0.8058613E-01 -0.1146283E-01  0.2752919E+00
3056531. -0.2701827E-01 -0.9680887E+00  0.3700544E-02 -0.6402397E-01 -0.1414115E-01  0.2050862E+00
2985953. -0.1548308E-01 -0.1101786E+01  0.4293131E-02 -0.4218481E-01 -0.1594724E-01  0.1187966E+00
2915375. -0.2890428E-02 -0.1158931E+01  0.4620600E-02 -0.1640027E-01 -0.1673648E-01  0.2257083E-01
2844797.  0.9918923E-02 -0.1141679E+01  0.4647492E-02  0.1181975E-01 -0.1643440E-01 -0.7715684E-01
2774219.  0.2215440E-01 -0.1056787E+01  0.4355592E-02  0.4088811E-01 -0.1503727E-01 -0.1741192E+00
2703641.  0.3312140E-01 -0.9146479E+00  0.3744249E-02  0.6923591E-01 -0.1260800E-01 -0.2626110E+00
2633062.  0.4225575E-01 -0.7282156E+00  0.2829664E-02  0.9540213E-01 -0.9268046E-02 -0.3378068E+00
2562484.  0.4914554E-01 -0.5119138E+00  0.1643322E-02  0.1181056E+00 -0.5186493E-02 -0.3959873E+00
2491906.  0.5354233E-01 -0.2805960E+00  0.2295862E-03  0.1363036E+00 -0.5666592E-03 -0.4346820E+00
2421328.  0.5536015E-01 -0.4861741E-01 -0.1357133E-02  0.1492335E+00  0.4367857E-02 -0.4527093E+00
2350750.  0.5466553E-01  0.1709606E+00 -0.3055645E-02  0.1564354E+00  0.9387383E-02 -0.4501411E+00
2280172.  0.5165960E-01  0.3669882E+00 -0.4801373E-02  0.1577584E+00  0.1426951E-01 -0.4281925E+00
2209594.  0.4665431E-01  0.5306649E+00 -0.6529753E-02  0.1533520E+00  0.1881084E-01 -0.3890511E+00
2139016.  0.4004490E-01  0.6557834E+00 -0.8179432E-02  0.1436432E+00  0.2283667E-01 -0.3356659E+00
2068438.  0.3228050E-01  0.7388118E+00 -0.9695183E-02  0.1293016E+00  0.2620805E-01 -0.2715068E+00
1997859.  0.2383501E-01  0.7787634E+00 -0.1103034E-01  0.1111968E+00  0.2882625E-01 -0.2003155E+00
1927281.  0.1518040E-01  0.7769887E+00 -0.1214877E-01  0.9035699E-01  0.3063426E-01 -0.1258609E+00
1856703.  0.6762224E-02  0.7367602E+00 -0.1302637E-01  0.6791557E-01  0.3161597E-01 -0.5170136E-01
1786125. -0.1018732E-02  0.6628333E+00 -0.1365201E-01  0.4507122E-01  0.3179252E-01  0.1901993E-01
1715547. -0.7819914E-02  0.5608570E+00 -0.1402804E-01  0.2305758E-01  0.3121674E-01  0.8375948E-01
1644969. -0.1336337E-01  0.4367338E+00 -0.1417054E-01  0.3119725E-02  0.2996554E-01  0.1407308E+00
1574391. -0.1743462E-01  0.2958919E+00 -0.1410950E-01 -0.1347402E-01  0.2813078E-01  0.1890502E+00
1503812. -0.1987279E-01  0.1424040E+00 -0.1388929E-01 -0.2538116E-01  0.2580836E-01  0.2288938E+00
1433234. -0.2054944E-01 -0.2213885E-01 -0.1357006E-01 -0.3107107E-01  0.2308552E-01  0.2617101E+00
1362656. -0.1933289E-01 -0.2002742E+00 -0.1323095E-01 -0.2858992E-01  0.2002476E-01  0.2905793E+00
1292078. -0.1602901E-01 -0.4012947E+00 -0.1297698E-01 -0.1512581E-01  0.1664261E-01  0.3208700E+00
1221500. -0.1028317E-01 -0.6459133E+00 -0.1295265E-01  0.1383049E-01  0.1287806E-01  0.3615079E+00
1221500. -0.1028317E-01  0.6284900E+01  0.4067922E-01  0.2658055E+00  0.1287806E-01  0.3659626E+00
1183328. -0.4816778E-01  0.6222087E+01  0.3645835E-01  0.1130731E+01  0.1083128E-01  0.3180644E+00
1145156. -0.8315039E-01  0.5314874E+01  0.2739001E-01  0.1865904E+01  0.9057383E-02  0.2748164E+00
1106984. -0.1102502E+00  0.3606452E+01  0.1455123E-01  0.2375755E+01  0.7529479E-02  0.2359038E+00
1068812. -0.1250437E+00  0.1238133E+01 -0.4992588E-03  0.2596745E+01  0.6222396E-02  0.2010663E+00
1030641. -0.1242130E+00 -0.1565910E+01 -0.1593744E-01  0.2504752E+01  0.5112432E-02  0.1700790E+00
 992469. -0.1059687E+00 -0.4524527E+01 -0.2991963E-01  0.2116714E+01  0.4177079E-02  0.1427388E+00
 954297. -0.7029815E-01 -0.7331664E+01 -0.4081691E-01  0.1486716E+01  0.3395091E-02  0.1188527E+00
 916125. -0.1900755E-01 -0.9692049E+01 -0.4741535E-01  0.6972688E+00  0.2746381E-02  0.9821504E-01
 877953.  0.4444547E-01 -0.1135506E+02 -0.4905103E-01 -0.1527499E+00  0.2212141E-02  0.8060252E-01
 839781.  0.1153078E+00 -0.1214294E+02 -0.4566747E-01 -0.9617182E+00  0.1774984E-02  0.6576505E-01
 801609.  0.1880309E+00 -0.1197024E+02 -0.3779212E-01 -0.1638437E+01  0.1419094E-02  0.5342694E-01
 763438.  0.2568522E+00 -0.1085200E+02 -0.2643947E-01 -0.2113190E+01  0.1130388E-02  0.4328989E-01
 725266.  0.3163998E+00 -0.8900200E+01 -0.1295657E-01 -0.2345309E+01  0.8965898E-03  0.3504416E-01
 687094.  0.3622238E+00 -0.6309097E+01  0.1161066E-02 -0.2326351E+01  0.7072861E-03  0.2838648E-01
 648922.  0.3912288E+00 -0.3331472E+01  0.1446219E-01 -0.2078886E+01  0.5538707E-03  0.2301650E-01
 610750.  0.4019358E+00 -0.2488283E+00  0.2571149E-01 -0.1651245E+01  0.4294324E-03  0.1867279E-01
 572578.  0.3945587E+00  0.2660623E+01  0.3402019E-01 -0.1109212E+01  0.3285243E-03  0.1512651E-01
 534406.  0.3708915E+00  0.5152361E+01  0.3892121E-01 -0.5260341E+00  0.2469558E-03  0.1218936E-01
 496234.  0.3340276E+00  0.7040748E+01  0.4038301E-01  0.2780003E-01  0.1815229E-03  0.9720926E-02
 458062.  0.2879511E+00  0.8216155E+01  0.3876514E-01  0.4935589E+00  0.1297213E-03  0.7625945E-02
 419891.  0.2370558E+00  0.8652291E+01  0.3472669E-01  0.8308734E+00  0.8952239E-04  0.5840494E-02
 381719.  0.1856442E+00  0.8403225E+01  0.2910363E-01  0.1021265E+01  0.5917894E-04  0.4331848E-02
 343547.  0.1374875E+00  0.7590799E+01  0.2277667E-01  0.1068116E+01  0.3709751E-04  0.3080426E-02
 305375.  0.9547099E-01  0.6384564E+01  0.1654729E-01  0.9937084E+00  0.2176913E-04  0.2076162E-02
 267203.  0.6138314E-01  0.4976719E+01  0.1104075E-01  0.8334833E+00  0.1174867E-04  0.1306059E-02
 229031.  0.3585865E-01  0.3555849E+01  0.6647686E-02  0.6290809E+00  0.5687386E-05  0.7508371E-03
 190859.  0.1847551E-01  0.2282385E+01  0.3509470E-02  0.4208706E+00  0.2376695E-05  0.3824555E-03
 152688.  0.7984685E-02  0.1269385E+01  0.1546006E-02  0.2414677E+00  0.8043480E-06  0.1639448E-03
 114516.  0.2633229E-02  0.5704383E+00  0.5172581E-03  0.1110004E+00  0.1957121E-06  0.5374009E-04
  76344.  0.5356718E-03  0.1767107E+00  0.1062897E-03  0.3492188E-01  0.2622995E-07  0.1088343E-04
  38172.  0.3407369E-04  0.2268093E-01  0.6801280E-05  0.4522732E-02  0.8280427E-09  0.6893447E-06
      0.  0.0000000E+00  0.0000000E+00  0.0000000E+00  0.0000000E+00  0.0000000E+00  0.0000000E+00
