       6       34 S      395        110.04020         10.54428          6.68256        248.37759      185    7
6371000. -0.3331621E-01  0.8173271E+00  0.1691708E-02  0.3500792E-01 -0.3054483E-03  0.7351728E-01
6370000. -0.3344267E-01  0.7938828E+00  0.1686001E-02  0.3771080E-01 -0.3169645E-03  0.7322223E-01
6369000. -0.3356541E-01  0.7700109E+00  0.1679871E-02  0.4039730E-01 -0.3284342E-03  0.7292417E-01
6368000. -0.3368437E-01  0.7457154E+00  0.1673321E-02  0.4306666E-01 -0.3398569E-03  0.7262310E-01
6368000. -0.3368437E-01  0.7457154E+00  0.1673321E-02  0.4306666E-01 -0.3398569E-03  0.7262310E-01
6367000. -0.3379948E-01  0.7210007E+00  0.1666353E-02  0.4571812E-01 -0.3512321E-03  0.7231908E-01
6366000. -0.3391069E-01  0.6958711E+00  0.1658970E-02  0.4835094E-01 -0.3625593E-03  0.7201208E-01
6365000. -0.3401791E-01  0.6703309E+00  0.1651175E-02  0.5096437E-01 -0.3738381E-03  0.7170215E-01
6364000. -0.3412110E-01  0.6443851E+00  0.1642972E-02  0.5355769E-01 -0.3850681E-03  0.7138929E-01
6363000. -0.3422018E-01  0.6180382E+00  0.1634363E-02  0.5613016E-01 -0.3962487E-03  0.7107353E-01
6362000. -0.3431509E-01  0.5912951E+00  0.1625352E-02  0.5868104E-01 -0.4073795E-03  0.7075489E-01
6361000. -0.3440578E-01  0.5641610E+00  0.1615943E-02  0.6120965E-01 -0.4184601E-03  0.7043337E-01
6360000. -0.3449218E-01  0.5366409E+00  0.1606139E-02  0.6371524E-01 -0.4294900E-03  0.7010901E-01
6359000. -0.3457422E-01  0.5087402E+00  0.1595943E-02  0.6619713E-01 -0.4404687E-03  0.6978182E-01
6358000. -0.3465186E-01  0.4804643E+00  0.1585359E-02  0.6865463E-01 -0.4513959E-03  0.6945183E-01
6357000. -0.3472503E-01  0.4518187E+00  0.1574392E-02  0.7108703E-01 -0.4622711E-03  0.6911905E-01
6356000. -0.3479368E-01  0.4228091E+00  0.1563045E-02  0.7349364E-01 -0.4730938E-03  0.6878351E-01
6356000. -0.3479368E-01  0.4452277E+00  0.1563045E-02  0.5880643E-01 -0.4730938E-03  0.7635421E-01
6355000. -0.3486192E-01  0.4243161E+00  0.1553704E-02  0.6020181E-01 -0.4850487E-03  0.7597484E-01
6354000. -0.3492687E-01  0.4031969E+00  0.1544147E-02  0.6158302E-01 -0.4969439E-03  0.7559427E-01
6353000. -0.3498849E-01  0.3818731E+00  0.1534373E-02  0.6294982E-01 -0.5087794E-03  0.7521250E-01
6352000. -0.3504674E-01  0.3603478E+00  0.1524386E-02  0.6430196E-01 -0.5205548E-03  0.7482954E-01
6351000. -0.3510160E-01  0.3386239E+00  0.1514188E-02  0.6563921E-01 -0.5322700E-03  0.7444540E-01
6350000. -0.3515303E-01  0.3167046E+00  0.1503781E-02  0.6696133E-01 -0.5439248E-03  0.7406010E-01
6349000. -0.3520101E-01  0.2945930E+00  0.1493168E-02  0.6826811E-01 -0.5555191E-03  0.7367364E-01
6348000. -0.3524550E-01  0.2722923E+00  0.1482351E-02  0.6955928E-01 -0.5670526E-03  0.7328604E-01
6347000. -0.3528647E-01  0.2498057E+00  0.1471333E-02  0.7083466E-01 -0.5785251E-03  0.7289731E-01
6346600. -0.3530188E-01  0.2407598E+00  0.1466869E-02  0.7134034E-01 -0.5830970E-03  0.7274149E-01
6346600. -0.3530188E-01  0.4905230E+00  0.1466869E-02  0.6015538E-01 -0.5830970E-03  0.8505075E-01
6318800. -0.3633742E-01 -0.3042403E-01  0.1161930E-02  0.7811935E-01 -0.9312459E-03  0.7452492E-01
6291000. -0.3494574E-01 -0.6133642E+00  0.7992318E-03  0.8641491E-01 -0.1233478E-02  0.6399909E-01
6291000. -0.3494574E-01 -0.6144193E+00  0.7992318E-03  0.8810619E-01 -0.1233478E-02  0.6399909E-01
6263000. -0.3089916E-01 -0.1223079E+01  0.4126749E-03  0.8592949E-01 -0.1491338E-02  0.5333088E-01
6235000. -0.2427715E-01 -0.1775825E+01  0.5982321E-04  0.7294323E-01 -0.1702141E-02  0.4259145E-01
6207000. -0.1546133E-01 -0.2211950E+01 -0.2150149E-03  0.5079907E-01 -0.1865693E-02  0.3184267E-01
6179000. -0.5080210E-02 -0.2480904E+01 -0.3772164E-03  0.2221270E-01 -0.1982183E-02  0.2119823E-01
6151000.  0.6049178E-02 -0.2548363E+01 -0.4059058E-03 -0.9333554E-02 -0.2052416E-02  0.1082466E-01
6151000.  0.6049178E-02 -0.2095685E+01 -0.4059058E-03 -0.9013737E-02 -0.2052416E-02  0.1048999E-01
6128500.  0.1327016E-01 -0.1977031E+01 -0.3371370E-03 -0.2966815E-01 -0.2081523E-02  0.6074703E-02
6106000.  0.1990061E-01 -0.1762915E+01 -0.1989680E-03 -0.4810751E-01 -0.2095910E-02  0.2156663E-02
6083500.  0.2562412E-01 -0.1465916E+01 -0.1305251E-05 -0.6318869E-01 -0.2097356E-02 -0.1251986E-02
6061000.  0.3017711E-01 -0.1103209E+01  0.2423309E-03 -0.7401675E-01 -0.2087674E-02 -0.4144904E-02
6038500.  0.3336316E-01 -0.6954465E+00  0.5157637E-03 -0.7998798E-01 -0.2068690E-02 -0.6519202E-02
6016000.  0.3506299E-01 -0.2654392E+00  0.8012349E-03 -0.8081219E-01 -0.2042239E-02 -0.8374139E-02
5993500.  0.3523972E-01  0.1632029E+00  0.1080520E-02 -0.7651466E-01 -0.2010152E-02 -0.9710091E-02
5971000.  0.3393921E-01  0.5674295E+00  0.1336021E-02 -0.6742066E-01 -0.1974267E-02 -0.1052492E-01
5971000.  0.3393921E-01  0.5650752E+00  0.1336021E-02 -0.6382555E-01 -0.1974267E-02 -0.1496784E-01
5937667.  0.2969585E-01  0.1035233E+01  0.1624562E-02 -0.4563185E-01 -0.1890935E-02 -0.1677161E-01
5904333.  0.2335752E-01  0.1361866E+01  0.1807246E-02 -0.2383880E-01 -0.1799784E-02 -0.1799053E-01
5871000.  0.1572095E-01  0.1530740E+01  0.1872576E-02 -0.1205909E-02 -0.1703374E-02 -0.1880993E-01
5837667.  0.7610028E-02  0.1544987E+01  0.1822515E-02  0.1992629E-01 -0.1603416E-02 -0.1936524E-01
5804333. -0.2056509E-03  0.1421552E+01  0.1669777E-02  0.3780276E-01 -0.1501044E-02 -0.1974197E-01
5771000. -0.7071537E-02  0.1187017E+01  0.1434598E-02  0.5130981E-01 -0.1397072E-02 -0.1998146E-01
5771000. -0.7071537E-02  0.1187121E+01  0.1434598E-02  0.5130844E-01 -0.1397072E-02 -0.1998146E-01
5701000. -0.1642391E-01  0.4679393E+00  0.7592192E-03  0.6840450E-01 -0.1175797E-02 -0.2009203E-01
5701000. -0.1642391E-01  0.4347315E+00  0.7592192E-03  0.5811239E-01 -0.1175797E-02 -0.1546273E-01
5667333. -0.1782140E-01  0.1005455E+00  0.4608678E-03  0.5477727E-01 -0.1091293E-02 -0.1643183E-01
5633667. -0.1752484E-01 -0.2108051E+00  0.1802000E-03  0.5126090E-01 -0.1003203E-02 -0.1682739E-01
5600000. -0.1563156E-01 -0.5005850E+00 -0.7691087E-04  0.4570308E-01 -0.9140542E-03 -0.1685935E-01
5600000. -0.1563156E-01 -0.5005850E+00 -0.7691087E-04  0.4570308E-01 -0.9140542E-03 -0.1685935E-01
5563518. -0.1195998E-01 -0.7734149E+00 -0.3168107E-03  0.3780480E-01 -0.8182464E-03 -0.1655078E-01
5527037. -0.6882899E-02 -0.9894579E+00 -0.5072047E-03  0.2851317E-01 -0.7250449E-03 -0.1596094E-01
5490556. -0.7569439E-03 -0.1138416E+01 -0.6418469E-03  0.1843377E-01 -0.6358808E-03 -0.1514967E-01
5454074.  0.6015007E-02 -0.1214451E+01 -0.7179647E-03  0.8169865E-02 -0.5518719E-03 -0.1416743E-01
5417593.  0.1300953E-01 -0.1216379E+01 -0.7361468E-03 -0.1712454E-02 -0.4738727E-03 -0.1305834E-01
5381111.  0.1980901E-01 -0.1147060E+01 -0.7000226E-03 -0.1072304E-01 -0.4024882E-03 -0.1186280E-01
5344630.  0.2602236E-01 -0.1013107E+01 -0.6157783E-03 -0.1846213E-01 -0.3381134E-03 -0.1061597E-01
5308148.  0.3130621E-01 -0.8241544E+00 -0.4915781E-03 -0.2463853E-01 -0.2809509E-03 -0.9348482E-02
5271667.  0.3537815E-01 -0.5919656E+00 -0.3369385E-03 -0.2907471E-01 -0.2310283E-03 -0.8092498E-02
5235185.  0.3802818E-01 -0.3297595E+00 -0.1620641E-03 -0.3170167E-01 -0.1882069E-03 -0.6871074E-02
5198704.  0.3912364E-01 -0.5129676E-01  0.2272576E-04 -0.3255342E-01 -0.1522333E-03 -0.5705270E-02
5162222.  0.3861044E-01  0.2299066E+00  0.2075945E-03 -0.3175437E-01 -0.1227128E-03 -0.4619624E-02
5125741.  0.3650976E-01  0.5011837E+00  0.3836013E-03 -0.2949698E-01 -0.9915866E-04 -0.3623071E-02
5089259.  0.3291117E-01  0.7513324E+00  0.5430905E-03 -0.2602825E-01 -0.8102535E-04 -0.2728347E-02
5052778.  0.2796376E-01  0.9709504E+00  0.6799116E-03 -0.2162948E-01 -0.6769801E-04 -0.1945261E-02
5016296.  0.2186370E-01  0.1152857E+01  0.7895835E-03 -0.1659374E-01 -0.5853411E-04 -0.1274156E-02
4979815.  0.1484270E-01  0.1292031E+01  0.8692942E-03 -0.1121345E-01 -0.5288781E-04 -0.7167642E-03
4943333.  0.7153904E-02  0.1385773E+01  0.9178730E-03 -0.5763202E-02 -0.5011334E-04 -0.2700898E-03
4906852. -0.9396845E-03  0.1433561E+01  0.9356349E-03 -0.4880914E-03 -0.4959573E-04  0.7263977E-04
4870370. -0.9178248E-02  0.1436708E+01  0.9241973E-03  0.4404020E-02 -0.5076083E-04  0.3190987E-03
4833889. -0.1731390E-01  0.1398340E+01  0.8862519E-03  0.8746685E-02 -0.5308310E-04  0.4783928E-03
4797407. -0.2512155E-01  0.1322890E+01  0.8253073E-03  0.1242064E-01 -0.5609296E-04  0.5614513E-03
4760926. -0.3240336E-01  0.1215723E+01  0.7454277E-03  0.1535173E-01 -0.5939481E-04  0.5822924E-03
4724444. -0.3899550E-01  0.1082996E+01  0.6509831E-03  0.1750458E-01 -0.6265721E-04  0.5491727E-03
4687963. -0.4476955E-01  0.9311170E+00  0.5464354E-03  0.1888557E-01 -0.6560581E-04  0.4752775E-03
4651482. -0.4963443E-01  0.7665018E+00  0.4361031E-03  0.1953322E-01 -0.6804840E-04  0.3737637E-03
4615000. -0.5353532E-01  0.5953779E+00  0.3240223E-03  0.1950752E-01 -0.6984198E-04  0.2500183E-03
4578518. -0.5645145E-01  0.4234593E+00  0.2138144E-03  0.1889456E-01 -0.7089549E-04  0.1173914E-03
4542037. -0.5839316E-01  0.2558488E+00  0.1085765E-03  0.1778855E-01 -0.7118338E-04 -0.1716198E-04
4505556. -0.5939803E-01  0.9689570E-01  0.1084942E-04  0.1628892E-01 -0.7069726E-04 -0.1513515E-03
4469074. -0.5952609E-01 -0.4988848E-01 -0.7742875E-04  0.1450466E-01 -0.6947906E-04 -0.2717616E-03
4432593. -0.5885508E-01 -0.1818317E+00 -0.1549007E-03  0.1253054E-01 -0.6760489E-04 -0.3811251E-03
4396111. -0.5747558E-01 -0.2970912E+00 -0.2207461E-03  0.1045867E-01 -0.6514009E-04 -0.4764352E-03
4359630. -0.5548665E-01 -0.3945982E+00 -0.2746613E-03  0.8376778E-02 -0.6219408E-04 -0.5493561E-03
4323148. -0.5299103E-01 -0.4740448E+00 -0.3167824E-03  0.6348970E-02 -0.5887563E-04 -0.6070499E-03
4286667. -0.5009178E-01 -0.5356902E+00 -0.3475924E-03  0.4435735E-02 -0.5528002E-04 -0.6452132E-03
4250185. -0.4688861E-01 -0.5803489E+00 -0.3678903E-03  0.2682897E-02 -0.5152694E-04 -0.6627634E-03
4213704. -0.4347553E-01 -0.6092665E+00 -0.3786761E-03  0.1117752E-02 -0.4771780E-04 -0.6648967E-03
4177222. -0.3993830E-01 -0.6239563E+00 -0.3810970E-03 -0.2358630E-03 -0.4395034E-04 -0.6478238E-03
4140741. -0.3635360E-01 -0.6261917E+00 -0.3763950E-03 -0.1370188E-02 -0.4033035E-04 -0.6143000E-03
4104259. -0.3278716E-01 -0.6178553E+00 -0.3658178E-03 -0.2288016E-02 -0.3694046E-04 -0.5669388E-03
4067778. -0.2929435E-01 -0.6008307E+00 -0.3506034E-03 -0.2991606E-02 -0.3387522E-04 -0.5007708E-03
4031296. -0.2591917E-01 -0.5770499E+00 -0.3319318E-03 -0.3498771E-02 -0.3123409E-04 -0.4192930E-03
3994815. -0.2269527E-01 -0.5483097E+00 -0.3108740E-03 -0.3827933E-02 -0.2910518E-04 -0.3208979E-03
3958333. -0.1964608E-01 -0.5162678E+00 -0.2884008E-03 -0.3996818E-02 -0.2760446E-04 -0.1993776E-03
3921852. -0.1678612E-01 -0.4824871E+00 -0.2653543E-03 -0.4032775E-02 -0.2686705E-04 -0.5371352E-04
3885370. -0.1412131E-01 -0.4482832E+00 -0.2424256E-03 -0.3959310E-02 -0.2705071E-04  0.1240227E-03
3848889. -0.1165088E-01 -0.4147977E+00 -0.2201719E-03 -0.3801967E-02 -0.2836820E-04  0.3439339E-03
3812407. -0.9367765E-02 -0.3829652E+00 -0.1989881E-03 -0.3590131E-02 -0.3109123E-04  0.6174670E-03
3775926. -0.7260628E-02 -0.3534455E+00 -0.1791074E-03 -0.3352057E-02 -0.3557873E-04  0.9638286E-03
3739444. -0.5314784E-02 -0.3266554E+00 -0.1605840E-03 -0.3122327E-02 -0.4231286E-04  0.1406521E-02
3702963. -0.3514288E-02 -0.3026730E+00 -0.1432541E-03 -0.2942900E-02 -0.5192987E-04  0.1977045E-02
3666482. -0.1843878E-02 -0.2811154E+00 -0.1266875E-03 -0.2865933E-02 -0.6528066E-04  0.2718790E-02
3630000. -0.2919956E-03 -0.2610379E+00 -0.1100987E-03 -0.2964898E-02 -0.8349880E-04  0.3687594E-02
3630000. -0.2919956E-03 -0.2610379E+00 -0.1100987E-03 -0.2964898E-02 -0.8349880E-04  0.3687594E-02
3592500.  0.1183404E-02 -0.2399888E+00 -0.9166645E-04 -0.3359242E-02 -0.1088813E-03  0.4997933E-02
3555000.  0.2525763E-02 -0.2151005E+00 -0.6965284E-04 -0.4215442E-02 -0.1431627E-03  0.6731211E-02
3517500.  0.3697074E-02 -0.1806682E+00 -0.4065167E-04 -0.5784605E-02 -0.1892171E-03  0.9023912E-02
3480000.  0.4616003E-02 -0.1274060E+00  0.5810149E-06 -0.8449670E-02 -0.2508295E-03  0.1205024E-01
3480000.  0.4616003E-02  0.1873740E+00  0.1870605E-03  0.8105015E-02 -0.2508295E-03 -0.2669674E-02
3409422.  0.2902495E-02  0.1252499E+00  0.1143237E-03  0.5208749E-02 -0.2015726E-03 -0.5416779E-02
3338844.  0.1774933E-02  0.8098190E-01  0.6817601E-04  0.3256226E-02 -0.1418809E-03 -0.5083756E-02
3268266.  0.1056455E-02  0.5074920E-01  0.3968140E-04  0.1981888E-02 -0.9208106E-04 -0.3858161E-02
3197688.  0.6123772E-03  0.3086985E-01  0.2254534E-04  0.1175132E-02 -0.5636244E-04 -0.2623740E-02
3127109.  0.3457998E-03  0.1824507E-01  0.1250349E-04  0.6790427E-03 -0.3292131E-04 -0.1659960E-02
3056531.  0.1902544E-03  0.1048484E-01  0.6767950E-05  0.3824676E-03 -0.1847329E-04 -0.9944714E-03
2985953.  0.1019838E-03  0.5860731E-02  0.3574515E-05  0.2099804E-03 -0.9998336E-05 -0.5695534E-03
2915375.  0.5325170E-04  0.3187029E-02  0.1841402E-05  0.1123527E-03 -0.5232182E-05 -0.3135577E-03
2844797.  0.2707684E-04  0.1685955E-02  0.9247829E-06  0.5857100E-04 -0.2651130E-05 -0.1664846E-03
2774219.  0.1340053E-04  0.8674293E-03  0.4525124E-06  0.2973649E-04 -0.1301664E-05 -0.8541899E-04
2703641.  0.6451266E-05  0.4338895E-03  0.2155811E-06  0.1469466E-04 -0.6194404E-06 -0.4239639E-04
2633062.  0.3018864E-05  0.2108806E-03  0.9991165E-07  0.7062962E-05 -0.2856791E-06 -0.2036553E-04
2562484.  0.1371987E-05  0.9951944E-04  0.4500318E-07  0.3299304E-05 -0.1276329E-06 -0.9468245E-05
2491906.  0.6049530E-06  0.4556302E-04  0.1967968E-07  0.1496380E-05 -0.5520161E-07 -0.4258870E-05
2421328.  0.2584980E-06  0.2021653E-04  0.8344738E-08  0.6582090E-06 -0.2309119E-07 -0.1852193E-05
2350750.  0.1069023E-06  0.8683086E-05  0.3426375E-08  0.2804410E-06 -0.9331486E-08 -0.7781144E-06
2280172.  0.4272374E-07  0.3605149E-05  0.1360258E-08  0.1155728E-06 -0.3638096E-08 -0.3153961E-06
2209594.  0.1647332E-07  0.1444711E-05  0.5212330E-09  0.4599487E-07 -0.1366242E-08 -0.1231706E-06
2139016.  0.6116641E-08  0.5578093E-06  0.1924160E-09  0.1764495E-07 -0.4933112E-09 -0.4626689E-07
2068438.  0.2182519E-08  0.2070994E-06  0.6828551E-10  0.6511971E-08 -0.1709048E-09 -0.1668424E-07
1997859.  0.7466084E-09  0.7377119E-07  0.2324118E-10  0.2306727E-08 -0.5667633E-10 -0.5762998E-08
1927281.  0.2442259E-09  0.2514973E-07  0.7566472E-11  0.7823145E-09 -0.1794428E-10 -0.1902026E-08
1856703.  0.7616740E-10  0.8182509E-08  0.2349302E-11  0.2532934E-09 -0.5407803E-11 -0.5980852E-09
1786125.  0.2257280E-10  0.2532580E-08  0.6933405E-12  0.7804229E-10 -0.1546033E-11 -0.1785998E-09
1715547.  0.6333119E-11  0.7430169E-09  0.1937688E-12  0.2279958E-10 -0.4176937E-12 -0.5046312E-10
1644969.  0.1675088E-11  0.2057828E-09  0.5106166E-13  0.6289912E-11 -0.1061800E-12 -0.1343502E-10
1574391.  0.4158705E-12  0.5352468E-10  0.1262075E-13  0.1631824E-11 -0.2525860E-13 -0.3356064E-11
1503812.  0.0000000E+00  0.0000000E+00  0.0000000E+00  0.0000000E+00  0.0000000E+00  0.0000000E+00
1433234.  0.0000000E+00  0.0000000E+00  0.0000000E+00  0.0000000E+00  0.0000000E+00  0.0000000E+00
1362656.  0.0000000E+00  0.0000000E+00  0.0000000E+00  0.0000000E+00  0.0000000E+00  0.0000000E+00
1292078.  0.0000000E+00  0.0000000E+00  0.0000000E+00  0.0000000E+00  0.0000000E+00  0.0000000E+00
1221500.  0.0000000E+00  0.0000000E+00  0.0000000E+00  0.0000000E+00  0.0000000E+00  0.0000000E+00
1221500.  0.0000000E+00  0.0000000E+00  0.0000000E+00  0.0000000E+00  0.0000000E+00  0.0000000E+00
1183328.  0.0000000E+00  0.0000000E+00  0.0000000E+00  0.0000000E+00  0.0000000E+00  0.0000000E+00
1145156.  0.0000000E+00  0.0000000E+00  0.0000000E+00  0.0000000E+00  0.0000000E+00  0.0000000E+00
1106984.  0.0000000E+00  0.0000000E+00  0.0000000E+00  0.0000000E+00  0.0000000E+00  0.0000000E+00
1068812.  0.0000000E+00  0.0000000E+00  0.0000000E+00  0.0000000E+00  0.0000000E+00  0.0000000E+00
1030641.  0.0000000E+00  0.0000000E+00  0.0000000E+00  0.0000000E+00  0.0000000E+00  0.0000000E+00
 992469.  0.0000000E+00  0.0000000E+00  0.0000000E+00  0.0000000E+00  0.0000000E+00  0.0000000E+00
 954297.  0.0000000E+00  0.0000000E+00  0.0000000E+00  0.0000000E+00  0.0000000E+00  0.0000000E+00
 916125.  0.0000000E+00  0.0000000E+00  0.0000000E+00  0.0000000E+00  0.0000000E+00  0.0000000E+00
 877953.  0.0000000E+00  0.0000000E+00  0.0000000E+00  0.0000000E+00  0.0000000E+00  0.0000000E+00
 839781.  0.0000000E+00  0.0000000E+00  0.0000000E+00  0.0000000E+00  0.0000000E+00  0.0000000E+00
 801609.  0.0000000E+00  0.0000000E+00  0.0000000E+00  0.0000000E+00  0.0000000E+00  0.0000000E+00
 763438.  0.0000000E+00  0.0000000E+00  0.0000000E+00  0.0000000E+00  0.0000000E+00  0.0000000E+00
 725266.  0.0000000E+00  0.0000000E+00  0.0000000E+00  0.0000000E+00  0.0000000E+00  0.0000000E+00
 687094.  0.0000000E+00  0.0000000E+00  0.0000000E+00  0.0000000E+00  0.0000000E+00  0.0000000E+00
 648922.  0.0000000E+00  0.0000000E+00  0.0000000E+00  0.0000000E+00  0.0000000E+00  0.0000000E+00
 610750.  0.0000000E+00  0.0000000E+00  0.0000000E+00  0.0000000E+00  0.0000000E+00  0.0000000E+00
 572578.  0.0000000E+00  0.0000000E+00  0.0000000E+00  0.0000000E+00  0.0000000E+00  0.0000000E+00
 534406.  0.0000000E+00  0.0000000E+00  0.0000000E+00  0.0000000E+00  0.0000000E+00  0.0000000E+00
 496234.  0.0000000E+00  0.0000000E+00  0.0000000E+00  0.0000000E+00  0.0000000E+00  0.0000000E+00
 458062.  0.0000000E+00  0.0000000E+00  0.0000000E+00  0.0000000E+00  0.0000000E+00  0.0000000E+00
 419891.  0.0000000E+00  0.0000000E+00  0.0000000E+00  0.0000000E+00  0.0000000E+00  0.0000000E+00
 381719.  0.0000000E+00  0.0000000E+00  0.0000000E+00  0.0000000E+00  0.0000000E+00  0.0000000E+00
 343547.  0.0000000E+00  0.0000000E+00  0.0000000E+00  0.0000000E+00  0.0000000E+00  0.0000000E+00
 305375.  0.0000000E+00  0.0000000E+00  0.0000000E+00  0.0000000E+00  0.0000000E+00  0.0000000E+00
 267203.  0.0000000E+00  0.0000000E+00  0.0000000E+00  0.0000000E+00  0.0000000E+00  0.0000000E+00
 229031.  0.0000000E+00  0.0000000E+00  0.0000000E+00  0.0000000E+00  0.0000000E+00  0.0000000E+00
 190859.  0.0000000E+00  0.0000000E+00  0.0000000E+00  0.0000000E+00  0.0000000E+00  0.0000000E+00
 152688.  0.0000000E+00  0.0000000E+00  0.0000000E+00  0.0000000E+00  0.0000000E+00  0.0000000E+00
 114516.  0.0000000E+00  0.0000000E+00  0.0000000E+00  0.0000000E+00  0.0000000E+00  0.0000000E+00
  76344.  0.0000000E+00  0.0000000E+00  0.0000000E+00  0.0000000E+00  0.0000000E+00  0.0000000E+00
  38172.  0.0000000E+00  0.0000000E+00  0.0000000E+00  0.0000000E+00  0.0000000E+00  0.0000000E+00
      0.  0.0000000E+00  0.0000000E+00  0.0000000E+00  0.0000000E+00  0.0000000E+00  0.0000000E+00
