       0       27 S       26        282.43280          5.15394          3.64295        195.23590      185    7
6371000.  0.2273697E+00 -0.1869083E+01 -0.5683823E-02 -0.2330535E+00 -0.7127164E-02 -0.2292054E+00
6370000.  0.2276605E+00 -0.1836675E+01 -0.5647223E-02 -0.2333114E+00 -0.7091315E-02 -0.2275793E+00
6369000.  0.2279463E+00 -0.1804220E+01 -0.5610582E-02 -0.2335600E+00 -0.7055722E-02 -0.2259548E+00
6368000.  0.2282269E+00 -0.1771721E+01 -0.5573904E-02 -0.2337995E+00 -0.7020383E-02 -0.2243320E+00
6368000.  0.2282269E+00 -0.1771721E+01 -0.5573904E-02 -0.2337995E+00 -0.7020383E-02 -0.2243320E+00
6367000.  0.2285024E+00 -0.1739178E+01 -0.5537188E-02 -0.2340297E+00 -0.6985299E-02 -0.2227108E+00
6366000.  0.2287728E+00 -0.1706593E+01 -0.5500437E-02 -0.2342506E+00 -0.6950469E-02 -0.2210912E+00
6365000.  0.2290382E+00 -0.1673967E+01 -0.5463652E-02 -0.2344622E+00 -0.6915893E-02 -0.2194732E+00
6364000.  0.2292984E+00 -0.1641300E+01 -0.5426834E-02 -0.2346646E+00 -0.6881571E-02 -0.2178567E+00
6363000.  0.2295534E+00 -0.1608594E+01 -0.5389986E-02 -0.2348578E+00 -0.6847503E-02 -0.2162418E+00
6362000.  0.2298033E+00 -0.1575849E+01 -0.5353108E-02 -0.2350416E+00 -0.6813688E-02 -0.2146284E+00
6361000.  0.2300481E+00 -0.1543067E+01 -0.5316202E-02 -0.2352161E+00 -0.6780126E-02 -0.2130164E+00
6360000.  0.2302877E+00 -0.1510250E+01 -0.5279269E-02 -0.2353813E+00 -0.6746817E-02 -0.2114059E+00
6359000.  0.2305222E+00 -0.1477397E+01 -0.5242310E-02 -0.2355372E+00 -0.6713761E-02 -0.2097967E+00
6358000.  0.2307515E+00 -0.1444510E+01 -0.5205329E-02 -0.2356838E+00 -0.6680957E-02 -0.2081890E+00
6357000.  0.2309757E+00 -0.1411590E+01 -0.5168324E-02 -0.2358210E+00 -0.6648406E-02 -0.2065827E+00
6356000.  0.2311946E+00 -0.1378638E+01 -0.5131300E-02 -0.2359490E+00 -0.6616106E-02 -0.2049776E+00
6356000.  0.2311946E+00 -0.1281098E+01 -0.5131300E-02 -0.2363195E+00 -0.6616106E-02 -0.2552829E+00
6355000.  0.2313937E+00 -0.1255743E+01 -0.5094237E-02 -0.2359343E+00 -0.6576172E-02 -0.2535629E+00
6354000.  0.2315888E+00 -0.1230406E+01 -0.5057234E-02 -0.2355460E+00 -0.6536507E-02 -0.2518474E+00
6353000.  0.2317800E+00 -0.1205087E+01 -0.5020293E-02 -0.2351545E+00 -0.6497111E-02 -0.2501364E+00
6352000.  0.2319672E+00 -0.1179786E+01 -0.4983414E-02 -0.2347599E+00 -0.6457983E-02 -0.2484298E+00
6351000.  0.2321503E+00 -0.1154504E+01 -0.4946597E-02 -0.2343622E+00 -0.6419123E-02 -0.2467277E+00
6350000.  0.2323296E+00 -0.1129241E+01 -0.4909843E-02 -0.2339613E+00 -0.6380530E-02 -0.2450300E+00
6349000.  0.2325048E+00 -0.1103997E+01 -0.4873152E-02 -0.2335574E+00 -0.6342202E-02 -0.2433366E+00
6348000.  0.2326761E+00 -0.1078773E+01 -0.4836524E-02 -0.2331503E+00 -0.6304141E-02 -0.2416475E+00
6347000.  0.2328435E+00 -0.1053570E+01 -0.4799961E-02 -0.2327400E+00 -0.6266343E-02 -0.2399627E+00
6346600.  0.2329093E+00 -0.1043494E+01 -0.4785354E-02 -0.2325751E+00 -0.6251299E-02 -0.2392900E+00
6346600.  0.2329093E+00 -0.1412969E+01 -0.4785354E-02 -0.2345351E+00 -0.6251299E-02 -0.3205021E+00
6318800.  0.2377721E+00 -0.8211468E+00 -0.3806751E-02 -0.2140877E+00 -0.4951918E-02 -0.2759229E+00
6291000.  0.2401226E+00 -0.2617451E+00 -0.2916424E-02 -0.1940380E+00 -0.3836368E-02 -0.2361176E+00
6291000.  0.2401226E+00 -0.2887551E+00 -0.2916424E-02 -0.1919153E+00 -0.3836368E-02 -0.2361176E+00
6263000.  0.2401922E+00  0.2509328E+00 -0.2117079E-02 -0.1718089E+00 -0.2878647E-02 -0.2003078E+00
6235000.  0.2379730E+00  0.7522771E+00 -0.1406685E-02 -0.1514086E+00 -0.2070959E-02 -0.1677333E+00
6207000.  0.2336413E+00  0.1211632E+01 -0.7868855E-03 -0.1305570E+00 -0.1400487E-02 -0.1377628E+00
6179000.  0.2273903E+00  0.1625043E+01 -0.2599756E-03 -0.1091159E+00 -0.8571096E-03 -0.1097991E+00
6151000.  0.2194310E+00  0.1988238E+01  0.1711852E-03 -0.8696572E-01 -0.4332641E-03 -0.8327380E-01
6151000.  0.2194310E+00  0.1575694E+01  0.1711852E-03 -0.1043274E+00 -0.4332641E-03 -0.9541392E-01
6128500.  0.2134871E+00  0.1785592E+01  0.5146142E-03 -0.9020962E-01 -0.1221597E-03 -0.8098305E-01
6106000.  0.2068533E+00  0.1966496E+01  0.8087052E-03 -0.7638517E-01  0.1401536E-03 -0.6775284E-01
6083500.  0.1996313E+00  0.2118708E+01  0.1054473E-02 -0.6284102E-01  0.3576003E-03 -0.5554606E-01
6061000.  0.1919220E+00  0.2242519E+01  0.1252876E-02 -0.4955778E-01  0.5334985E-03 -0.4419576E-01
6038500.  0.1838252E+00  0.2338215E+01  0.1404788E-02 -0.3650703E-01  0.6705777E-03 -0.3353450E-01
6016000.  0.1754398E+00  0.2406019E+01  0.1510967E-02 -0.2365214E-01  0.7709779E-03 -0.2339703E-01
5993500.  0.1668639E+00  0.2446079E+01  0.1572030E-02 -0.1094943E-01  0.8362650E-03 -0.1362210E-01
5971000.  0.1581954E+00  0.2458467E+01  0.1588422E-02  0.1655406E-02  0.8674233E-03 -0.4041304E-02
5971000.  0.1581954E+00  0.2254217E+01  0.1588422E-02 -0.1693563E-01  0.8674233E-03 -0.2475042E-01
5937667.  0.1464683E+00  0.2223331E+01  0.1652735E-02 -0.7883823E-02  0.9733676E-03 -0.1599600E-01
5904333.  0.1349796E+00  0.2163901E+01  0.1673274E-02 -0.1830440E-03  0.1037200E-02 -0.8614872E-02
5871000.  0.1238649E+00  0.2081323E+01  0.1656792E-02  0.6289628E-02  0.1065534E-02 -0.2392062E-02
5837667.  0.1132324E+00  0.1980342E+01  0.1609356E-02  0.1167392E-01  0.1063895E-02  0.2876035E-02
5804333.  0.1031670E+00  0.1865041E+01  0.1536269E-02  0.1611951E-01  0.1036759E-02  0.7385912E-02
5771000.  0.9373511E-01  0.1738817E+01  0.1442052E-02  0.1977797E-01  0.9876055E-03  0.1132344E-01
5771000.  0.9373511E-01  0.1738887E+01  0.1442052E-02  0.1977400E-01  0.9876055E-03  0.1132344E-01
5701000.  0.7581981E-01  0.1505167E+01  0.1138534E-02  0.3553682E-01  0.7922836E-03  0.2447505E-01
5701000.  0.7581981E-01  0.1279995E+01  0.1138534E-02  0.1042434E-01  0.7922836E-03  0.3104174E-02
5667333.  0.6940751E-01  0.1159389E+01  0.1095459E-02  0.6915245E-02  0.7670767E-03  0.6054026E-02
5633667.  0.6346115E-01  0.1094775E+01  0.1055722E-02  0.8483951E-02  0.7312606E-03  0.7364364E-02
5600000.  0.5784955E-01  0.1028207E+01  0.1007398E-02  0.9652019E-02  0.6898874E-03  0.8232308E-02
5600000.  0.5784955E-01  0.1028207E+01  0.1007398E-02  0.9652019E-02  0.6898874E-03  0.8232308E-02
5563518.  0.5216969E-01  0.9556490E+00  0.9495859E-03  0.1047331E-01  0.6411096E-03  0.8740591E-02
5527037.  0.4690383E-01  0.8838288E+00  0.8881446E-03  0.1093293E-01  0.5904235E-03  0.8914990E-02
5490556.  0.4204492E-01  0.8136367E+00  0.8249368E-03  0.1110039E-01  0.5394910E-03  0.8838369E-02
5454074.  0.3758151E-01  0.7457542E+00  0.7614700E-03  0.1103258E-01  0.4895623E-03  0.8574395E-02
5417593.  0.3349878E-01  0.6807947E+00  0.6989242E-03  0.1078768E-01  0.4415340E-03  0.8183543E-02
5381111.  0.2977869E-01  0.6191016E+00  0.6381873E-03  0.1040622E-01  0.3960081E-03  0.7705705E-02
5344630.  0.2640193E-01  0.5609483E+00  0.5799394E-03  0.9925037E-02  0.3533866E-03  0.7174884E-02
5308148.  0.2334749E-01  0.5065086E+00  0.5246482E-03  0.9377322E-02  0.3138852E-03  0.6619218E-02
5271667.  0.2059415E-01  0.4558137E+00  0.4726349E-03  0.8784168E-02  0.2775964E-03  0.6055806E-02
5235185.  0.1812023E-01  0.4088854E+00  0.4240921E-03  0.8168272E-02  0.2445155E-03  0.5500935E-02
5198704.  0.1590441E-01  0.3656653E+00  0.3790991E-03  0.7546717E-02  0.2145585E-03  0.4966201E-02
5162222.  0.1392575E-01  0.3260155E+00  0.3376587E-03  0.6928855E-02  0.1875943E-03  0.4456345E-02
5125741.  0.1216419E-01  0.2898305E+00  0.2997150E-03  0.6327618E-02  0.1634610E-03  0.3978592E-02
5089259.  0.1060028E-01  0.2569310E+00  0.2651485E-03  0.5749607E-02  0.1419645E-03  0.3535236E-02
5052778.  0.9215846E-02  0.2271290E+00  0.2338165E-03  0.5199044E-02  0.1229079E-03  0.3126766E-02
5016296.  0.7993581E-02  0.2002436E+00  0.2055449E-03  0.4680958E-02  0.1060866E-03  0.2754332E-02
4979815.  0.6917438E-02  0.1760682E+00  0.1801441E-03  0.4196723E-02  0.9129807E-04  0.2416651E-02
4943333.  0.5972418E-02  0.1544047E+00  0.1574159E-03  0.3747523E-02  0.7834673E-04  0.2112343E-02
4906852.  0.5144731E-02  0.1350607E+00  0.1371574E-03  0.3334208E-02  0.6704526E-04  0.1840150E-02
4870370.  0.4421635E-02  0.1178343E+00  0.1191661E-03  0.2955286E-02  0.5721693E-04  0.1597310E-02
4833889.  0.3791561E-02  0.1025477E+00  0.1032474E-03  0.2610391E-02  0.4869957E-04  0.1382064E-02
4797407.  0.3243875E-02  0.8902255E-01  0.8920855E-04  0.2298205E-02  0.4134050E-04  0.1192231E-02
4760926.  0.2769022E-02  0.7708710E-01  0.7686978E-04  0.2016421E-02  0.3500248E-04  0.1025132E-02
4724444.  0.2358313E-02  0.6658910E-01  0.6606025E-04  0.1763704E-02  0.2956041E-04  0.8789278E-03
4687963.  0.2003968E-02  0.5738009E-01  0.5661987E-04  0.1537904E-02  0.2490100E-04  0.7514292E-03
4651482.  0.1698995E-02  0.4932310E-01  0.4840085E-04  0.1336802E-02  0.2092331E-04  0.6405174E-03
4615000.  0.1437145E-02  0.4229530E-01  0.4126651E-04  0.1158646E-02  0.1753706E-04  0.5445312E-03
4578518.  0.1212871E-02  0.3618017E-01  0.3509195E-04  0.1001228E-02  0.1466212E-04  0.4616366E-03
4542037.  0.1021256E-02  0.3087425E-01  0.2976412E-04  0.8626765E-03  0.1222823E-04  0.3902859E-03
4505556.  0.8579331E-03  0.2628309E-01  0.2517969E-04  0.7412555E-03  0.1017299E-04  0.3291440E-03
4469074.  0.7190601E-03  0.2231938E-01  0.2124606E-04  0.6350425E-03  0.8442030E-05  0.2767963E-03
4432593.  0.6012727E-03  0.1890762E-01  0.1788076E-04  0.5425512E-03  0.6988244E-05  0.2321851E-03
4396111.  0.5016057E-03  0.1597821E-01  0.1500927E-04  0.4622767E-03  0.5770162E-05  0.1942848E-03
4359630.  0.4174848E-03  0.1346897E-01  0.1256614E-04  0.3927472E-03  0.4752298E-05  0.1621260E-03
4323148.  0.3466576E-03  0.1132576E-01  0.1049312E-04  0.3327893E-03  0.3903881E-05  0.1349719E-03
4286667.  0.2871747E-03  0.9499560E-02  0.8738923E-05  0.2812200E-03  0.3198405E-05  0.1120918E-03
4250185.  0.2373441E-03  0.7947280E-02  0.7258525E-05  0.2369833E-03  0.2613220E-05  0.9285937E-04
4213704.  0.1957092E-03  0.6631468E-02  0.6012601E-05  0.1991904E-03  0.2128954E-05  0.7676503E-04
4177222.  0.1610122E-03  0.5518510E-02  0.4966712E-05  0.1669704E-03  0.1729034E-05  0.6332122E-04
4140741.  0.1321779E-03  0.4579571E-02  0.4091160E-05  0.1395940E-03  0.1399471E-05  0.5213564E-04
4104259.  0.1082822E-03  0.3789315E-02  0.3360019E-05  0.1164174E-03  0.1128292E-05  0.4287118E-04
4067778.  0.8854052E-04  0.3125517E-02  0.2751067E-05  0.9683135E-04  0.9054326E-06  0.3521553E-04
4031296.  0.7228301E-04  0.2569247E-02  0.2245159E-05  0.8034545E-04  0.7223778E-06  0.2893012E-04
3994815.  0.5894330E-04  0.2103953E-02  0.1825860E-05  0.6651251E-04  0.5719055E-06  0.2380260E-04
3958333.  0.4804200E-04  0.1715273E-02  0.1479161E-05  0.5492443E-04  0.4479379E-06  0.1964444E-04
3921852.  0.3917645E-04  0.1391123E-02  0.1193186E-05  0.4525344E-04  0.3453475E-06  0.1631535E-04
3885370.  0.3200764E-04  0.1120945E-02  0.9578349E-06  0.3719218E-04  0.2597510E-06  0.1368847E-04
3848889.  0.2625313E-04  0.8958511E-03  0.7646876E-06  0.3047411E-04  0.1874400E-06  0.1166125E-04
3812407.  0.2167647E-04  0.7083493E-03  0.6067129E-06  0.2486810E-04  0.1252066E-06  0.1015578E-04
3775926.  0.1808125E-04  0.5521561E-03  0.4781895E-06  0.2015381E-04  0.7026792E-07  0.9104127E-05
3739444.  0.1530301E-04  0.4222195E-03  0.3745867E-06  0.1613041E-04  0.2017201E-07  0.8456897E-05
3702963.  0.1320327E-04  0.3146413E-03  0.2925165E-06  0.1259950E-04 -0.2728331E-07  0.8176252E-05
3666482.  0.1166230E-04  0.2267148E-03  0.2297665E-06  0.9345217E-05 -0.7409778E-07  0.8228248E-05
3630000.  0.1057192E-04  0.1571613E-03  0.1854136E-06  0.6130106E-05 -0.1221027E-06  0.8587231E-05
3630000.  0.1057192E-04  0.1571613E-03  0.1854136E-06  0.6130106E-05 -0.1221027E-06  0.8587231E-05
3592500.  0.9809805E-05  0.1052673E-03  0.1596289E-06  0.2555349E-05 -0.1744437E-06  0.9242824E-05
3555000.  0.9288170E-05  0.7619651E-04  0.1566640E-06 -0.1703118E-05 -0.2313926E-06  0.1014361E-04
3517500.  0.8855670E-05  0.7642563E-04  0.1821112E-06 -0.7209359E-05 -0.2941957E-06  0.1121599E-04
3480000.  0.8308759E-05  0.1175423E-03  0.2455257E-06 -0.1476174E-04 -0.3635162E-06  0.1233035E-04
3480000.  0.8308759E-05  0.3718494E-03  0.3240576E-06  0.1461308E-04 -0.3635162E-06 -0.1416535E-04
3409422.  0.5029106E-05  0.2308007E-03  0.1954365E-06  0.9030410E-05 -0.2331569E-06 -0.9600178E-05
3338844.  0.3005350E-05  0.1414373E-03  0.1164023E-06  0.5511774E-05 -0.1460897E-06 -0.6311167E-05
3268266.  0.1772541E-05  0.8555077E-04  0.6844224E-07  0.3321646E-05 -0.8956776E-07 -0.4040161E-05
3197688.  0.1031388E-05  0.5105883E-04  0.3971094E-07  0.1975742E-05 -0.5379079E-07 -0.2524829E-05
3127109.  0.5918030E-06  0.3005620E-04  0.2272555E-07  0.1159412E-05 -0.3166444E-07 -0.1542814E-05
3056531.  0.3346993E-06  0.1744338E-04  0.1282102E-07  0.6709365E-06 -0.1827702E-07 -0.9227860E-06
2985953.  0.1864736E-06  0.9975714E-05  0.7126711E-08  0.3826797E-06 -0.1034567E-07 -0.5405826E-06
2915375.  0.1022840E-06  0.5618734E-05  0.3900769E-08  0.2150075E-06 -0.5742504E-08 -0.3102625E-06
2844797.  0.5520064E-07  0.3114965E-05  0.2100965E-08  0.1189235E-06 -0.3124881E-08 -0.1744733E-06
2774219.  0.2928998E-07  0.1698638E-05  0.1112710E-08  0.6471196E-07 -0.1666457E-08 -0.9611706E-07
2703641.  0.1526852E-07  0.9104716E-06  0.5790282E-09  0.3461640E-07 -0.8704935E-09 -0.5185727E-07
2633062.  0.7812809E-08  0.4792922E-06  0.2957994E-09  0.1818883E-07 -0.4451156E-09 -0.2738736E-07
2562484.  0.3920654E-08  0.2475896E-06  0.1482108E-09  0.9379494E-08 -0.2226395E-09 -0.1415037E-07
2491906.  0.1927571E-08  0.1253843E-06  0.7276162E-10  0.4742230E-08 -0.1088366E-09 -0.7147269E-08
2421328.  0.9274451E-09  0.6218369E-07  0.3496097E-10  0.2348324E-08 -0.5194672E-10 -0.3526074E-08
2350750.  0.4361935E-09  0.3016643E-07  0.1642060E-10  0.1137670E-08 -0.2417936E-10 -0.1697491E-08
2280172.  0.2002920E-09  0.1429484E-07  0.7528212E-11  0.5385971E-09 -0.1095889E-10 -0.7967480E-09
2209594.  0.8972494E-10  0.6602480E-08  0.3361780E-11  0.2490121E-09 -0.4821812E-11 -0.3647579E-09
2139016.  0.0000000E+00  0.0000000E+00  0.0000000E+00  0.0000000E+00  0.0000000E+00  0.0000000E+00
2068438.  0.0000000E+00  0.0000000E+00  0.0000000E+00  0.0000000E+00  0.0000000E+00  0.0000000E+00
1997859.  0.0000000E+00  0.0000000E+00  0.0000000E+00  0.0000000E+00  0.0000000E+00  0.0000000E+00
1927281.  0.0000000E+00  0.0000000E+00  0.0000000E+00  0.0000000E+00  0.0000000E+00  0.0000000E+00
1856703.  0.0000000E+00  0.0000000E+00  0.0000000E+00  0.0000000E+00  0.0000000E+00  0.0000000E+00
1786125.  0.0000000E+00  0.0000000E+00  0.0000000E+00  0.0000000E+00  0.0000000E+00  0.0000000E+00
1715547.  0.0000000E+00  0.0000000E+00  0.0000000E+00  0.0000000E+00  0.0000000E+00  0.0000000E+00
1644969.  0.0000000E+00  0.0000000E+00  0.0000000E+00  0.0000000E+00  0.0000000E+00  0.0000000E+00
1574391.  0.0000000E+00  0.0000000E+00  0.0000000E+00  0.0000000E+00  0.0000000E+00  0.0000000E+00
1503812.  0.0000000E+00  0.0000000E+00  0.0000000E+00  0.0000000E+00  0.0000000E+00  0.0000000E+00
1433234.  0.0000000E+00  0.0000000E+00  0.0000000E+00  0.0000000E+00  0.0000000E+00  0.0000000E+00
1362656.  0.0000000E+00  0.0000000E+00  0.0000000E+00  0.0000000E+00  0.0000000E+00  0.0000000E+00
1292078.  0.0000000E+00  0.0000000E+00  0.0000000E+00  0.0000000E+00  0.0000000E+00  0.0000000E+00
1221500.  0.0000000E+00  0.0000000E+00  0.0000000E+00  0.0000000E+00  0.0000000E+00  0.0000000E+00
1221500.  0.0000000E+00  0.0000000E+00  0.0000000E+00  0.0000000E+00  0.0000000E+00  0.0000000E+00
1183328.  0.0000000E+00  0.0000000E+00  0.0000000E+00  0.0000000E+00  0.0000000E+00  0.0000000E+00
1145156.  0.0000000E+00  0.0000000E+00  0.0000000E+00  0.0000000E+00  0.0000000E+00  0.0000000E+00
1106984.  0.0000000E+00  0.0000000E+00  0.0000000E+00  0.0000000E+00  0.0000000E+00  0.0000000E+00
1068812.  0.0000000E+00  0.0000000E+00  0.0000000E+00  0.0000000E+00  0.0000000E+00  0.0000000E+00
1030641.  0.0000000E+00  0.0000000E+00  0.0000000E+00  0.0000000E+00  0.0000000E+00  0.0000000E+00
 992469.  0.0000000E+00  0.0000000E+00  0.0000000E+00  0.0000000E+00  0.0000000E+00  0.0000000E+00
 954297.  0.0000000E+00  0.0000000E+00  0.0000000E+00  0.0000000E+00  0.0000000E+00  0.0000000E+00
 916125.  0.0000000E+00  0.0000000E+00  0.0000000E+00  0.0000000E+00  0.0000000E+00  0.0000000E+00
 877953.  0.0000000E+00  0.0000000E+00  0.0000000E+00  0.0000000E+00  0.0000000E+00  0.0000000E+00
 839781.  0.0000000E+00  0.0000000E+00  0.0000000E+00  0.0000000E+00  0.0000000E+00  0.0000000E+00
 801609.  0.0000000E+00  0.0000000E+00  0.0000000E+00  0.0000000E+00  0.0000000E+00  0.0000000E+00
 763438.  0.0000000E+00  0.0000000E+00  0.0000000E+00  0.0000000E+00  0.0000000E+00  0.0000000E+00
 725266.  0.0000000E+00  0.0000000E+00  0.0000000E+00  0.0000000E+00  0.0000000E+00  0.0000000E+00
 687094.  0.0000000E+00  0.0000000E+00  0.0000000E+00  0.0000000E+00  0.0000000E+00  0.0000000E+00
 648922.  0.0000000E+00  0.0000000E+00  0.0000000E+00  0.0000000E+00  0.0000000E+00  0.0000000E+00
 610750.  0.0000000E+00  0.0000000E+00  0.0000000E+00  0.0000000E+00  0.0000000E+00  0.0000000E+00
 572578.  0.0000000E+00  0.0000000E+00  0.0000000E+00  0.0000000E+00  0.0000000E+00  0.0000000E+00
 534406.  0.0000000E+00  0.0000000E+00  0.0000000E+00  0.0000000E+00  0.0000000E+00  0.0000000E+00
 496234.  0.0000000E+00  0.0000000E+00  0.0000000E+00  0.0000000E+00  0.0000000E+00  0.0000000E+00
 458062.  0.0000000E+00  0.0000000E+00  0.0000000E+00  0.0000000E+00  0.0000000E+00  0.0000000E+00
 419891.  0.0000000E+00  0.0000000E+00  0.0000000E+00  0.0000000E+00  0.0000000E+00  0.0000000E+00
 381719.  0.0000000E+00  0.0000000E+00  0.0000000E+00  0.0000000E+00  0.0000000E+00  0.0000000E+00
 343547.  0.0000000E+00  0.0000000E+00  0.0000000E+00  0.0000000E+00  0.0000000E+00  0.0000000E+00
 305375.  0.0000000E+00  0.0000000E+00  0.0000000E+00  0.0000000E+00  0.0000000E+00  0.0000000E+00
 267203.  0.0000000E+00  0.0000000E+00  0.0000000E+00  0.0000000E+00  0.0000000E+00  0.0000000E+00
 229031.  0.0000000E+00  0.0000000E+00  0.0000000E+00  0.0000000E+00  0.0000000E+00  0.0000000E+00
 190859.  0.0000000E+00  0.0000000E+00  0.0000000E+00  0.0000000E+00  0.0000000E+00  0.0000000E+00
 152688.  0.0000000E+00  0.0000000E+00  0.0000000E+00  0.0000000E+00  0.0000000E+00  0.0000000E+00
 114516.  0.0000000E+00  0.0000000E+00  0.0000000E+00  0.0000000E+00  0.0000000E+00  0.0000000E+00
  76344.  0.0000000E+00  0.0000000E+00  0.0000000E+00  0.0000000E+00  0.0000000E+00  0.0000000E+00
  38172.  0.0000000E+00  0.0000000E+00  0.0000000E+00  0.0000000E+00  0.0000000E+00  0.0000000E+00
      0.  0.0000000E+00  0.0000000E+00  0.0000000E+00  0.0000000E+00  0.0000000E+00  0.0000000E+00
