       1        7 S      103        604.24121          8.83315          5.46161        369.96399      185    7
6371000.  0.2128567E+00 -0.2966577E+00 -0.5855597E-02 -0.2187123E+00 -0.2969753E-01 -0.1638177E+00
6370000.  0.2129029E+00 -0.2914467E+00 -0.5821239E-02 -0.2190764E+00 -0.2967184E-01 -0.1634724E+00
6369000.  0.2129482E+00 -0.2862312E+00 -0.5786824E-02 -0.2194373E+00 -0.2964621E-01 -0.1631260E+00
6368000.  0.2129927E+00 -0.2810112E+00 -0.5752353E-02 -0.2197952E+00 -0.2962063E-01 -0.1627786E+00
6368000.  0.2129927E+00 -0.2810112E+00 -0.5752353E-02 -0.2197952E+00 -0.2962063E-01 -0.1627786E+00
6367000.  0.2130364E+00 -0.2757868E+00 -0.5717826E-02 -0.2201498E+00 -0.2959511E-01 -0.1624303E+00
6366000.  0.2130793E+00 -0.2705580E+00 -0.5683243E-02 -0.2205014E+00 -0.2956964E-01 -0.1620810E+00
6365000.  0.2131213E+00 -0.2653248E+00 -0.5648606E-02 -0.2208498E+00 -0.2954423E-01 -0.1617306E+00
6364000.  0.2131626E+00 -0.2600872E+00 -0.5613914E-02 -0.2211950E+00 -0.2951887E-01 -0.1613793E+00
6363000.  0.2132030E+00 -0.2548453E+00 -0.5579168E-02 -0.2215371E+00 -0.2949357E-01 -0.1610270E+00
6362000.  0.2132426E+00 -0.2495991E+00 -0.5544368E-02 -0.2218760E+00 -0.2946832E-01 -0.1606737E+00
6361000.  0.2132813E+00 -0.2443487E+00 -0.5509516E-02 -0.2222117E+00 -0.2944313E-01 -0.1603194E+00
6360000.  0.2133193E+00 -0.2390940E+00 -0.5474611E-02 -0.2225443E+00 -0.2941800E-01 -0.1599641E+00
6359000.  0.2133564E+00 -0.2338352E+00 -0.5439654E-02 -0.2228737E+00 -0.2939291E-01 -0.1596078E+00
6358000.  0.2133927E+00 -0.2285722E+00 -0.5404646E-02 -0.2231999E+00 -0.2936789E-01 -0.1592505E+00
6357000.  0.2134282E+00 -0.2233051E+00 -0.5369587E-02 -0.2235229E+00 -0.2934292E-01 -0.1588922E+00
6356000.  0.2134628E+00 -0.2180339E+00 -0.5334477E-02 -0.2238428E+00 -0.2931801E-01 -0.1585329E+00
6356000.  0.2134628E+00 -0.2061148E+00 -0.5334477E-02 -0.2220474E+00 -0.2931801E-01 -0.2049799E+00
6355000.  0.2134948E+00 -0.2022141E+00 -0.5299612E-02 -0.2222015E+00 -0.2928586E-01 -0.2046131E+00
6354000.  0.2135263E+00 -0.1983110E+00 -0.5264724E-02 -0.2223537E+00 -0.2925378E-01 -0.2042457E+00
6353000.  0.2135571E+00 -0.1944053E+00 -0.5229811E-02 -0.2225039E+00 -0.2922175E-01 -0.2038777E+00
6352000.  0.2135873E+00 -0.1904973E+00 -0.5194874E-02 -0.2226523E+00 -0.2918978E-01 -0.2035090E+00
6351000.  0.2136169E+00 -0.1865868E+00 -0.5159915E-02 -0.2227987E+00 -0.2915786E-01 -0.2031398E+00
6350000.  0.2136459E+00 -0.1826739E+00 -0.5124934E-02 -0.2229432E+00 -0.2912601E-01 -0.2027700E+00
6349000.  0.2136742E+00 -0.1787586E+00 -0.5089929E-02 -0.2230858E+00 -0.2909421E-01 -0.2023996E+00
6348000.  0.2137020E+00 -0.1748409E+00 -0.5054902E-02 -0.2232264E+00 -0.2906247E-01 -0.2020285E+00
6347000.  0.2137291E+00 -0.1709209E+00 -0.5019853E-02 -0.2233652E+00 -0.2903079E-01 -0.2016569E+00
6346600.  0.2137398E+00 -0.1693523E+00 -0.5005827E-02 -0.2234201E+00 -0.2901813E-01 -0.2015080E+00
6346600.  0.2137398E+00 -0.2378977E+00 -0.5005827E-02 -0.2221748E+00 -0.2901813E-01 -0.2760360E+00
6318800.  0.2145932E+00 -0.1528534E+00 -0.4033926E-02 -0.2231193E+00 -0.2783617E-01 -0.2656746E+00
6291000.  0.2150702E+00 -0.6538952E-01 -0.3060173E-02 -0.2230201E+00 -0.2669991E-01 -0.2550815E+00
6291000.  0.2150702E+00 -0.7239752E-01 -0.3060173E-02 -0.2231186E+00 -0.2669991E-01 -0.2550815E+00
6263000.  0.2151859E+00  0.2010992E-01 -0.2081568E-02 -0.2220217E+00 -0.2560262E-01 -0.2442197E+00
6235000.  0.2148905E+00  0.1146351E+00 -0.1110368E-02 -0.2197461E+00 -0.2455370E-01 -0.2330586E+00
6207000.  0.2141757E+00  0.2108832E+00 -0.1517842E-03 -0.2162782E+00 -0.2355454E-01 -0.2215744E+00
6179000.  0.2130348E+00  0.3085445E+00  0.7889211E-03 -0.2116092E+00 -0.2260661E-01 -0.2097423E+00
6151000.  0.2114621E+00  0.4072842E+00  0.1706458E-02 -0.2057348E+00 -0.2171148E-01 -0.1975422E+00
6151000.  0.2114621E+00  0.3008988E+00  0.1706458E-02 -0.2071914E+00 -0.2171148E-01 -0.2092414E+00
6128500.  0.2102973E+00  0.3585668E+00  0.2429933E-02 -0.2024285E+00 -0.2098431E-01 -0.2025535E+00
6106000.  0.2089309E+00  0.4149948E+00  0.3135628E-02 -0.1971266E+00 -0.2028089E-01 -0.1957840E+00
6083500.  0.2073676E+00  0.4700960E+00  0.3821681E-02 -0.1913089E+00 -0.1960153E-01 -0.1889324E+00
6061000.  0.2056122E+00  0.5237865E+00  0.4486313E-02 -0.1849993E+00 -0.1894650E-01 -0.1820026E+00
6038500.  0.2036698E+00  0.5759903E+00  0.5127828E-02 -0.1782214E+00 -0.1831609E-01 -0.1749935E+00
6016000.  0.2015457E+00  0.6266299E+00  0.5744614E-02 -0.1709992E+00 -0.1771058E-01 -0.1679037E+00
5993500.  0.1992457E+00  0.6756302E+00  0.6335144E-02 -0.1633568E+00 -0.1713024E-01 -0.1607358E+00
5971000.  0.1967757E+00  0.7229267E+00  0.6897978E-02 -0.1553180E+00 -0.1657536E-01 -0.1534862E+00
5971000.  0.1967757E+00  0.6537433E+00  0.6897978E-02 -0.1605266E+00 -0.1657536E-01 -0.1792458E+00
5937667.  0.1932327E+00  0.6998060E+00  0.7713580E-02 -0.1512415E+00 -0.1565544E-01 -0.1724234E+00
5904333.  0.1894605E+00  0.7413692E+00  0.8480603E-02 -0.1419646E+00 -0.1477086E-01 -0.1657353E+00
5871000.  0.1854822E+00  0.7787192E+00  0.9199293E-02 -0.1327885E+00 -0.1392088E-01 -0.1592109E+00
5837667.  0.1813188E+00  0.8121411E+00  0.9870410E-02 -0.1237909E+00 -0.1310455E-01 -0.1528769E+00
5804333.  0.1769901E+00  0.8419186E+00  0.1049508E-01 -0.1150362E+00 -0.1232079E-01 -0.1467540E+00
5771000.  0.1725146E+00  0.8683159E+00  0.1107468E-01 -0.1065796E+00 -0.1156848E-01 -0.1408655E+00
5771000.  0.1725146E+00  0.8683417E+00  0.1107468E-01 -0.1065819E+00 -0.1156848E-01 -0.1408655E+00
5701000.  0.1624338E+00  0.9645017E+00  0.1211951E-01 -0.8342687E-01 -0.1013652E-01 -0.1198050E+00
5701000.  0.1624338E+00  0.8144835E+00  0.1211951E-01 -0.1013979E+00 -0.1013652E-01 -0.1655892E+00
5667333.  0.1581390E+00  0.8174493E+00  0.1265040E-01 -0.9880508E-01 -0.9282040E-02 -0.1582193E+00
5633667.  0.1537285E+00  0.8545865E+00  0.1315600E-01 -0.9219403E-01 -0.8460682E-02 -0.1528044E+00
5600000.  0.1491162E+00  0.8902084E+00  0.1362538E-01 -0.8552822E-01 -0.7667026E-02 -0.1475871E+00
5600000.  0.1491162E+00  0.8902084E+00  0.1362538E-01 -0.8552822E-01 -0.7667026E-02 -0.1475871E+00
5563518.  0.1439123E+00  0.9270771E+00  0.1409452E-01 -0.7833079E-01 -0.6837429E-02 -0.1422081E+00
5527037.  0.1385024E+00  0.9622437E+00  0.1452252E-01 -0.7116415E-01 -0.6037909E-02 -0.1370899E+00
5490556.  0.1328959E+00  0.9956908E+00  0.1490961E-01 -0.6405075E-01 -0.5266935E-02 -0.1322410E+00
5454074.  0.1271029E+00  0.1027374E+01  0.1525620E-01 -0.5701520E-01 -0.4522886E-02 -0.1276775E+00
5417593.  0.1211334E+00  0.1057406E+01  0.1556274E-01 -0.5006753E-01 -0.3804220E-02 -0.1233818E+00
5381111.  0.1149965E+00  0.1085751E+01  0.1582980E-01 -0.4322789E-01 -0.3109334E-02 -0.1193671E+00
5344630.  0.1087023E+00  0.1112441E+01  0.1605804E-01 -0.3651121E-01 -0.2436644E-02 -0.1156341E+00
5308148.  0.1022596E+00  0.1137565E+01  0.1624818E-01 -0.2992484E-01 -0.1784529E-02 -0.1121757E+00
5271667.  0.9567782E-01  0.1161068E+01  0.1640103E-01 -0.2348806E-01 -0.1151414E-02 -0.1090053E+00
5235185.  0.8896568E-01  0.1183055E+01  0.1651747E-01 -0.1720553E-01 -0.5356228E-03 -0.1061168E+00
5198704.  0.8213199E-01  0.1203587E+01  0.1659838E-01 -0.1108344E-01  0.6440497E-04 -0.1035075E+00
5162222.  0.7518489E-01  0.1222605E+01  0.1664474E-01 -0.5137178E-02  0.6503492E-03 -0.1011924E+00
5125741.  0.6813303E-01  0.1240266E+01  0.1665755E-01  0.6355858E-03  0.1223835E-02 -0.9916054E-01
5089259.  0.6098366E-01  0.1256588E+01  0.1663781E-01  0.6229626E-02  0.1786522E-02 -0.9741675E-01
5052778.  0.5374490E-01  0.1271574E+01  0.1658656E-01  0.1163817E-01  0.2340053E-02 -0.9596805E-01
5016296.  0.4642362E-01  0.1285351E+01  0.1650487E-01  0.1686539E-01  0.2886138E-02 -0.9481075E-01
4979815.  0.3902711E-01  0.1297920E+01  0.1639377E-01  0.2190842E-01  0.3426430E-02 -0.9395115E-01
4943333.  0.3156176E-01  0.1309346E+01  0.1625431E-01  0.2676949E-01  0.3962676E-02 -0.9339262E-01
4906852.  0.2403417E-01  0.1319731E+01  0.1608753E-01  0.3145459E-01  0.4496572E-02 -0.9313615E-01
4870370.  0.1644999E-01  0.1329046E+01  0.1589442E-01  0.3596465E-01  0.5029899E-02 -0.9318969E-01
4833889.  0.8815457E-02  0.1337412E+01  0.1567597E-01  0.4030820E-01  0.5564413E-02 -0.9355660E-01
4797407.  0.1135330E-02  0.1344894E+01  0.1543310E-01  0.4449465E-01  0.6101951E-02 -0.9424216E-01
4760926. -0.6584796E-02  0.1351467E+01  0.1516669E-01  0.4853059E-01  0.6644330E-02 -0.9525369E-01
4724444. -0.1434051E-01  0.1357267E+01  0.1487757E-01  0.5242962E-01  0.7193469E-02 -0.9659916E-01
4687963. -0.2212708E-01  0.1362314E+01  0.1456649E-01  0.5620470E-01  0.7751272E-02 -0.9828629E-01
4651482. -0.2994038E-01  0.1366619E+01  0.1423411E-01  0.5987027E-01  0.8319733E-02 -0.1003238E+00
4615000. -0.3777672E-01  0.1370294E+01  0.1388101E-01  0.6344392E-01  0.8900913E-02 -0.1027252E+00
4578518. -0.4563224E-01  0.1373316E+01  0.1350766E-01  0.6694534E-01  0.9496907E-02 -0.1054995E+00
4542037. -0.5350308E-01  0.1375734E+01  0.1311443E-01  0.7039537E-01  0.1010987E-01 -0.1086607E+00
4505556. -0.6138624E-01  0.1377613E+01  0.1270153E-01  0.7381777E-01  0.1074209E-01 -0.1122276E+00
4469074. -0.6927864E-01  0.1378886E+01  0.1226904E-01  0.7724171E-01  0.1139593E-01 -0.1162085E+00
4432593. -0.7717656E-01  0.1379629E+01  0.1181688E-01  0.8069382E-01  0.1207379E-01 -0.1206296E+00
4396111. -0.8507745E-01  0.1379836E+01  0.1134478E-01  0.8420772E-01  0.1277830E-01 -0.1255110E+00
4359630. -0.9297754E-01  0.1379421E+01  0.1085231E-01  0.8782318E-01  0.1351209E-01 -0.1308657E+00
4323148. -0.1008738E+00  0.1378432E+01  0.1033874E-01  0.9157551E-01  0.1427801E-01 -0.1367322E+00
4286667. -0.1087624E+00  0.1376780E+01  0.9803202E-02  0.9551258E-01  0.1507901E-01 -0.1431299E+00
4250185. -0.1166396E+00  0.1374371E+01  0.9244449E-02  0.9968543E-01  0.1591825E-01 -0.1500869E+00
4213704. -0.1245005E+00  0.1371171E+01  0.8661028E-02  0.1041437E+00  0.1679901E-01 -0.1576469E+00
4177222. -0.1323407E+00  0.1366994E+01  0.8051083E-02  0.1089552E+00  0.1772487E-01 -0.1658342E+00
4140741. -0.1401536E+00  0.1361709E+01  0.7412438E-02  0.1141848E+00  0.1869949E-01 -0.1746956E+00
4104259. -0.1479329E+00  0.1355166E+01  0.6742467E-02  0.1199045E+00  0.1972694E-01 -0.1842832E+00
4067778. -0.1556702E+00  0.1347034E+01  0.6038129E-02  0.1262098E+00  0.2081140E-01 -0.1946235E+00
4031296. -0.1633561E+00  0.1337116E+01  0.5295792E-02  0.1331845E+00  0.2195743E-01 -0.2057921E+00
3994815. -0.1709791E+00  0.1325073E+01  0.4511376E-02  0.1409347E+00  0.2316990E-01 -0.2178464E+00
3958333. -0.1785261E+00  0.1310413E+01  0.3680025E-02  0.1495906E+00  0.2445405E-01 -0.2308279E+00
3921852. -0.1859806E+00  0.1292763E+01  0.2796266E-02  0.1592697E+00  0.2581539E-01 -0.2448364E+00
3885370. -0.1933243E+00  0.1271505E+01  0.1853756E-02  0.1701302E+00  0.2726009E-01 -0.2599366E+00
3848889. -0.2005340E+00  0.1245953E+01  0.8452955E-03  0.1823420E+00  0.2879450E-01 -0.2762056E+00
3812407. -0.2075838E+00  0.1215399E+01 -0.2374078E-03  0.1960852E+00  0.3042576E-01 -0.2937633E+00
3775926. -0.2144416E+00  0.1178839E+01 -0.1403698E-02  0.2115863E+00  0.3216137E-01 -0.3126833E+00
3739444. -0.2210707E+00  0.1135243E+01 -0.2664377E-02  0.2290819E+00  0.3400957E-01 -0.3330949E+00
3702963. -0.2274271E+00  0.1083411E+01 -0.4031537E-02  0.2488403E+00  0.3597923E-01 -0.3551402E+00
3666482. -0.2334593E+00  0.1021763E+01 -0.5519091E-02  0.2711884E+00  0.3808000E-01 -0.3789163E+00
3630000. -0.2391068E+00  0.9486936E+00 -0.7142877E-02  0.2964690E+00  0.4032239E-01 -0.4046151E+00
3630000. -0.2391068E+00  0.9486936E+00 -0.7142877E-02  0.2964690E+00  0.4032239E-01 -0.4046151E+00
3592500. -0.2444359E+00  0.8594979E+00 -0.8972810E-02  0.3259464E+00  0.4278692E-01 -0.4331783E+00
3555000. -0.2491920E+00  0.7535259E+00 -0.1098786E-01  0.3594569E+00  0.4542647E-01 -0.4641234E+00
3517500. -0.2532680E+00  0.6279118E+00 -0.1321339E-01  0.3975707E+00  0.4825582E-01 -0.4977076E+00
3480000. -0.2565383E+00  0.4791178E+00 -0.1567843E-01  0.4409535E+00  0.5129113E-01 -0.5341511E+00
3480000. -0.2565383E+00 -0.2090317E+01 -0.4261445E-01 -0.3909926E+00  0.5129113E-01  0.2839210E+00
3409422. -0.2338696E+00 -0.2000226E+01 -0.3842813E-01 -0.3648140E+00  0.4799062E-01  0.3098388E+00
3338844. -0.2122592E+00 -0.1899830E+01 -0.3453062E-01 -0.3389050E+00  0.4446876E-01  0.3242589E+00
3268266. -0.1918034E+00 -0.1792265E+01 -0.3091744E-01 -0.3135128E+00  0.4084091E-01  0.3293072E+00
3197688. -0.1725664E+00 -0.1680192E+01 -0.2758181E-01 -0.2888261E+00  0.3720035E-01  0.3268394E+00
3127109. -0.1545850E+00 -0.1565865E+01 -0.2451496E-01 -0.2650024E+00  0.3362117E-01  0.3184666E+00
3056531. -0.1378741E+00 -0.1451167E+01 -0.2170672E-01 -0.2421668E+00  0.3016100E-01  0.3055788E+00
2985953. -0.1224286E+00 -0.1337652E+01 -0.1914552E-01 -0.2204106E+00  0.2686301E-01  0.2893671E+00
2915375. -0.1082280E+00 -0.1226597E+01 -0.1681907E-01 -0.1997982E+00  0.2375830E-01  0.2708398E+00
2844797. -0.9523917E-01 -0.1119025E+01 -0.1471440E-01 -0.1803751E+00  0.2086769E-01  0.2508438E+00
2774219. -0.8341896E-01 -0.1015743E+01 -0.1281818E-01 -0.1621673E+00  0.1820342E-01  0.2300821E+00
2703641. -0.7271622E-01 -0.9173670E+00 -0.1111690E-01 -0.1451812E+00  0.1577067E-01  0.2091300E+00
2633062. -0.6307382E-01 -0.8243499E+00 -0.9597030E-02 -0.1294112E+00  0.1356889E-01  0.1884483E+00
2562484. -0.5443082E-01 -0.7370033E+00 -0.8245209E-02 -0.1148418E+00  0.1159302E-01  0.1684013E+00
2491906. -0.4672313E-01 -0.6555123E+00 -0.7048269E-02 -0.1014435E+00  0.9834407E-02  0.1492663E+00
2421328. -0.3988533E-01 -0.5799609E+00 -0.5993435E-02 -0.8917972E-01  0.8281752E-02  0.1312457E+00
2350750. -0.3385158E-01 -0.5103437E+00 -0.5068365E-02 -0.7800881E-01  0.6921888E-02  0.1144789E+00
2280172. -0.2855652E-01 -0.4465808E+00 -0.4261214E-02 -0.6788211E-01  0.5740402E-02  0.9905197E-01
2209594. -0.2393602E-01 -0.3885325E+00 -0.3560706E-02 -0.5874684E-01  0.4722188E-02  0.8500566E-01
2139016. -0.1992778E-01 -0.3360096E+00 -0.2956163E-02 -0.5054699E-01  0.3851898E-02  0.7234393E-01
2068438. -0.1647181E-01 -0.2887852E+00 -0.2437546E-02 -0.4322444E-01  0.3114315E-02  0.6104059E-01
1997859. -0.1351078E-01 -0.2466036E+00 -0.1995457E-02 -0.3671926E-01  0.2494637E-02  0.5104619E-01
1927281. -0.1099039E-01 -0.2091936E+00 -0.1621195E-02 -0.3097003E-01  0.1978739E-02  0.4229345E-01
1856703. -0.8859297E-02 -0.1762756E+00 -0.1306723E-02 -0.2591438E-01  0.1553295E-02  0.3470156E-01
1786125. -0.7069251E-02 -0.1475768E+00 -0.1044709E-02 -0.2148860E-01  0.1205934E-02  0.2818108E-01
1715547. -0.5574933E-02 -0.1228469E+00 -0.8285395E-03 -0.1762648E-01  0.9253077E-03  0.2263733E-01
1644969. -0.4333553E-02 -0.1018840E+00 -0.6523543E-03 -0.1425761E-01  0.7011321E-03  0.1797342E-01
1574391. -0.3304118E-02 -0.8457432E-01 -0.5111166E-03 -0.1130284E-01  0.5241948E-03  0.1409317E-01
1503812. -0.2446085E-02 -0.7096415E-01 -0.4007492E-03 -0.8665969E-02  0.3863333E-03  0.1090320E-01
1433234. -0.1716969E-02 -0.6139383E-01 -0.3184071E-03 -0.6217816E-02  0.2803989E-03  0.8315297E-02
1362656. -0.1067752E-02 -0.5675630E-01 -0.2629941E-03 -0.3763675E-02  0.2001766E-03  0.6248456E-02
1292078. -0.4342290E-03 -0.5902402E-01 -0.2362132E-03 -0.9777333E-03  0.1402964E-03  0.4632089E-02
1221500.  0.2803238E-03 -0.7235880E-01 -0.2446934E-03  0.2736490E-02  0.9609069E-04  0.3411179E-02
1221500.  0.2803238E-03  0.1246426E-05  0.2683294E-05 -0.1448095E-02  0.9609069E-04  0.3289742E-02
1183328.  0.2748665E-03  0.1722665E-02  0.9775288E-05 -0.9401697E-03  0.7797730E-04  0.2768172E-02
1145156.  0.2607435E-03  0.2911638E-02  0.1417989E-04 -0.5477312E-03  0.6278678E-04  0.2313083E-02
1106984.  0.2408378E-03  0.3668602E-02  0.1653171E-04 -0.2519821E-03  0.5013850E-04  0.1918592E-02
1068812.  0.2174680E-03  0.4081675E-02  0.1735881E-04 -0.3614100E-04  0.3968665E-04  0.1578962E-02
1030641.  0.1924602E-03  0.4227389E-02  0.1709455E-04  0.1146371E-03  0.3111940E-04  0.1288675E-02
 992469.  0.1672131E-03  0.4171454E-02  0.1608888E-04  0.2133626E-03  0.2415666E-04  0.1042438E-02
 954297.  0.1427638E-03  0.3969531E-02  0.1461911E-04  0.2712908E-03  0.1854984E-04  0.8352548E-03
 916125.  0.1198436E-03  0.3668107E-02  0.1290007E-04  0.2980530E-03  0.1407915E-04  0.6624337E-03
 877953.  0.9893029E-04  0.3305312E-02  0.1109335E-04  0.3017937E-03  0.1055199E-04  0.5196011E-03
 839781.  0.8029643E-04  0.2911759E-02  0.9316021E-05  0.2892619E-03  0.7800932E-05  0.4027210E-03
 801609.  0.6405138E-04  0.2511401E-02  0.7648438E-05  0.2659847E-03  0.5681725E-05  0.3080999E-03
 763438.  0.5017935E-04  0.2122333E-02  0.6141323E-05  0.2363604E-03  0.4071251E-05  0.2323876E-03
 725266.  0.3857066E-04  0.1757570E-02  0.4821887E-05  0.2038206E-03  0.2865338E-05  0.1725674E-03
 687094.  0.2905191E-04  0.1425837E-02  0.3699541E-05  0.1709357E-03  0.1976999E-05  0.1259597E-03
 648922.  0.2140822E-04  0.1132264E-02  0.2770491E-05  0.1395520E-03  0.1334310E-05  0.9020000E-04
 610750.  0.1540306E-04  0.8790500E-03  0.2021766E-05  0.1109036E-03  0.8785949E-06  0.6322810E-04
 572578.  0.1079396E-04  0.6660756E-03  0.1434562E-05  0.8572196E-04  0.5626555E-06  0.4326920E-04
 534406.  0.7344685E-05  0.4914636E-03  0.9869403E-06  0.6433752E-04  0.3491215E-06  0.2881420E-04
 496234.  0.4834278E-05  0.3520770E-03  0.6559509E-06  0.4677247E-04  0.2089217E-06  0.1859831E-04
 458062.  0.3063228E-05  0.2439565E-03  0.4192259E-06  0.3282313E-04  0.1198871E-06  0.1157835E-04
 419891.  0.1857288E-05  0.1626986E-03  0.2561159E-06  0.2213218E-04  0.6549512E-07  0.6909385E-05
 381719.  0.1069051E-05  0.1037637E-03  0.1484042E-06  0.1425008E-04  0.3374707E-07  0.3920815E-05
 343547.  0.5781174E-06  0.6274441E-04  0.8072200E-07  0.8687751E-05  0.1620081E-07  0.2093630E-05
 305375.  0.2895901E-06  0.3555397E-04  0.4064019E-07  0.4957686E-05  0.7126884E-08  0.1037123E-05
 267203.  0.1317234E-06  0.1857013E-04  0.1856616E-07  0.2604992E-05  0.2806821E-08  0.4671996E-06
 229031.  0.5284271E-07  0.8726229E-05  0.7475557E-08  0.1230279E-05  0.9564771E-09  0.1858762E-06
 190859.  0.1786864E-07  0.3552707E-05  0.2535574E-08  0.5029656E-06  0.2674991E-09  0.6241928E-07
 152688.  0.4721201E-08  0.1176483E-05  0.6715855E-09  0.1671121E-06  0.5619749E-10  0.1639979E-07
 114516.  0.8454628E-09  0.2814510E-06  0.1204838E-09  0.4007537E-07  0.7511519E-11  0.2923720E-08
  76344.  0.0000000E+00  0.0000000E+00  0.0000000E+00  0.0000000E+00  0.0000000E+00  0.0000000E+00
  38172.  0.0000000E+00  0.0000000E+00  0.0000000E+00  0.0000000E+00  0.0000000E+00  0.0000000E+00
      0.  0.0000000E+00  0.0000000E+00  0.0000000E+00  0.0000000E+00  0.0000000E+00  0.0000000E+00
