      10        2 S      504        247.61690         64.66468         23.24310        127.78590      185    7
6371000.  0.5448113E-01 -0.2374612E-01  0.8097597E-02 -0.4638353E-01 -0.1950710E-04 -0.1026802E+00
6370000.  0.5448433E-01 -0.1703669E-01  0.8104625E-02 -0.4316175E-01 -0.3388672E-05 -0.1027006E+00
6369000.  0.5448648E-01 -0.1032694E-01  0.8111146E-02 -0.3993385E-01  0.1273281E-04 -0.1027190E+00
6368000.  0.5448758E-01 -0.3617000E-02  0.8117161E-02 -0.3670001E-01  0.2885703E-04 -0.1027355E+00
6368000.  0.5448758E-01 -0.3617000E-02  0.8117161E-02 -0.3670001E-01  0.2885703E-04 -0.1027355E+00
6367000.  0.5448762E-01  0.3093005E-02  0.8122667E-02 -0.3346046E-01  0.4498368E-04 -0.1027500E+00
6366000.  0.5448661E-01  0.9802939E-02  0.8127664E-02 -0.3021539E-01  0.6111246E-04 -0.1027626E+00
6365000.  0.5448454E-01  0.1651267E-01  0.8132152E-02 -0.2696499E-01  0.7724307E-04 -0.1027732E+00
6364000.  0.5448142E-01  0.2322206E-01  0.8136129E-02 -0.2370947E-01  0.9337519E-04 -0.1027819E+00
6363000.  0.5447725E-01  0.2993099E-01  0.8139594E-02 -0.2044904E-01  0.1095085E-03 -0.1027886E+00
6362000.  0.5447203E-01  0.3663931E-01  0.8142548E-02 -0.1718389E-01  0.1256427E-03 -0.1027934E+00
6361000.  0.5446575E-01  0.4334690E-01  0.8144989E-02 -0.1391423E-01  0.1417776E-03 -0.1027962E+00
6360000.  0.5445842E-01  0.5005362E-01  0.8146916E-02 -0.1064026E-01  0.1579127E-03 -0.1027970E+00
6359000.  0.5445004E-01  0.5675935E-01  0.8148328E-02 -0.7362180E-02  0.1740478E-03 -0.1027959E+00
6358000.  0.5444060E-01  0.6346395E-01  0.8149227E-02 -0.4080200E-02  0.1901825E-03 -0.1027928E+00
6357000.  0.5443011E-01  0.7016728E-01  0.8149609E-02 -0.7945210E-03  0.2063166E-03 -0.1027878E+00
6356000.  0.5441858E-01  0.7686922E-01  0.8149477E-02  0.2494651E-02  0.2224498E-03 -0.1027808E+00
6356000.  0.5441858E-01  0.4487864E-01  0.8149477E-02 -0.1687879E-01  0.2224498E-03 -0.1146216E+00
6355000.  0.5441115E-01  0.4975564E-01  0.8151951E-02 -0.1466400E-01  0.2404410E-03 -0.1146225E+00
6354000.  0.5440295E-01  0.5463209E-01  0.8154079E-02 -0.1244632E-01  0.2584323E-03 -0.1146217E+00
6353000.  0.5439400E-01  0.5950791E-01  0.8155858E-02 -0.1022586E-01  0.2764233E-03 -0.1146194E+00
6352000.  0.5438427E-01  0.6438302E-01  0.8157290E-02 -0.8002699E-02  0.2944138E-03 -0.1146155E+00
6351000.  0.5437379E-01  0.6925737E-01  0.8158371E-02 -0.5776937E-02  0.3124036E-03 -0.1146100E+00
6350000.  0.5436253E-01  0.7413087E-01  0.8159103E-02 -0.3548664E-02  0.3303924E-03 -0.1146029E+00
6349000.  0.5435051E-01  0.7900347E-01  0.8159485E-02 -0.1317974E-02  0.3483799E-03 -0.1145943E+00
6348000.  0.5433773E-01  0.8387507E-01  0.8159516E-02  0.9150396E-03  0.3663660E-03 -0.1145840E+00
6347000.  0.5432418E-01  0.8874563E-01  0.8159198E-02  0.3150284E-02  0.3843503E-03 -0.1145722E+00
6346600.  0.5431855E-01  0.9069355E-01  0.8158972E-02  0.4044986E-02  0.3915436E-03 -0.1145670E+00
6346600.  0.5431855E-01  0.4463823E-01  0.8158972E-02 -0.1232204E-01  0.3915436E-03 -0.1335071E+00
6318800.  0.5390987E-01  0.1428198E+00  0.8105393E-02  0.3702585E-01  0.9732339E-03 -0.1329364E+00
6291000.  0.5307148E-01  0.2414637E+00  0.7835472E-02  0.8663021E-01  0.1550175E-02 -0.1313276E+00
6291000.  0.5307148E-01  0.2447904E+00  0.7835472E-02  0.9189578E-01  0.1550175E-02 -0.1313276E+00
6263000.  0.5177457E-01  0.3452644E+00  0.7319173E-02  0.1427460E+00  0.2121754E-02 -0.1286011E+00
6235000.  0.5003848E-01  0.4445060E+00  0.6584482E-02  0.1910567E+00  0.2678967E-02 -0.1247894E+00
6207000.  0.4787046E-01  0.5416858E+00  0.5645445E-02  0.2355291E+00  0.3217050E-02 -0.1198980E+00
6179000.  0.4528138E-01  0.6359857E+00  0.4521614E-02  0.2749588E+00  0.3731289E-02 -0.1139418E+00
6151000.  0.4228567E-01  0.7265915E+00  0.3237586E-02  0.3082626E+00  0.4217057E-02 -0.1069469E+00
6151000.  0.4228567E-01  0.5798655E+00  0.3237586E-02  0.2652120E+00  0.4217057E-02 -0.1092863E+00
6128500.  0.4016022E-01  0.6231942E+00  0.2270658E-02  0.2817287E+00  0.4594988E-02 -0.1046630E+00
6106000.  0.3788840E-01  0.6627509E+00  0.1252306E-02  0.2943047E+00  0.4955787E-02 -0.9958813E-01
6083500.  0.3548357E-01  0.6985170E+00  0.1967166E-03  0.3027982E+00  0.5297903E-02 -0.9408689E-01
6061000.  0.3295912E-01  0.7304950E+00 -0.8815283E-03  0.3071264E+00  0.5619877E-02 -0.8818661E-01
6038500.  0.3032839E-01  0.7587148E+00 -0.1967669E-02  0.3072717E+00  0.5920350E-02 -0.8191490E-01
6016000.  0.2760457E-01  0.7832193E+00 -0.3046991E-02  0.3032767E+00  0.6198060E-02 -0.7530034E-01
5993500.  0.2480069E-01  0.8040671E+00 -0.4105028E-02  0.2952393E+00  0.6451848E-02 -0.6837301E-01
5971000.  0.2192952E-01  0.8213414E+00 -0.5127765E-02  0.2833160E+00  0.6680663E-02 -0.6116281E-01
5971000.  0.2192952E-01  0.7404553E+00 -0.5127765E-02  0.2489235E+00  0.6680663E-02 -0.6403357E-01
5937667.  0.1805865E-01  0.7382183E+00 -0.6349345E-02  0.2173830E+00  0.6989320E-02 -0.5390283E-01
5904333.  0.1421441E-01  0.7303736E+00 -0.7396770E-02  0.1825610E+00  0.7244244E-02 -0.4350567E-01
5871000.  0.1042424E-01  0.7177237E+00 -0.8256210E-02  0.1457381E+00  0.7444262E-02 -0.3293176E-01
5837667.  0.6711212E-02  0.7009987E+00 -0.8920302E-02  0.1080686E+00  0.7588677E-02 -0.2226371E-01
5804333.  0.3094784E-02  0.6808612E+00 -0.9387357E-02  0.7057035E-01  0.7677200E-02 -0.1157768E-01
5771000. -0.4085339E-03  0.6578959E+00 -0.9660598E-02  0.3411867E-01  0.7709922E-02 -0.9449548E-03
5771000. -0.4085339E-03  0.6579018E+00 -0.9660598E-02  0.3411722E-01  0.7709922E-02 -0.9449548E-03
5701000. -0.7580730E-02  0.6451434E+00 -0.9641408E-02 -0.3734126E-01  0.7598354E-02  0.2122354E-01
5701000. -0.7580730E-02  0.5311728E+00 -0.9641408E-02 -0.2995591E-01  0.7598354E-02  0.2336027E-01
5667333. -0.1027870E-01  0.4947028E+00 -0.9414855E-02 -0.5552515E-01  0.7449832E-02  0.3276788E-01
5633667. -0.1285285E-01  0.4811334E+00 -0.9052430E-02 -0.8178712E-01  0.7252458E-02  0.4191744E-01
5600000. -0.1535667E-01  0.4658671E+00 -0.8554013E-02 -0.1064475E+00  0.7007132E-02  0.5089214E-01
5600000. -0.1535667E-01  0.4658671E+00 -0.8554013E-02 -0.1064475E+00  0.7007132E-02  0.5089214E-01
5563518. -0.1797256E-01  0.4474898E+00 -0.7873173E-02 -0.1309268E+00  0.6688505E-02  0.6034194E-01
5527037. -0.2047819E-01  0.4274035E+00 -0.7059801E-02 -0.1526804E+00  0.6316727E-02  0.6945083E-01
5490556. -0.2286416E-01  0.4057028E+00 -0.6130532E-02 -0.1713509E+00  0.5893892E-02  0.7816619E-01
5454074. -0.2512145E-01  0.3824584E+00 -0.5103893E-02 -0.1866395E+00  0.5422381E-02  0.8643971E-01
5417593. -0.2724155E-01  0.3578279E+00 -0.3999890E-02 -0.1983543E+00  0.4904897E-02  0.9422014E-01
5381111. -0.2921685E-01  0.3318681E+00 -0.2839385E-02 -0.2063435E+00  0.4344356E-02  0.1014668E+00
5344630. -0.3103984E-01  0.3046712E+00 -0.1644011E-02 -0.2105432E+00  0.3743960E-02  0.1081388E+00
5308148. -0.3270386E-01  0.2763382E+00 -0.4353489E-03 -0.2109787E+00  0.3107081E-02  0.1141983E+00
5271667. -0.3420246E-01  0.2469179E+00  0.7651026E-03 -0.2077048E+00  0.2437345E-02  0.1196162E+00
5235185. -0.3552974E-01  0.2165060E+00  0.1936595E-02 -0.2008872E+00  0.1738476E-02  0.1243618E+00
5198704. -0.3668021E-01  0.1851835E+00  0.3059388E-02 -0.1907417E+00  0.1014443E-02  0.1284093E+00
5162222. -0.3764886E-01  0.1530073E+00  0.4115124E-02 -0.1775054E+00  0.2692443E-03  0.1317443E+00
5125741. -0.3843105E-01  0.1200788E+00  0.5087013E-02 -0.1615256E+00 -0.4929352E-03  0.1343443E+00
5089259. -0.3902274E-01  0.8647588E-01  0.5960401E-02 -0.1431522E+00 -0.1267893E-02  0.1361991E+00
5052778. -0.3942028E-01  0.5229164E-01  0.6722607E-02 -0.1227706E+00 -0.2051305E-02  0.1373033E+00
5016296. -0.3962065E-01  0.1762244E-01  0.7363416E-02 -0.1008176E+00 -0.2838890E-02  0.1376486E+00
4979815. -0.3962137E-01 -0.1742054E-01  0.7875030E-02 -0.7772477E-01 -0.3626263E-02  0.1372375E+00
4943333. -0.3942063E-01 -0.5272311E-01  0.8252233E-02 -0.5394442E-01 -0.4409147E-02  0.1360736E+00
4906852. -0.3901729E-01 -0.8816852E-01  0.8492392E-02 -0.2993641E-01 -0.5183197E-02  0.1341611E+00
4870370. -0.3841091E-01 -0.1236061E+00  0.8595468E-02 -0.6136944E-02 -0.5944211E-02  0.1315159E+00
4833889. -0.3760196E-01 -0.1589059E+00  0.8563919E-02  0.1701313E-01 -0.6687986E-02  0.1281487E+00
4797407. -0.3659158E-01 -0.1939235E+00  0.8402649E-02  0.3910432E-01 -0.7410469E-02  0.1240763E+00
4760926. -0.3538200E-01 -0.2284649E+00  0.8118836E-02  0.5975440E-01 -0.8107658E-02  0.1193243E+00
4724444. -0.3397627E-01 -0.2623983E+00  0.7721738E-02  0.7861423E-01 -0.8775752E-02  0.1139118E+00
4687963. -0.3237845E-01 -0.2955341E+00  0.7222530E-02  0.9537429E-01 -0.9411010E-02  0.1078669E+00
4651482. -0.3059367E-01 -0.3276757E+00  0.6634011E-02  0.1097686E+00 -0.1000992E-01  0.1012208E+00
4615000. -0.2862797E-01 -0.3586727E+00  0.5970342E-02  0.1215848E+00 -0.1056913E-01  0.9400159E-01
4578518. -0.2648858E-01 -0.3883075E+00  0.5246810E-02  0.1306527E+00 -0.1108545E-01  0.8624588E-01
4542037. -0.2418390E-01 -0.4163995E+00  0.4479524E-02  0.1368605E+00 -0.1155590E-01  0.7798949E-01
4505556. -0.2172313E-01 -0.4427903E+00  0.3685018E-02  0.1401539E+00 -0.1197771E-01  0.6926795E-01
4469074. -0.1911664E-01 -0.4672423E+00  0.2880026E-02  0.1405186E+00 -0.1234837E-01  0.6012369E-01
4432593. -0.1637607E-01 -0.4896243E+00  0.2081234E-02  0.1380102E+00 -0.1266554E-01  0.5059569E-01
4396111. -0.1351357E-01 -0.5097689E+00  0.1304779E-02  0.1327280E+00 -0.1292716E-01  0.4072522E-01
4359630. -0.1054274E-01 -0.5274615E+00  0.5662164E-03  0.1248121E+00 -0.1313137E-01  0.3055759E-01
4323148. -0.7477732E-02 -0.5426205E+00 -0.1199742E-03  0.1144655E+00 -0.1327662E-01  0.2013420E-01
4286667. -0.4333642E-02 -0.5550813E+00 -0.7404840E-03  0.1019191E+00 -0.1336156E-01  0.9500382E-02
4250185. -0.1126189E-02 -0.5647089E+00 -0.1283501E-02  0.8744293E-01 -0.1338511E-01 -0.1299591E-02
4213704.  0.2128082E-02 -0.5714497E+00 -0.1738824E-02  0.7134765E-01 -0.1334644E-01 -0.1222074E-01
4177222.  0.5412458E-02 -0.5751745E+00 -0.2098124E-02  0.5395742E-01 -0.1324500E-01 -0.2321916E-01
4140741.  0.8709317E-02 -0.5758430E+00 -0.2354971E-02  0.3562706E-01 -0.1308047E-01 -0.3424947E-01
4104259.  0.1200135E-01 -0.5734458E+00 -0.2505043E-02  0.1672320E-01 -0.1285279E-01 -0.4526808E-01
4067778.  0.1527056E-01 -0.5678990E+00 -0.2546106E-02 -0.2382861E-02 -0.1256215E-01 -0.5623257E-01
4031296.  0.1849923E-01 -0.5592726E+00 -0.2478090E-02 -0.2131212E-01 -0.1220898E-01 -0.6709888E-01
3994815.  0.2166970E-01 -0.5475968E+00 -0.2303082E-02 -0.3969225E-01 -0.1179398E-01 -0.7782505E-01
3958333.  0.2476464E-01 -0.5328748E+00 -0.2025258E-02 -0.5716152E-01 -0.1131803E-01 -0.8837385E-01
3921852.  0.2776683E-01 -0.5152553E+00 -0.1650853E-02 -0.7337286E-01 -0.1078231E-01 -0.9870145E-01
3885370.  0.3066010E-01 -0.4948137E+00 -0.1187987E-02 -0.8800141E-01 -0.1018816E-01 -0.1087726E+00
3848889.  0.3342842E-01 -0.4716718E+00 -0.6466285E-03 -0.1007461E+00 -0.9537167E-02 -0.1185514E+00
3812407.  0.3605704E-01 -0.4460206E+00 -0.3830608E-04 -0.1113427E+00 -0.8831095E-02 -0.1279995E+00
3775926.  0.3853184E-01 -0.4179951E+00  0.6239496E-03 -0.1195533E+00 -0.8071956E-02 -0.1370883E+00
3739444.  0.4083993E-01 -0.3878124E+00  0.1325938E-02 -0.1251855E+00 -0.7261859E-02 -0.1457843E+00
3702963.  0.4296952E-01 -0.3557053E+00  0.2052407E-02 -0.1280882E+00 -0.6403198E-02 -0.1540544E+00
3666482.  0.4491019E-01 -0.3218660E+00  0.2787394E-02 -0.1281454E+00 -0.5498444E-02 -0.1618792E+00
3630000.  0.4665285E-01 -0.2865743E+00  0.3514427E-02 -0.1252971E+00 -0.4550212E-02 -0.1692259E+00
3630000.  0.4665285E-01 -0.2865743E+00  0.3514427E-02 -0.1252971E+00 -0.4550212E-02 -0.1692259E+00
3592500.  0.4822971E-01 -0.2490348E+00  0.4235846E-02 -0.1193165E+00 -0.3533173E-02 -0.1762610E+00
3555000.  0.4958256E-01 -0.2105132E+00  0.4913016E-02 -0.1102716E+00 -0.2476324E-02 -0.1827485E+00
3517500.  0.5070657E-01 -0.1713257E+00  0.5528120E-02 -0.9824478E-01 -0.1382972E-02 -0.1886609E+00
3480000.  0.5159867E-01 -0.1317664E+00  0.6063956E-02 -0.8336255E-01 -0.2565426E-03 -0.1939854E+00
3480000.  0.5159867E-01 -0.3059392E+00  0.8193300E-03  0.9295391E-01 -0.2565426E-03 -0.3585279E+00
3409422.  0.5381063E-01 -0.9335887E-01 -0.2587955E-03  0.1010430E+00  0.3843733E-02 -0.3789293E+00
3338844.  0.5368128E-01  0.1154226E+00 -0.1404567E-02  0.1051249E+00  0.8076281E-02 -0.3823630E+00
3268266.  0.5129506E-01  0.3129413E+00 -0.2572463E-02  0.1050188E+00  0.1225288E-01 -0.3688938E+00
3197688.  0.4681289E-01  0.4928598E+00 -0.3715714E-02  0.1006785E+00  0.1618957E-01 -0.3392136E+00
3127109.  0.4045935E-01  0.6500174E+00 -0.4787753E-02  0.9218275E-01  0.1971324E-01 -0.2945697E+00
3056531.  0.3250986E-01  0.7804441E+00 -0.5743491E-02  0.7972543E-01  0.2266717E-01 -0.2366859E+00
2985953.  0.2327696E-01  0.8813503E+00 -0.6540608E-02  0.6360369E-01  0.2491611E-01 -0.1676690E+00
2915375.  0.1309793E-01  0.9510719E+00 -0.7140589E-02  0.4420604E-01  0.2634977E-01 -0.8991768E-01
2844797.  0.2322477E-02  0.9890103E+00 -0.7509646E-02  0.2199599E-01  0.2688565E-01 -0.6028071E-02
2774219. -0.8698501E-02  0.9955367E+00 -0.7619482E-02 -0.2501181E-02  0.2647064E-01  0.8129840E-01
2703641. -0.1962318E-01  0.9719020E+00 -0.7447901E-02 -0.2871081E-01  0.2508175E-01  0.1693437E+00
2633062. -0.3012815E-01  0.9201292E+00 -0.6979269E-02 -0.5602685E-01  0.2272577E-01  0.2554571E+00
2562484. -0.3991564E-01  0.8428922E+00 -0.6204783E-02 -0.8382487E-01  0.1943824E-01  0.3371266E+00
2491906. -0.4872106E-01  0.7434024E+00 -0.5122595E-02 -0.1114737E+00  0.1528132E-01  0.4120533E+00
2421328. -0.5631768E-01  0.6252918E+00 -0.3737823E-02 -0.1383505E+00  0.1034123E-01  0.4782036E+00
2350750. -0.6252078E-01  0.4924948E+00 -0.2062372E-02 -0.1638546E+00  0.4725029E-02  0.5338595E+00
2280172. -0.6719036E-01  0.3491288E+00 -0.1146398E-03 -0.1874155E+00 -0.1443134E-02  0.5776569E+00
2209594. -0.7023256E-01  0.1993890E+00  0.2080879E-02 -0.2085055E+00 -0.8026075E-02  0.6086114E+00
2139016. -0.7159990E-01  0.4744362E-01  0.4494124E-02 -0.2266489E+00 -0.1487790E-01  0.6261370E+00
2068438. -0.7129052E-01 -0.1026662E+00  0.7090093E-02 -0.2414297E+00 -0.2184847E-01  0.6300520E+00
1997859. -0.6934617E-01 -0.2471071E+00  0.9829565E-02 -0.2524977E+00 -0.2878796E-01  0.6205806E+00
1927281. -0.6584963E-01 -0.3823384E+00  0.1266974E-01 -0.2595773E+00 -0.3555097E-01  0.5983418E+00
1856703. -0.6092090E-01 -0.5051734E+00  0.1556529E-01 -0.2624681E+00 -0.4200134E-01  0.5643349E+00
1786125. -0.5471304E-01 -0.6128470E+00  0.1846906E-01 -0.2610487E+00 -0.4801591E-01  0.5199201E+00
1715547. -0.4740722E-01 -0.7030493E+00  0.2133303E-01 -0.2552836E+00 -0.5348850E-01  0.4667964E+00
1644969. -0.3920757E-01 -0.7739590E+00  0.2410923E-01 -0.2452161E+00 -0.5833351E-01  0.4069811E+00
1574391. -0.3033552E-01 -0.8242644E+00  0.2675061E-01 -0.2309717E+00 -0.6248941E-01  0.3427974E+00
1503812. -0.2102410E-01 -0.8531709E+00  0.2921202E-01 -0.2127609E+00 -0.6592210E-01  0.2768690E+00
1433234. -0.1151268E-01 -0.8603869E+00  0.3145099E-01 -0.1908724E+00 -0.6862818E-01  0.2121446E+00
1362656. -0.2040786E-02 -0.8461054E+00  0.3342878E-01 -0.1656795E+00 -0.7063904E-01  0.1519468E+00
1292078.  0.7156553E-02 -0.8109573E+00  0.3511122E-01 -0.1376284E+00 -0.7202543E-01  0.1000896E+00
1221500.  0.1585340E-01 -0.7559440E+00  0.3646953E-01 -0.1072632E+00 -0.7290396E-01  0.6108642E-01
1221500.  0.1585340E-01  0.3886476E+01  0.2178210E+00  0.1053406E+01 -0.7290396E-01  0.5421866E-01
1183328. -0.8010685E-02  0.4021555E+01  0.2056680E+00  0.2990484E+01 -0.7299549E-01 -0.2314828E-01
1145156. -0.3161027E-01  0.3792960E+01  0.1822721E+00  0.4784486E+01 -0.7263319E-01 -0.9720768E-01
1106984. -0.5269225E-01  0.3179343E+01  0.1488728E+00  0.6309900E+01 -0.7183803E-01 -0.1675749E+00
1068812. -0.6893846E-01  0.2180604E+01  0.1074159E+00  0.7457760E+01 -0.7063327E-01 -0.2338698E+00
1030641. -0.7809646E-01  0.8189274E+00  0.6043334E-01  0.8142922E+01 -0.6904448E-01 -0.2957220E+00
 992469. -0.7811355E-01 -0.8615794E+00  0.1087748E-01  0.8309742E+01 -0.6709924E-01 -0.3527813E+00
 954297. -0.6726376E-01 -0.2796041E+01 -0.3806012E-01  0.7935667E+01 -0.6482732E-01 -0.4047131E+00
 916125. -0.4426564E-01 -0.4901565E+01 -0.8315776E-01  0.7032889E+01 -0.6226038E-01 -0.4512164E+00
 877953. -0.8379787E-02 -0.7080778E+01 -0.1213701E+00  0.5647773E+01 -0.5943175E-01 -0.4920243E+00
 839781.  0.4051739E-01 -0.9226305E+01 -0.1500248E+00  0.3857813E+01 -0.5637624E-01 -0.5269139E+00
 801609.  0.1018889E+00 -0.1122590E+02 -0.1669966E+00  0.1767188E+01 -0.5312987E-01 -0.5557121E+00
 763438.  0.1745219E+00 -0.1296782E+02 -0.1708478E+00 -0.4998210E+00 -0.4972960E-01 -0.5783008E+00
 725266.  0.2565565E+00 -0.1434674E+02 -0.1609274E+00 -0.2806449E+01 -0.4621267E-01 -0.5946224E+00
 687094.  0.3455272E+00 -0.1526872E+02 -0.1374208E+00 -0.5011573E+01 -0.4261673E-01 -0.6046751E+00
 648922.  0.4384555E+00 -0.1565656E+02 -0.1013500E+00 -0.6978426E+01 -0.3897918E-01 -0.6085290E+00
 610750.  0.5319609E+00 -0.1545393E+02 -0.5452280E-01 -0.8582901E+01 -0.3533683E-01 -0.6063047E+00
 572578.  0.6223967E+00 -0.1462874E+02  0.5664382E-03 -0.9721050E+01 -0.3172557E-01 -0.5981849E+00
 534406.  0.7060025E+00 -0.1317544E+02  0.6087703E-01 -0.1031538E+02 -0.2818004E-01 -0.5844110E+00
 496234.  0.7790672E+00 -0.1111601E+02  0.1229955E+00 -0.1031960E+02 -0.2473326E-01 -0.5652686E+00
 458062.  0.8380933E+00 -0.8499800E+01  0.1833321E+00 -0.9721461E+01 -0.2141648E-01 -0.5410784E+00
 419891.  0.8799568E+00 -0.5402008E+01  0.2383271E+00 -0.8543717E+01 -0.1825892E-01 -0.5122062E+00
 381719.  0.9020576E+00 -0.1920674E+01  0.2846634E+00 -0.6842770E+01 -0.1528737E-01 -0.4790287E+00
 343547.  0.9024401E+00  0.1826724E+01  0.3194518E+00 -0.4705775E+01 -0.1252648E-01 -0.4419548E+00
 305375.  0.8798992E+00  0.5708353E+01  0.3404060E+00 -0.2245489E+01 -0.9998378E-02 -0.4013900E+00
 267203.  0.8340493E+00  0.9583442E+01  0.3459771E+00  0.4058799E+00 -0.7722732E-02 -0.3577559E+00
 229031.  0.7653603E+00  0.1330830E+02  0.3354475E+00  0.3104520E+01 -0.5716678E-02 -0.3114662E+00
 190859.  0.6751564E+00  0.1674236E+02  0.3089761E+00  0.5702789E+01 -0.3994922E-02 -0.2629225E+00
 152688.  0.5655823E+00  0.1975439E+02  0.2675981E+00  0.8057903E+01 -0.2569807E-02 -0.2125246E+00
 114516.  0.4395171E+00  0.2222832E+02  0.2131643E+00  0.1004030E+02 -0.1451198E-02 -0.1606606E+00
  76344.  0.3004879E+00  0.2406770E+02  0.1482499E+00  0.1154018E+02 -0.6467781E-03 -0.1077084E+00
  38172.  0.1525254E+00  0.2520075E+02  0.7600962E-01  0.1247402E+02 -0.1619585E-03 -0.5404063E-01
      0.  0.0000000E+00  0.2558490E+02  0.0000000E+00  0.1279228E+02  0.0000000E+00  0.0000000E+00
