      14        1 S      599        202.99060        131.46809         25.83258         87.98602      185    7
6371000.  0.1783382E-01 -0.1454295E-01 -0.6581363E-03 -0.1849196E-01 -0.5229390E-11 -0.3363042E-01
6370000.  0.1783585E-01 -0.1128558E-01 -0.6552023E-03 -0.1889417E-01  0.5278949E-05 -0.3363385E-01
6369000.  0.1783737E-01 -0.8026776E-02 -0.6522052E-03 -0.1929356E-01  0.1055837E-04 -0.3363633E-01
6368000.  0.1783837E-01 -0.4766627E-02 -0.6491457E-03 -0.1969009E-01  0.1583810E-04 -0.3363784E-01
6368000.  0.1783837E-01 -0.4766627E-02 -0.6491457E-03 -0.1969009E-01  0.1583810E-04 -0.3363784E-01
6367000.  0.1783886E-01 -0.1505229E-02 -0.6460242E-03 -0.2008372E-01  0.2111799E-04 -0.3363839E-01
6366000.  0.1783884E-01  0.1757326E-02 -0.6428411E-03 -0.2047442E-01  0.2639789E-04 -0.3363797E-01
6365000.  0.1783831E-01  0.5020944E-02 -0.6395970E-03 -0.2086214E-01  0.3167765E-04 -0.3363660E-01
6364000.  0.1783727E-01  0.8285531E-02 -0.6362922E-03 -0.2124685E-01  0.3695713E-04 -0.3363426E-01
6363000.  0.1783571E-01  0.1155099E-01 -0.6329273E-03 -0.2162850E-01  0.4223616E-04 -0.3363096E-01
6362000.  0.1783364E-01  0.1481724E-01 -0.6295026E-03 -0.2200707E-01  0.4751459E-04 -0.3362670E-01
6361000.  0.1783106E-01  0.1808417E-01 -0.6260189E-03 -0.2238252E-01  0.5279228E-04 -0.3362148E-01
6360000.  0.1782796E-01  0.2135170E-01 -0.6224765E-03 -0.2275480E-01  0.5806908E-04 -0.3361528E-01
6359000.  0.1782436E-01  0.2461973E-01 -0.6188758E-03 -0.2312389E-01  0.6334482E-04 -0.3360813E-01
6358000.  0.1782023E-01  0.2788817E-01 -0.6152175E-03 -0.2348974E-01  0.6861937E-04 -0.3360001E-01
6357000.  0.1781560E-01  0.3115692E-01 -0.6115020E-03 -0.2385232E-01  0.7389257E-04 -0.3359093E-01
6356000.  0.1781045E-01  0.3442588E-01 -0.6077299E-03 -0.2421159E-01  0.7916427E-04 -0.3358088E-01
6356000.  0.1781045E-01  0.1922140E-01 -0.6077299E-03 -0.2193229E-01  0.7916427E-04 -0.3745623E-01
6355000.  0.1780725E-01  0.2159703E-01 -0.6042686E-03 -0.2217113E-01  0.8504290E-04 -0.3744912E-01
6354000.  0.1780367E-01  0.2397300E-01 -0.6007700E-03 -0.2240788E-01  0.9092034E-04 -0.3744122E-01
6353000.  0.1779972E-01  0.2634928E-01 -0.5972344E-03 -0.2264252E-01  0.9679650E-04 -0.3743255E-01
6352000.  0.1779540E-01  0.2872581E-01 -0.5936621E-03 -0.2287503E-01  0.1026712E-03 -0.3742309E-01
6351000.  0.1779071E-01  0.3110254E-01 -0.5900536E-03 -0.2310541E-01  0.1085444E-03 -0.3741285E-01
6350000.  0.1778564E-01  0.3347942E-01 -0.5864089E-03 -0.2333363E-01  0.1144159E-03 -0.3740184E-01
6349000.  0.1778020E-01  0.3585640E-01 -0.5827287E-03 -0.2355969E-01  0.1202856E-03 -0.3739004E-01
6348000.  0.1777438E-01  0.3823344E-01 -0.5790131E-03 -0.2378355E-01  0.1261534E-03 -0.3737746E-01
6347000.  0.1776819E-01  0.4061048E-01 -0.5752626E-03 -0.2400522E-01  0.1320192E-03 -0.3736410E-01
6346600.  0.1776562E-01  0.4156128E-01 -0.5737527E-03 -0.2409328E-01  0.1343649E-03 -0.3735854E-01
6346600.  0.1776562E-01  0.1869870E-01 -0.5737527E-03 -0.2224698E-01  0.1343649E-03 -0.4355315E-01
6318800.  0.1757957E-01  0.6669950E-01 -0.4672619E-03 -0.2632744E-01  0.3234954E-03 -0.4304912E-01
6291000.  0.1718284E-01  0.1151721E+00 -0.3461512E-03 -0.2892549E-01  0.5093132E-03 -0.4203428E-01
6291000.  0.1718284E-01  0.1166460E+00 -0.3461512E-03 -0.2935300E-01  0.5093132E-03 -0.4203428E-01
6263000.  0.1656137E-01  0.1660907E+00 -0.2142426E-03 -0.3038743E-01  0.6908173E-03 -0.4047561E-01
6235000.  0.1572405E-01  0.2147712E+00 -0.8158824E-04 -0.2969239E-01  0.8643250E-03 -0.3839698E-01
6207000.  0.1467565E-01  0.2620350E+00  0.4426682E-04 -0.2730588E-01  0.1027577E-02 -0.3581132E-01
6179000.  0.1342385E-01  0.3072215E+00  0.1561089E-03 -0.2334020E-01  0.1178386E-02 -0.3273840E-01
6151000.  0.1197925E-01  0.3496641E+00  0.2473730E-03 -0.1797718E-01  0.1314667E-02 -0.2920514E-01
6151000.  0.1197925E-01  0.2797837E+00  0.2473730E-03 -0.1726176E-01  0.1314667E-02 -0.2986790E-01
6128500.  0.1095590E-01  0.2993782E+00  0.3005795E-03 -0.1278405E-01  0.1415919E-02 -0.2744018E-01
6106000.  0.9867390E-02  0.3166815E+00  0.3371419E-03 -0.7857849E-02  0.1508270E-02 -0.2483065E-01
6083500.  0.8721895E-02  0.3316399E+00  0.3557119E-03 -0.2617763E-02  0.1591112E-02 -0.2205763E-01
6061000.  0.7527769E-02  0.3442169E+00  0.3554269E-03  0.2796406E-02  0.1663899E-02 -0.1914033E-01
6038500.  0.6293459E-02  0.3543960E+00  0.3359221E-03  0.8243113E-02  0.1726158E-02 -0.1609829E-01
6016000.  0.5027441E-02  0.3621748E+00  0.2973305E-03  0.1358238E-01  0.1777482E-02 -0.1295149E-01
5993500.  0.3738173E-02  0.3675664E+00  0.2402726E-03  0.1867879E-01  0.1817538E-02 -0.9720276E-02
5971000.  0.2434034E-02  0.3706030E+00  0.1658341E-03  0.2340472E-01  0.1846064E-02 -0.6425001E-02
5971000.  0.2434034E-02  0.3350991E+00  0.1658341E-03  0.2055968E-01  0.1846064E-02 -0.6743637E-02
5937667.  0.7019459E-03  0.3263943E+00  0.4583737E-04  0.2510060E-01  0.1869230E-02 -0.2114583E-02
5904333. -0.9754684E-03  0.3142702E+00 -0.9454092E-04  0.2833573E-01  0.1868264E-02  0.2472324E-02
5871000. -0.2581601E-02  0.2992502E+00 -0.2483105E-03  0.3021929E-01  0.1843521E-02  0.6966710E-02
5837667. -0.4102656E-02  0.2818286E+00 -0.4084274E-03  0.3076999E-01  0.1795604E-02  0.1132396E-01
5804333. -0.5527341E-02  0.2624695E+00 -0.5680899E-03  0.3005941E-01  0.1725334E-02  0.1550463E-01
5771000. -0.6846565E-02  0.2416003E+00 -0.7209684E-03  0.2820023E-01  0.1633730E-02  0.1947414E-01
5771000. -0.6846565E-02  0.2416042E+00 -0.7209684E-03  0.2819952E-01  0.1633730E-02  0.1947414E-01
5701000. -0.9322731E-02  0.2076113E+00 -0.1002702E-02  0.2228693E-01  0.1378944E-02  0.2673847E-01
5701000. -0.9322731E-02  0.1725043E+00 -0.1002702E-02  0.1955420E-01  0.1378944E-02  0.2936621E-01
5667333. -0.1016420E-01  0.1475625E+00 -0.1093936E-02  0.1506528E-01  0.1216350E-02  0.3211983E-01
5633667. -0.1089536E-01  0.1295462E+00 -0.1161983E-02  0.1061179E-01  0.1039875E-02  0.3463542E-01
5600000. -0.1153081E-01  0.1107516E+00 -0.1205182E-02  0.5668180E-02  0.8508101E-03  0.3686896E-01
5600000. -0.1153081E-01  0.1107516E+00 -0.1205182E-02  0.5668180E-02  0.8508101E-03  0.3686896E-01
5563518. -0.1210502E-01  0.8970232E-01 -0.1221291E-02 -0.9967601E-04  0.6335683E-03  0.3894542E-01
5527037. -0.1255718E-01  0.6816684E-01 -0.1203542E-02 -0.6128583E-02  0.4055115E-03  0.4064578E-01
5490556. -0.1288513E-01  0.4634998E-01 -0.1150946E-02 -0.1224084E-01  0.1688290E-03  0.4195635E-01
5454074. -0.1308784E-01  0.2445317E-01 -0.1063542E-02 -0.1825549E-01 -0.7422668E-04  0.4286790E-01
5417593. -0.1316541E-01  0.2677397E-02 -0.9423929E-03 -0.2399997E-01 -0.3213304E-03  0.4337163E-01
5381111. -0.1311908E-01 -0.1879214E-01 -0.7895234E-03 -0.2930602E-01 -0.5701525E-03  0.4346574E-01
5344630. -0.1295112E-01 -0.3977633E-01 -0.6079012E-03 -0.3402049E-01 -0.8183347E-03  0.4315066E-01
5308148. -0.1266477E-01 -0.6011520E-01 -0.4012886E-03 -0.3801153E-01 -0.1063554E-02  0.4242951E-01
5271667. -0.1226421E-01 -0.7964603E-01 -0.1741920E-03 -0.4115956E-01 -0.1303495E-02  0.4131132E-01
5235185. -0.1175444E-01 -0.9823516E-01  0.6831086E-04 -0.4337835E-01 -0.1535926E-02  0.3980591E-01
5198704. -0.1114122E-01 -0.1157588E+00  0.3206983E-03 -0.4460489E-01 -0.1758653E-02  0.3792679E-01
5162222. -0.1043102E-01 -0.1320850E+00  0.5771597E-03 -0.4479503E-01 -0.1969600E-02  0.3569255E-01
5125741. -0.9630984E-02 -0.1471319E+00  0.8317246E-03 -0.4394646E-01 -0.2166774E-02  0.3312125E-01
5089259. -0.8748639E-02 -0.1608074E+00  0.1078496E-02 -0.4207489E-01 -0.2348316E-02  0.3023531E-01
5052778. -0.7792156E-02 -0.1730257E+00  0.1311705E-02 -0.3922159E-01 -0.2512488E-02  0.2706008E-01
5016296. -0.6769951E-02 -0.1837446E+00  0.1525941E-02 -0.3545967E-01 -0.2657713E-02  0.2362107E-01
4979815. -0.5690842E-02 -0.1929015E+00  0.1716235E-02 -0.3087775E-01 -0.2782557E-02  0.1994736E-01
4943333. -0.4563830E-02 -0.2004637E+00  0.1878209E-02 -0.2558703E-01 -0.2885766E-02  0.1606877E-01
4906852. -0.3398129E-02 -0.2064207E+00  0.2008161E-02 -0.1971668E-01 -0.2966251E-02  0.1201638E-01
4870370. -0.2202977E-02 -0.2107367E+00  0.2103165E-02 -0.1340354E-01 -0.3023113E-02  0.7822868E-02
4833889. -0.9878058E-03 -0.2134293E+00  0.2161107E-02 -0.6798638E-02 -0.3055636E-02  0.3521462E-02
4797407.  0.2382108E-03 -0.2145116E+00  0.2180760E-02 -0.5509616E-04 -0.3063299E-02 -0.8544336E-03
4760926.  0.1465754E-02 -0.2139788E+00  0.2161769E-02  0.6672535E-02 -0.3045774E-02 -0.5270414E-02
4724444.  0.2685789E-02 -0.2118861E+00  0.2104662E-02  0.1323306E-01 -0.3002928E-02 -0.9692469E-02
4687963.  0.3889413E-02 -0.2082617E+00  0.2010817E-02  0.1948137E-01 -0.2934827E-02 -0.1408659E-01
4651482.  0.5067976E-02 -0.2031430E+00  0.1882413E-02  0.2528230E-01 -0.2841723E-02 -0.1841952E-01
4615000.  0.6213157E-02 -0.1966010E+00  0.1722355E-02  0.3051697E-01 -0.2724059E-02 -0.2265810E-01
4578518.  0.7316909E-02 -0.1886821E+00  0.1534203E-02  0.3507826E-01 -0.2582471E-02 -0.2677073E-01
4542037.  0.8371509E-02 -0.1794582E+00  0.1322077E-02  0.3888032E-01 -0.2417772E-02 -0.3072627E-01
4505556.  0.9369761E-02 -0.1690120E+00  0.1090509E-02  0.4185918E-01 -0.2230945E-02 -0.3449469E-01
4469074.  0.1030486E-01 -0.1574039E+00  0.8443589E-03  0.4396536E-01 -0.2023133E-02 -0.3804920E-01
4432593.  0.1117037E-01 -0.1447339E+00  0.5887045E-03  0.4517994E-01 -0.1795654E-02 -0.4136193E-01
4396111.  0.1196053E-01 -0.1310891E+00  0.3286451E-03  0.4550235E-01 -0.1549950E-02 -0.4440843E-01
4359630.  0.1266994E-01 -0.1165520E+00  0.6926986E-04  0.4494890E-01 -0.1287622E-02 -0.4716706E-01
4323148.  0.1329383E-01 -0.1012317E+00 -0.1845443E-03  0.4356661E-01 -0.1010368E-02 -0.4961540E-01
4286667.  0.1382796E-01 -0.8522312E-01 -0.4281980E-03  0.4141338E-01 -0.7200345E-03 -0.5173581E-01
4250185.  0.1426870E-01 -0.6862705E-01 -0.6574978E-03  0.3856574E-01 -0.4185270E-03 -0.5351243E-01
4213704.  0.1461299E-01 -0.5155366E-01 -0.8687272E-03  0.3512048E-01 -0.1078771E-03 -0.5492986E-01
4177222.  0.1485839E-01 -0.3410583E-01 -0.1058760E-02  0.3117830E-01  0.2098454E-03 -0.5597813E-01
4140741.  0.1500307E-01 -0.1639437E-01 -0.1225066E-02  0.2685540E-01  0.5324808E-03 -0.5664729E-01
4104259.  0.1504584E-01  0.1473580E-02 -0.1365825E-02  0.2227420E-01  0.8578522E-03 -0.5692990E-01
4067778.  0.1498612E-01  0.1938399E-01 -0.1479891E-02  0.1755391E-01  0.1183722E-02 -0.5682404E-01
4031296.  0.1482396E-01  0.3723185E-01 -0.1566838E-02  0.1282218E-01  0.1507872E-02 -0.5632592E-01
3994815.  0.1456005E-01  0.5490840E-01 -0.1626945E-02  0.8199579E-02  0.1828039E-02 -0.5543638E-01
3958333.  0.1419568E-01  0.7229751E-01 -0.1661162E-02  0.3797346E-02  0.2142013E-02 -0.5416069E-01
3921852.  0.1373280E-01  0.8930405E-01 -0.1671065E-02 -0.2753090E-03  0.2447576E-02 -0.5250210E-01
3885370.  0.1317388E-01  0.1058192E+00 -0.1658814E-02 -0.3926070E-02  0.2742572E-02 -0.5046947E-01
3848889.  0.1252207E-01  0.1217369E+00 -0.1627062E-02 -0.7074544E-02  0.3024878E-02 -0.4807369E-01
3812407.  0.1178100E-01  0.1369743E+00 -0.1578880E-02 -0.9654701E-02  0.3292456E-02 -0.4532532E-01
3775926.  0.1095491E-01  0.1514205E+00 -0.1517668E-02 -0.1161962E-01  0.3543318E-02 -0.4224067E-01
3739444.  0.1004854E-01  0.1649967E+00 -0.1447041E-02 -0.1293886E-01  0.3775598E-02 -0.3883525E-01
3702963.  0.9067110E-02  0.1776297E+00 -0.1370744E-02 -0.1360058E-01  0.3987494E-02 -0.3512654E-01
3666482.  0.8016300E-02  0.1892165E+00 -0.1292526E-02 -0.1361263E-01  0.4177338E-02 -0.3113626E-01
3630000.  0.6902220E-02  0.1997109E+00 -0.1216040E-02 -0.1300021E-01  0.4343578E-02 -0.2688444E-01
3630000.  0.6902220E-02  0.1997109E+00 -0.1216040E-02 -0.1300021E-01  0.4343578E-02 -0.2688444E-01
3592500.  0.5697957E-02  0.2092703E+00 -0.1142867E-02 -0.1176551E-01  0.4488348E-02 -0.2226671E-01
3555000.  0.4441242E-02  0.2175270E+00 -0.1078614E-02 -0.9981846E-02  0.4605263E-02 -0.1742451E-01
3517500.  0.3139823E-02  0.2244529E+00 -0.1026278E-02 -0.7730706E-02  0.4693083E-02 -0.1238488E-01
3480000.  0.1801710E-02  0.2299861E+00 -0.9883372E-03 -0.5107871E-02  0.4750730E-02 -0.7177086E-02
3480000.  0.1801710E-02  0.3861628E+00 -0.1199702E-02  0.5516496E-02  0.4750730E-02 -0.1292254E-01
3409422. -0.2487796E-02  0.3839273E+00 -0.1217595E-02 -0.2358763E-02  0.4722587E-02  0.1808904E-01
3338844. -0.6612718E-02  0.3568556E+00 -0.1146750E-02 -0.1042109E-01  0.4351906E-02  0.4857410E-01
3268266. -0.1031364E-01  0.3079728E+00 -0.9878466E-03 -0.1817521E-01  0.3655700E-02  0.7654227E-01
3197688. -0.1337024E-01  0.2412565E+00 -0.7469463E-03 -0.2514922E-01  0.2671910E-02  0.1002215E+00
3127109. -0.1561011E-01  0.1613254E+00 -0.4350982E-03 -0.3091683E-01  0.1456474E-02  0.1181445E+00
3056531. -0.1691417E-01  0.7315510E-01 -0.6775489E-04 -0.3511450E-01  0.7965096E-04  0.1292109E+00
2985953. -0.1721919E-01 -0.1820137E-01  0.3360336E-03 -0.3745585E-01 -0.1378400E-02  0.1327291E+00
2915375. -0.1651725E-01 -0.1078490E+00  0.7545160E-03 -0.3774179E-01 -0.2832185E-02  0.1284316E+00
2844797. -0.1485278E-01 -0.1912600E+00  0.1164250E-02 -0.3586683E-01 -0.4195586E-02  0.1164708E+00
2774219. -0.1231755E-01 -0.2644418E+00  0.1541157E-02 -0.3182172E-01 -0.5386401E-02  0.9739611E-01
2703641. -0.9043951E-02 -0.3240696E+00  0.1861588E-02 -0.2569316E-01 -0.6330532E-02  0.7211286E-01
2633062. -0.5197011E-02 -0.3675812E+00  0.2103372E-02 -0.1765935E-01 -0.6965646E-02  0.4182822E-01
2562484. -0.9658424E-03 -0.3932253E+00  0.2246779E-02 -0.7983322E-02 -0.7244143E-02  0.7989077E-02
2491906.  0.3445846E-02 -0.4000889E+00  0.2275433E-02  0.2995364E-02 -0.7135469E-02 -0.2779208E-01
2421328.  0.7828752E-02 -0.3880811E+00  0.2177091E-02  0.1487212E-01 -0.6627504E-02 -0.6381040E-01
2350750.  0.1197696E-01 -0.3578939E+00  0.1944289E-02  0.2719081E-01 -0.5727172E-02 -0.9834462E-01
2280172.  0.1569623E-01 -0.3109295E+00  0.1574846E-02  0.3945591E-01 -0.4460220E-02 -0.1297304E+00
2209594.  0.1881139E-01 -0.2492155E+00  0.1072220E-02  0.5114729E-01 -0.2870196E-02 -0.1564282E+00
2139016.  0.2117273E-01 -0.1752972E+00  0.4457030E-03  0.6173451E-01 -0.1016734E-02 -0.1770837E+00
2068438.  0.2266106E-01 -0.9211971E-01 -0.2895459E-03  0.7069066E-01  0.1026798E-02 -0.1905788E+00
1997859.  0.2319141E-01 -0.2897672E-02 -0.1112620E-02  0.7750498E-01  0.3176180E-02 -0.1960726E+00
1927281.  0.2271534E-01  0.8901116E-01 -0.1997061E-02  0.8169423E-01  0.5339449E-02 -0.1930282E+00
1856703.  0.2122179E-01  0.1802439E+00 -0.2911292E-02  0.8281227E-01  0.7420548E-02 -0.1812288E+00
1786125.  0.1873635E-01  0.2675600E+00 -0.3819017E-02  0.8045622E-01  0.9322777E-02 -0.1607794E+00
1715547.  0.1531929E-01  0.3479630E+00 -0.4679736E-02  0.7427096E-01  0.1095234E-01 -0.1320956E+00
1644969.  0.1106220E-01  0.4188147E+00 -0.5449277E-02  0.6394678E-01  0.1222165E-01 -0.9587999E-01
1574391.  0.6083399E-02  0.4779400E+00 -0.6080259E-02  0.4921398E-01  0.1305234E-01 -0.5308719E-01
1503812.  0.5222174E-03  0.5237238E+00 -0.6522494E-02  0.2983040E-01  0.1337782E-01 -0.4875840E-02
1433234. -0.5467368E-02  0.5551938E+00 -0.6723143E-02  0.5559067E-02  0.1314519E-01  0.4744520E-01
1362656. -0.1172482E-01  0.5721093E+00 -0.6626638E-02 -0.2386667E-01  0.1231658E-01  0.1024878E+00
1292078. -0.1809131E-01  0.5750481E+00 -0.6174040E-02 -0.5879833E-01  0.1086958E-01  0.1588583E+00
1221500. -0.2441942E-01  0.5655173E+00 -0.5301705E-02 -0.9975021E-01  0.8796866E-02  0.2152462E+00
1221500. -0.2441942E-01  0.2807084E+01  0.2730726E+00  0.1551635E+01  0.8796866E-02  0.2258248E+00
1183328. -0.4133372E-01  0.2783516E+01  0.2479488E+00  0.6795482E+01  0.7459654E-02  0.2203128E+00
1145156. -0.5708383E-01  0.2415056E+01  0.1926992E+00  0.1151124E+02  0.6159557E-02  0.2134428E+00
1106984. -0.6957619E-01  0.1698509E+01  0.1121661E+00  0.1515020E+02  0.4904543E-02  0.2052782E+00
1068812. -0.7680591E-01  0.6669973E+00  0.1421591E-01  0.1726080E+02  0.3702090E-02  0.1959162E+00
1030641. -0.7707704E-01 -0.6097143E+00 -0.9099443E-01  0.1753811E+02  0.2559047E-02  0.1854795E+00
 992469. -0.6921430E-01 -0.2028354E+01 -0.1920207E+00  0.1585908E+02  0.1481372E-02  0.1741119E+00
 954297. -0.5274758E-01 -0.3458083E+01 -0.2772664E+00  0.1230000E+02  0.4741986E-03  0.1619726E+00
 916125. -0.2805113E-01 -0.4749583E+01 -0.3361926E+00  0.7134824E+01 -0.4583303E-03  0.1492225E+00
 877953.  0.3578041E-02 -0.5746150E+01 -0.3604460E+00  0.8139724E+00 -0.1313035E-02  0.1360202E+00
 839781.  0.3991274E-01 -0.6296131E+01 -0.3448068E+00 -0.6074614E+01 -0.2087650E-02  0.1225113E+00
 801609.  0.7786453E-01 -0.6265809E+01 -0.2878624E+00 -0.1285782E+02 -0.2780730E-02  0.1088227E+00
 763438.  0.1136273E+00 -0.5551607E+01 -0.1923385E+00 -0.1883882E+02 -0.3391506E-02  0.9505799E-01
 725266.  0.1428946E+00 -0.4090650E+01 -0.6503464E-01 -0.2336299E+02 -0.3919798E-02  0.8129507E-01
 687094.  0.1611232E+00 -0.1868917E+01  0.8359974E-01 -0.2587887E+02 -0.4365785E-02  0.6759064E-01
 648922.  0.1638463E+00  0.1073909E+01  0.2402641E+00 -0.2599354E+02 -0.4729916E-02  0.5397512E-01
 610750.  0.1469995E+00  0.4643339E+01  0.3898837E+00 -0.2351314E+02 -0.5012792E-02  0.4046892E-01
 572578.  0.1072426E+00  0.8692901E+01  0.5168830E+00 -0.1846669E+02 -0.5215100E-02  0.2708217E-01
 534406.  0.4225316E-01  0.1303084E+02  0.6065439E+00 -0.1111064E+02 -0.5337581E-02  0.1382424E-01
 496234. -0.4903182E-01  0.1743036E+02  0.6463332E+00 -0.1913522E+01 -0.5381058E-02  0.7142161E-03
 458062. -0.1662436E+00  0.2164280E+02  0.6270790E+00  0.8478197E+01 -0.5346513E-02 -0.1221289E-01
 419891. -0.3074914E+00  0.2541269E+02  0.5438974E+00  0.1928992E+02 -0.5235206E-02 -0.2489865E-01
 381719. -0.4693866E+00  0.2849443E+02  0.3967668E+00  0.2968196E+02 -0.5048808E-02 -0.3726165E-01
 343547. -0.6471260E+00  0.3066784E+02  0.1907338E+00  0.3881608E+02 -0.4789582E-02 -0.4918840E-01
 305375. -0.8347065E+00  0.3175371E+02 -0.6431786E-01  0.4592650E+02 -0.4460528E-02 -0.6054500E-01
 267203. -0.1025206E+01  0.3162622E+02 -0.3542928E+00  0.5038297E+02 -0.4065548E-02 -0.7116606E-01
 229031. -0.1211133E+01  0.3022284E+02 -0.6618659E+00  0.5174570E+02 -0.3609576E-02 -0.8087376E-01
 190859. -0.1384828E+01  0.2754979E+02 -0.9677457E+00  0.4980284E+02 -0.3098616E-02 -0.8949219E-01
 152688. -0.1538874E+01  0.2368394E+02 -0.1252106E+01  0.4459226E+02 -0.2539733E-02 -0.9684554E-01
 114516. -0.1666531E+01  0.1876905E+02 -0.1496121E+01  0.3640067E+02 -0.1941011E-02 -0.1027576E+00
  76344. -0.1762093E+01  0.1300914E+02 -0.1683361E+01  0.2574399E+02 -0.1311570E-02 -0.1070771E+00
  38172. -0.1821235E+01  0.6657114E+01 -0.1801092E+01  0.1332918E+02 -0.6613896E-03 -0.1096267E+00
      0. -0.1841178E+01  0.0000000E+00 -0.1841023E+01  0.0000000E+00  0.0000000E+00 -0.1107679E+00
