      17       12 S      661        109.03380         29.37085         11.54827        551.73322      185    7
6371000. -0.3051244E-01  0.1816999E+00  0.2572640E-02  0.3308508E-01 -0.3201991E-04  0.5795559E-01
6370000. -0.3053942E-01  0.1620733E+00  0.2567038E-02  0.3828482E-01 -0.4111152E-04  0.5788880E-01
6369000. -0.3056332E-01  0.1423362E+00  0.2560623E-02  0.4346705E-01 -0.5019223E-04  0.5781663E-01
6368000. -0.3058410E-01  0.1224908E+00  0.2553394E-02  0.4863011E-01 -0.5926118E-04  0.5773909E-01
6368000. -0.3058410E-01  0.1224908E+00  0.2553394E-02  0.4863011E-01 -0.5926118E-04  0.5773909E-01
6367000. -0.3060176E-01  0.1025392E+00  0.2545357E-02  0.5377233E-01 -0.6831755E-04  0.5765618E-01
6366000. -0.3061628E-01  0.8248390E-01  0.2536515E-02  0.5889206E-01 -0.7736047E-04  0.5756790E-01
6365000. -0.3062765E-01  0.6232703E-01  0.2526871E-02  0.6398764E-01 -0.8638912E-04  0.5747427E-01
6364000. -0.3063584E-01  0.4207101E-01  0.2516429E-02  0.6905744E-01 -0.9540265E-04  0.5737529E-01
6363000. -0.3064085E-01  0.2171822E-01  0.2505194E-02  0.7409982E-01 -0.1044002E-03  0.5727096E-01
6362000. -0.3064266E-01  0.1271087E-02  0.2493169E-02  0.7911316E-01 -0.1133810E-03  0.5716131E-01
6361000. -0.3064125E-01 -0.1926793E-01  0.2480360E-02  0.8409585E-01 -0.1223442E-03  0.5704633E-01
6360000. -0.3063660E-01 -0.3989633E-01  0.2466771E-02  0.8904628E-01 -0.1312889E-03  0.5692603E-01
6359000. -0.3062872E-01 -0.6061158E-01  0.2452408E-02  0.9396286E-01 -0.1402143E-03  0.5680043E-01
6358000. -0.3061757E-01 -0.8141109E-01  0.2437276E-02  0.9884398E-01 -0.1491195E-03  0.5666954E-01
6357000. -0.3060316E-01 -0.1022923E+00  0.2421381E-02  0.1036881E+00 -0.1580038E-03  0.5653336E-01
6356000. -0.3058546E-01 -0.1232524E+00  0.2404728E-02  0.1084937E+00 -0.1668663E-03  0.5639191E-01
6356000. -0.3058546E-01 -0.4210000E-01  0.2404728E-02  0.7859463E-01 -0.1668663E-03  0.6304695E-01
6355000. -0.3057766E-01 -0.5723228E-01  0.2392143E-02  0.8176738E-01 -0.1767516E-03  0.6291053E-01
6354000. -0.3056749E-01 -0.7241755E-01  0.2379061E-02  0.8491920E-01 -0.1866151E-03  0.6276996E-01
6353000. -0.3055493E-01 -0.8765441E-01  0.2365486E-02  0.8804942E-01 -0.1964563E-03  0.6262524E-01
6352000. -0.3053997E-01 -0.1029415E+00  0.2351421E-02  0.9115738E-01 -0.2062744E-03  0.6247637E-01
6351000. -0.3052261E-01 -0.1182773E+00  0.2336870E-02  0.9424238E-01 -0.2160688E-03  0.6232339E-01
6350000. -0.3050284E-01 -0.1336605E+00  0.2321838E-02  0.9730379E-01 -0.2258389E-03  0.6216628E-01
6349000. -0.3048065E-01 -0.1490895E+00  0.2306326E-02  0.1003409E+00 -0.2355840E-03  0.6200506E-01
6348000. -0.3045603E-01 -0.1645630E+00  0.2290339E-02  0.1033532E+00 -0.2453035E-03  0.6183974E-01
6347000. -0.3042898E-01 -0.1800793E+00  0.2273883E-02  0.1063398E+00 -0.2549966E-03  0.6167033E-01
6346600. -0.3041748E-01 -0.1862976E+00  0.2267169E-02  0.1075272E+00 -0.2588664E-03  0.6160143E-01
6346600. -0.3041748E-01 -0.3671871E-01  0.2267169E-02  0.8325478E-01 -0.2588664E-03  0.7220756E-01
6318800. -0.2955041E-01 -0.3652895E+00  0.1775905E-02  0.1390760E+00 -0.5631470E-03  0.6683886E-01
6291000. -0.2720521E-01 -0.7104657E+00  0.1082866E-02  0.1747613E+00 -0.8386259E-03  0.5903518E-01
6291000. -0.2720521E-01 -0.7184278E+00  0.1082866E-02  0.1796724E+00 -0.8386259E-03  0.5903518E-01
6263000. -0.2327853E-01 -0.1064819E+01  0.2585743E-03  0.1908228E+00 -0.1076444E-02  0.4883216E-01
6235000. -0.1789920E-01 -0.1374679E+01 -0.5538221E-03  0.1743797E+00 -0.1264977E-02  0.3666930E-01
6207000. -0.1129002E-01 -0.1620049E+01 -0.1237403E-02  0.1329393E+00 -0.1396500E-02  0.2296589E-01
6179000. -0.3789554E-02 -0.1776704E+01 -0.1694398E-02  0.7251630E-01 -0.1465321E-02  0.8225882E-02
6151000.  0.4170627E-02 -0.1826986E+01 -0.1859536E-02  0.1715633E-02 -0.1468124E-02 -0.6976701E-02
6151000.  0.4170627E-02 -0.1497826E+01 -0.1859536E-02  0.7541645E-03 -0.1468124E-02 -0.7207443E-02
6128500.  0.9369778E-02 -0.1437788E+01 -0.1772248E-02 -0.4973260E-01 -0.1425730E-02 -0.1674535E-01
6106000.  0.1426619E-01 -0.1327099E+01 -0.1513804E-02 -0.9552753E-01 -0.1350347E-02 -0.2585891E-01
6083500.  0.1869013E-01 -0.1171351E+01 -0.1107291E-02 -0.1330409E+00 -0.1243792E-02 -0.3437001E-01
6061000.  0.2249571E-01 -0.9783767E+00 -0.5872662E-03 -0.1594032E+00 -0.1108482E-02 -0.4211855E-01
6038500.  0.2556795E-01 -0.7577513E+00  0.3147392E-05 -0.1726616E+00 -0.9473625E-03 -0.4896409E-01
6016000.  0.2782784E-01 -0.5201640E+00  0.6157390E-03 -0.1718995E+00 -0.7638397E-03 -0.5478800E-01
5993500.  0.2923511E-01 -0.2767548E+00  0.1200954E-02 -0.1572727E+00 -0.5616963E-03 -0.5949524E-01
5971000.  0.2978864E-01 -0.3844197E-01  0.1711638E-02 -0.1299705E+00 -0.3450100E-03 -0.6301378E-01
5971000.  0.2978864E-01 -0.2771796E-01  0.1711638E-02 -0.1189525E+00 -0.3450100E-03 -0.6691337E-01
5937667.  0.2912735E-01  0.2708088E+00  0.2193814E-02 -0.6334411E-01  0.1542712E-04 -0.7042239E-01
5904333.  0.2706926E-01  0.5040304E+00  0.2361741E-02 -0.4238914E-03  0.3873158E-03 -0.7130577E-01
5871000.  0.2398169E-01  0.6637987E+00  0.2201626E-02  0.6061517E-01  0.7572604E-03 -0.6971425E-01
5837667.  0.2025028E-01  0.7509468E+00  0.1744316E-02  0.1120679E+00  0.1112853E-02 -0.6585852E-01
5804333.  0.1623649E-01  0.7735308E+00  0.1055349E-02  0.1484565E+00  0.1442903E-02 -0.5999188E-01
5771000.  0.1224588E-01  0.7445980E+00  0.2224085E-03  0.1668334E+00  0.1737604E-02 -0.5239851E-01
5771000.  0.1224588E-01  0.7446086E+00  0.2224085E-03  0.1668275E+00  0.1737604E-02 -0.5239851E-01
5701000.  0.4614868E-02  0.6270880E+00 -0.1636869E-02  0.1580654E+00  0.2201767E-02 -0.3115164E-01
5701000.  0.4614868E-02  0.5053492E+00 -0.1636869E-02  0.1235427E+00  0.2201767E-02 -0.3245241E-01
5667333.  0.2170755E-02  0.4257171E+00 -0.2201208E-02  0.9072995E-01  0.2344605E-02 -0.2157141E-01
5633667.  0.5933586E-04  0.3764161E+00 -0.2598352E-02  0.5898311E-01  0.2429128E-02 -0.1034825E-01
5600000. -0.1822521E-02  0.3376940E+00 -0.2815129E-02  0.2247298E-01  0.2453426E-02  0.1175591E-02
5600000. -0.1822521E-02  0.3376940E+00 -0.2815129E-02  0.2247298E-01  0.2453426E-02  0.1175591E-02
5563518. -0.3674852E-02  0.3124199E+00 -0.2825501E-02 -0.1882917E-01  0.2410877E-02  0.1365698E-01
5527037. -0.5437522E-02  0.3064303E+00 -0.2603557E-02 -0.5801445E-01  0.2297675E-02  0.2579709E-01
5490556. -0.7218317E-02  0.3182186E+00 -0.2172243E-02 -0.9138797E-01  0.2116725E-02  0.3726696E-01
5454074. -0.9107083E-02  0.3431340E+00 -0.1573862E-02 -0.1159331E+00  0.1872740E-02  0.4776296E-01
5417593. -0.1115983E-01  0.3741761E+00 -0.8653480E-03 -0.1296110E+00  0.1572110E-02  0.5701196E-01
5381111. -0.1338743E-01  0.4026693E+00 -0.1121104E-03 -0.1314884E+00  0.1222639E-02  0.6478377E-01
5344630. -0.1574898E-01  0.4194828E+00  0.6183771E-03 -0.1218105E+00  0.8333640E-03  0.7089086E-01
5308148. -0.1815285E-01  0.4161102E+00  0.1263377E-02 -0.1019299E+00  0.4142170E-03  0.7519460E-01
5271667. -0.2046241E-01  0.3855987E+00  0.1770507E-02 -0.7410466E-01 -0.2418359E-04  0.7760970E-01
5235185. -0.2250836E-01  0.3235201E+00  0.2102492E-02 -0.4128478E-01 -0.4709194E-03  0.7809964E-01
5198704. -0.2410430E-01  0.2284756E+00  0.2240096E-02 -0.6776781E-02 -0.9149589E-03  0.7667939E-01
5162222. -0.2506542E-01  0.1023880E+00  0.2183255E-02  0.2608649E-01 -0.1345561E-02  0.7341678E-01
5125741. -0.2522733E-01 -0.4954444E-01  0.1950369E-02  0.5424253E-01 -0.1752435E-02  0.6841704E-01
5089259. -0.2446392E-01 -0.2192414E+00  0.1575838E-02  0.7519945E-01 -0.2126065E-02  0.6182970E-01
5052778. -0.2270230E-01 -0.3963429E+00  0.1106252E-02  0.8723309E-01 -0.2457854E-02  0.5383950E-01
5016296. -0.1993285E-01 -0.5692229E+00  0.5954457E-03  0.8953575E-01 -0.2740368E-02  0.4465318E-01
4979815. -0.1621456E-01 -0.7257949E+00  0.9922840E-04  0.8224351E-01 -0.2967398E-02  0.3450251E-01
4943333. -0.1167369E-01 -0.8547233E+00 -0.3300691E-03  0.6640310E-01 -0.3134125E-02  0.2363002E-01
4906852. -0.6497287E-02 -0.9463849E+00 -0.6483865E-03  0.4384442E-01 -0.3237115E-02  0.1228399E-01
4870370. -0.9206013E-03 -0.9935292E+00 -0.8239425E-03  0.1697768E-01 -0.3274376E-02  0.7133880E-03
4833889.  0.4788204E-02 -0.9922192E+00 -0.8398835E-03 -0.1142725E-01 -0.3245321E-02 -0.1083942E-01
4797407.  0.1034894E-01 -0.9419551E+00 -0.6955884E-03 -0.3851878E-01 -0.3150711E-02 -0.2214540E-01
4760926.  0.1548772E-01 -0.8456936E+00 -0.4064195E-03 -0.6160935E-01 -0.2992585E-02 -0.3299096E-01
4724444.  0.1995846E-01 -0.7099066E+00 -0.2028756E-05 -0.7842518E-01 -0.2774138E-02 -0.4318116E-01
4687963.  0.2355971E-01 -0.5437580E+00  0.4765019E-03 -0.8728626E-01 -0.2499638E-02 -0.5254515E-01
4651482.  0.2614911E-01 -0.3585033E+00  0.9805481E-03 -0.8724573E-01 -0.2174236E-02 -0.6093727E-01
4615000.  0.2765278E-01 -0.1666475E+00  0.1458360E-02 -0.7816191E-01 -0.1803856E-02 -0.6823353E-01
4578518.  0.2806924E-01  0.1915643E-01  0.1859625E-02 -0.6068186E-01 -0.1395063E-02 -0.7433996E-01
4542037.  0.2746784E-01  0.1869935E+00  0.2139877E-02 -0.3618238E-01 -0.9548964E-03 -0.7918524E-01
4505556.  0.2598171E-01  0.3266558E+00  0.2264323E-02 -0.6630800E-02 -0.4907186E-03 -0.8272126E-01
4469074.  0.2379569E-01  0.4303717E+00  0.2210712E-02  0.2558636E-01 -0.1007770E-04 -0.8492900E-01
4432593.  0.2113091E-01  0.4933780E+00  0.1971173E-02  0.5787202E-01  0.4793746E-03 -0.8580462E-01
4396111.  0.1822607E-01  0.5142248E+00  0.1552759E-02  0.8763813E-01  0.9700810E-03 -0.8536758E-01
4359630.  0.1531900E-01  0.4947715E+00  0.9769034E-03  0.1124994E+00  0.1454607E-02 -0.8365827E-01
4323148.  0.1262722E-01  0.4400829E+00  0.2775090E-03  0.1304956E+00  0.1925836E-02 -0.8072908E-01
4286667.  0.1033177E-01  0.3578283E+00 -0.5017097E-03  0.1402007E+00  0.2376952E-02 -0.7665106E-01
4250185.  0.8563491E-02  0.2576837E+00 -0.1310781E-02  0.1408461E+00  0.2801636E-02 -0.7150748E-01
4213704.  0.7393963E-02  0.1505782E+00 -0.2097290E-02  0.1323757E+00  0.3194027E-02 -0.6539210E-01
4177222.  0.6830983E-02  0.4766199E-01 -0.2810523E-02  0.1154030E+00  0.3548874E-02 -0.5840917E-01
4140741.  0.6819697E-02 -0.4043168E-01 -0.3405066E-02  0.9118471E-01  0.3861507E-02 -0.5067017E-01
4104259.  0.7247981E-02 -0.1045018E+00 -0.3844330E-02  0.6149201E-01  0.4127943E-02 -0.4229088E-01
4067778.  0.7957069E-02 -0.1375519E+00 -0.4102906E-02  0.2845831E-01  0.4344848E-02 -0.3339300E-01
4031296.  0.8755365E-02 -0.1351590E+00 -0.4168345E-02 -0.5569178E-02  0.4509610E-02 -0.2409643E-01
3994815.  0.9434436E-02 -0.9595662E-01 -0.4041753E-02 -0.3822734E-01  0.4620279E-02 -0.1452176E-01
3958333.  0.9787200E-02 -0.2172396E-01 -0.3737401E-02 -0.6730641E-01  0.4675612E-02 -0.4786835E-02
3921852.  0.9624956E-02  0.8291891E-01 -0.3281418E-02 -0.9091016E-01  0.4675006E-02  0.4998130E-02
3885370.  0.8793293E-02  0.2106710E+00 -0.2709526E-02 -0.1075839E+00  0.4618472E-02  0.1472994E-01
3848889.  0.7185920E-02  0.3521867E+00 -0.2064354E-02 -0.1164068E+00  0.4506595E-02  0.2431460E-01
3812407.  0.4753765E-02  0.4968812E+00 -0.1392027E-02 -0.1170572E+00  0.4340443E-02  0.3367345E-01
3775926.  0.1510986E-02  0.6334681E+00 -0.7389190E-03 -0.1097920E+00  0.4121516E-02  0.4273944E-01
3739444. -0.2464633E-02  0.7510717E+00 -0.1482070E-03 -0.9544037E-01  0.3851628E-02  0.5146387E-01
3702963. -0.7035499E-02  0.8398959E+00  0.3430606E-03 -0.7531588E-01  0.3532847E-02  0.5981559E-01
3666482. -0.1201262E-01  0.8918139E+00  0.7064872E-03 -0.5109442E-01  0.3167339E-02  0.6778443E-01
3630000. -0.1716766E-01  0.9012896E+00  0.9240904E-03 -0.2471701E-01  0.2757272E-02  0.7537873E-01
3630000. -0.1716766E-01  0.9012896E+00  0.9240904E-03 -0.2471701E-01  0.2757272E-02  0.7537873E-01
3592500. -0.2238601E-01  0.8637855E+00  0.9889846E-03  0.2503540E-02  0.2291494E-02  0.8283061E-01
3555000. -0.2724263E-01  0.7787285E+00  0.8986413E-03  0.2768067E-01  0.1782771E-02  0.8998276E-01
3517500. -0.3146713E-01  0.6498945E+00  0.6710245E-03  0.4884360E-01  0.1232635E-02  0.9691931E-01
3480000. -0.3482055E-01  0.4841295E+00  0.3347569E-03  0.6436047E-01  0.6420193E-03  0.1037591E+00
3480000. -0.3482055E-01  0.5990505E+00 -0.5996187E-03 -0.6263975E-01  0.6420193E-03  0.2147980E+00
3409422. -0.3804171E-01 -0.1823214E-01  0.1539219E-03 -0.7137641E-01 -0.1972475E-02  0.2488114E+00
3338844. -0.3460321E-01 -0.5859266E+00  0.9361446E-03 -0.6782176E-01 -0.4685932E-02  0.2330890E+00
3268266. -0.2557176E-01 -0.1016284E+01  0.1614779E-02 -0.5300302E-01 -0.6976199E-02  0.1740826E+00
3197688. -0.1278514E-01 -0.1258718E+01  0.2078721E-02 -0.2961778E-01 -0.8429257E-02  0.8440556E-01
3127109.  0.1573245E-02 -0.1300950E+01  0.2253052E-02 -0.1384447E-02 -0.8791476E-02 -0.2010926E-01
3056531.  0.1537274E-01 -0.1163552E+01  0.2106460E-02  0.2765541E-01 -0.7988694E-02 -0.1233548E+00
2985953.  0.2684988E-01 -0.8903235E+00  0.1651222E-02  0.5376935E-01 -0.6114936E-02 -0.2114298E+00
2915375.  0.3480327E-01 -0.5371137E+00  0.9369643E-03  0.7401106E-01 -0.3397844E-02 -0.2743188E+00
2844797.  0.3866738E-01 -0.1612353E+00  0.4018072E-04  0.8650666E-01 -0.1503953E-03 -0.3066908E+00
2774219.  0.3847909E-01  0.1870536E+00 -0.9483042E-03  0.9054210E-01  0.3281512E-02 -0.3078667E+00
2703641.  0.3476562E-01  0.4701656E+00 -0.1935862E-02  0.8647986E-01  0.6567278E-02 -0.2811296E+00
2633062.  0.2838701E-01  0.6657708E+00 -0.2838929E-02  0.7554837E-01  0.9429652E-02 -0.2326144E+00
2562484.  0.2036614E-01  0.7666386E+00 -0.3591009E-02  0.5955716E-01  0.1166913E-01 -0.1700278E+00
2491906.  0.1173129E-01  0.7784739E+00 -0.4147497E-02  0.4059145E-01  0.1317459E-01 -0.1014029E+00
2421328.  0.3391717E-02  0.7164399E+00 -0.4487068E-02  0.2072762E-01  0.1392075E-01 -0.3406512E-01
2350750. -0.3945625E-02  0.6012350E+00 -0.4610247E-02  0.1800580E-02  0.1395604E-01  0.2610275E-01
2280172. -0.9815899E-02  0.4552829E+00 -0.4535791E-02 -0.1475172E-01  0.1338406E-01  0.7505969E-01
2209594. -0.1399750E-01  0.2996227E+00 -0.4295779E-02 -0.2797043E-01  0.1234244E-01  0.1106913E+00
2139016. -0.1648343E-01  0.1516747E+00 -0.3930178E-02 -0.3738557E-01  0.1098228E-01  0.1326402E+00
2068438. -0.1743361E-01  0.2402219E-01 -0.3481656E-02 -0.4296912E-01  0.9450411E-02  0.1419618E+00
1997859. -0.1711847E-01 -0.7594611E-01 -0.2991121E-02 -0.4504712E-01  0.7876134E-02  0.1406890E+00
1927281. -0.1586341E-01 -0.1455898E+00 -0.2494436E-02 -0.4419065E-01  0.6362956E-02  0.1313841E+00
1856703. -0.1400046E-01 -0.1861627E+00 -0.2020264E-02 -0.4110613E-01  0.4984889E-02  0.1167366E+00
1786125. -0.1183167E-01 -0.2016306E+00 -0.1589178E-02 -0.3653333E-01  0.3786986E-02  0.9924575E-01
1715547. -0.9605548E-02 -0.1975018E+00 -0.1213758E-02 -0.3116424E-01  0.2788691E-02  0.8100814E-01
1644969. -0.7506038E-02 -0.1797604E+00 -0.8994507E-03 -0.2558786E-01  0.1989014E-02  0.6360658E-01
1574391. -0.5652173E-02 -0.1540250E+00 -0.6458997E-03 -0.2025944E-01  0.1372401E-02  0.4808997E-01
1503812. -0.4105517E-02 -0.1249746E+00 -0.4484837E-03 -0.1549428E-01  0.9144436E-03  0.3501942E-01
1433234. -0.2882706E-02 -0.9601242E-01 -0.2998117E-03 -0.1148248E-01  0.5868341E-03  0.2455766E-01
1362656. -0.1970571E-02 -0.6907929E-01 -0.1909311E-03 -0.8321444E-02  0.3611729E-03  0.1657298E-01
1292078. -0.1343437E-02 -0.4444255E-01 -0.1120810E-03 -0.6072246E-02  0.2116911E-03  0.1073749E-01
1221500. -0.9844917E-03 -0.2005460E-01 -0.5259308E-04 -0.4860890E-02  0.1170304E-03  0.6587745E-02
1221500. -0.9844917E-03  0.3623328E-01  0.2664556E-04  0.5273807E-02  0.1170304E-03  0.7014231E-02
1183328. -0.1116840E-02  0.6160100E-02 -0.1041011E-04  0.6778223E-02  0.8122765E-04  0.5034307E-02
1145156. -0.1045066E-02 -0.3050525E-01 -0.5076222E-04  0.6388824E-02  0.5567937E-04  0.3568529E-02
1106984. -0.7552918E-03 -0.6520265E-01 -0.8379324E-04  0.4421938E-02  0.3768297E-04  0.2495604E-02
1068812. -0.2829545E-03 -0.9036853E-01 -0.1019104E-03  0.1538332E-02  0.2518133E-04  0.1720371E-02
1030641.  0.2985834E-03 -0.1011309E+00 -0.1019740E-03 -0.1474767E-02  0.1662312E-04  0.1168430E-02
 992469.  0.8972281E-03 -0.9615307E-01 -0.8538517E-04 -0.3921508E-02  0.1085093E-04  0.7818479E-03
 954297.  0.1423349E-02 -0.7751533E-01 -0.5702843E-04 -0.5353926E-02  0.7014166E-05  0.5158527E-03
 916125.  0.1807907E-02 -0.4980330E-01 -0.2354329E-04 -0.5636701E-02  0.4497632E-05  0.3361947E-03
 877953.  0.2013486E-02 -0.1874423E-01  0.8506073E-05 -0.4918995E-02  0.2865270E-05  0.2170017E-03
 839781.  0.2036845E-02  0.1019814E-01  0.3407646E-04 -0.3540007E-02  0.1815055E-05  0.1391714E-03
 801609.  0.1903841E-02  0.3291837E-01  0.5042110E-04 -0.1906631E-02  0.1142663E-05  0.8896732E-04
 763438.  0.1659279E-02  0.4724790E-01  0.5715057E-04 -0.3830085E-03  0.7131583E-06  0.5678315E-04
 725266.  0.1354939E-02  0.5298298E-01  0.5573294E-04  0.7834591E-03  0.4392936E-06  0.3614763E-04
 687094.  0.1038919E-02  0.5146728E-01  0.4869476E-04  0.1487028E-02  0.2653584E-06  0.2287029E-04
 648922.  0.7482245E-03  0.4493887E-01  0.3880311E-04  0.1747786E-02  0.1559495E-06  0.1426294E-04
 610750.  0.5055084E-03  0.3584590E-01  0.2843069E-04  0.1668981E-02  0.8840090E-07  0.8685905E-05
 572578.  0.3195273E-03  0.2630573E-01  0.1920827E-04  0.1386971E-02  0.4787514E-07  0.5108108E-05
 534406.  0.1881779E-03  0.1779548E-01  0.1195911E-04  0.1029186E-02  0.2452188E-07  0.2865849E-05
 496234.  0.1026567E-03  0.1107999E-01  0.6837929E-05  0.6886350E-03  0.1175229E-07  0.1515031E-05
 458062.  0.5147185E-04  0.6320572E-02  0.3568551E-05  0.4161766E-03  0.5206693E-08  0.7453424E-06
 419891.  0.2347576E-04  0.3278348E-02  0.1684323E-05  0.2262962E-03  0.2102444E-08  0.3362612E-06
 381719.  0.9605651E-05  0.1528783E-02  0.7097449E-06  0.1097353E-03  0.7605896E-09  0.1368813E-06
 343547.  0.3461290E-05  0.6308610E-03  0.2622771E-06  0.4678302E-04  0.2411164E-09  0.4923070E-07
 305375.  0.1070722E-05  0.2252579E-03  0.8289926E-07  0.1716571E-04  0.6506569E-10  0.1522800E-07
 267203.  0.2742650E-06  0.6738852E-04  0.2162582E-07  0.5253166E-05  0.1435066E-10  0.3903109E-08
 229031.  0.5516063E-07  0.1610130E-04  0.4416473E-08  0.1278903E-05  0.2439211E-11  0.7850001E-09
 190859.  0.8019084E-08  0.2850979E-05  0.6501838E-09  0.2299293E-06  0.2918195E-12  0.1140448E-09
 152688.  0.7334523E-09  0.3298364E-06  0.6006920E-10  0.2692452E-07  0.2110135E-13  0.1040880E-10
 114516.  0.3251728E-10  0.1967464E-07  0.2683678E-11  0.1620833E-08  0.6934223E-15  0.4593999E-12
  76344.  0.3891340E-12  0.3554093E-09  0.3228890E-13  0.2946731E-10  0.5467918E-17  0.5445169E-14
  38172.  0.0000000E+00  0.0000000E+00  0.0000000E+00  0.0000000E+00  0.0000000E+00  0.0000000E+00
      0.  0.0000000E+00  0.0000000E+00  0.0000000E+00  0.0000000E+00  0.0000000E+00  0.0000000E+00
