      13       16 S      594        113.16770         21.43784         12.58256        488.66351      185    7
6371000.  0.4978830E-01 -0.2016670E-01  0.1774336E-03 -0.4961087E-01 -0.2135494E-03 -0.9025875E-01
6370000.  0.4978912E-01  0.9821869E-02  0.1851965E-03 -0.4930049E-01 -0.1993817E-03 -0.9026493E-01
6369000.  0.4978522E-01  0.3980923E-01  0.1929088E-03 -0.4896539E-01 -0.1852136E-03 -0.9026346E-01
6368000.  0.4977662E-01  0.6979194E-01  0.2005666E-03 -0.4860567E-01 -0.1710464E-03 -0.9025434E-01
6368000.  0.4977662E-01  0.6979194E-01  0.2005666E-03 -0.4860567E-01 -0.1710464E-03 -0.9025434E-01
6367000.  0.4976331E-01  0.9976659E-01  0.2081660E-03 -0.4822140E-01 -0.1568811E-03 -0.9023757E-01
6366000.  0.4974530E-01  0.1297297E+00  0.2157031E-03 -0.4781270E-01 -0.1427191E-03 -0.9021314E-01
6365000.  0.4972259E-01  0.1596780E+00  0.2231742E-03 -0.4737967E-01 -0.1285616E-03 -0.9018106E-01
6364000.  0.4969518E-01  0.1896079E+00  0.2305754E-03 -0.4692243E-01 -0.1144097E-03 -0.9014133E-01
6363000.  0.4966307E-01  0.2195160E+00  0.2379029E-03 -0.4644111E-01 -0.1002646E-03 -0.9009395E-01
6362000.  0.4962626E-01  0.2493990E+00  0.2451530E-03 -0.4593584E-01 -0.8612758E-04 -0.9003892E-01
6361000.  0.4958478E-01  0.2792534E+00  0.2523219E-03 -0.4540676E-01 -0.7199978E-04 -0.8997624E-01
6360000.  0.4953860E-01  0.3090758E+00  0.2594060E-03 -0.4485402E-01 -0.5788241E-04 -0.8990591E-01
6359000.  0.4948775E-01  0.3388629E+00  0.2664014E-03 -0.4427777E-01 -0.4377669E-04 -0.8982794E-01
6358000.  0.4943223E-01  0.3686112E+00  0.2733046E-03 -0.4367819E-01 -0.2968380E-04 -0.8974234E-01
6357000.  0.4937204E-01  0.3983174E+00  0.2801118E-03 -0.4305544E-01 -0.1560495E-04 -0.8964910E-01
6356000.  0.4930719E-01  0.4279781E+00  0.2868194E-03 -0.4240971E-01 -0.1541338E-05 -0.8954823E-01
6356000.  0.4930719E-01  0.2773852E+00  0.2868194E-03 -0.4507606E-01 -0.1541338E-05 -0.1002769E+00
6355000.  0.4926195E-01  0.2990773E+00  0.2938608E-03 -0.4464309E-01  0.1419284E-04 -0.1002071E+00
6354000.  0.4921331E-01  0.3207442E+00  0.3008331E-03 -0.4419483E-01  0.2991561E-04 -0.1001314E+00
6353000.  0.4916126E-01  0.3423840E+00  0.3077338E-03 -0.4373137E-01  0.4562604E-04 -0.1000499E+00
6352000.  0.4910582E-01  0.3639949E+00  0.3145606E-03 -0.4325278E-01  0.6132322E-04 -0.9996257E-01
6351000.  0.4904700E-01  0.3855751E+00  0.3213110E-03 -0.4275918E-01  0.7700623E-04 -0.9986941E-01
6350000.  0.4898478E-01  0.4071228E+00  0.3279829E-03 -0.4225064E-01  0.9267416E-04 -0.9977041E-01
6349000.  0.4891919E-01  0.4286360E+00  0.3345737E-03 -0.4172727E-01  0.1083261E-03 -0.9966560E-01
6348000.  0.4885023E-01  0.4501130E+00  0.3410812E-03 -0.4118918E-01  0.1239611E-03 -0.9955496E-01
6347000.  0.4877789E-01  0.4715519E+00  0.3475031E-03 -0.4063646E-01  0.1395783E-03 -0.9943853E-01
6346600.  0.4874802E-01  0.4801164E+00  0.3500474E-03 -0.4041130E-01  0.1458200E-03 -0.9939032E-01
6346600.  0.4874802E-01  0.2954482E+00  0.3500474E-03 -0.4306629E-01  0.1458200E-03 -0.1163880E+00
6318800.  0.4651309E-01  0.7254122E+00  0.5057627E-03 -0.2693388E-01  0.6465471E-03 -0.1125329E+00
6291000.  0.4246437E-01  0.1123101E+01  0.5747532E-03 -0.3719790E-02  0.1122846E-02 -0.1052073E+00
6291000.  0.4246437E-01  0.1138797E+01  0.5747532E-03 -0.2408202E-02  0.1122846E-02 -0.1052073E+00
6263000.  0.3666574E-01  0.1489082E+01  0.5232929E-03  0.2624381E-01  0.1562418E-02 -0.9427870E-01
6235000.  0.2948338E-01  0.1766015E+01  0.3433042E-03  0.5541490E-01  0.1946943E-02 -0.8021656E-01
6207000.  0.2126792E-01  0.1957757E+01  0.4133262E-04  0.8109618E-01  0.2263521E-02 -0.6343673E-01
6179000.  0.1240817E-01  0.2058843E+01 -0.3589278E-03  0.9957463E-01  0.2501327E-02 -0.4446587E-01
6151000.  0.3302756E-02  0.2070221E+01 -0.8189775E-03  0.1078979E+00  0.2652063E-02 -0.2392405E-01
6151000.  0.3302756E-02  0.1650524E+01 -0.8189775E-03  0.9433835E-01  0.2652063E-02 -0.2410677E-01
6128500. -0.2399438E-02  0.1573513E+01 -0.1148838E-02  0.9144606E-01  0.2712908E-02 -0.1031972E-01
6106000. -0.7778536E-02  0.1468724E+01 -0.1457768E-02  0.8252316E-01  0.2724879E-02  0.3531753E-02
6083500. -0.1274907E-01  0.1343335E+01 -0.1725110E-02  0.6799759E-01  0.2688165E-02  0.1721175E-01
6061000. -0.1725093E-01  0.1204468E+01 -0.1932384E-02  0.4866734E-01  0.2603777E-02  0.3049403E-01
6038500. -0.2124850E-01  0.1058797E+01 -0.2064498E-02  0.2564013E-01  0.2473498E-02  0.4316495E-01
6016000. -0.2472835E-01  0.9121664E+00 -0.2110703E-02  0.2529494E-03  0.2299845E-02  0.5502642E-01
5993500. -0.2769587E-01  0.7693428E+00 -0.2065240E-02 -0.2602018E-01  0.2085998E-02  0.6589904E-01
5971000. -0.3017108E-01  0.6338442E+00 -0.1927656E-02 -0.5166654E-01  0.1835737E-02  0.7562304E-01
5971000. -0.3017108E-01  0.5575902E+00 -0.1927656E-02 -0.4265468E-01  0.1835737E-02  0.7957269E-01
5937667. -0.3256511E-01  0.3630701E+00 -0.1626061E-02 -0.7149250E-01  0.1386117E-02  0.9180273E-01
5904333. -0.3402716E-01  0.2010236E+00 -0.1193373E-02 -0.9244449E-01  0.8804283E-03  0.1009810E+00
5871000. -0.3471918E-01  0.6786232E-01 -0.6747650E-03 -0.1042315E+00  0.3348761E-03  0.1070453E+00
5837667. -0.3477689E-01 -0.4260850E-01 -0.1189070E-03 -0.1067568E+00 -0.2343217E-03  0.1100336E+00
5804333. -0.3430038E-01 -0.1375422E+00  0.4276970E-03 -0.1009023E+00 -0.8113743E-03  0.1100680E+00
5771000. -0.3335286E-01 -0.2237036E+00  0.9250796E-03 -0.8825586E-01 -0.1381272E-02  0.1073429E+00
5771000. -0.3335286E-01 -0.2236903E+00  0.9250796E-03 -0.8825175E-01 -0.1381272E-02  0.1073429E+00
5701000. -0.2977508E-01 -0.4308090E+00  0.1726449E-02 -0.5450318E-01 -0.2484608E-02  0.9175178E-01
5701000. -0.2977508E-01 -0.3295074E+00  0.1726449E-02 -0.3573326E-01 -0.2484608E-02  0.1001443E+00
5667333. -0.2781466E-01 -0.4162086E+00  0.1857068E-02 -0.1508316E-01 -0.2987047E-02  0.8984600E-01
5633667. -0.2533135E-01 -0.5261057E+00  0.1896297E-02 -0.2299913E-03 -0.3432273E-02  0.7844962E-01
5600000. -0.2225738E-01 -0.6365904E+00  0.1862355E-02  0.1271178E-01 -0.3813807E-02  0.6575637E-01
5600000. -0.2225738E-01 -0.6365904E+00  0.1862355E-02  0.1271178E-01 -0.3813807E-02  0.6575637E-01
5563518. -0.1827859E-01 -0.7518311E+00  0.1756400E-02  0.2371419E-01 -0.4148223E-02  0.5087482E-01
5527037. -0.1366760E-01 -0.8563448E+00  0.1597872E-02  0.3100991E-01 -0.4394835E-02  0.3514959E-01
5490556. -0.8504745E-02 -0.9434737E+00  0.1408749E-02  0.3439891E-01 -0.4549813E-02  0.1892610E-01
5454074. -0.2908075E-02 -0.1006843E+01  0.1211066E-02  0.3405746E-01 -0.4611279E-02  0.2543046E-02
5417593.  0.2970742E-02 -0.1041310E+01  0.1024855E-02  0.3050547E-01 -0.4579250E-02 -0.1367744E-01
5381111.  0.8954464E-02 -0.1042909E+01  0.8663460E-03  0.2452927E-01 -0.4455521E-02 -0.2943668E-01
5344630.  0.1484779E-01 -0.1009651E+01  0.7467110E-03  0.1710204E-01 -0.4243536E-02 -0.4446120E-01
5308148.  0.2045099E-01 -0.9417051E+00  0.6712325E-03  0.9283546E-02 -0.3948196E-02 -0.5851121E-01
5271667.  0.2557015E-01 -0.8411826E+00  0.6391463E-03  0.2114251E-02 -0.3575698E-02 -0.7138281E-01
5235185.  0.3003051E-01 -0.7124456E+00  0.6439784E-03 -0.3468136E-02 -0.3133269E-02 -0.8290635E-01
5198704.  0.3368699E-01 -0.5615656E+00  0.6743883E-03 -0.6714451E-02 -0.2629054E-02 -0.9294967E-01
5162222.  0.3643331E-01 -0.3958463E+00  0.7154481E-03 -0.7126450E-02 -0.2071769E-02 -0.1014243E+00
5125741.  0.3820800E-01 -0.2236442E+00  0.7501423E-03 -0.4478324E-02 -0.1470628E-02 -0.1082659E+00
5089259.  0.3899840E-01 -0.5345792E-01  0.7610105E-03  0.1159626E-02 -0.8350295E-03 -0.1134526E+00
5052778.  0.3883986E-01  0.1064757E+00  0.7318061E-03  0.9439363E-02 -0.1744706E-03 -0.1169934E+00
5016296.  0.3781274E-01  0.2487783E+00  0.6489552E-03  0.1978232E-01  0.5017363E-03 -0.1189193E+00
4979815.  0.3603613E-01  0.3673887E+00  0.5027796E-03  0.3141768E-01  0.1184472E-02 -0.1192926E+00
4943333.  0.3365893E-01  0.4579656E+00  0.2883621E-03  0.4346359E-01  0.1865108E-02 -0.1181939E+00
4906852.  0.3084954E-01  0.5181311E+00  0.5993616E-05  0.5499936E-01  0.2535444E-02 -0.1157194E+00
4870370.  0.2778411E-01  0.5474682E+00 -0.3388099E-03  0.6512460E-01  0.3187966E-02 -0.1119859E+00
4833889.  0.2463550E-01  0.5476558E+00 -0.7356364E-03  0.7305466E-01  0.3815776E-02 -0.1071151E+00
4797407.  0.2156132E-01  0.5221342E+00 -0.1170057E-02  0.7816062E-01  0.4412766E-02 -0.1012382E+00
4760926.  0.1869577E-01  0.4757411E+00 -0.1624516E-02  0.8000507E-01  0.4973542E-02 -0.9449589E-01
4724444.  0.1614116E-01  0.4145805E+00 -0.2079711E-02  0.7840176E-01  0.5493576E-02 -0.8702544E-01
4687963.  0.1396341E-01  0.3452501E+00 -0.2515881E-02  0.7338973E-01  0.5969070E-02 -0.7896822E-01
4651482.  0.1218999E-01  0.2744795E+00 -0.2914180E-02  0.6523890E-01  0.6397083E-02 -0.7046390E-01
4615000.  0.1081023E-01  0.2087534E+00 -0.3257945E-02  0.5443392E-01  0.6775449E-02 -0.6164625E-01
4578518.  0.9778858E-02  0.1536366E+00 -0.3533730E-02  0.4161354E-01  0.7102741E-02 -0.5264669E-01
4542037.  0.9021757E-02  0.1136113E+00 -0.3732127E-02  0.2754126E-01  0.7378269E-02 -0.4358940E-01
4505556.  0.8442868E-02  0.9175562E-01 -0.3848321E-02  0.1304037E-01  0.7602045E-02 -0.3458941E-01
4469074.  0.7933576E-02  0.8939479E-01 -0.3882224E-02 -0.1066073E-02  0.7774716E-02 -0.2575533E-01
4432593.  0.7381928E-02  0.1063979E+00 -0.3838361E-02 -0.1399912E-01  0.7897508E-02 -0.1718478E-01
4396111.  0.6681359E-02  0.1409604E+00 -0.3725435E-02 -0.2508494E-01  0.7972190E-02 -0.8964403E-02
4359630.  0.5740311E-02  0.1897629E+00 -0.3555643E-02 -0.3378633E-01  0.8000991E-02 -0.1172288E-02
4323148.  0.4488876E-02  0.2485660E+00 -0.3343762E-02 -0.3973801E-01  0.7986555E-02  0.6127649E-02
4286667.  0.2884471E-02  0.3121316E+00 -0.3106158E-02 -0.4275778E-01  0.7931858E-02  0.1288171E-01
4250185.  0.9158885E-03  0.3748066E+00 -0.2859681E-02 -0.4285187E-01  0.7840149E-02  0.1904853E-01
4213704. -0.1395656E-02  0.4310145E+00 -0.2620636E-02 -0.4020920E-01  0.7714886E-02  0.2459867E-01
4177222. -0.3997562E-02  0.4753501E+00 -0.2403769E-02 -0.3517285E-01  0.7559646E-02  0.2951514E-01
4140741. -0.6808084E-02  0.5032284E+00 -0.2221490E-02 -0.2821910E-01  0.7378091E-02  0.3379132E-01
4104259. -0.9722477E-02  0.5110819E+00 -0.2083170E-02 -0.1991739E-01  0.7173867E-02  0.3743290E-01
4067778. -0.1261802E-01  0.4963820E+00 -0.1994782E-02 -0.1088606E-01  0.6950575E-02  0.4045695E-01
4031296. -0.1536236E-01  0.4582067E+00 -0.1958679E-02 -0.1759710E-02  0.6711672E-02  0.4288817E-01
3994815. -0.1782144E-01  0.3969345E+00 -0.1973653E-02  0.6857737E-02  0.6460467E-02  0.4476289E-01
3958333. -0.1986719E-01  0.3142330E+00 -0.2035216E-02  0.1442974E-01  0.6200003E-02  0.4612829E-01
3921852. -0.2138523E-01  0.2132404E+00 -0.2136052E-02  0.2051045E-01  0.5933067E-02  0.4703455E-01
3885370. -0.2228205E-01  0.9798771E-01 -0.2266635E-02  0.2477494E-01  0.5662101E-02  0.4754507E-01
3848889. -0.2248953E-01 -0.2664277E-01 -0.2415939E-02  0.2702946E-01  0.5389185E-02  0.4772989E-01
3812407. -0.2196947E-01 -0.1552018E+00 -0.2572234E-02  0.2721738E-01  0.5115962E-02  0.4766359E-01
3775926. -0.2071524E-01 -0.2821523E+00 -0.2723841E-02  0.2541798E-01  0.4843634E-02  0.4743488E-01
3739444. -0.1875176E-01 -0.4020227E+00 -0.2859918E-02  0.2183467E-01  0.4572853E-02  0.4713697E-01
3702963. -0.1613436E-01 -0.5097983E+00 -0.2971082E-02  0.1677731E-01  0.4303739E-02  0.4687387E-01
3666482. -0.1294473E-01 -0.6012552E+00 -0.3049996E-02  0.1064268E-01  0.4035745E-02  0.4676709E-01
3630000. -0.9286228E-02 -0.6730688E+00 -0.3091778E-02  0.3886565E-02  0.3767597E-02  0.4694858E-01
3630000. -0.9286228E-02 -0.6730688E+00 -0.3091778E-02  0.3886565E-02  0.3767597E-02  0.4694858E-01
3592500. -0.5162515E-02 -0.7241754E+00 -0.3093763E-02 -0.3190023E-02  0.3489614E-02  0.4760017E-01
3555000. -0.8083387E-03 -0.7513425E+00 -0.3055016E-02 -0.9864729E-02  0.3205937E-02  0.4891855E-01
3517500.  0.3636222E-02 -0.7551020E+00 -0.2979444E-02 -0.1561912E-01  0.2911973E-02  0.5113899E-01
3480000.  0.8038659E-02 -0.7374873E+00 -0.2873889E-02 -0.1997812E-01  0.2601599E-02  0.5454681E-01
3480000.  0.8038659E-02 -0.7308850E-01  0.9757410E-04  0.1453655E-01  0.2601599E-02  0.2891243E-01
3409422.  0.8355035E-02  0.1412380E-01 -0.7175639E-04  0.1574767E-01  0.2438688E-02  0.2745821E-02
3338844.  0.7784056E-02  0.8570403E-01 -0.2452676E-03  0.1532308E-01  0.2495581E-02 -0.1119775E-01
3268266.  0.6536808E-02  0.1355978E+00 -0.4062100E-03  0.1353613E-01  0.2651598E-02 -0.1561507E-01
3197688.  0.4866279E-02  0.1621753E+00 -0.5415736E-03  0.1077536E-01  0.2816675E-02 -0.1329041E-01
3127109.  0.3023161E-02  0.1672899E+00 -0.6429386E-03  0.7468951E-02  0.2930867E-02 -0.6838073E-02
3056531.  0.1223822E-02  0.1550962E+00 -0.7065489E-03  0.4022522E-02  0.2961293E-02  0.1496331E-02
2985953. -0.3687012E-03  0.1308673E+00 -0.7328078E-03  0.7750478E-03  0.2897312E-02  0.9957721E-02
2915375. -0.1651222E-02  0.9999493E-01 -0.7253839E-03 -0.2025373E-02  0.2744780E-02  0.1732295E-01
2844797. -0.2577470E-02  0.6726654E-01 -0.6901494E-03 -0.4228817E-02  0.2520251E-02  0.2287568E-01
2774219. -0.3148704E-02  0.3642617E-01 -0.6341204E-03 -0.5776661E-02  0.2245724E-02  0.2633316E-01
2703641. -0.3401008E-02  0.1000892E-01 -0.5645278E-03 -0.6685568E-02  0.1944391E-02  0.2774590E-01
2633062. -0.3391951E-02 -0.1062237E-01 -0.4880922E-03 -0.7027312E-02  0.1637529E-02  0.2738958E-01
2562484. -0.3188465E-02 -0.2510246E-01 -0.4105359E-03 -0.6907389E-02  0.1342603E-02  0.2566396E-01
2491906. -0.2857141E-02 -0.3381397E-01 -0.3363150E-03 -0.6445379E-02  0.1072348E-02  0.2300847E-01
2421328. -0.2457417E-02 -0.3762215E-01 -0.2685570E-03 -0.5759511E-02  0.8347149E-03  0.1983958E-01
2350750. -0.2037620E-02 -0.3763058E-01 -0.2091407E-03 -0.4955573E-02  0.6333620E-03  0.1651083E-01
2280172. -0.1633454E-02 -0.3498673E-01 -0.1588751E-03 -0.4120056E-02  0.4684807E-03  0.1329287E-01
2209594. -0.1268345E-02 -0.3074113E-01 -0.1177321E-03 -0.3317526E-02  0.3377473E-03  0.1036950E-01
2139016. -0.9550262E-03 -0.2576426E-01 -0.8508893E-04 -0.2591000E-02  0.2372520E-03  0.7845246E-02
2068438. -0.6977667E-03 -0.2071121E-01 -0.5995479E-04 -0.1964452E-02  0.1623027E-03  0.5759491E-02
1997859. -0.4947722E-03 -0.1602376E-01 -0.4116194E-04 -0.1446472E-02  0.1080535E-03  0.4103382E-02
1927281. -0.3404345E-03 -0.1195596E-01 -0.2751452E-04 -0.1034384E-02  0.6994774E-04  0.2836564E-02
1856703. -0.2271864E-03 -0.8612889E-02 -0.1788967E-04 -0.7181518E-03  0.4398060E-04  0.1901558E-02
1786125. -0.1469291E-03 -0.5992855E-02 -0.1130074E-04 -0.4837709E-03  0.2682503E-04  0.1235212E-02
1715547. -0.9198910E-04 -0.4026906E-02 -0.6925716E-05 -0.3158974E-03  0.1584695E-04  0.7766218E-03
1644969. -0.5567495E-04 -0.2611450E-02 -0.4111060E-05 -0.1997099E-03  0.9050964E-05  0.4719561E-03
1574391. -0.3251835E-04 -0.1632600E-02 -0.2358960E-05 -0.1220474E-03  0.4987348E-05  0.2767361E-03
1503812. -0.1829138E-04 -0.9823416E-03 -0.1305410E-05 -0.7196511E-04  0.2644738E-05  0.1562424E-03
1433234. -0.9886024E-05 -0.5675937E-03 -0.6946788E-06 -0.4085963E-04  0.1345634E-05  0.8473826E-04
1362656. -0.5124022E-05 -0.3137062E-03 -0.3540133E-06 -0.2230343E-04  0.6542279E-06  0.4404616E-04
1292078. -0.2552099E-05 -0.1641713E-03 -0.1711936E-06 -0.1174080E-04  0.3016468E-06  0.2194264E-04
1221500. -0.1255359E-05 -0.7759982E-04 -0.7566972E-07 -0.6153461E-05  0.1285751E-06  0.1063900E-04
1221500. -0.1255359E-05  0.1072135E-03  0.7241753E-07  0.6925311E-05  0.1285751E-06  0.1118282E-04
1183328. -0.1764689E-05  0.6329149E-04  0.3421341E-07  0.5781773E-05  0.7568713E-07  0.6808227E-05
1145156. -0.2023002E-05  0.2395927E-04  0.3581829E-08  0.4416627E-05  0.4373073E-07  0.4076115E-05
1106984. -0.2066595E-05 -0.8005148E-05 -0.1855712E-07  0.2974748E-05  0.2475463E-07  0.2396215E-05
1068812. -0.1945085E-05 -0.3099914E-04 -0.3224456E-07  0.1621849E-05  0.1369890E-07  0.1380650E-05
1030641. -0.1713614E-05 -0.4478094E-04 -0.3844362E-07  0.4934186E-06  0.7391756E-08  0.7779684E-06
 992469. -0.1425019E-05 -0.5030597E-04 -0.3876423E-07 -0.3328504E-06  0.3876776E-08  0.4275441E-06
 954297. -0.1123776E-05 -0.4934031E-04 -0.3509145E-07 -0.8418736E-06  0.1968828E-08  0.2284327E-06
 916125. -0.8424933E-06 -0.4400238E-04 -0.2923899E-07 -0.1069736E-05  0.9636463E-09  0.1181779E-06
 877953. -0.6010924E-06 -0.3634692E-04 -0.2269991E-07 -0.1083733E-05  0.4518968E-09  0.5891252E-07
 839781. -0.4081480E-06 -0.2807066E-04 -0.1652454E-07 -0.9610726E-06  0.2014648E-09  0.2812495E-07
 801609. -0.2635392E-06 -0.2036681E-04 -0.1131373E-07 -0.7723386E-06  0.8447729E-10  0.1275386E-07
 763438. -0.1615676E-06 -0.1391229E-04 -0.7292557E-08 -0.5713317E-06  0.3279000E-10  0.5433092E-08
 725266. -0.9382958E-07 -0.8949404E-05 -0.4422880E-08 -0.3919808E-06  0.1146534E-10  0.2138822E-08
 687094. -0.5146110E-07 -0.5415186E-05 -0.2519402E-08 -0.2501970E-06  0.3417446E-11  0.7560560E-09
 648922. -0.2655060E-07 -0.3074793E-05 -0.1343875E-08 -0.1486168E-06  0.7395799E-12  0.2269051E-09
 610750. -0.1282322E-07 -0.1632393E-05 -0.6684415E-09 -0.8200282E-07  0.1713062E-13  0.4885100E-10
 572578. -0.5762366E-08 -0.8062790E-06 -0.3083186E-09 -0.4187527E-07 -0.9581373E-13  0.6240503E-12
 534406. -0.2391107E-08 -0.3681102E-06 -0.1309379E-09 -0.1968024E-07 -0.6796487E-13 -0.6728548E-11
 496234. -0.9075923E-09 -0.1540538E-06 -0.5073489E-10 -0.8447169E-08 -0.3243459E-13 -0.4666037E-11
 458062. -0.3113966E-09 -0.5846702E-07 -0.1772888E-10 -0.3277685E-08 -0.1237859E-13 -0.2183731E-11
 419891. -0.9512662E-10 -0.1984698E-07 -0.5504529E-11 -0.1134416E-08 -0.3929576E-14 -0.8104175E-12
 381719. -0.2536867E-10 -0.5917578E-08 -0.1489177E-11 -0.3440230E-09 -0.1041007E-14 -0.2470462E-12
 343547. -0.5754690E-11 -0.1512929E-08 -0.3420936E-12 -0.8926411E-10 -0.2265561E-15 -0.6167797E-13
 305375. -0.1071824E-11 -0.3209713E-09 -0.6442018E-13 -0.1918133E-10 -0.3929124E-16 -0.1232192E-13
 267203. -0.1559637E-12 -0.5395166E-10 -0.9463278E-14 -0.3259715E-11 -0.5170835E-17 -0.1887641E-14
 229031. -0.1648419E-13 -0.6713368E-11 -0.1008294E-14 -0.4093963E-12 -0.4789850E-18 -0.2069170E-15
 190859. -0.1130290E-14 -0.5564744E-12 -0.6959316E-16 -0.3419210E-13 -0.2777988E-19 -0.1434605E-16
 152688.  0.0000000E+00  0.0000000E+00  0.0000000E+00  0.0000000E+00  0.0000000E+00  0.0000000E+00
 114516.  0.0000000E+00  0.0000000E+00  0.0000000E+00  0.0000000E+00  0.0000000E+00  0.0000000E+00
  76344.  0.0000000E+00  0.0000000E+00  0.0000000E+00  0.0000000E+00  0.0000000E+00  0.0000000E+00
  38172.  0.0000000E+00  0.0000000E+00  0.0000000E+00  0.0000000E+00  0.0000000E+00  0.0000000E+00
      0.  0.0000000E+00  0.0000000E+00  0.0000000E+00  0.0000000E+00  0.0000000E+00  0.0000000E+00
