       1       19 S      115        263.70099          7.78468          5.91032        155.20180      185    7
6371000.  0.1459197E+00  0.7859799E+00  0.6026694E-02 -0.1398930E+00 -0.1115520E-01 -0.5206655E-01
6370000.  0.1457949E+00  0.8049743E+00  0.6048555E-02 -0.1386734E+00 -0.1114705E-01 -0.5177498E-01
6369000.  0.1456670E+00  0.8239118E+00  0.6070225E-02 -0.1374434E+00 -0.1113894E-01 -0.5148060E-01
6368000.  0.1455362E+00  0.8427915E+00  0.6091701E-02 -0.1362031E+00 -0.1113089E-01 -0.5118339E-01
6368000.  0.1455362E+00  0.8427915E+00  0.6091701E-02 -0.1362031E+00 -0.1113089E-01 -0.5118339E-01
6367000.  0.1454025E+00  0.8616129E+00  0.6112982E-02 -0.1349526E+00 -0.1112288E-01 -0.5088337E-01
6366000.  0.1452658E+00  0.8803750E+00  0.6134066E-02 -0.1336919E+00 -0.1111491E-01 -0.5058052E-01
6365000.  0.1451261E+00  0.8990773E+00  0.6154951E-02 -0.1324211E+00 -0.1110700E-01 -0.5027483E-01
6364000.  0.1449835E+00  0.9177190E+00  0.6175635E-02 -0.1311401E+00 -0.1109913E-01 -0.4996631E-01
6363000.  0.1448380E+00  0.9362994E+00  0.6196117E-02 -0.1298492E+00 -0.1109131E-01 -0.4965495E-01
6362000.  0.1446896E+00  0.9548178E+00  0.6216397E-02 -0.1285482E+00 -0.1108354E-01 -0.4934073E-01
6361000.  0.1445383E+00  0.9732735E+00  0.6236471E-02 -0.1272373E+00 -0.1107582E-01 -0.4902365E-01
6360000.  0.1443841E+00  0.9916658E+00  0.6256339E-02 -0.1259165E+00 -0.1106815E-01 -0.4870372E-01
6359000.  0.1442270E+00  0.1009994E+01  0.6275999E-02 -0.1245859E+00 -0.1106053E-01 -0.4838092E-01
6358000.  0.1440670E+00  0.1028257E+01  0.6295449E-02 -0.1232455E+00 -0.1105297E-01 -0.4805524E-01
6357000.  0.1439042E+00  0.1046456E+01  0.6314688E-02 -0.1218954E+00 -0.1104545E-01 -0.4772669E-01
6356000.  0.1437385E+00  0.1064587E+01  0.6333714E-02 -0.1205357E+00 -0.1103798E-01 -0.4739525E-01
6356000.  0.1437385E+00  0.8808171E+00  0.6333714E-02 -0.1273512E+00 -0.1103798E-01 -0.7867108E-01
6355000.  0.1435992E+00  0.8946782E+00  0.6353652E-02 -0.1266968E+00 -0.1102565E-01 -0.7844420E-01
6354000.  0.1434577E+00  0.9085089E+00  0.6373487E-02 -0.1260370E+00 -0.1101336E-01 -0.7821592E-01
6353000.  0.1433140E+00  0.9223089E+00  0.6393218E-02 -0.1253718E+00 -0.1100110E-01 -0.7798623E-01
6352000.  0.1431681E+00  0.9360777E+00  0.6412844E-02 -0.1247012E+00 -0.1098888E-01 -0.7775513E-01
6351000.  0.1430201E+00  0.9498151E+00  0.6432364E-02 -0.1240251E+00 -0.1097669E-01 -0.7752262E-01
6350000.  0.1428699E+00  0.9635206E+00  0.6451778E-02 -0.1233437E+00 -0.1096454E-01 -0.7728869E-01
6349000.  0.1427176E+00  0.9771940E+00  0.6471084E-02 -0.1226569E+00 -0.1095243E-01 -0.7705335E-01
6348000.  0.1425632E+00  0.9908348E+00  0.6490282E-02 -0.1219648E+00 -0.1094035E-01 -0.7681657E-01
6347000.  0.1424066E+00  0.1004443E+01  0.6509372E-02 -0.1212673E+00 -0.1092831E-01 -0.7657839E-01
6346600.  0.1423434E+00  0.1009877E+01  0.6516976E-02 -0.1209869E+00 -0.1092351E-01 -0.7648271E-01
6346600.  0.1423434E+00  0.1035549E+01  0.6516976E-02 -0.1259772E+00 -0.1092351E-01 -0.1261158E+00
6318800.  0.1371392E+00  0.1348202E+01  0.7047250E-02 -0.1166127E+00 -0.1038428E-01 -0.1209976E+00
6291000.  0.1305949E+00  0.1648931E+01  0.7530736E-02 -0.1045513E+00 -0.9867943E-02 -0.1156138E+00
6291000.  0.1305949E+00  0.1697078E+01  0.7530736E-02 -0.1037435E+00 -0.9867943E-02 -0.1156138E+00
6263000.  0.1224911E+00  0.1986975E+01  0.7951412E-02 -0.8724559E-01 -0.9373495E-02 -0.1093279E+00
6235000.  0.1131673E+00  0.2251337E+01  0.8293839E-02 -0.6817527E-01 -0.8907591E-02 -0.1026173E+00
6207000.  0.1027477E+00  0.2484794E+01  0.8547290E-02 -0.4680463E-01 -0.8472192E-02 -0.9543855E-01
6179000.  0.9137917E-01  0.2682314E+01  0.8702337E-02 -0.2345088E-01 -0.8069451E-02 -0.8774925E-01
6151000.  0.7923003E-01  0.2839290E+01  0.8751038E-02  0.1527228E-02 -0.7701697E-02 -0.7950997E-01
6151000.  0.7923003E-01  0.2545627E+01  0.8751038E-02 -0.7689150E-02 -0.7701697E-02 -0.8389340E-01
6128500.  0.7011495E-01  0.2613092E+01  0.8753922E-02  0.6062923E-02 -0.7411166E-02 -0.8062758E-01
6106000.  0.6079840E-01  0.2659711E+01  0.8708246E-02  0.1978969E-01 -0.7132269E-02 -0.7730596E-01
6083500.  0.5135395E-01  0.2685542E+01  0.8614318E-02  0.3336913E-01 -0.6865197E-02 -0.7393028E-01
6061000.  0.4185471E-01  0.2690786E+01  0.8472864E-02  0.4668647E-01 -0.6610141E-02 -0.7050135E-01
6038500.  0.3237278E-01  0.2675808E+01  0.8284996E-02  0.5963629E-01 -0.6367293E-02 -0.6701659E-01
6016000.  0.2297872E-01  0.2641118E+01  0.8052186E-02  0.7212263E-01 -0.6136856E-02 -0.6347123E-01
5993500.  0.1374106E-01  0.2587341E+01  0.7776226E-02  0.8405872E-01 -0.5919057E-02 -0.5985885E-01
5971000.  0.4725917E-02  0.2515231E+01  0.7459197E-02  0.9536913E-01 -0.5714147E-02 -0.5617002E-01
5971000.  0.4725917E-02  0.2371845E+01  0.7459197E-02  0.8518390E-01 -0.5714147E-02 -0.5678868E-01
5937667. -0.7287071E-02  0.2217222E+01  0.6992375E-02  0.9283955E-01 -0.5424796E-02 -0.5387396E-01
5904333. -0.1845000E-01  0.2047698E+01  0.6491939E-02  0.9807019E-01 -0.5149859E-02 -0.5127160E-01
5871000. -0.2869807E-01  0.1868447E+01  0.5969924E-02  0.1011389E+00 -0.4887786E-02 -0.4895455E-01
5837667. -0.3799280E-01  0.1683980E+01  0.5436906E-02  0.1023239E+00 -0.4637160E-02 -0.4689029E-01
5804333. -0.4631754E-01  0.1498161E+01  0.4901985E-02  0.1019067E+00 -0.4396742E-02 -0.4504343E-01
5771000. -0.5367347E-01  0.1314233E+01  0.4372852E-02  0.1001627E+00 -0.4165508E-02 -0.4337553E-01
5771000. -0.5367347E-01  0.1314341E+01  0.4372852E-02  0.1001615E+00 -0.4165508E-02 -0.4337553E-01
5701000. -0.6621165E-01  0.9670603E+00  0.3290268E-02  0.9642375E-01 -0.3692111E-02 -0.4278850E-01
5701000. -0.6621165E-01  0.8693350E+00  0.3290268E-02  0.9246854E-01 -0.3692111E-02 -0.2412582E-01
5667333. -0.7033259E-01  0.6992071E+00  0.2818944E-02  0.8600414E-01 -0.3558925E-02 -0.2617439E-01
5633667. -0.7367422E-01  0.5687231E+00  0.2380735E-02  0.7986680E-01 -0.3417178E-02 -0.2734640E-01
5600000. -0.7635256E-01  0.4459929E+00  0.1974563E-02  0.7388427E-01 -0.3270531E-02 -0.2810603E-01
5600000. -0.7635256E-01  0.4459929E+00  0.1974563E-02  0.7388427E-01 -0.3270531E-02 -0.2810603E-01
5563518. -0.7854678E-01  0.3219755E+00  0.1569750E-02  0.6753093E-01 -0.3108164E-02 -0.2854311E-01
5527037. -0.8005790E-01  0.2074278E+00  0.1200835E-02  0.6135509E-01 -0.2944275E-02 -0.2864957E-01
5490556. -0.8094035E-01  0.1023893E+00  0.8667005E-03  0.5538817E-01 -0.2780592E-02 -0.2847786E-01
5454074. -0.8124852E-01  0.6822651E-02  0.5660550E-03  0.4965908E-01 -0.2618593E-02 -0.2806841E-01
5417593. -0.8103621E-01 -0.7943331E-01  0.2974998E-03  0.4418553E-01 -0.2459488E-02 -0.2747580E-01
5381111. -0.8035620E-01 -0.1565677E+00  0.5949918E-04  0.3898803E-01 -0.2304225E-02 -0.2672933E-01
5344630. -0.7926004E-01 -0.2248512E+00 -0.1495597E-03  0.3408028E-01 -0.2153605E-02 -0.2586186E-01
5308148. -0.7779734E-01 -0.2846335E+00 -0.3313621E-03  0.2946782E-01 -0.2008210E-02 -0.2490679E-01
5271667. -0.7601594E-01 -0.3362457E+00 -0.4876262E-03  0.2516324E-01 -0.1868504E-02 -0.2387926E-01
5235185. -0.7396131E-01 -0.3801265E+00 -0.6201238E-03  0.2116442E-01 -0.1734824E-02 -0.2280548E-01
5198704. -0.7167654E-01 -0.4167160E+00 -0.7305873E-03  0.1746924E-01 -0.1607373E-02 -0.2170617E-01
5162222. -0.6920211E-01 -0.4464274E+00 -0.8207801E-03  0.1408270E-01 -0.1486283E-02 -0.2058485E-01
5125741. -0.6657606E-01 -0.4697831E+00 -0.8924290E-03  0.1099091E-01 -0.1371622E-02 -0.1946541E-01
5089259. -0.6383329E-01 -0.4872447E+00 -0.9472036E-03  0.8188077E-02 -0.1263341E-02 -0.1835538E-01
5052778. -0.6100640E-01 -0.4992738E+00 -0.9867453E-03  0.5668774E-02 -0.1161385E-02 -0.1725894E-01
5016296. -0.5812486E-01 -0.5063835E+00 -0.1012632E-02  0.3415929E-02 -0.1065631E-02 -0.1618982E-01
4979815. -0.5521572E-01 -0.5090186E+00 -0.1026360E-02  0.1421088E-02 -0.9759185E-03 -0.1514989E-01
4943333. -0.5230311E-01 -0.5076455E+00 -0.1029373E-02 -0.3298495E-03 -0.8920655E-03 -0.1414388E-01
4906852. -0.4940880E-01 -0.5027262E+00 -0.1023013E-02 -0.1854589E-02 -0.8138560E-03 -0.1317964E-01
4870370. -0.4655180E-01 -0.4946518E+00 -0.1008551E-02 -0.3161849E-02 -0.7410568E-03 -0.1225354E-01
4833889. -0.4374911E-01 -0.4838587E+00 -0.9871804E-03 -0.4271044E-02 -0.6734381E-03 -0.1137217E-01
4797407. -0.4101499E-01 -0.4707303E+00 -0.9599832E-03 -0.5198537E-02 -0.6107280E-03 -0.1053786E-01
4760926. -0.3836202E-01 -0.4555989E+00 -0.9279753E-03 -0.5954111E-02 -0.5526748E-03 -0.9746405E-02
4724444. -0.3580048E-01 -0.4388323E+00 -0.8920828E-03 -0.6558155E-02 -0.4990157E-03 -0.9003155E-02
4687963. -0.3333896E-01 -0.4207268E+00 -0.8531339E-03 -0.7023640E-02 -0.4494779E-03 -0.8306820E-02
4651482. -0.3098431E-01 -0.4015577E+00 -0.8118891E-03 -0.7362794E-02 -0.4038000E-03 -0.7655212E-02
4615000. -0.2874172E-01 -0.3816024E+00 -0.7690194E-03 -0.7593116E-02 -0.3617158E-03 -0.7051258E-02
4578518. -0.2661514E-01 -0.3610747E+00 -0.7251185E-03 -0.7724621E-02 -0.3229608E-03 -0.6491926E-02
4542037. -0.2460729E-01 -0.3401891E+00 -0.6807180E-03 -0.7770543E-02 -0.2872837E-03 -0.5976932E-02
4505556. -0.2271958E-01 -0.3191342E+00 -0.6362654E-03 -0.7744455E-02 -0.2544239E-03 -0.5507524E-02
4469074. -0.2095255E-01 -0.2980482E+00 -0.5921508E-03 -0.7653608E-02 -0.2241316E-03 -0.5079623E-02
4432593. -0.1930603E-01 -0.2770840E+00 -0.5487124E-03 -0.7510775E-02 -0.1961671E-03 -0.4695093E-02
4396111. -0.1777888E-01 -0.2563503E+00 -0.5062160E-03 -0.7325247E-02 -0.1702798E-03 -0.4353331E-02
4359630. -0.1636964E-01 -0.2359289E+00 -0.4648925E-03 -0.7102863E-02 -0.1462352E-03 -0.4051812E-02
4323148. -0.1507620E-01 -0.2159064E+00 -0.4249218E-03 -0.6853762E-02 -0.1237954E-03 -0.3792798E-02
4286667. -0.1389618E-01 -0.1963303E+00 -0.3864419E-03 -0.6583247E-02 -0.1027200E-03 -0.3575153E-02
4250185. -0.1282686E-01 -0.1772368E+00 -0.3495601E-03 -0.6296275E-02 -0.8277300E-04 -0.3398795E-02
4213704. -0.1186543E-01 -0.1586578E+00 -0.3143536E-03 -0.5999101E-02 -0.6371283E-04 -0.3265716E-02
4177222. -0.1100889E-01 -0.1405956E+00 -0.2808725E-03 -0.5693653E-02 -0.4529099E-04 -0.3175746E-02
4140741. -0.1025430E-01 -0.1230556E+00 -0.2491581E-03 -0.5382932E-02 -0.2725671E-04 -0.3131057E-02
4104259. -0.9598638E-02 -0.1060311E+00 -0.2192308E-03 -0.5069033E-02 -0.9341036E-05 -0.3134396E-02
4067778. -0.9039051E-02 -0.8950433E-01 -0.1911164E-03 -0.4749803E-02  0.8733133E-05 -0.3187073E-02
4031296. -0.8572678E-02 -0.7346705E-01 -0.1648446E-03 -0.4425074E-02  0.2726195E-04 -0.3293882E-02
3994815. -0.8196775E-02 -0.5790741E-01 -0.1404560E-03 -0.4091212E-02  0.4656745E-04 -0.3459105E-02
3958333. -0.7908609E-02 -0.4282126E-01 -0.1180227E-03 -0.3740750E-02  0.6699557E-04 -0.3686783E-02
3921852. -0.7705435E-02 -0.2822794E-01 -0.9765993E-04 -0.3366674E-02  0.8892367E-04 -0.3984456E-02
3885370. -0.7584326E-02 -0.1416608E-01 -0.7953635E-04 -0.2955874E-02  0.1127734E-03 -0.4358863E-02
3848889. -0.7542031E-02 -0.7186504E-03 -0.6391051E-04 -0.2491393E-02  0.1390046E-03 -0.4818138E-02
3812407. -0.7574672E-02  0.1197875E-01 -0.5114641E-04 -0.1951886E-02  0.1681352E-03 -0.5372978E-02
3775926. -0.7677373E-02  0.2370790E-01 -0.4175854E-04 -0.1306497E-02  0.2007388E-03 -0.6033281E-02
3739444. -0.7843724E-02  0.3414335E-01 -0.3645893E-04 -0.5166759E-03  0.2374562E-03 -0.6811844E-02
3702963. -0.8065035E-02  0.4281214E-01 -0.3621243E-04  0.4683256E-03  0.2790031E-03 -0.7722633E-02
3666482. -0.8329351E-02  0.4902956E-01 -0.4232538E-04  0.1717355E-02  0.3261737E-03 -0.8778477E-02
3630000. -0.8620067E-02  0.5184388E-01 -0.5654868E-04  0.3317616E-02  0.3798455E-03 -0.9995480E-02
3630000. -0.8620067E-02  0.5184388E-01 -0.5654868E-04  0.3317616E-02  0.3798455E-03 -0.9995480E-02
3592500. -0.8922040E-02  0.4978104E-01 -0.8207814E-04  0.5451812E-02  0.4428021E-03 -0.1142829E-01
3555000. -0.9192375E-02  0.4070262E-01 -0.1220204E-03  0.8246470E-02  0.5147693E-03 -0.1305935E-01
3517500. -0.9382076E-02  0.2184310E-01 -0.1808773E-03  0.1192074E-01  0.5969498E-03 -0.1489986E-01
3480000. -0.9422914E-02 -0.1062161E-01 -0.2646449E-03  0.1676648E-01  0.6905869E-03 -0.1695168E-01
3480000. -0.9422914E-02 -0.2599570E+00 -0.5677484E-03 -0.1620231E-01  0.6905869E-03  0.1309694E-01
3409422. -0.6903458E-02 -0.1973102E+00 -0.4117872E-03 -0.1212607E-01  0.5502140E-03  0.1207690E-01
3338844. -0.5002248E-02 -0.1479516E+00 -0.2956560E-03 -0.8978776E-02  0.4254569E-03  0.1038348E-01
3268266. -0.3584742E-02 -0.1096213E+00 -0.2101017E-03 -0.6577556E-02  0.3208014E-03  0.8508447E-02
3197688. -0.2540377E-02 -0.8026326E-01 -0.1477464E-03 -0.4766805E-02  0.2365967E-03  0.6722784E-02
3127109. -0.1779975E-02 -0.5807509E-01 -0.1027884E-03 -0.3417030E-02  0.1710271E-03  0.5157311E-02
3056531. -0.1232872E-02 -0.4152324E-01 -0.7072881E-04 -0.2422460E-02  0.1213421E-03  0.3857874E-02
2985953. -0.8439077E-03 -0.2933337E-01 -0.4812091E-04 -0.1698045E-02  0.8457610E-04  0.2821910E-02
2915375. -0.5707034E-03 -0.2047002E-01 -0.3235946E-04 -0.1176535E-02  0.5794640E-04  0.2022167E-02
2844797. -0.3811609E-03 -0.1410747E-01 -0.2149930E-04 -0.8055316E-03  0.3903822E-04  0.1421355E-02
2774219. -0.2513104E-03 -0.9598820E-02 -0.1410616E-04 -0.5447787E-03  0.2586380E-04  0.9807104E-03
2703641. -0.1634991E-03 -0.6445562E-02 -0.9135639E-05 -0.3637726E-03  0.1685055E-04  0.6645515E-03
2633062. -0.1049046E-03 -0.4269590E-02 -0.5836795E-05 -0.2397178E-03  0.1079373E-04  0.4423324E-03
2562484. -0.6634396E-04 -0.2788572E-02 -0.3676698E-05 -0.1558130E-03  0.6795680E-05  0.2892032E-03
2491906. -0.4132892E-04 -0.1794728E-02 -0.2281902E-05 -0.9983334E-04  0.4203464E-05  0.1856997E-03
2421328. -0.2534210E-04 -0.1137522E-02 -0.1394355E-05 -0.6301217E-04  0.2553033E-05  0.1170647E-03
2350750. -0.1528353E-04 -0.7095052E-03 -0.8381787E-06 -0.3914989E-04  0.1521575E-05  0.7241681E-04
2280172. -0.9057703E-05 -0.4351500E-03 -0.4952219E-06 -0.2392418E-04  0.8891626E-06  0.4393248E-04
2209594. -0.5269935E-05 -0.2621950E-03 -0.2873008E-06 -0.1436643E-04  0.5090158E-06  0.2611798E-04
2139016. -0.3006907E-05 -0.1550534E-03 -0.1634845E-06 -0.8468905E-05  0.2851669E-06  0.1520257E-04
2068438. -0.1680529E-05 -0.8989418E-04 -0.9113771E-07 -0.4895385E-05  0.1561638E-06  0.8655049E-05
1997859. -0.9187679E-06 -0.5103132E-04 -0.4970720E-07 -0.2771303E-05  0.8348362E-07  0.4813710E-05
1927281. -0.4906453E-06 -0.2832742E-04 -0.2648526E-07 -0.1534341E-05  0.4350365E-07  0.2611967E-05
1856703. -0.2555137E-06 -0.1535222E-04 -0.1376361E-07 -0.8295163E-06  0.2206092E-07  0.1380574E-05
1786125. -0.1295225E-06 -0.8109224E-05 -0.6963060E-08 -0.4371581E-06  0.1086613E-07  0.7095703E-06
1715547. -0.6377660E-07 -0.4166652E-05 -0.3422205E-08 -0.2241366E-06  0.5187430E-08  0.3539243E-06
1644969. -0.3043294E-07 -0.2077996E-05 -0.1630178E-08 -0.1115544E-06  0.2394433E-08  0.1709300E-06
1574391. -0.1403538E-07 -0.1003432E-05 -0.7506710E-09 -0.5375937E-07  0.1065687E-08  0.7972497E-07
1503812. -0.6235628E-08 -0.4679492E-06 -0.3332196E-09 -0.2500663E-07  0.4558964E-09  0.3580461E-07
1433234. -0.2655322E-08 -0.2104673E-06 -0.1423142E-09 -0.1117124E-07  0.1868043E-09  0.1542959E-07
1362656. -0.1066590E-08 -0.9219263E-07 -0.5889625E-10 -0.4711641E-08  0.7303855E-10  0.6353675E-08
1292078. -0.3613665E-09 -0.4328298E-07 -0.2555431E-10 -0.1655968E-08  0.2716496E-10  0.2488078E-08
1221500.  0.4050723E-10 -0.3567781E-07 -0.1817320E-10  0.3059282E-09  0.9570364E-11  0.9325581E-09
1221500.  0.4050723E-10  0.1130407E-09 -0.1213850E-12 -0.2119074E-09  0.9570364E-11  0.9150103E-09
1183328.  0.3548126E-10  0.1314841E-08  0.6184790E-12 -0.5611139E-10  0.5343711E-11  0.5287567E-09
1145156.  0.2677355E-10  0.1485456E-08  0.7322971E-12  0.7652233E-11  0.2922796E-11  0.2995812E-09
1106984.  0.1846132E-10  0.1254742E-08  0.6135090E-12  0.2724973E-10  0.1563956E-11  0.1662140E-09
1068812.  0.1192212E-10  0.9260946E-09  0.4427075E-12  0.2792784E-10  0.8174984E-12  0.9018186E-10
1030641.  0.7298588E-11  0.6273485E-09  0.2913089E-12  0.2214116E-10  0.4167617E-12  0.4777656E-10
 992469.  0.4262844E-11  0.3983606E-09  0.1789833E-12  0.1544261E-10  0.2068336E-12  0.2467160E-10
 954297.  0.2383883E-11  0.2395862E-09  0.1038698E-12  0.9886642E-11  0.9972725E-13  0.1239406E-10
 916125.  0.1278887E-11  0.1373260E-09  0.5733040E-13  0.5901190E-11  0.4662047E-13  0.6040760E-11
 877953.  0.0000000E+00  0.0000000E+00  0.0000000E+00  0.0000000E+00  0.0000000E+00  0.0000000E+00
 839781.  0.0000000E+00  0.0000000E+00  0.0000000E+00  0.0000000E+00  0.0000000E+00  0.0000000E+00
 801609.  0.0000000E+00  0.0000000E+00  0.0000000E+00  0.0000000E+00  0.0000000E+00  0.0000000E+00
 763438.  0.0000000E+00  0.0000000E+00  0.0000000E+00  0.0000000E+00  0.0000000E+00  0.0000000E+00
 725266.  0.0000000E+00  0.0000000E+00  0.0000000E+00  0.0000000E+00  0.0000000E+00  0.0000000E+00
 687094.  0.0000000E+00  0.0000000E+00  0.0000000E+00  0.0000000E+00  0.0000000E+00  0.0000000E+00
 648922.  0.0000000E+00  0.0000000E+00  0.0000000E+00  0.0000000E+00  0.0000000E+00  0.0000000E+00
 610750.  0.0000000E+00  0.0000000E+00  0.0000000E+00  0.0000000E+00  0.0000000E+00  0.0000000E+00
 572578.  0.0000000E+00  0.0000000E+00  0.0000000E+00  0.0000000E+00  0.0000000E+00  0.0000000E+00
 534406.  0.0000000E+00  0.0000000E+00  0.0000000E+00  0.0000000E+00  0.0000000E+00  0.0000000E+00
 496234.  0.0000000E+00  0.0000000E+00  0.0000000E+00  0.0000000E+00  0.0000000E+00  0.0000000E+00
 458062.  0.0000000E+00  0.0000000E+00  0.0000000E+00  0.0000000E+00  0.0000000E+00  0.0000000E+00
 419891.  0.0000000E+00  0.0000000E+00  0.0000000E+00  0.0000000E+00  0.0000000E+00  0.0000000E+00
 381719.  0.0000000E+00  0.0000000E+00  0.0000000E+00  0.0000000E+00  0.0000000E+00  0.0000000E+00
 343547.  0.0000000E+00  0.0000000E+00  0.0000000E+00  0.0000000E+00  0.0000000E+00  0.0000000E+00
 305375.  0.0000000E+00  0.0000000E+00  0.0000000E+00  0.0000000E+00  0.0000000E+00  0.0000000E+00
 267203.  0.0000000E+00  0.0000000E+00  0.0000000E+00  0.0000000E+00  0.0000000E+00  0.0000000E+00
 229031.  0.0000000E+00  0.0000000E+00  0.0000000E+00  0.0000000E+00  0.0000000E+00  0.0000000E+00
 190859.  0.0000000E+00  0.0000000E+00  0.0000000E+00  0.0000000E+00  0.0000000E+00  0.0000000E+00
 152688.  0.0000000E+00  0.0000000E+00  0.0000000E+00  0.0000000E+00  0.0000000E+00  0.0000000E+00
 114516.  0.0000000E+00  0.0000000E+00  0.0000000E+00  0.0000000E+00  0.0000000E+00  0.0000000E+00
  76344.  0.0000000E+00  0.0000000E+00  0.0000000E+00  0.0000000E+00  0.0000000E+00  0.0000000E+00
  38172.  0.0000000E+00  0.0000000E+00  0.0000000E+00  0.0000000E+00  0.0000000E+00  0.0000000E+00
      0.  0.0000000E+00  0.0000000E+00  0.0000000E+00  0.0000000E+00  0.0000000E+00  0.0000000E+00
