       5        1 S      317        583.45923         45.73890         28.49644         90.69082      185    7
6371000.  0.2092142E-01 -0.1708072E-01 -0.7751717E-03 -0.2169660E-01  0.4441588E-10 -0.3945291E-01
6370000.  0.2092407E-01 -0.1660443E-01 -0.7717609E-03 -0.2176337E-01  0.6192980E-05 -0.3945744E-01
6369000.  0.2092664E-01 -0.1612791E-01 -0.7683397E-03 -0.2182975E-01  0.1238661E-04 -0.3946183E-01
6368000.  0.2092913E-01 -0.1565117E-01 -0.7649081E-03 -0.2189574E-01  0.1858093E-04 -0.3946609E-01
6368000.  0.2092913E-01 -0.1565117E-01 -0.7649081E-03 -0.2189574E-01  0.1858093E-04 -0.3946609E-01
6367000.  0.2093155E-01 -0.1517420E-01 -0.7614662E-03 -0.2196134E-01  0.2477590E-04 -0.3947020E-01
6366000.  0.2093389E-01 -0.1469702E-01 -0.7580140E-03 -0.2202654E-01  0.3097150E-04 -0.3947418E-01
6365000.  0.2093617E-01 -0.1421961E-01 -0.7545515E-03 -0.2209135E-01  0.3716772E-04 -0.3947802E-01
6364000.  0.2093836E-01 -0.1374199E-01 -0.7510790E-03 -0.2215576E-01  0.4336454E-04 -0.3948173E-01
6363000.  0.2094048E-01 -0.1326415E-01 -0.7475964E-03 -0.2221977E-01  0.4956192E-04 -0.3948529E-01
6362000.  0.2094252E-01 -0.1278610E-01 -0.7441037E-03 -0.2228339E-01  0.5575985E-04 -0.3948872E-01
6361000.  0.2094449E-01 -0.1230783E-01 -0.7406012E-03 -0.2234661E-01  0.6195831E-04 -0.3949201E-01
6360000.  0.2094639E-01 -0.1182935E-01 -0.7370886E-03 -0.2240942E-01  0.6815727E-04 -0.3949517E-01
6359000.  0.2094821E-01 -0.1135067E-01 -0.7335663E-03 -0.2247184E-01  0.7435672E-04 -0.3949818E-01
6358000.  0.2094995E-01 -0.1087177E-01 -0.7300342E-03 -0.2253385E-01  0.8055663E-04 -0.3950106E-01
6357000.  0.2095162E-01 -0.1039267E-01 -0.7264925E-03 -0.2259546E-01  0.8675698E-04 -0.3950380E-01
6356000.  0.2095321E-01 -0.9913366E-02 -0.7229410E-03 -0.2265667E-01  0.9295775E-04 -0.3950640E-01
6356000.  0.2095321E-01 -0.1028300E-01 -0.7229410E-03 -0.2228827E-01  0.9295775E-04 -0.4406558E-01
6355000.  0.2095480E-01 -0.9936539E-02 -0.7194396E-03 -0.2232664E-01  0.9987457E-04 -0.4406846E-01
6354000.  0.2095633E-01 -0.9589933E-02 -0.7159322E-03 -0.2236475E-01  0.1067918E-03 -0.4407124E-01
6353000.  0.2095781E-01 -0.9243184E-02 -0.7124189E-03 -0.2240259E-01  0.1137095E-03 -0.4407391E-01
6352000.  0.2095923E-01 -0.8896291E-02 -0.7088996E-03 -0.2244017E-01  0.1206276E-03 -0.4407647E-01
6351000.  0.2096060E-01 -0.8549258E-02 -0.7053743E-03 -0.2247747E-01  0.1275461E-03 -0.4407892E-01
6350000.  0.2096192E-01 -0.8202084E-02 -0.7018434E-03 -0.2251451E-01  0.1344650E-03 -0.4408126E-01
6349000.  0.2096318E-01 -0.7854770E-02 -0.6983066E-03 -0.2255128E-01  0.1413842E-03 -0.4408348E-01
6348000.  0.2096438E-01 -0.7507317E-02 -0.6947641E-03 -0.2258778E-01  0.1483038E-03 -0.4408560E-01
6347000.  0.2096553E-01 -0.7159726E-02 -0.6912158E-03 -0.2262400E-01  0.1552236E-03 -0.4408761E-01
6346600.  0.2096598E-01 -0.7020651E-02 -0.6897949E-03 -0.2263842E-01  0.1579917E-03 -0.4408838E-01
6346600.  0.2096598E-01 -0.1249744E-01 -0.6897949E-03 -0.2234625E-01  0.1579917E-03 -0.5139891E-01
6318800.  0.2100549E-01 -0.5579154E-02 -0.5908458E-03 -0.2297807E-01  0.3823833E-03 -0.5143824E-01
6291000.  0.2101438E-01  0.1536107E-02 -0.4895169E-03 -0.2343626E-01  0.6067921E-03 -0.5140650E-01
6291000.  0.2101438E-01  0.1151594E-02 -0.4895169E-03 -0.2351302E-01  0.6067921E-03 -0.5140650E-01
6263000.  0.2099292E-01  0.8647267E-02 -0.3854469E-03 -0.2381424E-01  0.8325224E-03 -0.5130422E-01
6235000.  0.2093809E-01  0.1633342E-01 -0.2804775E-03 -0.2392178E-01  0.1057635E-02 -0.5112503E-01
6207000.  0.2084908E-01  0.2420207E-01 -0.1754661E-03 -0.2383304E-01  0.1281787E-02 -0.5086710E-01
6179000.  0.2072510E-01  0.3224474E-01 -0.7127914E-04 -0.2354644E-01  0.1504630E-02 -0.5052866E-01
6151000.  0.2056542E-01  0.4045136E-01  0.3121236E-04 -0.2306146E-01  0.1725806E-02 -0.5010851E-01
6151000.  0.2056542E-01  0.2918926E-01  0.3121236E-04 -0.2283504E-01  0.1725806E-02 -0.5124630E-01
6128500.  0.2045468E-01  0.3350597E-01  0.1110281E-03 -0.2234818E-01  0.1906691E-02 -0.5118490E-01
6106000.  0.2032887E-01  0.3772176E-01  0.1889424E-03 -0.2175869E-01  0.2087294E-02 -0.5108657E-01
6083500.  0.2018836E-01  0.4183546E-01  0.2645981E-03 -0.2106964E-01  0.2267485E-02 -0.5095166E-01
6061000.  0.2003350E-01  0.4584605E-01  0.3376494E-03 -0.2028435E-01  0.2447137E-02 -0.5078097E-01
6038500.  0.1986466E-01  0.4975318E-01  0.4077625E-03 -0.1940634E-01  0.2626123E-02 -0.5057487E-01
6016000.  0.1968220E-01  0.5355602E-01  0.4746165E-03 -0.1843932E-01  0.2804319E-02 -0.5033375E-01
5993500.  0.1948650E-01  0.5725389E-01  0.5379040E-03 -0.1738719E-01  0.2981603E-02 -0.5005843E-01
5971000.  0.1927793E-01  0.6084704E-01  0.5973313E-03 -0.1625401E-01  0.3157854E-02 -0.4974920E-01
5971000.  0.1927793E-01  0.5376383E-01  0.5973313E-03 -0.1665920E-01  0.3157854E-02 -0.5227284E-01
5937667.  0.1898875E-01  0.5671820E-01  0.6805842E-03 -0.1515469E-01  0.3431000E-02 -0.5213199E-01
5904333.  0.1868501E-01  0.5933506E-01  0.7558154E-03 -0.1359478E-01  0.3703282E-02 -0.5194055E-01
5871000.  0.1836840E-01  0.6164134E-01  0.8227740E-03 -0.1199584E-01  0.3974430E-02 -0.5170197E-01
5837667.  0.1804049E-01  0.6366219E-01  0.8812965E-03 -0.1037218E-01  0.4244214E-02 -0.5141956E-01
5804333.  0.1770269E-01  0.6542133E-01  0.9312885E-03 -0.8736317E-02  0.4512419E-02 -0.5109601E-01
5771000.  0.1735633E-01  0.6693932E-01  0.9727130E-03 -0.7099399E-02  0.4778823E-02 -0.5073434E-01
5771000.  0.1735633E-01  0.6693854E-01  0.9727130E-03 -0.7099758E-02  0.4778823E-02 -0.5073434E-01
5701000.  0.1657605E-01  0.7499995E-01  0.1026852E-02 -0.2699612E-02  0.5326445E-02 -0.4890755E-01
5701000.  0.1657605E-01  0.6038707E-01  0.1026852E-02 -0.5818072E-02  0.5326445E-02 -0.5357974E-01
5667333.  0.1625875E-01  0.6024793E-01  0.1055465E-02 -0.4868392E-02  0.5607427E-02 -0.5279187E-01
5633667.  0.1593380E-01  0.6297098E-01  0.1076742E-02 -0.3106673E-02  0.5884625E-02 -0.5212663E-01
5600000.  0.1559392E-01  0.6559729E-01  0.1088348E-02 -0.1292792E-02  0.6158215E-02 -0.5140901E-01
5600000.  0.1559392E-01  0.6559729E-01  0.1088348E-02 -0.1292792E-02  0.6158215E-02 -0.5140901E-01
5563518.  0.1521043E-01  0.6832601E-01  0.1090005E-02  0.7222556E-03  0.6450245E-02 -0.5057802E-01
5527037.  0.1481163E-01  0.7094628E-01  0.1079989E-02  0.2783165E-02  0.6737345E-02 -0.4969012E-01
5490556.  0.1439815E-01  0.7345496E-01  0.1058060E-02  0.4881531E-02  0.7019201E-02 -0.4874726E-01
5454074.  0.1397063E-01  0.7584414E-01  0.1024031E-02  0.7007978E-02  0.7295517E-02 -0.4775231E-01
5417593.  0.1352976E-01  0.7812746E-01  0.9777588E-03  0.9156776E-02  0.7565977E-02 -0.4670453E-01
5381111.  0.1307611E-01  0.8029711E-01  0.9191389E-03  0.1131872E-01  0.7830299E-02 -0.4560649E-01
5344630.  0.1261038E-01  0.8235434E-01  0.8481233E-03  0.1348595E-01  0.8088185E-02 -0.4445949E-01
5308148.  0.1213316E-01  0.8430761E-01  0.7646928E-03  0.1565268E-01  0.8339372E-02 -0.4326384E-01
5271667.  0.1164509E-01  0.8614565E-01  0.6688854E-03  0.1780831E-01  0.8583572E-02 -0.4202231E-01
5235185.  0.1114679E-01  0.8787776E-01  0.5607764E-03  0.1994763E-01  0.8820539E-02 -0.4073527E-01
5198704.  0.1063888E-01  0.8950807E-01  0.4404809E-03  0.2206411E-01  0.9050001E-02 -0.3940358E-01
5162222.  0.1012195E-01  0.9102283E-01  0.3081565E-03  0.2414658E-01  0.9271724E-02 -0.3803016E-01
5125741.  0.9596643E-02  0.9243833E-01  0.1640150E-03  0.2619223E-01  0.9485456E-02 -0.3661472E-01
5089259.  0.9063508E-02  0.9375123E-01  0.8278766E-05  0.2819315E-01  0.9690972E-02 -0.3515885E-01
5052778.  0.8523185E-02  0.9495598E-01 -0.1587594E-03  0.3014037E-01  0.9888035E-02 -0.3366457E-01
5016296.  0.7976224E-02  0.9606446E-01 -0.3367925E-03  0.3203082E-01  0.1007644E-01 -0.3213212E-01
4979815.  0.7423223E-02  0.9706990E-01 -0.5254622E-03  0.3385575E-01  0.1025595E-01 -0.3056334E-01
4943333.  0.6864742E-02  0.9797499E-01 -0.7243848E-03  0.3560957E-01  0.1042639E-01 -0.2895940E-01
4906852.  0.6301356E-02  0.9878805E-01 -0.9331341E-03  0.3728864E-01  0.1058754E-01 -0.2732099E-01
4870370.  0.5733592E-02  0.9949809E-01 -0.1151265E-02  0.3888312E-01  0.1073922E-01 -0.2565005E-01
4833889.  0.5162048E-02  0.1001162E+00 -0.1378272E-02  0.4039084E-01  0.1088123E-01 -0.2394729E-01
4797407.  0.4587198E-02  0.1006454E+00 -0.1613663E-02  0.4180750E-01  0.1101341E-01 -0.2221361E-01
4760926.  0.4009620E-02  0.1010753E+00 -0.1856873E-02  0.4312365E-01  0.1113558E-01 -0.2045085E-01
4724444.  0.3429811E-02  0.1014207E+00 -0.2107340E-02  0.4433951E-01  0.1124757E-01 -0.1865948E-01
4687963.  0.2848287E-02  0.1016786E+00 -0.2364462E-02  0.4544896E-01  0.1134922E-01 -0.1684081E-01
4651482.  0.2265548E-02  0.1018462E+00 -0.2627616E-02  0.4644596E-01  0.1144038E-01 -0.1499605E-01
4615000.  0.1682061E-02  0.1019350E+00 -0.2896165E-02  0.4733071E-01  0.1152091E-01 -0.1312590E-01
4578518.  0.1098305E-02  0.1019389E+00 -0.3169443E-02  0.4809610E-01  0.1159066E-01 -0.1123159E-01
4542037.  0.5147803E-03  0.1018622E+00 -0.3446747E-02  0.4873994E-01  0.1164950E-01 -0.9314147E-02
4505556. -0.6810063E-04  0.1017132E+00 -0.3727390E-02  0.4926162E-01  0.1169729E-01 -0.7374397E-02
4469074. -0.6499087E-03  0.1014819E+00 -0.4010659E-02  0.4965353E-01  0.1173391E-01 -0.5413251E-02
4432593. -0.1230171E-02  0.1011810E+00 -0.4295797E-02  0.4991724E-01  0.1175924E-01 -0.3431778E-02
4396111. -0.1808538E-02  0.1008128E+00 -0.4582081E-02  0.5005066E-01  0.1177318E-01 -0.1430689E-02
4359630. -0.2384562E-02  0.1003694E+00 -0.4868733E-02  0.5004792E-01  0.1177559E-01  0.5892230E-03
4323148. -0.2957888E-02  0.9986617E-01 -0.5154996E-02  0.4991215E-01  0.1176639E-01  0.2626948E-02
4286667. -0.3528139E-02  0.9929994E-01 -0.5440084E-02  0.4963973E-01  0.1174548E-01  0.4681853E-02
4250185. -0.4094978E-02  0.9867039E-01 -0.5723222E-02  0.4922854E-01  0.1171274E-01  0.6753386E-02
4213704. -0.4658047E-02  0.9798907E-01 -0.6003608E-02  0.4868114E-01  0.1166810E-01  0.8840392E-02
4177222. -0.5217066E-02  0.9725012E-01 -0.6280468E-02  0.4799353E-01  0.1161147E-01  0.1094282E-01
4140741. -0.5771687E-02  0.9646035E-01 -0.6552982E-02  0.4716682E-01  0.1154276E-01  0.1305968E-01
4104259. -0.6321681E-02  0.9562797E-01 -0.6820378E-02  0.4620291E-01  0.1146188E-01  0.1519025E-01
4067778. -0.6866745E-02  0.9474397E-01 -0.7081843E-02  0.4509738E-01  0.1136876E-01  0.1733482E-01
4031296. -0.7406648E-02  0.9382265E-01 -0.7336588E-02  0.4385467E-01  0.1126333E-01  0.1949211E-01
3994815. -0.7941166E-02  0.9286696E-01 -0.7583823E-02  0.4247542E-01  0.1114551E-01  0.2166166E-01
3958333. -0.8470106E-02  0.9187032E-01 -0.7822765E-02  0.4095676E-01  0.1101523E-01  0.2384432E-01
3921852. -0.8993248E-02  0.9084865E-01 -0.8052620E-02  0.3930417E-01  0.1087242E-01  0.2603829E-01
3885370. -0.9510479E-02  0.8979986E-01 -0.8272632E-02  0.3751674E-01  0.1071700E-01  0.2824415E-01
3848889. -0.1002161E-01  0.8872561E-01 -0.8482019E-02  0.3559545E-01  0.1054893E-01  0.3046200E-01
3812407. -0.1052657E-01  0.8763794E-01 -0.8680037E-02  0.3354420E-01  0.1036812E-01  0.3269063E-01
3775926. -0.1102523E-01  0.8653182E-01 -0.8865929E-02  0.3136229E-01  0.1017452E-01  0.3493136E-01
3739444. -0.1151754E-01  0.8541636E-01 -0.9038965E-02  0.2905282E-01  0.9968054E-02  0.3718362E-01
3702963. -0.1200345E-01  0.8430037E-01 -0.9198417E-02  0.2661914E-01  0.9748664E-02  0.3944651E-01
3666482. -0.1248294E-01  0.8317787E-01 -0.9343575E-02  0.2406098E-01  0.9516278E-02  0.4172248E-01
3630000. -0.1295604E-01  0.8206322E-01 -0.9473742E-02  0.2138258E-01  0.9270821E-02  0.4400982E-01
3630000. -0.1295604E-01  0.8206322E-01 -0.9473742E-02  0.2138258E-01  0.9270821E-02  0.4400982E-01
3592500. -0.1343571E-01  0.8092314E-01 -0.9591195E-02  0.1850536E-01  0.9004824E-02  0.4637493E-01
3555000. -0.1390869E-01  0.7979590E-01 -0.9691348E-02  0.1550553E-01  0.8724863E-02  0.4875441E-01
3517500. -0.1437512E-01  0.7869485E-01 -0.9773493E-02  0.1238647E-01  0.8430857E-02  0.5114698E-01
3480000. -0.1483514E-01  0.7762033E-01 -0.9836934E-02  0.9150453E-02  0.8122724E-02  0.5355492E-01
3480000. -0.1483514E-01  0.1593204E+00 -0.3196628E-02 -0.2125453E-01  0.8122724E-02  0.1008625E+00
3409422. -0.1654662E-01  0.1496536E+00 -0.2938266E-02 -0.2539731E-01  0.6928810E-02  0.1145988E+00
3338844. -0.1815073E-01  0.1399505E+00 -0.2633736E-02 -0.2959125E-01  0.5585642E-02  0.1278019E+00
3268266. -0.1964750E-01  0.1302848E+00 -0.2282429E-02 -0.3384291E-01  0.4099326E-02  0.1404374E+00
3197688. -0.2103772E-01  0.1207258E+00 -0.1883670E-02 -0.3815988E-01  0.2476305E-02  0.1524784E+00
3127109. -0.2232295E-01  0.1113383E+00 -0.1436672E-02 -0.4255276E-01  0.7232559E-03  0.1639054E+00
3056531. -0.2350542E-01  0.1021861E+00 -0.9405368E-03 -0.4703443E-01 -0.1152895E-02  0.1747060E+00
2985953. -0.2458809E-01  0.9333158E-01 -0.3941906E-03 -0.5162062E-01 -0.3145203E-02  0.1848760E+00
2915375. -0.2557461E-01  0.8483887E-01  0.2036269E-03 -0.5633047E-01 -0.5246694E-02  0.1944187E+00
2844797. -0.2646936E-01  0.7677455E-01  0.8544094E-03 -0.6118698E-01 -0.7450470E-02  0.2033450E+00
2774219. -0.2727748E-01  0.6920990E-01  0.1559929E-02 -0.6621750E-01 -0.9749807E-02  0.2116750E+00
2703641. -0.2800491E-01  0.6222269E-01  0.2322290E-02 -0.7145535E-01 -0.1213825E-01  0.2194375E+00
2633062. -0.2865854E-01  0.5589903E-01  0.3144019E-02 -0.7694042E-01 -0.1460975E-01  0.2266712E+00
2562484. -0.2924623E-01  0.5033738E-01  0.4028079E-02 -0.8271911E-01 -0.1715864E-01  0.2334258E+00
2491906. -0.2977705E-01  0.4565070E-01  0.4978041E-02 -0.8884930E-01 -0.1978000E-01  0.2397639E+00
2421328. -0.3026139E-01  0.4197120E-01  0.5998181E-02 -0.9540123E-01 -0.2246960E-01  0.2457616E+00
2350750. -0.3071125E-01  0.3945450E-01  0.7093613E-02 -0.1024575E+00 -0.2522418E-01  0.2515114E+00
2280172. -0.3114052E-01  0.3828824E-01  0.8270469E-02 -0.1101208E+00 -0.2804159E-01  0.2571255E+00
2209594. -0.3156538E-01  0.3869914E-01  0.9536156E-02 -0.1185172E+00 -0.3092105E-01  0.2627381E+00
2139016. -0.3200478E-01  0.4096529E-01  0.1089962E-01 -0.1278026E+00 -0.3386341E-01  0.2685113E+00
2068438. -0.3248111E-01  0.4542891E-01  0.1237174E-01 -0.1381694E+00 -0.3687149E-01  0.2746397E+00
1997859. -0.3302101E-01  0.5252028E-01  0.1396579E-01 -0.1498575E+00 -0.3995055E-01  0.2813597E+00
1927281. -0.3365644E-01  0.6277848E-01  0.1569801E-01 -0.1631731E+00 -0.4310858E-01  0.2889582E+00
1856703. -0.3442615E-01  0.7689396E-01  0.1758848E-01 -0.1785020E+00 -0.4635724E-01  0.2977864E+00
1786125. -0.3537758E-01  0.9575266E-01  0.1966214E-01 -0.1963383E+00 -0.4971248E-01  0.3082778E+00
1715547. -0.3656938E-01  0.1205090E+00  0.2195018E-01 -0.2173278E+00 -0.5319557E-01  0.3209718E+00
1644969. -0.3807491E-01  0.1526830E+00  0.2449198E-01 -0.2423103E+00 -0.5683454E-01  0.3365451E+00
1574391. -0.3998701E-01  0.1943002E+00  0.2733762E-01 -0.2723987E+00 -0.6066585E-01  0.3558581E+00
1503812. -0.4242471E-01  0.2480952E+00  0.3055161E-01 -0.3090906E+00 -0.6473685E-01  0.3800159E+00
1433234. -0.4554246E-01  0.3178093E+00  0.3421767E-01 -0.3544174E+00 -0.6910869E-01  0.4104551E+00
1362656. -0.4954384E-01  0.4086456E+00  0.3844623E-01 -0.4111925E+00 -0.7386102E-01  0.4490715E+00
1292078. -0.5470118E-01  0.5279567E+00  0.4338467E-01 -0.4833543E+00 -0.7909778E-01  0.4984029E+00
1221500. -0.6138489E-01  0.6863261E+00  0.4923281E-01 -0.5765541E+00 -0.8495580E-01  0.5619043E+00
1221500. -0.6138489E-01  0.9230436E+01  0.1083669E+01  0.5972280E+01 -0.8495580E-01  0.5884964E+00
1183328. -0.1184827E+00  0.9821947E+01  0.1042402E+01  0.7797640E+01 -0.8822791E-01  0.5039468E+00
1145156. -0.1789976E+00  0.1037035E+02  0.9903119E+00  0.9581821E+01 -0.9099717E-01  0.4206598E+00
1106984. -0.2426587E+00  0.1087150E+02  0.9276995E+00  0.1130723E+02 -0.9327140E-01  0.3387184E+00
1068812. -0.3091712E+00  0.1132157E+02  0.8549677E+00  0.1295698E+02 -0.9505894E-01  0.2582161E+00
1030641. -0.3782167E+00  0.1171708E+02  0.7726206E+00  0.1451501E+02 -0.9636866E-01  0.1792436E+00
 992469. -0.4494625E+00  0.1205493E+02  0.6812487E+00  0.1596637E+02 -0.9721003E-01  0.1018912E+00
 954297. -0.5225528E+00  0.1233237E+02  0.5815356E+00  0.1729709E+02 -0.9759309E-01  0.2626587E-01
 916125. -0.5971184E+00  0.1254705E+02  0.4742431E+00  0.1849441E+02 -0.9752843E-01 -0.4754318E-01
 877953. -0.6727775E+00  0.1269708E+02  0.3602049E+00  0.1954707E+02 -0.9702724E-01 -0.1194259E+00
 839781. -0.7491376E+00  0.1278089E+02  0.2403188E+00  0.2044492E+02 -0.9610141E-01 -0.1892772E+00
 801609. -0.8257989E+00  0.1279745E+02  0.1155381E+00  0.2117959E+02 -0.9476340E-01 -0.2569967E+00
 763438. -0.9023540E+00  0.1274607E+02 -0.1313371E-01  0.2174390E+02 -0.9302635E-01 -0.3224703E+00
 725266. -0.9783992E+00  0.1262655E+02 -0.1446662E+00  0.2213260E+02 -0.9090398E-01 -0.3855942E+00
 687094. -0.1053524E+01  0.1243908E+02 -0.2779910E+00  0.2234165E+02 -0.8841065E-01 -0.4462743E+00
 648922. -0.1127324E+01  0.1218431E+02 -0.4120242E+00  0.2236886E+02 -0.8556140E-01 -0.5043832E+00
 610750. -0.1199398E+01  0.1186330E+02 -0.5456738E+00  0.2221359E+02 -0.8237193E-01 -0.5598311E+00
 572578. -0.1269354E+01  0.1147752E+02 -0.6778483E+00  0.2187680E+02 -0.7885845E-01 -0.6125165E+00
 534406. -0.1336810E+01  0.1102886E+02 -0.8074670E+00  0.2136099E+02 -0.7503786E-01 -0.6623306E+00
 496234. -0.1401394E+01  0.1051956E+02 -0.9334688E+00  0.2067022E+02 -0.7092765E-01 -0.7091753E+00
 458062. -0.1462751E+01  0.9952271E+01 -0.1054821E+01  0.1981004E+02 -0.6654587E-01 -0.7529672E+00
 419891. -0.1520542E+01  0.9330002E+01 -0.1170526E+01  0.1878746E+02 -0.6191124E-01 -0.7936056E+00
 381719. -0.1574449E+01  0.8656042E+01 -0.1279641E+01  0.1761078E+02 -0.5704262E-01 -0.8310197E+00
 343547. -0.1624172E+01  0.7934050E+01 -0.1381268E+01  0.1628957E+02 -0.5195973E-01 -0.8651184E+00
 305375. -0.1669435E+01  0.7167979E+01 -0.1474573E+01  0.1483481E+02 -0.4668261E-01 -0.8958403E+00
 267203. -0.1709987E+01  0.6362011E+01 -0.1558791E+01  0.1325830E+02 -0.4123173E-01 -0.9231076E+00
 229031. -0.1745601E+01  0.5520609E+01 -0.1633231E+01  0.1157310E+02 -0.3562799E-01 -0.9468578E+00
 190859. -0.1776079E+01  0.4648411E+01 -0.1697283E+01  0.9792939E+01 -0.2989260E-01 -0.9670496E+00
 152688. -0.1801251E+01  0.3750300E+01 -0.1750419E+01  0.7932524E+01 -0.2404714E-01 -0.9836395E+00
 114516. -0.1820977E+01  0.2831225E+01 -0.1792207E+01  0.6007039E+01 -0.1811304E-01 -0.9965789E+00
  76344. -0.1835146E+01  0.1896321E+01 -0.1822303E+01  0.4032269E+01 -0.1211246E-01 -0.1005829E+01
  38172. -0.1843679E+01  0.9508283E+00 -0.1840460E+01  0.2024420E+01 -0.6067651E-02 -0.1011298E+01
      0. -0.1846528E+01  0.0000000E+00 -0.1846525E+01  0.0000000E+00  0.0000000E+00 -0.1013410E+01
