       2       41 S      205        126.31550          7.63630          5.98529        166.19360      185    7
6371000. -0.6086738E-01 -0.1359220E+01 -0.2078941E-02  0.5878844E-01  0.2631915E-02  0.4241206E-02
6370000. -0.6065132E-01 -0.1393809E+01 -0.2088023E-02  0.5693635E-01  0.2631257E-02  0.4149752E-02
6369000. -0.6042986E-01 -0.1427972E+01 -0.2096813E-02  0.5506593E-01  0.2630613E-02  0.4052892E-02
6368000. -0.6020307E-01 -0.1461704E+01 -0.2105309E-02  0.5317754E-01  0.2629985E-02  0.3950603E-02
6368000. -0.6020307E-01 -0.1461704E+01 -0.2105309E-02  0.5317754E-01  0.2629985E-02  0.3950603E-02
6367000. -0.5997102E-01 -0.1494998E+01 -0.2113506E-02  0.5127152E-01  0.2629373E-02  0.3842862E-02
6366000. -0.5973378E-01 -0.1527850E+01 -0.2121403E-02  0.4934823E-01  0.2628779E-02  0.3729643E-02
6365000. -0.5949141E-01 -0.1560254E+01 -0.2128997E-02  0.4740801E-01  0.2628202E-02  0.3610922E-02
6364000. -0.5924400E-01 -0.1592205E+01 -0.2136284E-02  0.4545124E-01  0.2627645E-02  0.3486675E-02
6363000. -0.5899161E-01 -0.1623697E+01 -0.2143264E-02  0.4347825E-01  0.2627108E-02  0.3356878E-02
6362000. -0.5873431E-01 -0.1654725E+01 -0.2149933E-02  0.4148942E-01  0.2626592E-02  0.3221505E-02
6361000. -0.5847218E-01 -0.1685285E+01 -0.2156288E-02  0.3948512E-01  0.2626097E-02  0.3080532E-02
6360000. -0.5820529E-01 -0.1715372E+01 -0.2162327E-02  0.3746572E-01  0.2625625E-02  0.2933934E-02
6359000. -0.5793371E-01 -0.1744979E+01 -0.2168048E-02  0.3543160E-01  0.2625176E-02  0.2781686E-02
6358000. -0.5765752E-01 -0.1774104E+01 -0.2173449E-02  0.3338313E-01  0.2624752E-02  0.2623762E-02
6357000. -0.5737681E-01 -0.1802741E+01 -0.2178527E-02  0.3132069E-01  0.2624353E-02  0.2460138E-02
6356000. -0.5709163E-01 -0.1830885E+01 -0.2183281E-02  0.2924468E-01  0.2623980E-02  0.2290787E-02
6356000. -0.5709163E-01 -0.1514501E+01 -0.2183281E-02  0.3946923E-01  0.2623980E-02  0.1471326E-01
6355000. -0.5685218E-01 -0.1536471E+01 -0.2189400E-02  0.3850354E-01  0.2621671E-02  0.1471016E-01
6354000. -0.5660931E-01 -0.1558210E+01 -0.2195367E-02  0.3752977E-01  0.2619362E-02  0.1470404E-01
6353000. -0.5636304E-01 -0.1579715E+01 -0.2201181E-02  0.3654802E-01  0.2617055E-02  0.1469489E-01
6352000. -0.5611341E-01 -0.1600985E+01 -0.2206840E-02  0.3555841E-01  0.2614749E-02  0.1468271E-01
6351000. -0.5586047E-01 -0.1622016E+01 -0.2212343E-02  0.3456104E-01  0.2612446E-02  0.1466749E-01
6350000. -0.5560424E-01 -0.1642806E+01 -0.2217689E-02  0.3355603E-01  0.2610145E-02  0.1464922E-01
6349000. -0.5534476E-01 -0.1663354E+01 -0.2222877E-02  0.3254349E-01  0.2607848E-02  0.1462788E-01
6348000. -0.5508209E-01 -0.1683656E+01 -0.2227905E-02  0.3152352E-01  0.2605553E-02  0.1460348E-01
6347000. -0.5481624E-01 -0.1703711E+01 -0.2232773E-02  0.3049624E-01  0.2603263E-02  0.1457600E-01
6346600. -0.5470902E-01 -0.1711663E+01 -0.2234674E-02  0.3008331E-01  0.2602349E-02  0.1456415E-01
6346600. -0.5470902E-01 -0.1759250E+01 -0.2234674E-02  0.3742277E-01  0.2602349E-02  0.3364039E-01
6318800. -0.4605613E-01 -0.2190758E+01 -0.2372153E-02  0.2497429E-01  0.2452169E-02  0.3507536E-01
6291000. -0.3575173E-01 -0.2511427E+01 -0.2447897E-02  0.9281971E-02  0.2297168E-02  0.3587538E-01
6291000. -0.3575173E-01 -0.2576249E+01 -0.2447897E-02  0.8433516E-02  0.2297168E-02  0.3587538E-01
6263000. -0.2397595E-01 -0.2755254E+01 -0.2441323E-02 -0.1170394E-01  0.2140248E-02  0.3544876E-01
6235000. -0.1178545E-01 -0.2762824E+01 -0.2343651E-02 -0.3277421E-01  0.1986235E-02  0.3457459E-01
6207000.  0.4682127E-04 -0.2592087E+01 -0.2154100E-02 -0.5325998E-01  0.1836808E-02  0.3338341E-01
6179000.  0.1074474E-01 -0.2248568E+01 -0.1878573E-02 -0.7165530E-01  0.1693068E-02  0.3200909E-01
6151000.  0.1958404E-01 -0.1750296E+01 -0.1529368E-02 -0.8657294E-01  0.1555526E-02  0.3058485E-01
6151000.  0.1958404E-01 -0.1630561E+01 -0.1529368E-02 -0.7872776E-01  0.1555526E-02  0.2950135E-01
6128500.  0.2462084E-01 -0.1215824E+01 -0.1242872E-02 -0.8310531E-01  0.1451589E-02  0.2934501E-01
6106000.  0.2813723E-01 -0.7721539E+00 -0.9453285E-03 -0.8497767E-01  0.1348336E-02  0.2911941E-01
6083500.  0.3005923E-01 -0.3155354E+00 -0.6455980E-03 -0.8435243E-01  0.1245954E-02  0.2885652E-01
6061000.  0.3036915E-01  0.1382228E+00 -0.3523551E-03 -0.8132694E-01  0.1144525E-02  0.2858450E-01
6038500.  0.2910403E-01  0.5740246E+00 -0.7378382E-04 -0.7607939E-01  0.1044033E-02  0.2833060E-01
6016000.  0.2635225E-01  0.9779672E+00  0.1826854E-03 -0.6885619E-01  0.9443659E-03  0.2812205E-01
5993500.  0.2224856E-01  0.1337753E+01  0.4105919E-03 -0.5995783E-01  0.8453140E-03  0.2798696E-01
5971000.  0.1696780E-01  0.1643025E+01  0.6046118E-03 -0.4972507E-01  0.7465631E-03  0.2795727E-01
5971000.  0.1696780E-01  0.1520576E+01  0.6046118E-03 -0.4617047E-01  0.7465631E-03  0.2573604E-01
5937667.  0.8231837E-02  0.1797436E+01  0.8089524E-03 -0.3196853E-01  0.6162323E-03  0.2404993E-01
5904333. -0.1622117E-02  0.1949001E+01  0.9402916E-03 -0.1842112E-01  0.4952935E-03  0.2213959E-01
5871000. -0.1196318E-01  0.1986133E+01  0.1004252E-02 -0.6319723E-02  0.3849806E-03  0.1998856E-01
5837667. -0.2223467E-01  0.1925528E+01  0.1009814E-02  0.3843905E-02  0.2865475E-03  0.1760019E-01
5804333. -0.3197665E-01  0.1787064E+01  0.9678203E-03  0.1183921E-01  0.2011975E-03  0.1498945E-01
5771000. -0.4083572E-01  0.1591600E+01  0.8897505E-03  0.1764665E-01  0.1300484E-03  0.1217583E-01
5771000. -0.4083572E-01  0.1591704E+01  0.8897505E-03  0.1764757E-01  0.1300484E-03  0.1217583E-01
5701000. -0.5588353E-01  0.1127211E+01  0.6637511E-03  0.2243610E-01  0.4191639E-04  0.3743773E-02
5701000. -0.5588353E-01  0.9961698E+00  0.6637511E-03  0.3097270E-01  0.4191639E-04  0.1949533E-01
5667333. -0.6033846E-01  0.7016624E+00  0.5003606E-03  0.3027820E-01 -0.4375534E-04  0.1318965E-01
5633667. -0.6340092E-01  0.4631632E+00  0.3489302E-03  0.2683260E-01 -0.1007982E-03  0.8673957E-02
5600000. -0.6527158E-01  0.2485744E+00  0.2160610E-03  0.2351961E-01 -0.1374252E-03  0.5347346E-02
5600000. -0.6527158E-01  0.2485744E+00  0.2160610E-03  0.2351961E-01 -0.1374252E-03  0.5347346E-02
5563518. -0.6609324E-01  0.4318304E-01  0.9137546E-04  0.2005432E-01 -0.1601680E-03  0.2745355E-02
5527037. -0.6582076E-01 -0.1335989E+00 -0.1393472E-04  0.1675984E-01 -0.1703400E-03  0.9177973E-03
5490556. -0.6461710E-01 -0.2821764E+00 -0.1009597E-03  0.1367406E-01 -0.1717682E-03 -0.3367006E-03
5454074. -0.6264114E-01 -0.4035536E+00 -0.1710003E-03  0.1083082E-01 -0.1672983E-03 -0.1164772E-02
5417593. -0.6004449E-01 -0.4992789E+00 -0.2254898E-03  0.8245583E-02 -0.1590019E-03 -0.1690255E-02
5381111. -0.5696867E-01 -0.5712258E+00 -0.2659593E-03  0.5936001E-02 -0.1483662E-03 -0.1992983E-02
5344630. -0.5354389E-01 -0.6215904E+00 -0.2940104E-03  0.3908017E-02 -0.1364804E-03 -0.2136913E-02
5308148. -0.4988669E-01 -0.6527659E+00 -0.3112413E-03  0.2156129E-02 -0.1240972E-03 -0.2172974E-02
5271667. -0.4610031E-01 -0.6671594E+00 -0.3192293E-03  0.6784271E-03 -0.1117464E-03 -0.2130197E-02
5235185. -0.4227345E-01 -0.6672813E+00 -0.3195017E-03 -0.5422928E-03 -0.9979647E-04 -0.2037430E-02
5198704. -0.3848110E-01 -0.6555279E+00 -0.3134724E-03 -0.1525087E-02 -0.8846775E-04 -0.1915187E-02
5162222. -0.3478461E-01 -0.6341336E+00 -0.3024646E-03 -0.2284681E-02 -0.7790748E-04 -0.1770814E-02
5125741. -0.3123305E-01 -0.6052841E+00 -0.2876789E-03 -0.2849315E-02 -0.6819935E-04 -0.1619686E-02
5089259. -0.2786335E-01 -0.5708787E+00 -0.2701628E-03 -0.3241511E-02 -0.5936079E-04 -0.1467314E-02
5052778. -0.2470255E-01 -0.5326241E+00 -0.2508451E-03 -0.3482903E-02 -0.5139318E-04 -0.1316431E-02
5016296. -0.2176802E-01 -0.4920482E+00 -0.2305124E-03 -0.3599803E-02 -0.4426971E-04 -0.1173000E-02
4979815. -0.1906952E-01 -0.4504072E+00 -0.2098182E-03 -0.3612642E-02 -0.3794463E-04 -0.1037617E-02
4943333. -0.1660983E-01 -0.4087718E+00 -0.1892985E-03 -0.3542234E-02 -0.3236919E-04 -0.9115417E-03
4906852. -0.1438646E-01 -0.3680145E+00 -0.1693713E-03 -0.3408723E-02 -0.2748321E-04 -0.7968018E-03
4870370. -0.1239233E-01 -0.3287842E+00 -0.1503542E-03 -0.3226621E-02 -0.2322624E-04 -0.6916937E-03
4833889. -0.1061721E-01 -0.2916094E+00 -0.1324812E-03 -0.3011824E-02 -0.1954120E-04 -0.5972792E-03
4797407. -0.9048147E-02 -0.2568407E+00 -0.1158997E-03 -0.2777016E-02 -0.1636566E-04 -0.5134468E-03
4760926. -0.7670796E-02 -0.2246939E+00 -0.1006995E-03 -0.2531101E-02 -0.1364452E-04 -0.4385034E-03
4724444. -0.6469632E-02 -0.1953028E+00 -0.8691535E-04 -0.2283673E-02 -0.1132593E-04 -0.3728230E-03
4687963. -0.5428830E-02 -0.1686901E+00 -0.7453709E-04 -0.2040986E-02 -0.9359001E-05 -0.3154657E-03
4651482. -0.4532559E-02 -0.1448105E+00 -0.6352398E-04 -0.1807633E-02 -0.7699503E-05 -0.2653681E-03
4615000. -0.3765380E-02 -0.1235728E+00 -0.5380937E-04 -0.1587867E-02 -0.6306374E-05 -0.2223143E-03
4578518. -0.3112586E-02 -0.1048325E+00 -0.4530935E-04 -0.1383663E-02 -0.5142098E-05 -0.1852666E-03
4542037. -0.2560354E-02 -0.8842600E-01 -0.3793053E-04 -0.1196569E-02 -0.4174467E-05 -0.1535828E-03
4505556. -0.2095819E-02 -0.7416932E-01 -0.3157162E-04 -0.1027446E-02 -0.3373741E-05 -0.1268411E-03
4469074. -0.1707226E-02 -0.6186425E-01 -0.2613046E-04 -0.8759025E-03 -0.2714282E-05 -0.1041257E-03
4432593. -0.1383971E-02 -0.5132006E-01 -0.2150733E-04 -0.7417062E-03 -0.2174200E-05 -0.8509872E-04
4396111. -0.1116506E-02 -0.4234330E-01 -0.1760469E-04 -0.6240107E-03 -0.1733610E-05 -0.6926391E-04
4359630. -0.8964064E-03 -0.3474903E-01 -0.1433194E-04 -0.5215438E-03 -0.1376057E-05 -0.5603531E-04
4323148. -0.7162394E-03 -0.2836623E-01 -0.1160478E-04 -0.4332219E-03 -0.1087368E-05 -0.4515614E-04
4286667. -0.5695447E-03 -0.2303381E-01 -0.9346206E-05 -0.3576560E-03 -0.8552307E-06 -0.3621725E-04
4250185. -0.4507264E-03 -0.1860540E-01 -0.7487101E-05 -0.2934655E-03 -0.6695370E-06 -0.2889200E-04
4213704. -0.3549952E-03 -0.1495025E-01 -0.5965995E-05 -0.2394023E-03 -0.5216787E-06 -0.2296208E-04
4177222. -0.2782638E-03 -0.1195000E-01 -0.4728603E-05 -0.1941479E-03 -0.4044363E-06 -0.1815787E-04
4140741. -0.2170876E-03 -0.9501766E-02 -0.3727956E-05 -0.1565430E-03 -0.3119322E-06 -0.1429756E-04
4104259. -0.1685669E-03 -0.7515129E-02 -0.2923243E-05 -0.1255286E-03 -0.2391826E-06 -0.1122890E-04
4067778. -0.1302920E-03 -0.5911536E-02 -0.2279740E-05 -0.1000887E-03 -0.1821536E-06 -0.8785431E-05
4031296. -0.1002634E-03 -0.4624246E-02 -0.1767970E-05 -0.7938030E-04 -0.1375590E-06 -0.6870975E-05
3994815. -0.7683982E-04 -0.3596040E-02 -0.1363080E-05 -0.6263977E-04 -0.1026353E-06 -0.5391480E-05
3958333. -0.5867938E-04 -0.2778410E-02 -0.1044347E-05 -0.4918220E-04 -0.7515740E-07 -0.4259262E-05
3921852. -0.4469597E-04 -0.2131087E-02 -0.7946262E-06 -0.3845101E-04 -0.5328366E-07 -0.3426816E-05
3885370. -0.3401384E-04 -0.1620095E-02 -0.5997454E-06 -0.2994922E-04 -0.3543139E-07 -0.2847501E-05
3848889. -0.2593570E-04 -0.1217444E-02 -0.4481851E-06 -0.2325890E-04 -0.2024980E-07 -0.2491155E-05
3812407. -0.1990887E-04 -0.9000692E-03 -0.3305869E-06 -0.1803156E-04 -0.6495940E-08 -0.2347523E-05
3775926. -0.1550142E-04 -0.6490574E-03 -0.2394784E-06 -0.1396032E-04  0.7034498E-08 -0.2414331E-05
3739444. -0.1237825E-04 -0.4492181E-03 -0.1690088E-06 -0.1078057E-04  0.2158771E-07 -0.2709122E-05
3702963. -0.1028210E-04 -0.2886407E-03 -0.1147827E-06 -0.8246112E-05  0.3856070E-07 -0.3266479E-05
3666482. -0.9014619E-05 -0.1586165E-03 -0.7383248E-07 -0.6098640E-05  0.5958997E-07 -0.4135983E-05
3630000. -0.8417193E-05 -0.5410160E-04 -0.4476266E-07 -0.4040063E-05  0.8665849E-07 -0.5388749E-05
3630000. -0.8417193E-05 -0.5410160E-04 -0.4476266E-07 -0.4040063E-05  0.8665849E-07 -0.5388749E-05
3592500. -0.8351532E-05  0.2701680E-04 -0.2789701E-07 -0.1588728E-05  0.1233328E-06 -0.7162682E-05
3555000. -0.8668893E-05  0.7390038E-04 -0.2798852E-07  0.1858429E-05  0.1721262E-06 -0.9520880E-05
3517500. -0.9115225E-05  0.6589464E-04 -0.5377324E-07  0.7366798E-05  0.2366835E-06 -0.1252281E-04
3480000. -0.9254591E-05 -0.4022881E-04 -0.1221747E-06  0.1671915E-04  0.3207194E-06 -0.1611449E-04
3480000. -0.9254591E-05 -0.5762169E-03 -0.2601242E-06 -0.1646216E-04  0.3207194E-06  0.1339737E-04
3409422. -0.4588569E-05 -0.2954805E-03 -0.1275886E-06 -0.8334512E-05  0.1912283E-06  0.9731171E-05
3338844. -0.2221843E-05 -0.1478412E-03 -0.6117651E-07 -0.4122414E-05  0.1049521E-06  0.5993741E-05
3268266. -0.1050454E-05 -0.7217492E-04 -0.2866541E-07 -0.1991711E-05  0.5423321E-07  0.3357843E-05
3197688. -0.4847666E-06 -0.3437472E-04 -0.1312055E-07 -0.9396768E-06  0.2669703E-07  0.1760482E-05
3127109. -0.2182692E-06 -0.1596729E-04 -0.5863288E-08 -0.4327455E-06  0.1260270E-07  0.8760959E-06
3056531. -0.9583810E-07 -0.7231023E-05 -0.2556675E-08 -0.1944386E-06  0.5727792E-08  0.4170847E-06
2985953. -0.4101027E-07 -0.3190924E-05 -0.1087051E-08 -0.8518505E-07  0.2512167E-08  0.1908221E-06
2915375. -0.1708987E-07 -0.1371224E-05 -0.4503226E-09 -0.3636384E-07  0.1064697E-08  0.8412724E-07
2844797. -0.6929684E-08 -0.5733934E-06 -0.1815989E-09 -0.1511305E-07  0.4363128E-09  0.3579436E-07
2774219. -0.2731533E-08 -0.2331181E-06 -0.7121802E-10 -0.6109624E-08  0.1729113E-09  0.1470921E-07
2703641. -0.1045582E-08 -0.9205600E-07 -0.2713172E-10 -0.2400000E-08  0.6625093E-10  0.5839091E-08
2633062. -0.3881993E-09 -0.3526879E-07 -0.1002856E-10 -0.9150494E-09  0.2452699E-10  0.2238612E-08
2562484. -0.1396300E-09 -0.1309251E-07 -0.3591414E-11 -0.3382334E-09  0.8765409E-11  0.8285245E-09
2491906. -0.4862528E-10 -0.4698372E-08 -0.1243220E-11 -0.1211422E-09  0.3017171E-11  0.2961093E-09
2421328.  0.0000000E+00  0.0000000E+00  0.0000000E+00  0.0000000E+00  0.0000000E+00  0.0000000E+00
2350750.  0.0000000E+00  0.0000000E+00  0.0000000E+00  0.0000000E+00  0.0000000E+00  0.0000000E+00
2280172.  0.0000000E+00  0.0000000E+00  0.0000000E+00  0.0000000E+00  0.0000000E+00  0.0000000E+00
2209594.  0.0000000E+00  0.0000000E+00  0.0000000E+00  0.0000000E+00  0.0000000E+00  0.0000000E+00
2139016.  0.0000000E+00  0.0000000E+00  0.0000000E+00  0.0000000E+00  0.0000000E+00  0.0000000E+00
2068438.  0.0000000E+00  0.0000000E+00  0.0000000E+00  0.0000000E+00  0.0000000E+00  0.0000000E+00
1997859.  0.0000000E+00  0.0000000E+00  0.0000000E+00  0.0000000E+00  0.0000000E+00  0.0000000E+00
1927281.  0.0000000E+00  0.0000000E+00  0.0000000E+00  0.0000000E+00  0.0000000E+00  0.0000000E+00
1856703.  0.0000000E+00  0.0000000E+00  0.0000000E+00  0.0000000E+00  0.0000000E+00  0.0000000E+00
1786125.  0.0000000E+00  0.0000000E+00  0.0000000E+00  0.0000000E+00  0.0000000E+00  0.0000000E+00
1715547.  0.0000000E+00  0.0000000E+00  0.0000000E+00  0.0000000E+00  0.0000000E+00  0.0000000E+00
1644969.  0.0000000E+00  0.0000000E+00  0.0000000E+00  0.0000000E+00  0.0000000E+00  0.0000000E+00
1574391.  0.0000000E+00  0.0000000E+00  0.0000000E+00  0.0000000E+00  0.0000000E+00  0.0000000E+00
1503812.  0.0000000E+00  0.0000000E+00  0.0000000E+00  0.0000000E+00  0.0000000E+00  0.0000000E+00
1433234.  0.0000000E+00  0.0000000E+00  0.0000000E+00  0.0000000E+00  0.0000000E+00  0.0000000E+00
1362656.  0.0000000E+00  0.0000000E+00  0.0000000E+00  0.0000000E+00  0.0000000E+00  0.0000000E+00
1292078.  0.0000000E+00  0.0000000E+00  0.0000000E+00  0.0000000E+00  0.0000000E+00  0.0000000E+00
1221500.  0.0000000E+00  0.0000000E+00  0.0000000E+00  0.0000000E+00  0.0000000E+00  0.0000000E+00
1221500.  0.0000000E+00  0.0000000E+00  0.0000000E+00  0.0000000E+00  0.0000000E+00  0.0000000E+00
1183328.  0.0000000E+00  0.0000000E+00  0.0000000E+00  0.0000000E+00  0.0000000E+00  0.0000000E+00
1145156.  0.0000000E+00  0.0000000E+00  0.0000000E+00  0.0000000E+00  0.0000000E+00  0.0000000E+00
1106984.  0.0000000E+00  0.0000000E+00  0.0000000E+00  0.0000000E+00  0.0000000E+00  0.0000000E+00
1068812.  0.0000000E+00  0.0000000E+00  0.0000000E+00  0.0000000E+00  0.0000000E+00  0.0000000E+00
1030641.  0.0000000E+00  0.0000000E+00  0.0000000E+00  0.0000000E+00  0.0000000E+00  0.0000000E+00
 992469.  0.0000000E+00  0.0000000E+00  0.0000000E+00  0.0000000E+00  0.0000000E+00  0.0000000E+00
 954297.  0.0000000E+00  0.0000000E+00  0.0000000E+00  0.0000000E+00  0.0000000E+00  0.0000000E+00
 916125.  0.0000000E+00  0.0000000E+00  0.0000000E+00  0.0000000E+00  0.0000000E+00  0.0000000E+00
 877953.  0.0000000E+00  0.0000000E+00  0.0000000E+00  0.0000000E+00  0.0000000E+00  0.0000000E+00
 839781.  0.0000000E+00  0.0000000E+00  0.0000000E+00  0.0000000E+00  0.0000000E+00  0.0000000E+00
 801609.  0.0000000E+00  0.0000000E+00  0.0000000E+00  0.0000000E+00  0.0000000E+00  0.0000000E+00
 763438.  0.0000000E+00  0.0000000E+00  0.0000000E+00  0.0000000E+00  0.0000000E+00  0.0000000E+00
 725266.  0.0000000E+00  0.0000000E+00  0.0000000E+00  0.0000000E+00  0.0000000E+00  0.0000000E+00
 687094.  0.0000000E+00  0.0000000E+00  0.0000000E+00  0.0000000E+00  0.0000000E+00  0.0000000E+00
 648922.  0.0000000E+00  0.0000000E+00  0.0000000E+00  0.0000000E+00  0.0000000E+00  0.0000000E+00
 610750.  0.0000000E+00  0.0000000E+00  0.0000000E+00  0.0000000E+00  0.0000000E+00  0.0000000E+00
 572578.  0.0000000E+00  0.0000000E+00  0.0000000E+00  0.0000000E+00  0.0000000E+00  0.0000000E+00
 534406.  0.0000000E+00  0.0000000E+00  0.0000000E+00  0.0000000E+00  0.0000000E+00  0.0000000E+00
 496234.  0.0000000E+00  0.0000000E+00  0.0000000E+00  0.0000000E+00  0.0000000E+00  0.0000000E+00
 458062.  0.0000000E+00  0.0000000E+00  0.0000000E+00  0.0000000E+00  0.0000000E+00  0.0000000E+00
 419891.  0.0000000E+00  0.0000000E+00  0.0000000E+00  0.0000000E+00  0.0000000E+00  0.0000000E+00
 381719.  0.0000000E+00  0.0000000E+00  0.0000000E+00  0.0000000E+00  0.0000000E+00  0.0000000E+00
 343547.  0.0000000E+00  0.0000000E+00  0.0000000E+00  0.0000000E+00  0.0000000E+00  0.0000000E+00
 305375.  0.0000000E+00  0.0000000E+00  0.0000000E+00  0.0000000E+00  0.0000000E+00  0.0000000E+00
 267203.  0.0000000E+00  0.0000000E+00  0.0000000E+00  0.0000000E+00  0.0000000E+00  0.0000000E+00
 229031.  0.0000000E+00  0.0000000E+00  0.0000000E+00  0.0000000E+00  0.0000000E+00  0.0000000E+00
 190859.  0.0000000E+00  0.0000000E+00  0.0000000E+00  0.0000000E+00  0.0000000E+00  0.0000000E+00
 152688.  0.0000000E+00  0.0000000E+00  0.0000000E+00  0.0000000E+00  0.0000000E+00  0.0000000E+00
 114516.  0.0000000E+00  0.0000000E+00  0.0000000E+00  0.0000000E+00  0.0000000E+00  0.0000000E+00
  76344.  0.0000000E+00  0.0000000E+00  0.0000000E+00  0.0000000E+00  0.0000000E+00  0.0000000E+00
  38172.  0.0000000E+00  0.0000000E+00  0.0000000E+00  0.0000000E+00  0.0000000E+00  0.0000000E+00
      0.  0.0000000E+00  0.0000000E+00  0.0000000E+00  0.0000000E+00  0.0000000E+00  0.0000000E+00
