       2       10 S      174        416.18341          9.16038          6.84703        180.84120      185    7
6371000. -0.1671723E+00 -0.9916934E+00 -0.2595042E-01  0.1412219E+00  0.2880386E-01 -0.1594583E-02
6370000. -0.1670160E+00 -0.9998699E+00 -0.2597238E-01  0.1386468E+00  0.2880411E-01 -0.1640811E-02
6369000. -0.1668584E+00 -0.1008012E+01 -0.2599394E-01  0.1360666E+00  0.2880437E-01 -0.1688712E-02
6368000. -0.1666996E+00 -0.1016119E+01 -0.2601510E-01  0.1334812E+00  0.2880464E-01 -0.1738287E-02
6368000. -0.1666996E+00 -0.1016119E+01 -0.2601510E-01  0.1334812E+00  0.2880464E-01 -0.1738287E-02
6367000. -0.1665394E+00 -0.1024191E+01 -0.2603585E-01  0.1308907E+00  0.2880492E-01 -0.1789539E-02
6366000. -0.1663780E+00 -0.1032228E+01 -0.2605619E-01  0.1282951E+00  0.2880520E-01 -0.1842470E-02
6365000. -0.1662154E+00 -0.1040230E+01 -0.2607612E-01  0.1256944E+00  0.2880550E-01 -0.1897084E-02
6364000. -0.1660515E+00 -0.1048197E+01 -0.2609565E-01  0.1230888E+00  0.2880580E-01 -0.1953382E-02
6363000. -0.1658863E+00 -0.1056128E+01 -0.2611476E-01  0.1204783E+00  0.2880611E-01 -0.2011368E-02
6362000. -0.1657199E+00 -0.1064024E+01 -0.2613347E-01  0.1178629E+00  0.2880643E-01 -0.2071044E-02
6361000. -0.1655523E+00 -0.1071884E+01 -0.2615176E-01  0.1152426E+00  0.2880676E-01 -0.2132412E-02
6360000. -0.1653835E+00 -0.1079708E+01 -0.2616964E-01  0.1126175E+00  0.2880710E-01 -0.2195476E-02
6359000. -0.1652134E+00 -0.1087496E+01 -0.2618711E-01  0.1099877E+00  0.2880745E-01 -0.2260237E-02
6358000. -0.1650421E+00 -0.1095248E+01 -0.2620417E-01  0.1073532E+00  0.2880781E-01 -0.2326699E-02
6357000. -0.1648696E+00 -0.1102965E+01 -0.2622081E-01  0.1047140E+00  0.2880818E-01 -0.2394865E-02
6356000. -0.1646958E+00 -0.1110644E+01 -0.2623704E-01  0.1020702E+00  0.2880856E-01 -0.2464736E-02
6356000. -0.1646958E+00 -0.9494761E+00 -0.2623704E-01  0.1166243E+00  0.2880856E-01  0.3337117E-01
6355000. -0.1645463E+00 -0.9553999E+00 -0.2625523E-01  0.1151555E+00  0.2880332E-01  0.3341396E-01
6354000. -0.1643959E+00 -0.9613046E+00 -0.2627319E-01  0.1136839E+00  0.2879807E-01  0.3345564E-01
6353000. -0.1642446E+00 -0.9671901E+00 -0.2629092E-01  0.1122097E+00  0.2879282E-01  0.3349621E-01
6352000. -0.1640923E+00 -0.9730564E+00 -0.2630842E-01  0.1107327E+00  0.2878756E-01  0.3353567E-01
6351000. -0.1639391E+00 -0.9789033E+00 -0.2632568E-01  0.1092530E+00  0.2878229E-01  0.3357400E-01
6350000. -0.1637850E+00 -0.9847309E+00 -0.2634271E-01  0.1077707E+00  0.2877702E-01  0.3361122E-01
6349000. -0.1636300E+00 -0.9905390E+00 -0.2635951E-01  0.1062857E+00  0.2877174E-01  0.3364731E-01
6348000. -0.1634740E+00 -0.9963276E+00 -0.2637608E-01  0.1047980E+00  0.2876645E-01  0.3368228E-01
6347000. -0.1633172E+00 -0.1002097E+01 -0.2639241E-01  0.1033078E+00  0.2876116E-01  0.3371613E-01
6346600. -0.1632542E+00 -0.1004399E+01 -0.2639888E-01  0.1027109E+00  0.2875905E-01  0.3372936E-01
6346600. -0.1632542E+00 -0.1105052E+01 -0.2639888E-01  0.1139740E+00  0.2875905E-01  0.9065372E-01
6318800. -0.1581390E+00 -0.1238132E+01 -0.2684246E-01  0.8909532E-01  0.2835869E-01  0.9275419E-01
6291000. -0.1524616E+00 -0.1362555E+01 -0.2717440E-01  0.6282912E-01  0.2795042E-01  0.9427233E-01
6291000. -0.1524616E+00 -0.1410521E+01 -0.2717440E-01  0.6003060E-01  0.2795042E-01  0.9427233E-01
6263000. -0.1460019E+00 -0.1527233E+01 -0.2737243E-01  0.2988144E-01  0.2753501E-01  0.9466098E-01
6235000. -0.1390555E+00 -0.1631748E+01 -0.2743537E-01 -0.1415034E-02  0.2711934E-01  0.9438958E-01
6207000. -0.1316787E+00 -0.1722969E+01 -0.2735861E-01 -0.3365863E-01  0.2670634E-01  0.9343958E-01
6179000. -0.1239320E+00 -0.1799873E+01 -0.2713844E-01 -0.6663860E-01  0.2629904E-01  0.9179369E-01
6151000. -0.1158805E+00 -0.1861515E+01 -0.2677211E-01 -0.1001326E+00  0.2590053E-01  0.8943854E-01
6151000. -0.1158805E+00 -0.1719548E+01 -0.2677211E-01 -0.7604594E-01  0.2590053E-01  0.9584969E-01
6128500. -0.1097560E+00 -0.1747618E+01 -0.2646968E-01 -0.9515842E-01  0.2556108E-01  0.9633380E-01
6106000. -0.1035469E+00 -0.1767454E+01 -0.2610049E-01 -0.1138442E+00  0.2522045E-01  0.9651610E-01
6083500. -0.9728219E-01 -0.1779167E+01 -0.2566614E-01 -0.1320450E+00  0.2487971E-01  0.9639733E-01
6061000. -0.9099025E-01 -0.1782881E+01 -0.2516846E-01 -0.1497051E+00  0.2453992E-01  0.9597981E-01
6038500. -0.8469909E-01 -0.1778747E+01 -0.2460944E-01 -0.1667753E+00  0.2420213E-01  0.9526303E-01
6016000. -0.7843611E-01 -0.1766942E+01 -0.2399123E-01 -0.1832115E+00  0.2386741E-01  0.9424584E-01
5993500. -0.7222810E-01 -0.1747654E+01 -0.2331617E-01 -0.1989718E+00  0.2353680E-01  0.9292813E-01
5971000. -0.6610110E-01 -0.1721093E+01 -0.2258668E-01 -0.2140223E+00  0.2321139E-01  0.9130683E-01
5971000. -0.6610110E-01 -0.1637495E+01 -0.2258668E-01 -0.1853292E+00  0.2321139E-01  0.9996002E-01
5937667. -0.5769370E-01 -0.1575012E+01 -0.2159416E-01 -0.1936383E+00  0.2268798E-01  0.1000798E+00
5904333. -0.4963101E-01 -0.1505913E+01 -0.2056476E-01 -0.1994608E+00  0.2216458E-01  0.9995064E-01
5871000. -0.4194400E-01 -0.1431741E+01 -0.1951085E-01 -0.2030592E+00  0.2164249E-01  0.9958433E-01
5837667. -0.3465533E-01 -0.1353861E+01 -0.1844338E-01 -0.2046871E+00  0.2112292E-01  0.9899021E-01
5804333. -0.2778099E-01 -0.1273476E+01 -0.1737199E-01 -0.2045871E+00  0.2060703E-01  0.9817436E-01
5771000. -0.2133165E-01 -0.1191643E+01 -0.1630517E-01 -0.2029855E+00  0.2009599E-01  0.9714184E-01
5771000. -0.2133165E-01 -0.1191749E+01 -0.1630517E-01 -0.2029787E+00  0.2009599E-01  0.9714184E-01
5701000. -0.9055689E-02 -0.1039300E+01 -0.1402503E-01 -0.2114886E+00  0.1905107E-01  0.9277730E-01
5701000. -0.9055689E-02 -0.9356502E+00 -0.1402503E-01 -0.1678706E+00  0.1905107E-01  0.9532978E-01
5667333. -0.4359386E-02 -0.8492258E+00 -0.1317612E-01 -0.1553607E+00  0.1854634E-01  0.9574804E-01
5633667. -0.1502422E-04 -0.7974140E+00 -0.1236489E-01 -0.1523933E+00  0.1803917E-01  0.9616158E-01
5600000.  0.4061599E-02 -0.7450050E+00 -0.1156749E-01 -0.1492057E+00  0.1753058E-01  0.9628349E-01
5600000.  0.4061599E-02 -0.7450050E+00 -0.1156749E-01 -0.1492057E+00  0.1753058E-01  0.9628349E-01
5563518.  0.8164312E-02 -0.6879566E+00 -0.1072381E-01 -0.1454177E+00  0.1697952E-01  0.9613327E-01
5527037.  0.1194006E-01 -0.6308805E+00 -0.9902653E-02 -0.1413480E+00  0.1643015E-01  0.9570861E-01
5490556.  0.1538949E-01 -0.5740163E+00 -0.9105540E-02 -0.1370259E+00  0.1588393E-01  0.9503036E-01
5454074.  0.1851457E-01 -0.5175968E+00 -0.8333823E-02 -0.1324764E+00  0.1534227E-01  0.9411702E-01
5417593.  0.2131826E-01 -0.4618223E+00 -0.7588719E-02 -0.1277435E+00  0.1480648E-01  0.9298999E-01
5381111.  0.2380497E-01 -0.4068892E+00 -0.6871164E-02 -0.1228518E+00  0.1427770E-01  0.9166509E-01
5344630.  0.2597992E-01 -0.3529736E+00 -0.6182022E-02 -0.1178320E+00  0.1375704E-01  0.9015928E-01
5308148.  0.2784945E-01 -0.3002202E+00 -0.5521888E-02 -0.1127180E+00  0.1324547E-01  0.8848991E-01
5271667.  0.2942056E-01 -0.2487822E+00 -0.4891278E-02 -0.1075300E+00  0.1274391E-01  0.8666870E-01
5235185.  0.3070122E-01 -0.1987728E+00 -0.4290497E-02 -0.1022990E+00  0.1225317E-01  0.8471142E-01
5198704.  0.3169982E-01 -0.1502935E+00 -0.3719743E-02 -0.9705132E-01  0.1177400E-01  0.8263218E-01
5162222.  0.3242550E-01 -0.1034535E+00 -0.3179035E-02 -0.9180308E-01  0.1130706E-01  0.8043786E-01
5125741.  0.3288779E-01 -0.5830964E-01 -0.2668326E-02 -0.8658262E-01  0.1085298E-01  0.7814471E-01
5089259.  0.3309659E-01 -0.1492584E-01 -0.2187372E-02 -0.8140791E-01  0.1041229E-01  0.7576124E-01
5052778.  0.3306217E-01  0.2663689E-01 -0.1735894E-02 -0.7629555E-01  0.9985496E-02  0.7329451E-01
5016296.  0.3279500E-01  0.6636559E-01 -0.1313452E-02 -0.7126500E-01  0.9573027E-02  0.7075630E-01
4979815.  0.3230569E-01  0.1042218E+00 -0.9195593E-03 -0.6632990E-01  0.9175295E-02  0.6815208E-01
4943333.  0.3160498E-01  0.1402001E+00 -0.5536101E-03 -0.6150395E-01  0.8792639E-02  0.6548855E-01
4906852.  0.3070362E-01  0.1743151E+00 -0.2149591E-03 -0.5680038E-01  0.8425392E-02  0.6277430E-01
4870370.  0.2961225E-01  0.2065542E+00  0.9713744E-04 -0.5222768E-01  0.8073821E-02  0.6001043E-01
4833889.  0.2834160E-01  0.2369575E+00  0.3834416E-03 -0.4779617E-01  0.7738211E-02  0.5720430E-01
4797407.  0.2690197E-01  0.2655612E+00  0.6447991E-03 -0.4351281E-01  0.7418769E-02  0.5436001E-01
4760926.  0.2530374E-01  0.2923744E+00  0.8820591E-03 -0.3938280E-01  0.7115735E-02  0.5147710E-01
4724444.  0.2355687E-01  0.3174748E+00  0.1096127E-02 -0.3541094E-01  0.6829298E-02  0.4856065E-01
4687963.  0.2167113E-01  0.3409027E+00  0.1287905E-02 -0.3159973E-01  0.6559663E-02  0.4561107E-01
4651482.  0.1965593E-01  0.3627045E+00  0.1458323E-02 -0.2795023E-01  0.6307017E-02  0.4262730E-01
4615000.  0.1752027E-01  0.3829677E+00  0.1608310E-02 -0.2446223E-01  0.6071542E-02  0.3961089E-01
4578518.  0.1527288E-01  0.4017371E+00  0.1738782E-02 -0.2113372E-01  0.5853441E-02  0.3655897E-01
4542037.  0.1292219E-01  0.4190876E+00  0.1850640E-02 -0.1796166E-01  0.5652927E-02  0.3346949E-01
4505556.  0.1047598E-01  0.4351064E+00  0.1944772E-02 -0.1494096E-01  0.5470216E-02  0.3034025E-01
4469074.  0.7941712E-02  0.4498332E+00  0.2022026E-02 -0.1206491E-01  0.5305548E-02  0.2716519E-01
4432593.  0.5326654E-02  0.4633655E+00  0.2083206E-02 -0.9325945E-02  0.5159206E-02  0.2394022E-01
4396111.  0.2637274E-02  0.4757733E+00  0.2129073E-02 -0.6713892E-02  0.5031484E-02  0.2065884E-01
4359630. -0.1199343E-03  0.4870940E+00  0.2160317E-02 -0.4217053E-02  0.4922736E-02  0.1731315E-01
4323148. -0.2939167E-02  0.4974234E+00  0.2177563E-02 -0.1822437E-02  0.4833348E-02  0.1389434E-01
4286667. -0.5814729E-02  0.5067990E+00  0.2181353E-02  0.4859179E-03  0.4763771E-02  0.1039267E-01
4250185. -0.8741405E-02  0.5152590E+00  0.2172129E-02  0.2725987E-02  0.4714508E-02  0.6796444E-02
4213704. -0.1171398E-01  0.5228624E+00  0.2150228E-02  0.4917230E-02  0.4686142E-02  0.3092149E-02
4177222. -0.1472771E-01  0.5296048E+00  0.2115862E-02  0.7083904E-02  0.4679328E-02 -0.7340016E-03
4140741. -0.1777753E-01  0.5355003E+00  0.2069101E-02  0.9251458E-02  0.4694812E-02 -0.4699073E-02
4104259. -0.2085879E-01  0.5405496E+00  0.2009855E-02  0.1144913E-01  0.4733447E-02 -0.8822522E-02
4067778. -0.2396626E-01  0.5446721E+00  0.1937855E-02  0.1371275E-01  0.4796186E-02 -0.1312178E-01
4031296. -0.2709468E-01  0.5478320E+00  0.1852618E-02  0.1607854E-01  0.4884109E-02 -0.1762316E-01
3994815. -0.3023814E-01  0.5499228E+00  0.1753441E-02  0.1859050E-01  0.4998446E-02 -0.2235162E-01
3958333. -0.3339014E-01  0.5507600E+00  0.1639332E-02  0.2130139E-01  0.5140567E-02 -0.2733157E-01
3921852. -0.3654290E-01  0.5501861E+00  0.1509010E-02  0.2426490E-01  0.5312007E-02 -0.3259932E-01
3885370. -0.3968778E-01  0.5479193E+00  0.1360830E-02  0.2754926E-01  0.5514517E-02 -0.3818704E-01
3848889. -0.4281393E-01  0.5436164E+00  0.1192749E-02  0.3123072E-01  0.5750017E-02 -0.4413121E-01
3812407. -0.4590880E-01  0.5368868E+00  0.1002246E-02  0.3539452E-01  0.6020698E-02 -0.5047971E-01
3775926. -0.4895680E-01  0.5271684E+00  0.7862777E-03  0.4014567E-01  0.6328975E-02 -0.5727277E-01
3739444. -0.5193917E-01  0.5138275E+00  0.5411414E-03  0.4560043E-01  0.6677562E-02 -0.6456592E-01
3702963. -0.5483291E-01  0.4960849E+00  0.2624471E-03  0.5189435E-01  0.7069481E-02 -0.7242022E-01
3666482. -0.5761003E-01  0.4729110E+00 -0.5507950E-04  0.5919252E-01  0.7508103E-02 -0.8088949E-01
3630000. -0.6023628E-01  0.4431511E+00 -0.4177123E-03  0.6767890E-01  0.7997186E-02 -0.9005368E-01
3630000. -0.6023628E-01  0.4431511E+00 -0.4177123E-03  0.6767890E-01  0.7997186E-02 -0.9005368E-01
3592500. -0.6273443E-01  0.4041241E+00 -0.8452865E-03  0.7787574E-01  0.8556898E-02 -0.1002711E+00
3555000. -0.6497312E-01  0.3546359E+00 -0.1337947E-02  0.8984510E-01  0.9179355E-02 -0.1113910E+00
3517500. -0.6688420E-01  0.2923743E+00 -0.1907076E-02  0.1039192E+00  0.9870196E-02 -0.1235256E+00
3480000. -0.6838426E-01  0.2144434E+00 -0.2566200E-02  0.1204962E+00  0.1063571E-01 -0.1367823E+00
3480000. -0.6838426E-01 -0.8283556E+00 -0.8205147E-02 -0.1100411E+00  0.1063571E-01  0.8128749E-01
3409422. -0.5959247E-01 -0.7585418E+00 -0.7052864E-02 -0.9810100E-01  0.9685945E-02  0.8915111E-01
3338844. -0.5158162E-01 -0.6877258E+00 -0.6028962E-02 -0.8687925E-01  0.8680217E-02  0.9165768E-01
3268266. -0.4435185E-01 -0.6178030E+00 -0.5125045E-02 -0.7644750E-01  0.7669577E-02  0.9025480E-01
3197688. -0.3788491E-01 -0.5502112E+00 -0.4332130E-02 -0.6684353E-01  0.6690623E-02  0.8611086E-01
3127109. -0.3214874E-01 -0.4860029E+00 -0.3640939E-02 -0.5808099E-01  0.5768354E-02  0.8015578E-01
3056531. -0.2710172E-01 -0.4259076E+00 -0.3042190E-02 -0.5015368E-01  0.4918654E-02  0.7311798E-01
2985953. -0.2269541E-01 -0.3703850E+00 -0.2526732E-02 -0.4303864E-01  0.4150266E-02  0.6555661E-01
2915375. -0.1887765E-01 -0.3196797E+00 -0.2085753E-02 -0.3670094E-01  0.3466555E-02  0.5788999E-01
2844797. -0.1559452E-01 -0.2738631E+00 -0.1710874E-02 -0.3109744E-01  0.2866912E-02  0.5042124E-01
2774219. -0.1279210E-01 -0.2328717E+00 -0.1394228E-02 -0.2617899E-01  0.2347906E-02  0.4336042E-01
2703641. -0.1041779E-01 -0.1965389E+00 -0.1128518E-02 -0.2189247E-01  0.1904204E-02  0.3684322E-01
2633062. -0.8421236E-02 -0.1646236E+00 -0.9070429E-03 -0.1818326E-01  0.1529303E-02  0.3094694E-01
2562484. -0.6755124E-02 -0.1368337E+00 -0.7237158E-03 -0.1499680E-01  0.1216118E-02  0.2570474E-01
2491906. -0.5375517E-02 -0.1128425E+00 -0.5730431E-03 -0.1227904E-01  0.9573714E-03  0.2111630E-01
2421328. -0.4242220E-02 -0.9230732E-01 -0.4501225E-03 -0.9978037E-02  0.7459379E-03  0.1715739E-01
2350750. -0.3318877E-02 -0.7488026E-01 -0.3506124E-03 -0.8044630E-02  0.5750553E-03  0.1378758E-01
2280172. -0.2572962E-02 -0.6021845E-01 -0.2706991E-03 -0.6432652E-02  0.4384709E-03  0.1095625E-01
2209594. -0.1975687E-02 -0.4799159E-01 -0.2070616E-03 -0.5099415E-02  0.3305269E-03  0.8607313E-02
2139016. -0.1501825E-02 -0.3788725E-01 -0.1568316E-03 -0.4005885E-02  0.2461998E-03  0.6682842E-02
2068438. -0.1129495E-02 -0.2961479E-01 -0.1175528E-03 -0.3116754E-02  0.1811054E-03  0.5125781E-02
1997859. -0.8398982E-03 -0.2290760E-01 -0.8713884E-04 -0.2400387E-02  0.1314764E-03  0.3881883E-02
1927281. -0.6170618E-03 -0.1752480E-01 -0.6383540E-04 -0.1828727E-02  0.9412690E-04  0.2901009E-02
1856703. -0.4475262E-03 -0.1325106E-01 -0.4617860E-04 -0.1377121E-02  0.6639839E-04  0.2137813E-02
1786125. -0.3200794E-03 -0.9896651E-02 -0.3296014E-04 -0.1024118E-02  0.4610640E-04  0.1552193E-02
1715547. -0.2254732E-03 -0.7296597E-02 -0.2319282E-04 -0.7512016E-03  0.3148144E-04  0.1109331E-02
1644969. -0.1561546E-03 -0.5309675E-02 -0.1607958E-04 -0.5425197E-03  0.2111117E-04  0.7795230E-03
1574391. -0.1060077E-03 -0.3817511E-02 -0.1098578E-04 -0.3845325E-03  0.1388530E-04  0.5378759E-03
1503812. -0.7010248E-04 -0.2724434E-02 -0.7415809E-05 -0.2655911E-03  0.8944605E-05  0.3638738E-03
1433234. -0.4443727E-04 -0.1959292E-02 -0.4995382E-05 -0.1753419E-03  0.5635145E-05  0.2409217E-03
1362656. -0.2563570E-04 -0.1481832E-02 -0.3462085E-05 -0.1036855E-03  0.3467219E-05  0.1558523E-03
1292078. -0.1052227E-04 -0.1300731E-02 -0.2672702E-05 -0.3871990E-04  0.2080019E-05  0.9851119E-04
1221500.  0.4639896E-05 -0.1520713E-02 -0.2645525E-05  0.3797906E-04  0.1209961E-05  0.6147470E-04
1221500.  0.4639896E-05 -0.2889562E-07  0.8362351E-09 -0.2419603E-04  0.1209961E-05  0.5946468E-04
1183328.  0.4468587E-05  0.5252588E-04  0.1102232E-06 -0.1302209E-04  0.8965303E-06  0.4567785E-04
1145156.  0.4058088E-05  0.8117296E-04  0.1642035E-06 -0.5522856E-05  0.6569415E-06  0.3472709E-04
1106984.  0.3529072E-05  0.9314385E-04  0.1818124E-06 -0.7389625E-06  0.4757279E-06  0.2611486E-04
1068812.  0.2964019E-05  0.9400736E-04  0.1769516E-06  0.2089311E-05  0.3401965E-06  0.1941205E-04
1030641.  0.2416313E-05  0.8795629E-04  0.1594908E-06  0.3553162E-05  0.2400358E-06  0.1425274E-04
 992469.  0.1917655E-05  0.7806107E-04  0.1361895E-06  0.4103582E-05  0.1669465E-06  0.1032752E-04
 954297.  0.1484185E-05  0.6649422E-04  0.1114634E-06  0.4076443E-05  0.1143343E-06  0.7378309E-05
 916125.  0.1121214E-05  0.5472351E-04  0.8800298E-07  0.3715030E-05  0.7701115E-07  0.5191811E-05
 877953.  0.8269515E-06  0.4367620E-04  0.6726879E-07  0.3189636E-05  0.5094737E-07  0.3593824E-05
 839781.  0.5953228E-06  0.3387667E-04  0.4987867E-07  0.2613795E-05  0.3305329E-07  0.2443848E-05
 801609.  0.4180272E-06  0.2555984E-04  0.3590358E-07  0.2058646E-05  0.2099286E-07  0.1630010E-05
 763438.  0.2859965E-06  0.1876183E-04  0.2508720E-07  0.1564106E-05  0.1302642E-07  0.1064453E-05
 725266.  0.1903498E-06  0.1339093E-04  0.1700249E-07  0.1148350E-05  0.7878734E-08  0.6791543E-06
 687094.  0.1230072E-06  0.9282602E-05  0.1116108E-07  0.8150028E-06  0.4632313E-08  0.4223467E-06
 648922.  0.7698856E-07  0.6238818E-05  0.7081818E-08  0.5587563E-06  0.2639211E-08  0.2552646E-06
 610750.  0.4652815E-07  0.4055899E-05  0.4331544E-08  0.3694596E-06  0.1451642E-08  0.1494420E-06
 572578.  0.2705014E-07  0.2542714E-05  0.2544945E-08  0.2350190E-06  0.7673827E-09  0.8440528E-07
 534406.  0.1505834E-07  0.1531240E-05  0.1429969E-08  0.1433235E-06  0.3877808E-09  0.4576901E-07
 496234.  0.7980724E-08  0.8814231E-06  0.7641166E-09  0.8340755E-07  0.1860865E-09  0.2368638E-07
 458062.  0.3997939E-08  0.4819512E-06  0.3855701E-09  0.4604205E-07  0.8410852E-10  0.1161317E-07
 419891.  0.1875819E-08  0.2483262E-06  0.1820679E-09  0.2392057E-07  0.3543909E-10  0.5344387E-08
 381719.  0.8146102E-09  0.1193146E-06  0.7951009E-10  0.1157658E-07  0.1373558E-10  0.2281008E-08
 343547.  0.3223688E-09  0.5272247E-07  0.3161569E-10  0.5147758E-08  0.4812071E-11  0.8887884E-09
 305375.  0.1138417E-09  0.2102815E-07  0.1120899E-10  0.2062849E-08  0.1488237E-11  0.3094097E-09
 267203.  0.0000000E+00  0.0000000E+00  0.0000000E+00  0.0000000E+00  0.0000000E+00  0.0000000E+00
 229031.  0.0000000E+00  0.0000000E+00  0.0000000E+00  0.0000000E+00  0.0000000E+00  0.0000000E+00
 190859.  0.0000000E+00  0.0000000E+00  0.0000000E+00  0.0000000E+00  0.0000000E+00  0.0000000E+00
 152688.  0.0000000E+00  0.0000000E+00  0.0000000E+00  0.0000000E+00  0.0000000E+00  0.0000000E+00
 114516.  0.0000000E+00  0.0000000E+00  0.0000000E+00  0.0000000E+00  0.0000000E+00  0.0000000E+00
  76344.  0.0000000E+00  0.0000000E+00  0.0000000E+00  0.0000000E+00  0.0000000E+00  0.0000000E+00
  38172.  0.0000000E+00  0.0000000E+00  0.0000000E+00  0.0000000E+00  0.0000000E+00  0.0000000E+00
      0.  0.0000000E+00  0.0000000E+00  0.0000000E+00  0.0000000E+00  0.0000000E+00  0.0000000E+00
