      17        1 S      650        162.55740        164.16840         15.52778        695.98218      185    7
6371000.  0.5796314E-01 -0.5365117E-01 -0.1027124E-01 -0.6823438E-01 -0.1099923E-10 -0.1093049E+00
6370000.  0.5797027E-01 -0.3716582E-01 -0.1025977E-01 -0.7785267E-01  0.1715727E-04 -0.1093123E+00
6369000.  0.5797481E-01 -0.2067152E-01 -0.1024680E-01 -0.8745664E-01  0.3431532E-04 -0.1093148E+00
6368000.  0.5797676E-01 -0.4169019E-02 -0.1023232E-01 -0.9704486E-01  0.5147338E-04 -0.1093124E+00
6368000.  0.5797676E-01 -0.4169019E-02 -0.1023232E-01 -0.9704486E-01  0.5147338E-04 -0.1093124E+00
6367000.  0.5797612E-01  0.1234096E-01 -0.1021633E-01 -0.1066159E+00  0.6863068E-04 -0.1093052E+00
6366000.  0.5797289E-01  0.2885768E-01 -0.1019885E-01 -0.1161684E+00  0.8578647E-04 -0.1092930E+00
6365000.  0.5796706E-01  0.4538040E-01 -0.1017987E-01 -0.1257010E+00  0.1029400E-03 -0.1092760E+00
6364000.  0.5795864E-01  0.6190838E-01 -0.1015939E-01 -0.1352122E+00  0.1200904E-03 -0.1092541E+00
6363000.  0.5794762E-01  0.7844088E-01 -0.1013742E-01 -0.1447005E+00  0.1372370E-03 -0.1092274E+00
6362000.  0.5793401E-01  0.9497718E-01 -0.1011397E-01 -0.1541647E+00  0.1543791E-03 -0.1091957E+00
6361000.  0.5791781E-01  0.1115165E+00 -0.1008903E-01 -0.1636033E+00  0.1715158E-03 -0.1091592E+00
6360000.  0.5789901E-01  0.1280582E+00 -0.1006261E-01 -0.1730150E+00  0.1886464E-03 -0.1091178E+00
6359000.  0.5787761E-01  0.1446013E+00 -0.1003471E-01 -0.1823983E+00  0.2057701E-03 -0.1090716E+00
6358000.  0.5785361E-01  0.1611454E+00 -0.1000535E-01 -0.1917518E+00  0.2228861E-03 -0.1090204E+00
6357000.  0.5782702E-01  0.1776894E+00 -0.9974522E-02 -0.2010743E+00  0.2399938E-03 -0.1089644E+00
6356000.  0.5779783E-01  0.1942329E+00 -0.9942231E-02 -0.2103642E+00  0.2570922E-03 -0.1089035E+00
6356000.  0.5779783E-01  0.1148092E+00 -0.9942231E-02 -0.1538907E+00  0.2570922E-03 -0.1214796E+00
6355000.  0.5777887E-01  0.1268296E+00 -0.9917587E-02 -0.1601215E+00  0.2761562E-03 -0.1214332E+00
6354000.  0.5775802E-01  0.1388509E+00 -0.9891966E-02 -0.1663346E+00  0.2952126E-03 -0.1213829E+00
6353000.  0.5773528E-01  0.1508729E+00 -0.9865372E-02 -0.1725294E+00  0.3142608E-03 -0.1213286E+00
6352000.  0.5771066E-01  0.1628950E+00 -0.9837806E-02 -0.1787052E+00  0.3333002E-03 -0.1212703E+00
6351000.  0.5768414E-01  0.1749170E+00 -0.9809273E-02 -0.1848615E+00  0.3523301E-03 -0.1212081E+00
6350000.  0.5765574E-01  0.1869384E+00 -0.9779776E-02 -0.1909976E+00  0.3713499E-03 -0.1211420E+00
6349000.  0.5762546E-01  0.1989588E+00 -0.9749317E-02 -0.1971129E+00  0.3903591E-03 -0.1210719E+00
6348000.  0.5759329E-01  0.2109779E+00 -0.9717898E-02 -0.2032069E+00  0.4093569E-03 -0.1209978E+00
6347000.  0.5755923E-01  0.2229952E+00 -0.9685526E-02 -0.2092788E+00  0.4283428E-03 -0.1209199E+00
6346600.  0.5754508E-01  0.2278015E+00 -0.9672311E-02 -0.2117013E+00  0.4359337E-03 -0.1208876E+00
6346600.  0.5754508E-01  0.1150495E+00 -0.9672311E-02 -0.1648484E+00  0.4359337E-03 -0.1409527E+00
6318800.  0.5651519E-01  0.3574371E+00 -0.8674907E-02 -0.2896933E+00  0.1045713E-02 -0.1381096E+00
6291000.  0.5442511E-01  0.6002269E+00 -0.7172175E-02 -0.3953062E+00  0.1637496E-02 -0.1327062E+00
6291000.  0.5442511E-01  0.6080360E+00 -0.7172175E-02 -0.4074892E+00  0.1637496E-02 -0.1327062E+00
6263000.  0.5121474E-01  0.8517417E+00 -0.5187588E-02 -0.4905552E+00  0.2203879E-02 -0.1246118E+00
6235000.  0.4695252E-01  0.1085851E+01 -0.2908299E-02 -0.5409127E+00  0.2729141E-02 -0.1140128E+00
6207000.  0.4169189E-01  0.1305233E+01 -0.4855173E-03 -0.5555369E+00  0.3202568E-02 -0.1010514E+00
6179000.  0.3550877E-01  0.1504817E+01  0.1921206E-02 -0.5336711E+00  0.3614185E-02 -0.8592100E-01
6151000.  0.2850103E-01  0.1679687E+01  0.4154051E-02 -0.4768555E+00  0.3954976E-02 -0.6886509E-01
6151000.  0.2850103E-01  0.1349704E+01  0.4154051E-02 -0.4217225E+00  0.3954976E-02 -0.7044192E-01
6128500.  0.2360791E-01  0.1418750E+01  0.5536329E-02 -0.3587223E+00  0.4183030E-02 -0.5859480E-01
6106000.  0.1849885E-01  0.1471949E+01  0.6672784E-02 -0.2829808E+00  0.4368127E-02 -0.4613668E-01
6083500.  0.1323019E-01  0.1509110E+01  0.7523610E-02 -0.1974926E+00  0.4508340E-02 -0.3319850E-01
6061000.  0.7858666E-02  0.1530223E+01  0.8060094E-02 -0.1055268E+00  0.4602209E-02 -0.1991383E-01
6038500.  0.2440682E-02  0.1535463E+01  0.8265379E-02 -0.1050793E-01  0.4648747E-02 -0.6416734E-02
6016000. -0.2968246E-02  0.1525162E+01  0.8134790E-02  0.8411027E-01  0.4647439E-02  0.7159094E-02
5993500. -0.8314045E-02  0.1499807E+01  0.7675726E-02  0.1749643E+00  0.4598243E-02  0.2068168E-01
5971000. -0.1354466E-01  0.1460048E+01  0.6907136E-02  0.2588946E+00  0.4501575E-02  0.3402198E-01
5971000. -0.1354466E-01  0.1322170E+01  0.6907136E-02  0.2327771E+00  0.4501575E-02  0.3579509E-01
5937667. -0.2017761E-01  0.1210358E+01  0.5445956E-02  0.3212979E+00  0.4265982E-02  0.5407248E-01
5904333. -0.2618276E-01  0.1082854E+01  0.3594285E-02  0.3816516E+00  0.3937988E-02  0.7106885E-01
5871000. -0.3148895E-01  0.9439275E+00  0.1503507E-02  0.4127159E+00  0.3524970E-02  0.8654150E-01
5837667. -0.3604707E-01  0.7975266E+00 -0.6747966E-03  0.4154127E+00  0.3035416E-02  0.1002973E+00
5804333. -0.3982769E-01  0.6472399E+00 -0.2798340E-02  0.3922975E+00  0.2478700E-02  0.1121879E+00
5771000. -0.4281878E-01  0.4962673E+00 -0.4741345E-02  0.3471283E+00  0.1864906E-02  0.1221081E+00
5771000. -0.4281878E-01  0.4962779E+00 -0.4741345E-02  0.3471184E+00  0.1864906E-02  0.1221081E+00
5701000. -0.4666888E-01  0.2019209E+00 -0.7891072E-02  0.2135648E+00  0.4488529E-03  0.1341559E+00
5701000. -0.4666888E-01  0.1709243E+00 -0.7891072E-02  0.1778253E+00  0.4488529E-03  0.1473102E+00
5667333. -0.4721496E-01  0.3888250E-01 -0.8617887E-02  0.9902567E-01 -0.3364683E-03  0.1496285E+00
5633667. -0.4709575E-01 -0.8364138E-01 -0.8943559E-02  0.2373743E-01 -0.1129703E-02  0.1502923E+00
5600000. -0.4633703E-01 -0.2026982E+00 -0.8864657E-02 -0.5360511E-01 -0.1921182E-02  0.1489148E+00
5600000. -0.4633703E-01 -0.2026982E+00 -0.8864657E-02 -0.5360511E-01 -0.1921182E-02  0.1489148E+00
5563518. -0.4481998E-01 -0.3260522E+00 -0.8320587E-02 -0.1358133E+00 -0.2764266E-02  0.1451583E+00
5527037. -0.4261725E-01 -0.4419433E+00 -0.7320102E-02 -0.2123643E+00 -0.3579209E-02  0.1391085E+00
5490556. -0.3977583E-01 -0.5489009E+00 -0.5906568E-02 -0.2794890E+00 -0.4353183E-02  0.1308695E+00
5454074. -0.3635065E-01 -0.6456152E+00 -0.4143579E-02 -0.3339146E+00 -0.5074056E-02  0.1205782E+00
5417593. -0.3240341E-01 -0.7311361E+00 -0.2111616E-02 -0.3730854E+00 -0.5730466E-02  0.1083898E+00
5381111. -0.2800052E-01 -0.8045874E+00  0.9643244E-04 -0.3951547E+00 -0.6312109E-02  0.9449137E-01
5344630. -0.2321325E-01 -0.8653637E+00  0.2379240E-02 -0.3991299E+00 -0.6809748E-02  0.7909022E-01
5308148. -0.1811489E-01 -0.9131417E+00  0.4632629E-02 -0.3849033E+00 -0.7215430E-02  0.6240799E-01
5271667. -0.1278115E-01 -0.9476038E+00  0.6753757E-02 -0.3531398E+00 -0.7522486E-02  0.4468728E-01
5235185. -0.7287951E-02 -0.9688125E+00  0.8646308E-02 -0.3053659E+00 -0.7725696E-02  0.2617691E-01
5198704. -0.1710947E-02 -0.9769471E+00  0.1022455E-01 -0.2437901E+00 -0.7821262E-02  0.7135408E-02
5162222.  0.3875621E-02 -0.9721628E+00  0.1141715E-01 -0.1711676E+00 -0.7806898E-02 -0.1217477E-01
5125741.  0.9399036E-02 -0.9550427E+00  0.1216999E-01 -0.9077409E-01 -0.7681827E-02 -0.3148888E-01
5089259.  0.1479047E-01 -0.9260931E+00  0.1244860E-01 -0.6134429E-02 -0.7446762E-02 -0.5054800E-01
5052778.  0.1998347E-01 -0.8859121E+00  0.1223917E-01  0.7907152E-01 -0.7103909E-02 -0.6909687E-01
5016296.  0.2491636E-01 -0.8353289E+00  0.1154891E-01  0.1612048E+00 -0.6656883E-02 -0.8688898E-01
4979815.  0.2953147E-01 -0.7750953E+00  0.1040551E-01  0.2367947E+00 -0.6110717E-02 -0.1036912E+00
4943333.  0.3377623E-01 -0.7060951E+00  0.8855532E-02  0.3027166E+00 -0.5471680E-02 -0.1192848E+00
4906852.  0.3760302E-01 -0.6292970E+00  0.6962248E-02  0.3563152E+00 -0.4747327E-02 -0.1334645E+00
4870370.  0.4096990E-01 -0.5455877E+00  0.4802530E-02  0.3954531E+00 -0.3946233E-02 -0.1460525E+00
4833889.  0.4384008E-01 -0.4560166E+00  0.2463763E-02  0.4186935E+00 -0.3078040E-02 -0.1568821E+00
4797407.  0.4618307E-01 -0.3615943E+00  0.3933444E-04  0.4252737E+00 -0.2153186E-02 -0.1658140E+00
4760926.  0.4797381E-01 -0.2633256E+00 -0.2374564E-02  0.4150884E+00 -0.1182912E-02 -0.1727378E+00
4724444.  0.4919345E-01 -0.1622840E+00 -0.4683678E-02  0.3888201E+00 -0.1789486E-03 -0.1775576E+00
4687963.  0.4982904E-01 -0.5951610E-01 -0.6799184E-02  0.3477491E+00  0.8464039E-03 -0.1802105E+00
4651482.  0.4987375E-01  0.4392087E-01 -0.8641453E-02  0.2937478E+00  0.1880655E-02 -0.1806608E+00
4615000.  0.4932674E-01  0.1469815E+00 -0.1014320E-01  0.2292348E+00  0.2911156E-02 -0.1788909E+00
4578518.  0.4819319E-01  0.2486033E+00 -0.1125196E-01  0.1569736E+00  0.3925201E-02 -0.1749185E+00
4542037.  0.4648439E-01  0.3477471E+00 -0.1193199E-01  0.8003348E-01  0.4910255E-02 -0.1687820E+00
4505556.  0.4421733E-01  0.4434221E+00 -0.1216570E-01  0.1619713E-02  0.5854108E-02 -0.1605414E+00
4469074.  0.4141481E-01  0.5345769E+00 -0.1195383E-01 -0.7506873E-01  0.6744995E-02 -0.1502902E+00
4432593.  0.3810557E-01  0.6202930E+00 -0.1131522E-01 -0.1469330E+00  0.7571648E-02 -0.1381338E+00
4396111.  0.3432312E-01  0.6996551E+00 -0.1028574E-01 -0.2111372E+00  0.8323562E-02 -0.1242023E+00
4359630.  0.3010689E-01  0.7717052E+00 -0.8916638E-02 -0.2651809E+00  0.8990969E-02 -0.1086507E+00
4323148.  0.2550061E-01  0.8357254E+00 -0.7272055E-02 -0.3070467E+00  0.9565082E-02 -0.9164092E-01
4286667.  0.2055276E-01  0.8909189E+00 -0.5426412E-02 -0.3352160E+00  0.1003805E-01 -0.7335868E-01
4250185.  0.1531572E-01  0.9365888E+00 -0.3461005E-02 -0.3487559E+00  0.1040316E-01 -0.5400003E-01
4213704.  0.9845762E-02  0.9722349E+00 -0.1460860E-02 -0.3473669E+00  0.1065481E-01 -0.3377155E-01
4177222.  0.4201610E-02  0.9972956E+00  0.4891487E-03 -0.3313221E+00  0.1078867E-01 -0.1288944E-01
4140741. -0.1554722E-02  0.1011436E+01  0.2307270E-02 -0.3015205E+00  0.1080161E-01  0.8422556E-02
4104259. -0.7360484E-02  0.1014461E+01  0.3918755E-02 -0.2594126E+00  0.1069182E-01  0.2993924E-01
4067778. -0.1315089E-01  0.1006118E+01  0.5258270E-02 -0.2069011E+00  0.1045878E-01  0.5143152E-01
4031296. -0.1886140E-01  0.9865272E+00  0.6272880E-02 -0.1463419E+00  0.1010329E-01  0.7267088E-01
3994815. -0.2442771E-01  0.9558269E+00  0.6923912E-02 -0.8037880E-01  0.9627448E-02  0.9343153E-01
3958333. -0.2978691E-01  0.9141966E+00  0.7188482E-02 -0.1184417E-01  0.9034599E-02  0.1134974E+00
3921852. -0.3487756E-01  0.8621729E+00  0.7060294E-02  0.5631010E-01  0.8329381E-02  0.1326501E+00
3885370. -0.3964185E-01  0.8002480E+00  0.6549864E-02  0.1211827E+00  0.7517566E-02  0.1506897E+00
3848889. -0.4402460E-01  0.7290871E+00  0.5684054E-02  0.1799970E+00  0.6606122E-02  0.1674241E+00
3812407. -0.4797559E-01  0.6495455E+00  0.4504848E-02  0.2302393E+00  0.5603008E-02  0.1826696E+00
3775926. -0.5144899E-01  0.5624706E+00  0.3067851E-02  0.2697172E+00  0.4517270E-02  0.1962668E+00
3739444. -0.5440475E-01  0.4688959E+00  0.1439858E-02  0.2966841E+00  0.3358724E-02  0.2080640E+00
3702963. -0.5680865E-01  0.3699278E+00 -0.3035813E-03  0.3098875E+00  0.2138148E-02  0.2179243E+00
3666482. -0.5863302E-01  0.2666768E+00 -0.2081304E-02  0.3085845E+00  0.8669011E-03  0.2257450E+00
3630000. -0.5985686E-01  0.1603684E+00 -0.3809621E-02  0.2926385E+00 -0.4430701E-03  0.2314219E+00
3630000. -0.5985686E-01  0.1603684E+00 -0.3809621E-02  0.2926385E+00 -0.4430701E-03  0.2314219E+00
3592500. -0.6047422E-01  0.4919360E-01 -0.5447372E-02  0.2614104E+00 -0.1816784E-02  0.2349528E+00
3555000. -0.6043483E-01 -0.6256160E-01 -0.6859504E-02  0.2162050E+00 -0.3204258E-02  0.2360887E+00
3517500. -0.5973917E-01 -0.1735822E+00 -0.7968343E-02  0.1586739E+00 -0.4591253E-02  0.2347861E+00
3480000. -0.5839542E-01 -0.2825583E+00 -0.8707431E-02  0.9096614E-01 -0.5963387E-02  0.2310397E+00
3480000. -0.5839542E-01 -0.4042848E+00  0.1093017E-02 -0.1089301E+00 -0.5963387E-02  0.4172562E+00
3409422. -0.5079196E-01 -0.9533184E+00  0.2256582E-02 -0.9915770E-01 -0.1034802E-01  0.3667776E+00
3338844. -0.3769617E-01 -0.1388453E+01  0.3248352E-02 -0.7815396E-01 -0.1393540E-01  0.2746437E+00
3268266. -0.2058638E-01 -0.1673306E+01  0.3953731E-02 -0.4785419E-01 -0.1631490E-01  0.1506128E+00
3197688. -0.1252064E-02 -0.1788189E+01  0.4284475E-02 -0.1103779E-01 -0.1720093E-01  0.7282875E-02
3127109.  0.1839211E-01 -0.1730015E+01  0.4186564E-02  0.2894261E-01 -0.1645707E-01 -0.1412343E+00
3056531.  0.3648282E-01 -0.1510967E+01  0.3644962E-02  0.6845254E-01 -0.1410546E-01 -0.2806559E+00
2985953.  0.5136634E-01 -0.1156089E+01  0.2685057E-02  0.1038756E+00 -0.1032137E-01 -0.3978058E+00
2915375.  0.6172342E-01 -0.7002162E+00  0.1370907E-02  0.1318927E+00 -0.5414877E-02 -0.4816905E+00
2844797.  0.6665905E-01 -0.1845072E+00 -0.1994781E-03  0.1497304E+00  0.1982685E-03 -0.5243415E+00
2774219.  0.6575260E-01  0.3471424E+00 -0.1901336E-02  0.1553612E+00  0.6033495E-02 -0.5213686E+00
2703641.  0.5906891E-01  0.8515287E+00 -0.3592267E-02  0.1476478E+00  0.1157869E-01 -0.4722058E+00
2633062.  0.4713292E-01  0.1289240E+01 -0.5122643E-02  0.1264267E+00  0.1633659E-01 -0.3800542E+00
2562484.  0.3087372E-01  0.1627196E+01 -0.6346467E-02  0.9252742E-01  0.1986469E-01 -0.2515596E+00
2491906.  0.1154166E-01  0.1840651E+01 -0.7132347E-02  0.4773398E-01  0.2181082E-01 -0.9623651E-01
2421328. -0.9390794E-02  0.1914444E+01 -0.7373497E-02 -0.5312905E-02  0.2194066E-01  0.7427683E-01
2350750. -0.3033940E-01  0.1843585E+01 -0.6996456E-02 -0.6326503E-01  0.2015660E-01  0.2470911E+00
2280172. -0.4972064E-01  0.1633126E+01 -0.5967954E-02 -0.1222470E+00  0.1650646E-01  0.4089974E+00
2209594. -0.6605960E-01  0.1297455E+01 -0.4299596E-02 -0.1780720E+00  0.1118185E-01  0.5473916E+00
2139016. -0.7808684E-01  0.8590273E+00 -0.2050027E-02 -0.2264716E+00  0.4506663E-02  0.6511365E+00
2068438. -0.8481873E-01  0.3466805E+00  0.6754565E-03 -0.2633319E+00 -0.3083478E-02  0.7113051E+00
1997859. -0.8561731E-01 -0.2063700E+00  0.3727933E-02 -0.2849193E+00 -0.1106921E-01  0.7217701E+00
1927281. -0.8022705E-01 -0.7646642E+00  0.6920077E-02 -0.2880905E+00 -0.1888035E-01  0.6795968E+00
1856703. -0.6878725E-01 -0.1292742E+01  0.1003400E-01 -0.2704743E+00 -0.2593324E-01  0.5852353E+00
1786125. -0.5182027E-01 -0.1757252E+01  0.1283044E-01 -0.2306138E+00 -0.3166780E-01  0.4424957E+00
1715547. -0.3019724E-01 -0.2128874E+01  0.1505959E-01 -0.1680724E+00 -0.3558383E-01  0.2583185E+00
1644969. -0.5084152E-02 -0.2383941E+01  0.1647271E-01 -0.8348262E-01 -0.3727349E-01  0.4235996E-01
1574391.  0.2212819E-01 -0.2505704E+01  0.1683400E-01  0.2144569E-01 -0.3644840E-01 -0.1935786E+00
1503812.  0.4990616E-01 -0.2485155E+01  0.1593245E-01  0.1439681E+00 -0.3295957E-01 -0.4362471E+00
1433234.  0.7665992E-01 -0.2321397E+01  0.1359280E-01  0.2803915E+00 -0.2680951E-01 -0.6717014E+00
1362656.  0.1008356E+00 -0.2021544E+01  0.9685322E-02  0.4262101E+00 -0.1815511E-01 -0.8861222E+00
1292078.  0.1209998E+00 -0.1600179E+01  0.4133976E-02  0.5762668E+00 -0.7302166E-02 -0.1066584E+01
1221500.  0.1359178E+00 -0.1078402E+01 -0.3077360E-02  0.7249349E+00  0.5308727E-02 -0.1201783E+01
1221500.  0.1359178E+00 -0.1116464E+01 -0.3462518E-01 -0.8895040E+00  0.5308727E-02 -0.1260663E+01
1183328.  0.1415303E+00 -0.7441159E+00 -0.2692976E-01 -0.1624919E+01  0.1298451E-01 -0.1299073E+01
1145156.  0.1446981E+00 -0.3037640E+00 -0.1594317E-01 -0.1967183E+01  0.2084513E-01 -0.1322245E+01
1106984.  0.1450849E+00  0.1791090E+00 -0.4326712E-02 -0.1826583E+01  0.2879737E-01 -0.1329572E+01
1068812.  0.1425349E+00  0.6703482E+00  0.4956188E-02 -0.1193813E+01  0.3674502E-01 -0.1320664E+01
1030641.  0.1371129E+00  0.1131284E+01  0.9141004E-02 -0.1441337E+00  0.4458996E-01 -0.1295344E+01
 992469.  0.1291154E+00  0.1524031E+01  0.6146570E-02  0.1172451E+01  0.5223426E-01 -0.1253648E+01
 954297.  0.1190504E+00  0.1816994E+01 -0.5038039E-02  0.2553144E+01  0.5958028E-01 -0.1195836E+01
 916125.  0.1075824E+00  0.1990205E+01 -0.2412702E-01  0.3773658E+01  0.6653275E-01 -0.1122372E+01
 877953.  0.9545083E-01  0.2039239E+01 -0.4951501E-01  0.4623792E+01  0.7299981E-01 -0.1033934E+01
 839781.  0.8336857E-01  0.1977476E+01 -0.7846586E-01  0.4941633E+01  0.7889426E-01 -0.9313952E+00
 801609.  0.7191493E-01  0.1835950E+01 -0.1074906E+00  0.4641644E+01  0.8413470E-01 -0.8158168E+00
 763438.  0.6143633E-01  0.1660840E+01 -0.1328609E+00  0.3731386E+01  0.8864655E-01 -0.6884437E+00
 725266.  0.5196778E-01  0.1508652E+01 -0.1511866E+00  0.2314962E+01  0.9236346E-01 -0.5506738E+00
 687094.  0.4319168E-01  0.1439662E+01 -0.1599642E+00  0.5816966E+00  0.9522763E-01 -0.4040628E+00
 648922.  0.3443689E-01  0.1510176E+01 -0.1580224E+00 -0.1218133E+01  0.9719107E-01 -0.2502954E+00
 610750.  0.2472628E-01  0.1764779E+01 -0.1457882E+00 -0.2807616E+01  0.9821621E-01 -0.9116513E-01
 572578.  0.1286872E-01  0.2229249E+01 -0.1253298E+00 -0.3922548E+01  0.9827654E-01  0.7144628E-01
 534406. -0.2411236E-02  0.2905262E+01 -0.1001621E+00 -0.4350365E+01  0.9735700E-01  0.2355945E+00
 496234. -0.2231904E-01  0.3767545E+01 -0.7483431E-01 -0.3963075E+01  0.9545429E-01  0.3992985E+00
 458062. -0.4782761E-01  0.4764021E+01 -0.5435055E-01 -0.2739411E+01  0.9257705E-01  0.5605692E+00
 419891. -0.7952373E-01  0.5818950E+01 -0.4349896E-01 -0.7728959E+00  0.8874587E-01  0.7174333E+00
 381719. -0.1174871E+00  0.6839218E+01 -0.4617810E-01  0.1735910E+01  0.8399273E-01  0.8679777E+00
 343547. -0.1612051E+00  0.7722548E+01 -0.6481668E-01  0.4501461E+01  0.7836117E-01  0.1010354E+01
 305375. -0.2095506E+00  0.8367693E+01 -0.9996207E-01  0.7187950E+01  0.7190542E-01  0.1142816E+01
 267203. -0.2608190E+00  0.8684715E+01 -0.1501028E+00  0.9451301E+01  0.6468979E-01  0.1263747E+01
 229031. -0.3128256E+00  0.8604848E+01 -0.2117524E+00  0.1098362E+02  0.5678786E-01  0.1371675E+01
 190859. -0.3630573E+00  0.8088435E+01 -0.2797907E+00  0.1155353E+02  0.4828154E-01  0.1465289E+01
 152688. -0.4088642E+00  0.7130377E+01 -0.3480206E+00  0.1103784E+02  0.3926032E-01  0.1543457E+01
 114516. -0.4476780E+00  0.5761993E+01 -0.4098850E+00  0.9439438E+01  0.2981918E-01  0.1605246E+01
  76344. -0.4772215E+00  0.4049638E+01 -0.4592254E+00  0.6889313E+01  0.2005878E-01  0.1649918E+01
  38172. -0.4957089E+00  0.2089619E+01 -0.4910232E+00  0.3632639E+01  0.1008337E-01  0.1676959E+01
      0. -0.5019689E+00  0.0000000E+00 -0.5019057E+00  0.0000000E+00  0.0000000E+00  0.1685929E+01
