       3       42 S      262        111.54500          8.44401          6.22193        226.23300      185    7
6371000. -0.2241043E-01 -0.1689871E+01 -0.2405758E-02  0.2000467E-01  0.1749132E-02 -0.3295186E-01
6370000. -0.2214397E-01 -0.1705165E+01 -0.2408652E-02  0.1686876E-01  0.1754284E-02 -0.3268754E-01
6369000. -0.2187518E-01 -0.1719706E+01 -0.2411053E-02  0.1372432E-01  0.1759394E-02 -0.3242739E-01
6368000. -0.2160416E-01 -0.1733489E+01 -0.2412960E-02  0.1057217E-01  0.1764463E-02 -0.3217144E-01
6368000. -0.2160416E-01 -0.1733489E+01 -0.2412960E-02  0.1057217E-01  0.1764463E-02 -0.3217144E-01
6367000. -0.2133103E-01 -0.1746512E+01 -0.2414372E-02  0.7413074E-02  0.1769493E-02 -0.3191973E-01
6366000. -0.2105593E-01 -0.1758772E+01 -0.2415287E-02  0.4247835E-02  0.1774484E-02 -0.3167227E-01
6365000. -0.2077896E-01 -0.1770267E+01 -0.2415705E-02  0.1077245E-02  0.1779436E-02 -0.3142910E-01
6364000. -0.2050024E-01 -0.1780995E+01 -0.2415625E-02 -0.2097900E-02  0.1784351E-02 -0.3119024E-01
6363000. -0.2021990E-01 -0.1790953E+01 -0.2415046E-02 -0.5276805E-02  0.1789228E-02 -0.3095574E-01
6362000. -0.1993806E-01 -0.1800140E+01 -0.2413968E-02 -0.8458669E-02  0.1794068E-02 -0.3072562E-01
6361000. -0.1965484E-01 -0.1808554E+01 -0.2412391E-02 -0.1164269E-01  0.1798873E-02 -0.3049990E-01
6360000. -0.1937036E-01 -0.1816194E+01 -0.2410313E-02 -0.1482808E-01  0.1803643E-02 -0.3027862E-01
6359000. -0.1908474E-01 -0.1823058E+01 -0.2407736E-02 -0.1801402E-01  0.1808379E-02 -0.3006181E-01
6358000. -0.1879810E-01 -0.1829145E+01 -0.2404658E-02 -0.2119973E-01  0.1813081E-02 -0.2984950E-01
6357000. -0.1851057E-01 -0.1834456E+01 -0.2401081E-02 -0.2438439E-01  0.1817749E-02 -0.2964171E-01
6356000. -0.1822226E-01 -0.1838989E+01 -0.2397003E-02 -0.2756721E-01  0.1822386E-02 -0.2943849E-01
6356000. -0.1822226E-01 -0.1576536E+01 -0.2397003E-02 -0.1035144E-01  0.1822386E-02 -0.2547354E-01
6355000. -0.1797444E-01 -0.1581122E+01 -0.2395250E-02 -0.1199015E-01  0.1826355E-02 -0.2510225E-01
6354000. -0.1772593E-01 -0.1585311E+01 -0.2393239E-02 -0.1362927E-01  0.1830266E-02 -0.2473431E-01
6353000. -0.1747680E-01 -0.1589100E+01 -0.2390972E-02 -0.1526855E-01  0.1834120E-02 -0.2436974E-01
6352000. -0.1722710E-01 -0.1592492E+01 -0.2388446E-02 -0.1690773E-01  0.1837917E-02 -0.2400854E-01
6351000. -0.1697690E-01 -0.1595484E+01 -0.2385664E-02 -0.1854658E-01  0.1841657E-02 -0.2365072E-01
6350000. -0.1672626E-01 -0.1598076E+01 -0.2382624E-02 -0.2018484E-01  0.1845342E-02 -0.2329629E-01
6349000. -0.1647525E-01 -0.1600269E+01 -0.2379327E-02 -0.2182227E-01  0.1848971E-02 -0.2294525E-01
6348000. -0.1622392E-01 -0.1602062E+01 -0.2375774E-02 -0.2345862E-01  0.1852545E-02 -0.2259762E-01
6347000. -0.1597235E-01 -0.1603456E+01 -0.2371963E-02 -0.2509364E-01  0.1856065E-02 -0.2225340E-01
6346600. -0.1587166E-01 -0.1603901E+01 -0.2370367E-02 -0.2574723E-01  0.1857457E-02 -0.2211667E-01
6346600. -0.1587166E-01 -0.1788935E+01 -0.2370367E-02 -0.1298015E-01  0.1857457E-02 -0.1658245E-01
6318800. -0.8062510E-02 -0.1761083E+01 -0.2265049E-02 -0.3518456E-01  0.1905958E-02 -0.5949978E-02
6291000. -0.7560186E-03 -0.1559569E+01 -0.2065641E-02 -0.5579009E-01  0.1911792E-02  0.3025828E-02
6291000. -0.7560186E-03 -0.1606935E+01 -0.2065641E-02 -0.5762995E-01  0.1911792E-02  0.3025828E-02
6263000.  0.5521738E-02 -0.1222805E+01 -0.1768942E-02 -0.7659281E-01  0.1882317E-02  0.1017873E-01
6235000.  0.9781671E-02 -0.6955619E+00 -0.1400633E-02 -0.8995512E-01  0.1823966E-02  0.1620911E-01
6207000.  0.1149614E-01 -0.7354248E-01 -0.9883882E-03 -0.9642043E-01  0.1741133E-02  0.2135704E-01
6179000.  0.1037581E-01  0.5839608E+00 -0.5642134E-03 -0.9533332E-01  0.1637230E-02  0.2582850E-01
6151000.  0.6406208E-02  0.1212145E+01 -0.1614319E-03 -0.8675729E-01  0.1514855E-02  0.2978609E-01
6151000.  0.6406208E-02  0.9524587E+00 -0.1614319E-03 -0.7709559E-01  0.1514855E-02  0.2943167E-01
6128500.  0.2407015E-02  0.1301951E+01  0.9313600E-04 -0.6663200E-01  0.1409522E-02  0.3014296E-01
6106000. -0.2706584E-02  0.1581002E+01  0.3065172E-03 -0.5388590E-01  0.1302470E-02  0.3041051E-01
6083500. -0.8661099E-02  0.1776365E+01  0.4719103E-03 -0.3958119E-01  0.1195213E-02  0.3026376E-01
6061000. -0.1514451E-01  0.1879526E+01  0.5851573E-03 -0.2448404E-01  0.1089167E-02  0.2972868E-01
6038500. -0.2182347E-01  0.1886938E+01  0.6448216E-03 -0.9362844E-02  0.9856626E-03  0.2882754E-01
6016000. -0.2836084E-01  0.1799973E+01  0.6521267E-03  0.5050466E-02  0.8859600E-03  0.2757864E-01
5993500. -0.3443263E-01  0.1624637E+01  0.6107662E-03  0.1809407E-01  0.7912604E-03  0.2599617E-01
5971000. -0.3974359E-01  0.1371104E+01  0.5266067E-03  0.2920322E-01  0.7027262E-03  0.2408792E-01
5971000. -0.3974359E-01  0.1275364E+01  0.5266067E-03  0.3071963E-01  0.7027262E-03  0.2929069E-01
5937667. -0.4517799E-01  0.7897272E+00  0.3375923E-03  0.4057835E-01  0.5590618E-03  0.2557206E-01
5904333. -0.4792677E-01  0.2576225E+00  0.1116802E-03  0.4489698E-01  0.4355393E-03  0.2162184E-01
5871000. -0.4788060E-01 -0.2709466E+00 -0.1237078E-03  0.4434748E-01  0.3328986E-03  0.1761820E-01
5837667. -0.4517018E-01 -0.7548042E+00 -0.3455885E-03  0.3991315E-01  0.2510264E-03  0.1370262E-01
5804333. -0.4011378E-01 -0.1163524E+01 -0.5365232E-03  0.3270282E-01  0.1891931E-03  0.9968872E-02
5771000. -0.3316018E-01 -0.1477759E+01 -0.6848614E-03  0.2380604E-01  0.1463176E-03  0.6458612E-02
5771000. -0.3316018E-01 -0.1477838E+01 -0.6848614E-03  0.2380644E-01  0.1463176E-03  0.6458612E-02
5701000. -0.1436293E-01 -0.1862715E+01 -0.8231736E-03  0.7059668E-03  0.1256918E-03 -0.2962722E-02
5701000. -0.1436293E-01 -0.1615136E+01 -0.8231736E-03  0.3723793E-02  0.1256918E-03  0.1085671E-02
5667333. -0.5890433E-02 -0.1596028E+01 -0.8318089E-03 -0.2907392E-03  0.1218893E-03  0.5504600E-03
5633667.  0.2555667E-02 -0.1599127E+01 -0.8207514E-03 -0.3878978E-02  0.1190119E-03  0.5277268E-03
5600000.  0.1092748E-01 -0.1561897E+01 -0.7911919E-03 -0.7241454E-02  0.1164816E-03  0.4310707E-03
5600000.  0.1092748E-01 -0.1561897E+01 -0.7911919E-03 -0.7241454E-02  0.1164816E-03  0.4310707E-03
5563518.  0.1965695E-01 -0.1480459E+01 -0.7405180E-03 -0.1036158E-01  0.1142845E-03  0.3391834E-03
5527037.  0.2781275E-01 -0.1362766E+01 -0.6737014E-03 -0.1286906E-01  0.1125457E-03  0.2734574E-03
5490556.  0.3520801E-01 -0.1216059E+01 -0.5943968E-03 -0.1471966E-01  0.1110847E-03  0.2424567E-03
5454074.  0.4169837E-01 -0.1047931E+01 -0.5063902E-03 -0.1590940E-01  0.1097060E-03  0.2448145E-03
5417593.  0.4718300E-01 -0.8660862E+00 -0.4134141E-03 -0.1646325E-01  0.1082107E-03  0.2826554E-03
5381111.  0.5160455E-01 -0.6777320E+00 -0.3189531E-03 -0.1643844E-01  0.1064219E-03  0.3453596E-03
5344630.  0.5494480E-01 -0.4894876E+00 -0.2261208E-03 -0.1590813E-01  0.1042219E-03  0.4257634E-03
5308148.  0.5722156E-01 -0.3071368E+00 -0.1375769E-03 -0.1495500E-01  0.1015186E-03  0.5194466E-03
5271667.  0.5848268E-01 -0.1354819E+00 -0.5547216E-04 -0.1367562E-01  0.9827533E-04  0.6127908E-03
5235185.  0.5880079E-01  0.2169883E-01  0.1858501E-04 -0.1215745E-01  0.9450553E-04  0.7035339E-03
5198704.  0.5826718E-01  0.1616236E+00  0.8346685E-04 -0.1048653E-01  0.9022676E-04  0.7887388E-03
5162222.  0.5698622E-01  0.2825074E+00  0.1385579E-03 -0.8749701E-02  0.8551076E-04  0.8556955E-03
5125741.  0.5506986E-01  0.3834919E+00  0.1836647E-03 -0.7009594E-02  0.8044774E-04  0.9107545E-03
5089259.  0.5263260E-01  0.4644685E+00  0.2189440E-03 -0.5326553E-02  0.7511071E-04  0.9500812E-03
5052778.  0.4978781E-01  0.5260037E+00  0.2448734E-03 -0.3750617E-02  0.6960646E-04  0.9696539E-03
5016296.  0.4664359E-01  0.5692500E+00  0.2621583E-03 -0.2311575E-02  0.6403128E-04  0.9752479E-03
4979815.  0.4330070E-01  0.5957038E+00  0.2716606E-03 -0.1036149E-02  0.5846895E-04  0.9648458E-03
4943333.  0.3985002E-01  0.6071924E+00  0.2743629E-03  0.6276873E-04  0.5300962E-04  0.9401620E-03
4906852.  0.3637173E-01  0.6057100E+00  0.2712818E-03  0.9834175E-03  0.4771815E-04  0.9063184E-03
4870370.  0.3293420E-01  0.5932725E+00  0.2634460E-03  0.1724135E-02  0.4265405E-04  0.8607964E-03
4833889.  0.2959436E-01  0.5719571E+00  0.2518579E-03  0.2296638E-02  0.3787200E-04  0.8088597E-03
4797407.  0.2639722E-01  0.5437099E+00  0.2374386E-03  0.2714804E-02  0.3339726E-04  0.7532517E-03
4760926.  0.2337747E-01  0.5103245E+00  0.2210395E-03  0.2991131E-02  0.2925642E-04  0.6925953E-03
4724444.  0.2055944E-01  0.4734836E+00  0.2034132E-03  0.3146692E-02  0.2546548E-04  0.6316156E-03
4687963.  0.1795886E-01  0.4346199E+00  0.1851998E-03  0.3199070E-02  0.2202239E-04  0.5710042E-03
4651482.  0.1558362E-01  0.3949707E+00  0.1669417E-03  0.3165487E-02  0.1892584E-04  0.5109163E-03
4615000.  0.1343503E-01  0.3555878E+00  0.1490740E-03  0.3065427E-02  0.1616466E-04  0.4540488E-03
4578518.  0.1150921E-01  0.3172853E+00  0.1319340E-03  0.2913691E-02  0.1372082E-04  0.3999992E-03
4542037.  0.9798075E-02  0.2807159E+00  0.1157757E-03  0.2725199E-02  0.1157728E-04  0.3494470E-03
4505556.  0.8290200E-02  0.2463525E+00  0.1007685E-03  0.2513493E-02  0.9709703E-05  0.3035521E-03
4469074.  0.6971993E-02  0.2144983E+00  0.8701708E-04  0.2288040E-02  0.8094496E-05  0.2612498E-03
4432593.  0.5828523E-02  0.1853557E+00  0.7457239E-04  0.2058688E-02  0.6709157E-05  0.2234137E-03
4396111.  0.4843937E-02  0.1589961E+00  0.6343395E-04  0.1832602E-02  0.5527471E-05  0.1899675E-03
4359630.  0.4002374E-02  0.1354029E+00  0.5356971E-04  0.1614548E-02  0.4526908E-05  0.1601550E-03
4323148.  0.3288127E-02  0.1145017E+00  0.4491922E-04  0.1409188E-02  0.3685507E-05  0.1343727E-03
4286667.  0.2686193E-02  0.9615415E-01  0.3740232E-04  0.1218970E-02  0.2981423E-05  0.1120916E-03
4250185.  0.2182400E-02  0.8018811E-01  0.3092751E-04  0.1045380E-02  0.2395906E-05  0.9293950E-04
4213704.  0.1763674E-02  0.6641229E-01  0.2539642E-04  0.8894702E-03  0.1911141E-05  0.7685593E-04
4177222.  0.1418056E-02  0.5461433E-01  0.2070772E-04  0.7510323E-03  0.1510847E-05  0.6336653E-04
4140741.  0.1134841E-02  0.4458445E-01  0.1676276E-04  0.6296636E-03  0.1180863E-05  0.5228759E-04
4104259.  0.9044901E-03  0.3611263E-01  0.1346542E-04  0.5246129E-03  0.9076953E-06  0.4347008E-04
4067778.  0.7186856E-03  0.2899482E-01  0.1072613E-04  0.4345693E-03  0.6793740E-06  0.3659842E-04
4031296.  0.5702124E-03  0.2304139E-01  0.8462083E-05  0.3584078E-03  0.4848466E-06  0.3166887E-04
3994815.  0.4529294E-03  0.1807316E-01  0.6597537E-05  0.2948097E-03  0.3130403E-06  0.2865343E-04
3958333.  0.3616719E-03  0.1392411E-01  0.5064634E-05  0.2423389E-03  0.1530742E-06  0.2755605E-04
3921852.  0.2921894E-03  0.1044440E-01  0.3803247E-05  0.1997821E-03 -0.6722312E-08  0.2864856E-04
3885370.  0.2410484E-03  0.7495271E-02  0.2760258E-05  0.1658277E-03 -0.1798582E-06  0.3228702E-04
3848889.  0.2055776E-03  0.4951875E-02  0.1890153E-05  0.1391988E-03 -0.3824508E-06  0.3906614E-04
3812407.  0.1837796E-03  0.2701710E-02  0.1154584E-05  0.1185945E-03 -0.6350244E-06  0.4992287E-04
3775926.  0.1742669E-03  0.6459317E-03  0.5234866E-06  0.1024221E-03 -0.9643745E-06  0.6613975E-04
3739444.  0.1761675E-03 -0.1296389E-02 -0.2301515E-07  0.8864299E-04 -0.1406195E-05  0.8956350E-04
3702963.  0.1890030E-03 -0.3179436E-02 -0.4906370E-06  0.7425089E-04 -0.2008612E-05  0.1227168E-03
3666482.  0.2124860E-03 -0.5011281E-02 -0.8631177E-06  0.5440187E-04 -0.2836405E-05  0.1689190E-03
3630000.  0.2461656E-03 -0.6718783E-02 -0.1088484E-05  0.2117673E-04 -0.3976329E-05  0.2325402E-03
3630000.  0.2461656E-03 -0.6718783E-02 -0.1088484E-05  0.2117673E-04 -0.3976329E-05  0.2325402E-03
3592500.  0.2900822E-03 -0.8109735E-02 -0.1048569E-05 -0.4114776E-04 -0.5594109E-05  0.3217056E-03
3555000.  0.3398964E-03 -0.8598061E-02 -0.5003794E-06 -0.1569176E-03 -0.7823755E-05  0.4415984E-03
3517500.  0.3874777E-03 -0.7107475E-02  0.9864368E-06 -0.3694078E-03 -0.1086600E-04  0.5987894E-03
3480000.  0.4157641E-03 -0.1584443E-02  0.4181582E-05 -0.7535035E-03 -0.1495370E-04  0.7969732E-03
3480000.  0.4157641E-03  0.2531715E-01  0.1187359E-04  0.7392169E-03 -0.1495370E-04 -0.5288521E-03
3409422.  0.2090092E-03  0.1322352E-01  0.5883936E-05  0.3795001E-03 -0.9377412E-05 -0.4472758E-03
3338844.  0.1023481E-03  0.6717755E-02  0.2844137E-05  0.1898468E-03 -0.5284767E-05 -0.2925427E-03
3268266.  0.4881851E-04  0.3320282E-02  0.1340740E-05  0.9254543E-04 -0.2771266E-05 -0.1689057E-03
3197688.  0.2267842E-04  0.1596769E-02  0.6161940E-06  0.4395531E-04 -0.1374835E-05 -0.9001428E-04
3127109.  0.1025734E-04  0.7471178E-03  0.2759838E-06  0.2033553E-04 -0.6510840E-06 -0.4518041E-04
3056531.  0.4515236E-05  0.3400353E-03  0.1204001E-06  0.9160731E-05 -0.2958694E-06 -0.2158552E-04
2985953.  0.1933361E-05  0.1504795E-03  0.5112935E-07  0.4016160E-05 -0.1294103E-06 -0.9875293E-05
2915375.  0.8047272E-06  0.6471787E-04  0.2112010E-07  0.1712485E-05 -0.5457745E-07 -0.4341470E-05
2844797.  0.3253506E-06  0.2703221E-04  0.8478893E-08  0.7096677E-06 -0.2221434E-07 -0.1837811E-05
2774219.  0.1276536E-06  0.1095741E-04  0.3305111E-08  0.2855762E-06 -0.8729068E-08 -0.7498967E-06
2703641.  0.4855682E-07  0.4306290E-05  0.1249601E-08  0.1114805E-06 -0.3310999E-08 -0.2950579E-06
2633062.  0.1788532E-07  0.1639087E-05  0.4576889E-09  0.4216917E-07 -0.1211677E-08 -0.1119343E-06
2562484.  0.6371242E-08  0.6035225E-06  0.1621877E-09  0.1543760E-07 -0.4274825E-09 -0.4092253E-07
2491906.  0.2191799E-08  0.2146755E-06  0.5552226E-10  0.5461841E-08 -0.1452397E-09 -0.1440579E-07
2421328.  0.7269950E-09  0.7365617E-07  0.1833201E-10  0.1864646E-08 -0.4745862E-10 -0.4877494E-08
2350750.  0.2320834E-09  0.2433532E-07  0.5827253E-11  0.6131999E-09 -0.1489118E-10 -0.1586105E-08
2280172.  0.7116765E-10  0.7727609E-08  0.1779762E-11  0.1938753E-09 -0.4478585E-11 -0.4945586E-09
2209594.  0.2091694E-10  0.2353533E-08  0.5211303E-12  0.5880762E-10 -0.1288402E-11 -0.1475745E-09
2139016.  0.5878114E-11  0.6858777E-09  0.1459339E-12  0.1707300E-10 -0.3537059E-12 -0.4204816E-10
2068438.  0.1575193E-11  0.1907625E-09  0.3897759E-13  0.4731655E-11 -0.9241972E-13 -0.1141111E-10
1997859.  0.4013187E-12  0.5048672E-10  0.9899059E-14  0.1248191E-11 -0.2291415E-13 -0.2941171E-11
1927281.  0.9694454E-13  0.1266594E-10  0.2381262E-14  0.3125944E-12 -0.5369476E-14 -0.7181972E-12
1856703.  0.0000000E+00  0.0000000E+00  0.0000000E+00  0.0000000E+00  0.0000000E+00  0.0000000E+00
1786125.  0.0000000E+00  0.0000000E+00  0.0000000E+00  0.0000000E+00  0.0000000E+00  0.0000000E+00
1715547.  0.0000000E+00  0.0000000E+00  0.0000000E+00  0.0000000E+00  0.0000000E+00  0.0000000E+00
1644969.  0.0000000E+00  0.0000000E+00  0.0000000E+00  0.0000000E+00  0.0000000E+00  0.0000000E+00
1574391.  0.0000000E+00  0.0000000E+00  0.0000000E+00  0.0000000E+00  0.0000000E+00  0.0000000E+00
1503812.  0.0000000E+00  0.0000000E+00  0.0000000E+00  0.0000000E+00  0.0000000E+00  0.0000000E+00
1433234.  0.0000000E+00  0.0000000E+00  0.0000000E+00  0.0000000E+00  0.0000000E+00  0.0000000E+00
1362656.  0.0000000E+00  0.0000000E+00  0.0000000E+00  0.0000000E+00  0.0000000E+00  0.0000000E+00
1292078.  0.0000000E+00  0.0000000E+00  0.0000000E+00  0.0000000E+00  0.0000000E+00  0.0000000E+00
1221500.  0.0000000E+00  0.0000000E+00  0.0000000E+00  0.0000000E+00  0.0000000E+00  0.0000000E+00
1221500.  0.0000000E+00  0.0000000E+00  0.0000000E+00  0.0000000E+00  0.0000000E+00  0.0000000E+00
1183328.  0.0000000E+00  0.0000000E+00  0.0000000E+00  0.0000000E+00  0.0000000E+00  0.0000000E+00
1145156.  0.0000000E+00  0.0000000E+00  0.0000000E+00  0.0000000E+00  0.0000000E+00  0.0000000E+00
1106984.  0.0000000E+00  0.0000000E+00  0.0000000E+00  0.0000000E+00  0.0000000E+00  0.0000000E+00
1068812.  0.0000000E+00  0.0000000E+00  0.0000000E+00  0.0000000E+00  0.0000000E+00  0.0000000E+00
1030641.  0.0000000E+00  0.0000000E+00  0.0000000E+00  0.0000000E+00  0.0000000E+00  0.0000000E+00
 992469.  0.0000000E+00  0.0000000E+00  0.0000000E+00  0.0000000E+00  0.0000000E+00  0.0000000E+00
 954297.  0.0000000E+00  0.0000000E+00  0.0000000E+00  0.0000000E+00  0.0000000E+00  0.0000000E+00
 916125.  0.0000000E+00  0.0000000E+00  0.0000000E+00  0.0000000E+00  0.0000000E+00  0.0000000E+00
 877953.  0.0000000E+00  0.0000000E+00  0.0000000E+00  0.0000000E+00  0.0000000E+00  0.0000000E+00
 839781.  0.0000000E+00  0.0000000E+00  0.0000000E+00  0.0000000E+00  0.0000000E+00  0.0000000E+00
 801609.  0.0000000E+00  0.0000000E+00  0.0000000E+00  0.0000000E+00  0.0000000E+00  0.0000000E+00
 763438.  0.0000000E+00  0.0000000E+00  0.0000000E+00  0.0000000E+00  0.0000000E+00  0.0000000E+00
 725266.  0.0000000E+00  0.0000000E+00  0.0000000E+00  0.0000000E+00  0.0000000E+00  0.0000000E+00
 687094.  0.0000000E+00  0.0000000E+00  0.0000000E+00  0.0000000E+00  0.0000000E+00  0.0000000E+00
 648922.  0.0000000E+00  0.0000000E+00  0.0000000E+00  0.0000000E+00  0.0000000E+00  0.0000000E+00
 610750.  0.0000000E+00  0.0000000E+00  0.0000000E+00  0.0000000E+00  0.0000000E+00  0.0000000E+00
 572578.  0.0000000E+00  0.0000000E+00  0.0000000E+00  0.0000000E+00  0.0000000E+00  0.0000000E+00
 534406.  0.0000000E+00  0.0000000E+00  0.0000000E+00  0.0000000E+00  0.0000000E+00  0.0000000E+00
 496234.  0.0000000E+00  0.0000000E+00  0.0000000E+00  0.0000000E+00  0.0000000E+00  0.0000000E+00
 458062.  0.0000000E+00  0.0000000E+00  0.0000000E+00  0.0000000E+00  0.0000000E+00  0.0000000E+00
 419891.  0.0000000E+00  0.0000000E+00  0.0000000E+00  0.0000000E+00  0.0000000E+00  0.0000000E+00
 381719.  0.0000000E+00  0.0000000E+00  0.0000000E+00  0.0000000E+00  0.0000000E+00  0.0000000E+00
 343547.  0.0000000E+00  0.0000000E+00  0.0000000E+00  0.0000000E+00  0.0000000E+00  0.0000000E+00
 305375.  0.0000000E+00  0.0000000E+00  0.0000000E+00  0.0000000E+00  0.0000000E+00  0.0000000E+00
 267203.  0.0000000E+00  0.0000000E+00  0.0000000E+00  0.0000000E+00  0.0000000E+00  0.0000000E+00
 229031.  0.0000000E+00  0.0000000E+00  0.0000000E+00  0.0000000E+00  0.0000000E+00  0.0000000E+00
 190859.  0.0000000E+00  0.0000000E+00  0.0000000E+00  0.0000000E+00  0.0000000E+00  0.0000000E+00
 152688.  0.0000000E+00  0.0000000E+00  0.0000000E+00  0.0000000E+00  0.0000000E+00  0.0000000E+00
 114516.  0.0000000E+00  0.0000000E+00  0.0000000E+00  0.0000000E+00  0.0000000E+00  0.0000000E+00
  76344.  0.0000000E+00  0.0000000E+00  0.0000000E+00  0.0000000E+00  0.0000000E+00  0.0000000E+00
  38172.  0.0000000E+00  0.0000000E+00  0.0000000E+00  0.0000000E+00  0.0000000E+00  0.0000000E+00
      0.  0.0000000E+00  0.0000000E+00  0.0000000E+00  0.0000000E+00  0.0000000E+00  0.0000000E+00
