      26        5 S      745         95.08475         76.54449         24.85510         87.35770      185    7
6371000. -0.5829950E-02  0.1110701E-01  0.5535642E-03  0.6383514E-02  0.0000000E+00  0.0000000E+00
6370000. -0.5831313E-02  0.6259220E-02  0.5524440E-03  0.7889586E-02  0.0000000E+00  0.0000000E+00
6369000. -0.5831915E-02  0.1404166E-02  0.5510877E-03  0.9391019E-02  0.0000000E+00  0.0000000E+00
6368000. -0.5831754E-02 -0.3457512E-02  0.5494962E-03  0.1088717E-01  0.0000000E+00  0.0000000E+00
6368000. -0.5831754E-02 -0.3457512E-02  0.5494962E-03  0.1088717E-01  0.0000000E+00  0.0000000E+00
6367000. -0.5830829E-02 -0.8325169E-02  0.5476703E-03  0.1237739E-01  0.0000000E+00  0.0000000E+00
6366000. -0.5829140E-02 -0.1319815E-01  0.5456110E-03  0.1386105E-01  0.0000000E+00  0.0000000E+00
6365000. -0.5826686E-02 -0.1807581E-01  0.5433194E-03  0.1533751E-01  0.0000000E+00  0.0000000E+00
6364000. -0.5823466E-02 -0.2295750E-01  0.5407966E-03  0.1680614E-01  0.0000000E+00  0.0000000E+00
6363000. -0.5819479E-02 -0.2784254E-01  0.5380440E-03  0.1826630E-01  0.0000000E+00  0.0000000E+00
6362000. -0.5814725E-02 -0.3273028E-01  0.5350629E-03  0.1971737E-01  0.0000000E+00  0.0000000E+00
6361000. -0.5809204E-02 -0.3762006E-01  0.5318548E-03  0.2115873E-01  0.0000000E+00  0.0000000E+00
6360000. -0.5802915E-02 -0.4251122E-01  0.5284212E-03  0.2258976E-01  0.0000000E+00  0.0000000E+00
6359000. -0.5795859E-02 -0.4740307E-01  0.5247639E-03  0.2400984E-01  0.0000000E+00  0.0000000E+00
6358000. -0.5788034E-02 -0.5229495E-01  0.5208846E-03  0.2541838E-01  0.0000000E+00  0.0000000E+00
6357000. -0.5779442E-02 -0.5718620E-01  0.5167851E-03  0.2681475E-01  0.0000000E+00  0.0000000E+00
6356000. -0.5770082E-02 -0.6207613E-01  0.5124675E-03  0.2819837E-01  0.0000000E+00  0.0000000E+00
6356000. -0.5770082E-02 -0.3813309E-01  0.5124675E-03  0.1951672E-01  0.0000000E+00  0.0000000E+00
6355000. -0.5763819E-02 -0.4167834E-01  0.5093316E-03  0.2043998E-01  0.0000000E+00  0.0000000E+00
6354000. -0.5756998E-02 -0.4522369E-01  0.5060513E-03  0.2135653E-01  0.0000000E+00  0.0000000E+00
6353000. -0.5749622E-02 -0.4876880E-01  0.5026276E-03  0.2226612E-01  0.0000000E+00  0.0000000E+00
6352000. -0.5741689E-02 -0.5231330E-01  0.4990618E-03  0.2316847E-01  0.0000000E+00  0.0000000E+00
6351000. -0.5733200E-02 -0.5585684E-01  0.4953550E-03  0.2406332E-01  0.0000000E+00  0.0000000E+00
6350000. -0.5724154E-02 -0.5939906E-01  0.4915082E-03  0.2495043E-01  0.0000000E+00  0.0000000E+00
6349000. -0.5714553E-02 -0.6293961E-01  0.4875229E-03  0.2582953E-01  0.0000000E+00  0.0000000E+00
6348000. -0.5704396E-02 -0.6647812E-01  0.4834002E-03  0.2670037E-01  0.0000000E+00  0.0000000E+00
6347000. -0.5693684E-02 -0.7001423E-01  0.4791415E-03  0.2756269E-01  0.0000000E+00  0.0000000E+00
6346600. -0.5689244E-02 -0.7142792E-01  0.4774002E-03  0.2790519E-01  0.0000000E+00  0.0000000E+00
6346600. -0.5689244E-02 -0.3917754E-01  0.4774002E-03  0.2085094E-01  0.0000000E+00  0.0000000E+00
6318800. -0.5363276E-02 -0.1101217E+00  0.3494059E-03  0.3685461E-01  0.0000000E+00  0.0000000E+00
6291000. -0.4732333E-02 -0.1782213E+00  0.1659163E-03  0.4592327E-01  0.0000000E+00  0.0000000E+00
6291000. -0.4732333E-02 -0.1804431E+00  0.1659163E-03  0.4725843E-01  0.0000000E+00  0.0000000E+00
6263000. -0.3799397E-02 -0.2424394E+00 -0.4629028E-04  0.4774621E-01  0.0000000E+00  0.0000000E+00
6235000. -0.2619341E-02 -0.2921654E+00 -0.2403993E-03  0.3916693E-01  0.0000000E+00  0.0000000E+00
6207000. -0.1255267E-02 -0.3255771E+00 -0.3796439E-03  0.2318131E-01  0.0000000E+00  0.0000000E+00
6179000.  0.2139787E-03 -0.3396167E+00 -0.4376698E-03  0.2793185E-02  0.0000000E+00  0.0000000E+00
6151000.  0.1698900E-02 -0.3325443E+00 -0.4033071E-03 -0.1819761E-01  0.0000000E+00  0.0000000E+00
6151000.  0.1698900E-02 -0.2694992E+00 -0.4033071E-03 -0.1627010E-01  0.0000000E+00  0.0000000E+00
6128500.  0.2614588E-02 -0.2476577E+00 -0.3222451E-03 -0.2919214E-01  0.0000000E+00  0.0000000E+00
6106000.  0.3438825E-02 -0.2179098E+00 -0.2009966E-03 -0.3882992E-01  0.0000000E+00  0.0000000E+00
6083500.  0.4145983E-02 -0.1815976E+00 -0.5302291E-04 -0.4419906E-01  0.0000000E+00  0.0000000E+00
6061000.  0.4715582E-02 -0.1402822E+00  0.1055293E-03 -0.4477435E-01  0.0000000E+00  0.0000000E+00
6038500.  0.5132919E-02 -0.9565621E-01  0.2575376E-03 -0.4053082E-01  0.0000000E+00  0.0000000E+00
6016000.  0.5389358E-02 -0.4944991E-01  0.3866653E-03 -0.3193243E-01  0.0000000E+00  0.0000000E+00
5993500.  0.5482313E-02 -0.3343089E-02  0.4789964E-03 -0.1987253E-01  0.0000000E+00  0.0000000E+00
5971000.  0.5414921E-02  0.4111386E-01  0.5243878E-03 -0.5574868E-02  0.0000000E+00  0.0000000E+00
5971000.  0.5414921E-02  0.3735814E-01  0.5243878E-03 -0.5535570E-02  0.0000000E+00  0.0000000E+00
5937667.  0.5071546E-02  0.9218222E-01  0.4998526E-03  0.1462944E-01  0.0000000E+00  0.0000000E+00
5904333.  0.4469791E-02  0.1358756E+00  0.3774005E-03  0.3133639E-01  0.0000000E+00  0.0000000E+00
5871000.  0.3670670E-02  0.1675918E+00  0.1827558E-03  0.4189367E-01  0.0000000E+00  0.0000000E+00
5837667.  0.2736643E-02  0.1875552E+00 -0.4795314E-04  0.4503260E-01  0.0000000E+00  0.0000000E+00
5804333.  0.1726864E-02  0.1967467E+00 -0.2757003E-03  0.4088770E-01  0.0000000E+00  0.0000000E+00
5771000.  0.6941615E-03  0.1965899E+00 -0.4653064E-03  0.3074681E-01  0.0000000E+00  0.0000000E+00
5771000.  0.6941615E-03  0.1965918E+00 -0.4653064E-03  0.3074577E-01  0.0000000E+00  0.0000000E+00
5701000. -0.1430064E-02  0.1848417E+00 -0.6421590E-03 -0.3787458E-03  0.0000000E+00  0.0000000E+00
5701000. -0.1430064E-02  0.1521074E+00 -0.6421590E-03 -0.1156968E-03  0.0000000E+00  0.0000000E+00
5667333. -0.2176125E-02  0.1312095E+00 -0.6052963E-03 -0.1347304E-01  0.0000000E+00  0.0000000E+00
5633667. -0.2824263E-02  0.1140665E+00 -0.5021819E-03 -0.2527203E-01  0.0000000E+00  0.0000000E+00
5600000. -0.3375709E-02  0.9413552E-01 -0.3437329E-03 -0.3406427E-01  0.0000000E+00  0.0000000E+00
5600000. -0.3375709E-02  0.9413552E-01 -0.3437329E-03 -0.3406427E-01  0.0000000E+00  0.0000000E+00
5563518. -0.3846549E-02  0.6990247E-01 -0.1319270E-03 -0.3906208E-01  0.0000000E+00  0.0000000E+00
5527037. -0.4172001E-02  0.4344052E-01  0.9353624E-04 -0.3880223E-01  0.0000000E+00  0.0000000E+00
5490556. -0.4340733E-02  0.1525147E-01  0.3026830E-03 -0.3345180E-01  0.0000000E+00  0.0000000E+00
5454074. -0.4344465E-02 -0.1408322E-01  0.4685346E-03 -0.2387553E-01  0.0000000E+00  0.0000000E+00
5417593. -0.4178629E-02 -0.4384049E-01  0.5707514E-03 -0.1149990E-01  0.0000000E+00  0.0000000E+00
5381111. -0.3843296E-02 -0.7311396E-01  0.5982408E-03  0.1916992E-02  0.0000000E+00  0.0000000E+00
5344630. -0.3344314E-02 -0.1008075E+00  0.5503483E-03  0.1452802E-01  0.0000000E+00  0.0000000E+00
5308148. -0.2694178E-02 -0.1256852E+00  0.4366191E-03  0.2465850E-01  0.0000000E+00  0.0000000E+00
5271667. -0.1912874E-02 -0.1464043E+00  0.2751772E-03  0.3102217E-01  0.0000000E+00  0.0000000E+00
5235185. -0.1027910E-02 -0.1616786E+00  0.8996481E-04  0.3288943E-01  0.0000000E+00  0.0000000E+00
5198704. -0.7386842E-04 -0.1703649E+00 -0.9267630E-04  0.3016266E-01  0.0000000E+00  0.0000000E+00
5162222.  0.9088452E-03 -0.1715684E+00 -0.2476638E-03  0.2336580E-01  0.0000000E+00  0.0000000E+00
5125741.  0.1875808E-02 -0.1648333E+00 -0.3545168E-03  0.1356663E-01  0.0000000E+00  0.0000000E+00
5089259.  0.2781348E-02 -0.1501439E+00 -0.4000390E-03  0.2205117E-02  0.0000000E+00  0.0000000E+00
5052778.  0.3581037E-02 -0.1279996E+00 -0.3798805E-03 -0.9100992E-02  0.0000000E+00  0.0000000E+00
5016296.  0.4234938E-02 -0.9942649E-01 -0.2989351E-03 -0.1877836E-01  0.0000000E+00  0.0000000E+00
4979815.  0.4710190E-02 -0.6588301E-01 -0.1704882E-03 -0.2550285E-01  0.0000000E+00  0.0000000E+00
4943333.  0.4983407E-02 -0.2918312E-01 -0.1426366E-04 -0.2837007E-01  0.0000000E+00  0.0000000E+00
4906852.  0.5042247E-02  0.8646261E-02  0.1463009E-03 -0.2700454E-01  0.0000000E+00  0.0000000E+00
4870370.  0.4886194E-02  0.4553072E-01  0.2872474E-03 -0.2159479E-01  0.0000000E+00  0.0000000E+00
4833889.  0.4526393E-02  0.7950344E-01  0.3872498E-03 -0.1286571E-01  0.0000000E+00  0.0000000E+00
4797407.  0.3984516E-02  0.1088651E+00  0.4304374E-03 -0.1970850E-02  0.0000000E+00  0.0000000E+00
4760926.  0.3291020E-02  0.1322823E+00  0.4084170E-03  0.9656988E-02  0.0000000E+00  0.0000000E+00
4724444.  0.2482551E-02  0.1489165E+00  0.3213568E-03  0.2049390E-01  0.0000000E+00  0.0000000E+00
4687963.  0.1599240E-02  0.1584119E+00  0.1779635E-03  0.2911399E-01  0.0000000E+00  0.0000000E+00
4651482.  0.6817947E-03  0.1609024E+00 -0.5609015E-05  0.3436745E-01  0.0000000E+00  0.0000000E+00
4615000. -0.2311948E-03  0.1569736E+00 -0.2077734E-03  0.3552373E-01  0.0000000E+00  0.0000000E+00
4578518. -0.1105382E-02  0.1475213E+00 -0.4041439E-03  0.3234905E-01  0.0000000E+00  0.0000000E+00
4542037. -0.1912259E-02  0.1336727E+00 -0.5705128E-03  0.2513886E-01  0.0000000E+00  0.0000000E+00
4505556. -0.2630158E-02  0.1166427E+00 -0.6858031E-03  0.1467433E-01  0.0000000E+00  0.0000000E+00
4469074. -0.3244213E-02  0.9758084E-01 -0.7345673E-03  0.2122714E-02  0.0000000E+00  0.0000000E+00
4432593. -0.3745790E-02  0.7751606E-01 -0.7088321E-03 -0.1109830E-01  0.0000000E+00  0.0000000E+00
4396111. -0.4131554E-02  0.5723374E-01 -0.6090428E-03 -0.2349525E-01  0.0000000E+00  0.0000000E+00
4359630. -0.4401834E-02  0.3724854E-01 -0.4440222E-03 -0.3366684E-01  0.0000000E+00  0.0000000E+00
4323148. -0.4559209E-02  0.1781799E-01 -0.2299208E-03 -0.4047504E-01  0.0000000E+00  0.0000000E+00
4286667. -0.4606996E-02 -0.1039748E-02  0.1161545E-04 -0.4316202E-01  0.0000000E+00  0.0000000E+00
4250185. -0.4548124E-02 -0.1946821E-01  0.2559355E-03 -0.4143865E-01  0.0000000E+00  0.0000000E+00
4213704. -0.4384439E-02 -0.3768648E-01  0.4781397E-03 -0.3551468E-01  0.0000000E+00  0.0000000E+00
4177222. -0.4116550E-02 -0.5588699E-01  0.6558935E-03 -0.2605814E-01  0.0000000E+00  0.0000000E+00
4140741. -0.3744273E-02 -0.7415017E-01  0.7718253E-03 -0.1412551E-01  0.0000000E+00  0.0000000E+00
4104259. -0.3267413E-02 -0.9237253E-01  0.8154379E-03 -0.1030824E-02  0.0000000E+00  0.0000000E+00
4067778. -0.2687153E-02 -0.1101904E+00  0.7841316E-03  0.1180371E-01  0.0000000E+00  0.0000000E+00
4031296. -0.2007342E-02 -0.1270202E+00  0.6833827E-03  0.2300728E-01  0.0000000E+00  0.0000000E+00
3994815. -0.1235923E-02 -0.1420376E+00  0.5260069E-03  0.3141253E-01  0.0000000E+00  0.0000000E+00
3958333. -0.3860606E-03 -0.1542366E+00  0.3306057E-03  0.3618004E-01  0.0000000E+00  0.0000000E+00
3921852.  0.5230754E-03 -0.1625730E+00  0.1194278E-03  0.3689295E-01  0.0000000E+00  0.0000000E+00
3885370.  0.1466409E-02 -0.1660066E+00 -0.8420620E-04  0.3358725E-01  0.0000000E+00  0.0000000E+00
3848889.  0.2413173E-02 -0.1636552E+00 -0.2584538E-03  0.2674675E-01  0.0000000E+00  0.0000000E+00
3812407.  0.3328437E-02 -0.1549206E+00 -0.3854192E-03  0.1724364E-01  0.0000000E+00  0.0000000E+00
3775926.  0.4174647E-02 -0.1395353E+00 -0.4530433E-03  0.6230811E-02  0.0000000E+00  0.0000000E+00
3739444.  0.4914057E-02 -0.1176793E+00 -0.4563910E-03 -0.4983379E-02  0.0000000E+00  0.0000000E+00
3702963.  0.5511176E-02 -0.8998307E-01 -0.3981070E-03 -0.1508421E-01  0.0000000E+00  0.0000000E+00
3666482.  0.5935389E-02 -0.5749854E-01 -0.2880301E-03 -0.2289604E-01  0.0000000E+00  0.0000000E+00
3630000.  0.6163273E-02 -0.2167514E-01 -0.1420191E-03 -0.2751041E-01  0.0000000E+00  0.0000000E+00
3630000.  0.6163273E-02 -0.2167514E-01 -0.1420191E-03 -0.2751041E-01  0.0000000E+00  0.0000000E+00
3592500.  0.6177932E-02  0.1680920E-01  0.2439272E-04 -0.2834981E-01  0.0000000E+00  0.0000000E+00
3555000.  0.5966086E-02  0.5494030E-01  0.1836822E-03 -0.2511027E-01  0.0000000E+00  0.0000000E+00
3517500.  0.5535911E-02  0.9065939E-01  0.3126647E-03 -0.1815028E-01  0.0000000E+00  0.0000000E+00
3480000.  0.4907347E-02  0.1220532E+00  0.3915905E-03 -0.8267208E-02  0.0000000E+00  0.0000000E+00
3480000.  0.4907347E-02  0.1784912E+00 -0.1334543E-03  0.9230871E-02  0.0000000E+00  0.0000000E+00
3409422.  0.2279165E-02  0.2829854E+00 -0.2126355E-03  0.4658886E-02  0.0000000E+00  0.0000000E+00
3338844. -0.1039015E-02  0.3008084E+00 -0.2306105E-03 -0.1540779E-02  0.0000000E+00  0.0000000E+00
3268266. -0.4062441E-02  0.2319443E+00 -0.1791405E-03 -0.7569179E-02  0.0000000E+00  0.0000000E+00
3197688. -0.5943486E-02  0.1000847E+00 -0.6997514E-04 -0.1170214E-01  0.0000000E+00  0.0000000E+00
3127109. -0.6189322E-02 -0.5619673E-01  0.6863565E-04 -0.1274960E-01  0.0000000E+00  0.0000000E+00
3056531. -0.4764406E-02 -0.1948620E+00  0.1996530E-03 -0.1034671E-01  0.0000000E+00  0.0000000E+00
2985953. -0.2066850E-02 -0.2812722E+00  0.2869930E-03 -0.5021575E-02  0.0000000E+00  0.0000000E+00
2915375.  0.1200220E-02 -0.2959451E+00  0.3047498E-03  0.1957773E-02  0.0000000E+00  0.0000000E+00
2844797.  0.4219306E-02 -0.2378680E+00  0.2437367E-03  0.8904131E-02  0.0000000E+00  0.0000000E+00
2774219.  0.6259887E-02 -0.1231879E+00  0.1139277E-03  0.1411454E-01  0.0000000E+00  0.0000000E+00
2703641.  0.6843421E-02  0.1982667E-01 -0.5758890E-04  0.1626172E-01  0.0000000E+00  0.0000000E+00
2633062.  0.5838796E-02  0.1580055E+00 -0.2325335E-03  0.1468976E-01  0.0000000E+00  0.0000000E+00
2562484.  0.3474232E-02  0.2608580E+00 -0.3698091E-03  0.9556611E-02  0.0000000E+00  0.0000000E+00
2491906.  0.2705947E-03  0.3069113E+00 -0.4345160E-03  0.1802169E-02  0.0000000E+00  0.0000000E+00
2421328. -0.3082562E-02  0.2875941E+00 -0.4056721E-03 -0.7043709E-02  0.0000000E+00  0.0000000E+00
2350750. -0.5877872E-02  0.2081642E+00 -0.2811283E-03 -0.1516833E-01  0.0000000E+00  0.0000000E+00
2280172. -0.7535042E-02  0.8577482E-01 -0.7873620E-04 -0.2083355E-01  0.0000000E+00  0.0000000E+00
2209594. -0.7711424E-02 -0.5464280E-01  0.1664019E-03 -0.2271453E-01  0.0000000E+00  0.0000000E+00
2139016. -0.6359372E-02 -0.1856836E+00  0.4080362E-03 -0.2015695E-01  0.0000000E+00  0.0000000E+00
2068438. -0.3723482E-02 -0.2828340E+00  0.5970556E-03 -0.1330844E-01  0.0000000E+00  0.0000000E+00
1997859. -0.2828548E-03 -0.3288712E+00  0.6904292E-03 -0.3104593E-02  0.0000000E+00  0.0000000E+00
1927281.  0.3346315E-02 -0.3165807E+00  0.6592125E-03  0.8881927E-02  0.0000000E+00  0.0000000E+00
1856703.  0.6527518E-02 -0.2494202E+00  0.4942493E-03  0.2070175E-01  0.0000000E+00  0.0000000E+00
1786125.  0.8716376E-02 -0.1402066E+00  0.2086090E-03  0.3034656E-01  0.0000000E+00  0.0000000E+00
1715547.  0.9549512E-02 -0.8218570E-02 -0.1635669E-03  0.3607134E-01  0.0000000E+00  0.0000000E+00
1644969.  0.8895504E-02  0.1246188E+00 -0.5715546E-03  0.3666586E-01  0.0000000E+00  0.0000000E+00
1574391.  0.6861934E-02  0.2377220E+00 -0.9550537E-03  0.3163131E-01  0.0000000E+00  0.0000000E+00
1503812.  0.3760562E-02  0.3153025E+00 -0.1252498E-02  0.2123530E-01  0.0000000E+00  0.0000000E+00
1433234.  0.4008614E-04  0.3487372E+00 -0.1409231E-02  0.6437686E-02  0.0000000E+00  0.0000000E+00
1362656. -0.3800438E-02  0.3375838E+00 -0.1384236E-02 -0.1130311E-01  0.0000000E+00  0.0000000E+00
1292078. -0.7301219E-02  0.2892177E+00 -0.1154115E-02 -0.3031703E-01  0.0000000E+00  0.0000000E+00
1221500. -0.1012119E-01  0.2173940E+00 -0.7135502E-03 -0.4907263E-01  0.0000000E+00  0.0000000E+00
1221500. -0.1012119E-01  0.4814521E+01  0.3610634E-01  0.2411098E+00  0.0000000E+00  0.0000000E+00
1183328. -0.3695935E-01  0.3715986E+01  0.2664999E-01  0.2797256E+01  0.0000000E+00  0.0000000E+00
1145156. -0.5017364E-01  0.4155017E+00  0.5171389E-02  0.4079836E+01  0.0000000E+00  0.0000000E+00
1106984. -0.4028325E-01 -0.3694124E+01 -0.1831165E-01  0.3428055E+01  0.0000000E+00  0.0000000E+00
1068812. -0.8192715E-02 -0.6670307E+01 -0.3247800E-01  0.1087711E+01  0.0000000E+00  0.0000000E+00
1030641.  0.3408161E-01 -0.6899414E+01 -0.3004801E-01 -0.1890903E+01  0.0000000E+00  0.0000000E+00
 992469.  0.6792039E-01 -0.3894385E+01 -0.1131563E-01 -0.4130920E+01  0.0000000E+00  0.0000000E+00
 954297.  0.7616998E-01  0.1361815E+01  0.1577834E-01 -0.4559152E+01  0.0000000E+00  0.0000000E+00
 916125.  0.5138412E-01  0.6715449E+01  0.3908504E-01 -0.2901418E+01  0.0000000E+00  0.0000000E+00
 877953.  0.4880051E-03  0.9696794E+01  0.4765372E-01  0.1815499E+00  0.0000000E+00  0.0000000E+00
 839781. -0.5654202E-01  0.8592073E+01  0.3668141E-01  0.3375768E+01  0.0000000E+00  0.0000000E+00
 801609. -0.9394446E-01  0.3281432E+01  0.9805729E-02  0.5284492E+01  0.0000000E+00  0.0000000E+00
 763438. -0.9077220E-01 -0.4532945E+01 -0.2226649E-01  0.5033988E+01  0.0000000E+00  0.0000000E+00
 725266. -0.4061002E-01 -0.1184689E+02 -0.4619374E-01  0.2650608E+01  0.0000000E+00  0.0000000E+00
 687094.  0.4370859E-01 -0.1545134E+02 -0.5156313E-01 -0.9496271E+00  0.0000000E+00  0.0000000E+00
 648922.  0.1327052E+00 -0.1319674E+02 -0.3522699E-01 -0.4346148E+01  0.0000000E+00  0.0000000E+00
 610750.  0.1896715E+00 -0.4922861E+01 -0.2603485E-02 -0.6202037E+01  0.0000000E+00  0.0000000E+00
 572578.  0.1836435E+00  0.7327644E+01  0.3452491E-01 -0.5802128E+01  0.0000000E+00  0.0000000E+00
 534406.  0.1011499E+00  0.1992291E+02  0.6270852E-01 -0.3319124E+01  0.0000000E+00  0.0000000E+00
 496234. -0.4774143E-01  0.2887234E+02  0.7202170E-01  0.2907400E+00  0.0000000E+00  0.0000000E+00
 458062. -0.2315017E+00  0.3122031E+02  0.5963406E-01  0.3701391E+01  0.0000000E+00  0.0000000E+00
 419891. -0.4067378E+00  0.2608241E+02  0.3042467E-01  0.5752959E+01  0.0000000E+00  0.0000000E+00
 381719. -0.5319207E+00  0.1493681E+02 -0.5413570E-02  0.5883334E+01  0.0000000E+00  0.0000000E+00
 343547. -0.5802525E+00  0.1071846E+01 -0.3658287E-01  0.4285624E+01  0.0000000E+00  0.0000000E+00
 305375. -0.5472127E+00 -0.1159289E+02 -0.5488030E-01  0.1749887E+01  0.0000000E+00  0.0000000E+00
 267203. -0.4502437E+00 -0.1985734E+02 -0.5770225E-01 -0.7180365E+00  0.0000000E+00  0.0000000E+00
 229031. -0.3211178E+00 -0.2225652E+02 -0.4803941E-01 -0.2320289E+01  0.0000000E+00  0.0000000E+00
 190859. -0.1941975E+00 -0.1937576E+02 -0.3227890E-01 -0.2748842E+01  0.0000000E+00  0.0000000E+00
 152688. -0.9518819E-01 -0.1338524E+02 -0.1703402E-01 -0.2220363E+01  0.0000000E+00  0.0000000E+00
 114516. -0.3452060E-01 -0.7014934E+01 -0.6503396E-02 -0.1275855E+01  0.0000000E+00  0.0000000E+00
  76344. -0.7504721E-02 -0.2409728E+01 -0.1462750E-02 -0.4632372E+00  0.0000000E+00  0.0000000E+00
  38172. -0.4965056E-03 -0.3283354E+00 -0.9867347E-04 -0.6504196E-01  0.0000000E+00  0.0000000E+00
      0.  0.0000000E+00  0.0000000E+00  0.0000000E+00  0.0000000E+00  0.0000000E+00  0.0000000E+00
