       5        9 S      325        264.70410         15.91854         15.14200         89.54076      185    7
6371000.  0.3356590E-03 -0.1220676E-02 -0.2702375E-04 -0.3626827E-03 -0.1627113E-05 -0.6167031E-03
6370000.  0.3358476E-03 -0.1182470E-02 -0.2696613E-04 -0.3714676E-03 -0.1530345E-05 -0.6163121E-03
6369000.  0.3360301E-03 -0.1144146E-02 -0.2690714E-04 -0.3802234E-03 -0.1433639E-05 -0.6159123E-03
6368000.  0.3362067E-03 -0.1105706E-02 -0.2684677E-04 -0.3889495E-03 -0.1336997E-05 -0.6155037E-03
6368000.  0.3362067E-03 -0.1105706E-02 -0.2684677E-04 -0.3889495E-03 -0.1336997E-05 -0.6155037E-03
6367000.  0.3363772E-03 -0.1067151E-02 -0.2678504E-04 -0.3976455E-03 -0.1240419E-05 -0.6150863E-03
6366000.  0.3365417E-03 -0.1028481E-02 -0.2672194E-04 -0.4063110E-03 -0.1143908E-05 -0.6146603E-03
6365000.  0.3367001E-03 -0.9896980E-03 -0.2665749E-04 -0.4149454E-03 -0.1047464E-05 -0.6142255E-03
6364000.  0.3368524E-03 -0.9508019E-03 -0.2659168E-04 -0.4235482E-03 -0.9510889E-06 -0.6137819E-03
6363000.  0.3369986E-03 -0.9117940E-03 -0.2652453E-04 -0.4321191E-03 -0.8547843E-06 -0.6133296E-03
6362000.  0.3371386E-03 -0.8726752E-03 -0.2645603E-04 -0.4406575E-03 -0.7585514E-06 -0.6128686E-03
6361000.  0.3372725E-03 -0.8334463E-03 -0.2638620E-04 -0.4491629E-03 -0.6623915E-06 -0.6123988E-03
6360000.  0.3374003E-03 -0.7941083E-03 -0.2631503E-04 -0.4576351E-03 -0.5663061E-06 -0.6119203E-03
6359000.  0.3375218E-03 -0.7546620E-03 -0.2624254E-04 -0.4660734E-03 -0.4702965E-06 -0.6114331E-03
6358000.  0.3376371E-03 -0.7151084E-03 -0.2616872E-04 -0.4744775E-03 -0.3743640E-06 -0.6109371E-03
6357000.  0.3377463E-03 -0.6754485E-03 -0.2609359E-04 -0.4828467E-03 -0.2785100E-06 -0.6104325E-03
6356000.  0.3378492E-03 -0.6356831E-03 -0.2601715E-04 -0.4911809E-03 -0.1827360E-06 -0.6099191E-03
6356000.  0.3378492E-03 -0.6799463E-03 -0.2601715E-04 -0.4410532E-03 -0.1827360E-06 -0.6834312E-03
6355000.  0.3379537E-03 -0.6510186E-03 -0.2594750E-04 -0.4463455E-03 -0.7550801E-07 -0.6828665E-03
6354000.  0.3380536E-03 -0.6220239E-03 -0.2587703E-04 -0.4516162E-03  0.3163082E-07 -0.6822955E-03
6353000.  0.3381489E-03 -0.5929629E-03 -0.2580573E-04 -0.4568651E-03  0.1386795E-06 -0.6817181E-03
6352000.  0.3382397E-03 -0.5638360E-03 -0.2573361E-04 -0.4620921E-03  0.2456371E-06 -0.6811345E-03
6351000.  0.3383259E-03 -0.5346436E-03 -0.2566067E-04 -0.4672968E-03  0.3525026E-06 -0.6805445E-03
6350000.  0.3384075E-03 -0.5053864E-03 -0.2558692E-04 -0.4724792E-03  0.4592750E-06 -0.6799483E-03
6349000.  0.3384846E-03 -0.4760648E-03 -0.2551235E-04 -0.4776390E-03  0.5659533E-06 -0.6793456E-03
6348000.  0.3385570E-03 -0.4466794E-03 -0.2543698E-04 -0.4827761E-03  0.6725365E-06 -0.6787368E-03
6347000.  0.3386248E-03 -0.4172307E-03 -0.2536080E-04 -0.4878903E-03  0.7790237E-06 -0.6781216E-03
6346600.  0.3386506E-03 -0.4054335E-03 -0.2533010E-04 -0.4899295E-03  0.8215914E-06 -0.6778738E-03
6346600.  0.3386506E-03 -0.8073372E-03 -0.2533010E-04 -0.4494686E-03  0.8215914E-06 -0.7959563E-03
6318800.  0.3408287E-03 -0.1833357E-03 -0.2315320E-04 -0.5458979E-03  0.4256093E-05 -0.7776504E-03
6291000.  0.3401885E-03  0.4832812E-03 -0.2058847E-04 -0.6269095E-03  0.7603089E-05 -0.7558436E-03
6291000.  0.3401885E-03  0.4697792E-03 -0.2058847E-04 -0.6374397E-03  0.7603089E-05 -0.7558436E-03
6263000.  0.3365484E-03  0.1192151E-02 -0.1763196E-04 -0.7047690E-03  0.1087041E-04 -0.7304056E-03
6235000.  0.3296689E-03  0.1942324E-02 -0.1442292E-04 -0.7521453E-03  0.1401782E-04 -0.7012770E-03
6207000.  0.3194501E-03  0.2709915E-02 -0.1105151E-04 -0.7785272E-03  0.1702912E-04 -0.6684692E-03
6179000.  0.3058400E-03  0.3483704E-02 -0.7611396E-05 -0.7833600E-03  0.1988821E-04 -0.6320164E-03
6151000.  0.2888374E-03  0.4251752E-02 -0.4197595E-05 -0.7665834E-03  0.2257920E-04 -0.5919848E-03
6151000.  0.2888374E-03  0.3345844E-02 -0.4197595E-05 -0.7093124E-03  0.2257920E-04 -0.6079649E-03
6128500.  0.2762758E-03  0.3764351E-02 -0.1737978E-05 -0.6818354E-03  0.2468468E-04 -0.5842065E-03
6106000.  0.2622767E-03  0.4159400E-02  0.6063388E-06 -0.6441301E-03  0.2670434E-04 -0.5593839E-03
6083500.  0.2469288E-03  0.4527714E-02  0.2800502E-05 -0.5969330E-03  0.2863461E-04 -0.5335970E-03
6061000.  0.2303318E-03  0.4866269E-02  0.4812434E-05 -0.5410771E-03  0.3047227E-04 -0.5069508E-03
6038500.  0.2125958E-03  0.5172376E-02  0.6613160E-05 -0.4774846E-03  0.3221444E-04 -0.4795427E-03
6016000.  0.1938397E-03  0.5443628E-02  0.8177091E-05 -0.4071480E-03  0.3385861E-04 -0.4514687E-03
5993500.  0.1741902E-03  0.5677951E-02  0.9482244E-05 -0.3311139E-03  0.3540261E-04 -0.4228268E-03
5971000.  0.1537809E-03  0.5873685E-02  0.1051041E-04 -0.2504729E-03  0.3684459E-04 -0.3937066E-03
5971000.  0.1537809E-03  0.5335285E-02  0.1051041E-04 -0.2397201E-03  0.3684459E-04 -0.4138378E-03
5937667.  0.1256676E-03  0.5398333E-02  0.1147069E-04 -0.1276675E-03  0.3891430E-04 -0.3774570E-03
5904333.  0.9742232E-04  0.5386341E-02  0.1185198E-04 -0.1883753E-04  0.4079580E-04 -0.3419132E-03
5871000.  0.6942450E-04  0.5305062E-02  0.1167768E-04  0.8435432E-04  0.4249400E-04 -0.3074408E-03
5837667.  0.4201940E-04  0.5160878E-02  0.1098243E-04  0.1800315E-03  0.4401504E-04 -0.2742215E-03
5804333.  0.1551762E-04  0.4960611E-02  0.9809342E-05  0.2668064E-03  0.4536591E-04 -0.2423898E-03
5771000. -0.9804021E-05  0.4711251E-02  0.8207758E-05  0.3437200E-03  0.4655404E-04 -0.2120431E-03
5771000. -0.9804021E-05  0.4711353E-02  0.8207758E-05  0.3437094E-03  0.4655404E-04 -0.2120431E-03
5701000. -0.5961491E-04  0.4316901E-02  0.3529335E-05  0.5024201E-03  0.4855010E-04 -0.1517631E-03
5701000. -0.5961491E-04  0.3590601E-02  0.3529335E-05  0.4113374E-03  0.4855010E-04 -0.1349598E-03
5667333. -0.7750319E-04  0.3209830E-02  0.1301741E-05  0.4346211E-03  0.4920936E-04 -0.1150467E-03
5633667. -0.9379762E-04  0.2964209E-02 -0.1095373E-05  0.4735481E-03  0.4976799E-04 -0.9642350E-04
5600000. -0.1087579E-03  0.2691559E-02 -0.3688109E-05  0.5062457E-03  0.5022953E-04 -0.7839308E-04
5600000. -0.1087579E-03  0.2691559E-02 -0.3688109E-05  0.5062457E-03  0.5022953E-04 -0.7839308E-04
5563518. -0.1232603E-03  0.2369496E-02 -0.6670692E-05  0.5341573E-03  0.5062445E-04 -0.5968854E-04
5527037. -0.1358502E-03  0.2024447E-02 -0.9790164E-05  0.5540550E-03  0.5091479E-04 -0.4186622E-04
5490556. -0.1464093E-03  0.1660891E-02 -0.1300027E-04  0.5657963E-03  0.5110561E-04 -0.2493006E-04
5454074. -0.1548446E-03  0.1283388E-02 -0.1625422E-04  0.5693524E-03  0.5120196E-04 -0.8869685E-05
5417593. -0.1610905E-03  0.8971066E-03 -0.1950540E-04  0.5648914E-03  0.5120891E-04  0.6293581E-05
5381111. -0.1651106E-03  0.5066850E-03 -0.2270865E-04  0.5526251E-03  0.5113154E-04  0.2058321E-04
5344630. -0.1668948E-03  0.1169691E-03 -0.2582003E-04  0.5329030E-03  0.5097484E-04  0.3400748E-04
5308148. -0.1664609E-03 -0.2672809E-03 -0.2879831E-04  0.5061880E-03  0.5074373E-04  0.4657067E-04
5271667. -0.1638529E-03 -0.6416751E-03 -0.3160466E-04  0.4729723E-03  0.5044306E-04  0.5830861E-04
5235185. -0.1591396E-03 -0.1001847E-02 -0.3420374E-04  0.4338803E-03  0.5007751E-04  0.6922894E-04
5198704. -0.1524147E-03 -0.1343740E-02 -0.3656368E-04  0.3895773E-03  0.4965176E-04  0.7934638E-04
5162222. -0.1437928E-03 -0.1663733E-02 -0.3865665E-04  0.3407414E-03  0.4917024E-04  0.8870805E-04
5125741. -0.1334100E-03 -0.1958360E-02 -0.4045882E-04  0.2881519E-03  0.4863730E-04  0.9731242E-04
5089259. -0.1214195E-03 -0.2224665E-02 -0.4195095E-04  0.2325643E-03  0.4805717E-04  0.1051894E-03
5052778. -0.1079919E-03 -0.2460026E-02 -0.4311800E-04  0.1747589E-03  0.4743395E-04  0.1123703E-03
5016296. -0.9331015E-04 -0.2662271E-02 -0.4394963E-04  0.1155260E-03  0.4677158E-04  0.1188655E-03
4979815. -0.7756981E-04 -0.2829640E-02 -0.4443981E-04  0.5563693E-04  0.4607392E-04  0.1247027E-03
4943333. -0.6097375E-04 -0.2960825E-02 -0.4458699E-04 -0.4153412E-05  0.4534465E-04  0.1299017E-03
4906852. -0.4373271E-04 -0.3054961E-02 -0.4439383E-04 -0.6311955E-04  0.4458743E-04  0.1344753E-03
4870370. -0.2605948E-04 -0.3111574E-02 -0.4386701E-04 -0.1205704E-03  0.4380573E-04  0.1384472E-03
4833889. -0.8170042E-05 -0.3130685E-02 -0.4301715E-04 -0.1758604E-03  0.4300301E-04  0.1418292E-03
4797407.  0.9722879E-05 -0.3112713E-02 -0.4185823E-04 -0.2284053E-03  0.4218255E-04  0.1446341E-03
4760926.  0.2740793E-04 -0.3058418E-02 -0.4040769E-04 -0.2776490E-03  0.4134768E-04  0.1468733E-03
4724444.  0.4468142E-04 -0.2969023E-02 -0.3868568E-04 -0.3231314E-03  0.4050156E-04  0.1485586E-03
4687963.  0.6134561E-04 -0.2846044E-02 -0.3671506E-04 -0.3644335E-03  0.3964738E-04  0.1496959E-03
4651482.  0.7721374E-04 -0.2691315E-02 -0.3452078E-04 -0.4011977E-03  0.3878825E-04  0.1502885E-03
4615000.  0.9211057E-04 -0.2507017E-02 -0.3212956E-04 -0.4331633E-03  0.3792724E-04  0.1503470E-03
4578518.  0.1058730E-03 -0.2295521E-02 -0.2956958E-04 -0.4601004E-03  0.3706743E-04  0.1498662E-03
4542037.  0.1183525E-03 -0.2059482E-02 -0.2687020E-04 -0.4818658E-03  0.3621194E-04  0.1488481E-03
4505556.  0.1294167E-03 -0.1801706E-02 -0.2406116E-04 -0.4983934E-03  0.3536380E-04  0.1472991E-03
4469074.  0.1389500E-03 -0.1525163E-02 -0.2117251E-04 -0.5096400E-03  0.3452608E-04  0.1451980E-03
4432593.  0.1468533E-03 -0.1232947E-02 -0.1823454E-04 -0.5156674E-03  0.3370197E-04  0.1425548E-03
4396111.  0.1530460E-03 -0.9282007E-03 -0.1527667E-04 -0.5165765E-03  0.3289454E-04  0.1393618E-03
4359630.  0.1574655E-03 -0.6142034E-03 -0.1232805E-04 -0.5124977E-03  0.3210705E-04  0.1355922E-03
4323148.  0.1600682E-03 -0.2940973E-03 -0.9416457E-05 -0.5036537E-03  0.3134276E-04  0.1312568E-03
4286667.  0.1608281E-03  0.2887306E-04 -0.6568685E-05 -0.4902754E-03  0.3060498E-04  0.1263303E-03
4250185.  0.1597380E-03  0.3515421E-03 -0.3809787E-05 -0.4726362E-03  0.2989715E-04  0.1207916E-03
4213704.  0.1568084E-03  0.6709023E-03 -0.1163387E-05 -0.4510625E-03  0.2922280E-04  0.1146375E-03
4177222.  0.1520666E-03  0.9839296E-03  0.1349038E-05 -0.4258743E-03  0.2858553E-04  0.1078293E-03
4140741.  0.1455576E-03  0.1287811E-02  0.3707676E-05 -0.3974354E-03  0.2798918E-04  0.1003500E-03
4104259.  0.1373406E-03  0.1579957E-02  0.5895124E-05 -0.3661206E-03  0.2743760E-04  0.9217879E-04
4067778.  0.1274911E-03  0.1857672E-02  0.7895826E-05 -0.3322938E-03  0.2693494E-04  0.8326181E-04
4031296.  0.1160976E-03  0.2118798E-02  0.9696630E-05 -0.2963484E-03  0.2648552E-04  0.7357891E-04
3994815.  0.1032618E-03  0.2361190E-02  0.1128640E-04 -0.2586608E-03  0.2609383E-04  0.6308754E-04
3958333.  0.8909642E-04  0.2582747E-02  0.1265626E-04 -0.2195887E-03  0.2576469E-04  0.5172170E-04
3921852.  0.7372611E-04  0.2781942E-02  0.1379928E-04 -0.1795003E-03  0.2550324E-04  0.3944162E-04
3885370.  0.5728266E-04  0.2957145E-02  0.1471064E-04 -0.1387219E-03  0.2531488E-04  0.2617622E-04
3848889.  0.3990862E-04  0.3106958E-02  0.1538726E-04 -0.9756848E-04  0.2520549E-04  0.1184874E-04
3812407.  0.2175118E-04  0.3230412E-02  0.1582786E-04 -0.5632444E-04  0.2518136E-04 -0.3620032E-05
3775926.  0.2965722E-05  0.3326318E-02  0.1603262E-04 -0.1523842E-04  0.2524931E-04 -0.2033080E-04
3739444. -0.1628876E-04  0.3393965E-02  0.1600310E-04  0.2547281E-04  0.2541678E-04 -0.3839578E-04
3702963. -0.3584789E-04  0.3432774E-02  0.1574196E-04  0.6563436E-04  0.2569186E-04 -0.5794184E-04
3666482. -0.5554453E-04  0.3441907E-02  0.1525273E-04  0.1051190E-03  0.2608344E-04 -0.7911155E-04
3630000. -0.7520844E-04  0.3421101E-02  0.1453955E-04  0.1438416E-03  0.2660132E-04 -0.1020818E-03
3630000. -0.7520844E-04  0.3421101E-02  0.1453955E-04  0.1438416E-03  0.2660132E-04 -0.1020818E-03
3592500. -0.9520419E-04  0.3367818E-02  0.1357778E-04  0.1828187E-03  0.2727667E-04 -0.1277624E-03
3555000. -0.1147900E-03  0.3281742E-02  0.1238900E-04  0.2209805E-03  0.2810993E-04 -0.1557824E-03
3517500. -0.1337718E-03  0.3162498E-02  0.1097780E-04  0.2584193E-03  0.2911572E-04 -0.1864346E-03
3480000. -0.1519522E-03  0.3009254E-02  0.9347971E-05  0.2952998E-03  0.3031042E-04 -0.2200269E-03
3480000. -0.1519522E-03  0.9262033E-03 -0.1856864E-04 -0.2438733E-03  0.3031042E-04  0.2645316E-03
3409422. -0.1608250E-03  0.6872558E-03 -0.1571381E-04 -0.2709803E-03  0.2637003E-04  0.4408699E-03
3338844. -0.1674490E-03  0.5214098E-03 -0.1257463E-04 -0.2954322E-03  0.2066460E-04  0.5841543E-03
3268266. -0.1726737E-03  0.4358015E-03 -0.9172678E-05 -0.3186862E-03  0.1352751E-04  0.7003620E-03
3197688. -0.1774281E-03  0.4378309E-03 -0.5511738E-05 -0.3425148E-03  0.5224283E-05  0.7957478E-03
3127109. -0.1827308E-03  0.5364940E-03 -0.1573813E-05 -0.3690794E-03 -0.4050195E-05  0.8767790E-03
3056531. -0.1897161E-03  0.7440359E-03  0.2685470E-05 -0.4010338E-03 -0.1417335E-04  0.9501188E-03
2985953. -0.1996816E-03  0.1078029E-02  0.7343554E-05 -0.4416994E-03 -0.2509814E-04  0.1022684E-02
2915375. -0.2141612E-03  0.1564138E-02  0.1251948E-04 -0.4953271E-03 -0.3685588E-04  0.1101749E-02
2844797. -0.2350350E-03  0.2239917E-02  0.1838622E-04 -0.5674827E-03 -0.4956134E-04  0.1195148E-02
2774219. -0.2646889E-03  0.3160240E-02  0.2518825E-04 -0.6656219E-03 -0.6342046E-04  0.1311566E-02
2703641. -0.3062475E-03  0.4405160E-02  0.3326691E-04 -0.7999527E-03 -0.7874191E-04  0.1460943E-02
2633062. -0.3639144E-03  0.6091624E-02  0.4309765E-04 -0.9847112E-03 -0.9595418E-04  0.1655032E-02
2562484. -0.4434679E-03  0.8391015E-02  0.5534395E-04 -0.1240071E-02 -0.1156286E-03  0.1908155E-02
2491906. -0.5530082E-03  0.1155623E-01  0.7093923E-04 -0.1595134E-02 -0.1385148E-03  0.2238224E-02
2421328. -0.7040717E-03  0.1596348E-01  0.9120870E-04 -0.2092478E-02 -0.1655864E-03  0.2668084E-02
2350750. -0.9133340E-03  0.2217810E-01  0.1180550E-03 -0.2795252E-02 -0.1981056E-03  0.3227331E-02
2280172. -0.1205243E-02  0.3105972E-01  0.1542441E-03 -0.3798575E-02 -0.2377107E-03  0.3954747E-02
2209594. -0.1616143E-02  0.4393261E-01  0.2038533E-03 -0.5247805E-02 -0.2865349E-03  0.4901471E-02
2139016. -0.2200849E-02  0.6286603E-01  0.2729786E-03 -0.7368519E-02 -0.3473650E-03  0.6135187E-02
2068438. -0.3043269E-02  0.9114338E-01  0.3708778E-03 -0.1051641E-01 -0.4238528E-03  0.7745342E-02
1997859. -0.4273904E-02  0.1340623E+00  0.5118393E-03 -0.1526201E-01 -0.5207925E-03  0.9849572E-02
1927281. -0.6099055E-02  0.2003187E+00  0.7182918E-03 -0.2253700E-01 -0.6444632E-03  0.1260017E-01
1856703. -0.8850880E-02  0.3044682E+00  0.1026110E-02 -0.3389258E-01 -0.8030531E-03  0.1618918E-01
1786125. -0.1307439E-01  0.4713673E+00  0.1493790E-02 -0.5196487E-01 -0.1007091E-02  0.2084593E-01
1715547. -0.1968244E-01  0.7444072E+00  0.2218743E-02 -0.8133452E-01 -0.1269762E-02  0.2681341E-01
1644969. -0.3023828E-01  0.1201144E+01  0.3366867E-02 -0.1301518E+00 -0.1606701E-02  0.3427080E-01
1574391. -0.4748382E-01  0.1983777E+01  0.5227635E-02 -0.2132973E+00 -0.2034322E-02  0.4312771E-01
1503812. -0.7635549E-01  0.3360388E+01  0.8319653E-02 -0.3587119E+00 -0.2564414E-02  0.5251039E-01
1433234. -0.1259931E+00  0.5851726E+01  0.1359868E-01 -0.6204630E+00 -0.3189560E-02  0.5952313E-01
1362656. -0.2138555E+00  0.1050357E+02  0.2288249E-01 -0.1106740E+01 -0.3846676E-02  0.5627172E-01
1292078. -0.3744424E+00  0.1949352E+02  0.3974832E-01 -0.2042049E+01 -0.4327515E-02  0.2264927E-01
1221500. -0.6785340E+00  0.3754151E+02  0.7150715E-01 -0.3911462E+01 -0.4059534E-02 -0.9148791E-01
1221500. -0.6785340E+00  0.5906240E+01  0.7508850E-02  0.3578207E+01 -0.4059534E-02  0.2024557E+00
1183328. -0.6917151E+00 -0.1137972E+01 -0.1022168E-01  0.2384094E+01 -0.4808940E-02  0.5856324E-01
1145156. -0.6689830E+00 -0.6136714E+01 -0.2155793E-01  0.1439272E+01 -0.4871855E-02 -0.2981226E-01
1106984. -0.6216074E+00 -0.9417921E+01 -0.2791016E-01  0.7155594E+00 -0.4529492E-02 -0.7909857E-01
1068812. -0.5589236E+00 -0.1129789E+02 -0.3051484E-01  0.1833334E+00 -0.3977028E-02 -0.1017311E+00
1030641. -0.4884293E+00 -0.1207307E+02 -0.3042949E-01 -0.1873427E+00 -0.3344979E-02 -0.1069883E+00
 992469. -0.4159168E+00 -0.1201349E+02 -0.2853390E-01 -0.4256800E+00 -0.2716062E-02 -0.1016258E+00
 954297. -0.3456577E+00 -0.1135785E+02 -0.2553757E-01 -0.5591827E+00 -0.2138735E-02 -0.9042818E-01
 916125. -0.2805929E+00 -0.1031087E+02 -0.2199207E-01 -0.6129475E+00 -0.1637449E-02 -0.7668570E-01
 877953. -0.2225416E+00 -0.9042027E+01 -0.1830713E-01 -0.6091639E+00 -0.1220550E-02 -0.6253812E-01
 839781. -0.1724126E+00 -0.7686071E+01 -0.1476932E-01 -0.5667059E+00 -0.8862032E-03 -0.4929131E-01
 801609. -0.1304063E+00 -0.6345042E+01 -0.1156214E-01 -0.5011053E+00 -0.6266462E-03 -0.3765102E-01
 763438. -0.9620397E-01 -0.5091185E+01 -0.8786236E-02 -0.4245311E+00 -0.4312253E-03 -0.2790581E-01
 725266. -0.6913091E-01 -0.3970737E+01 -0.6478544E-02 -0.3460639E+00 -0.2884220E-03 -0.2007211E-01
 687094. -0.4830531E-01 -0.3008304E+01 -0.4630351E-02 -0.2719863E+00 -0.1871665E-03 -0.1400297E-01
 648922. -0.3275081E-01 -0.2211257E+01 -0.3202560E-02 -0.2062122E+00 -0.1175693E-03 -0.9461116E-02
 610750. -0.2148764E-01 -0.1574081E+01 -0.2138619E-02 -0.1507271E+00 -0.7127763E-04 -0.6178186E-02
 572578. -0.1359740E-01 -0.1082433E+01 -0.1374730E-02 -0.1060401E+00 -0.4155363E-04 -0.3888021E-02
 534406. -0.8265053E-02 -0.7167122E+00 -0.8473784E-03 -0.7161599E-01 -0.2318862E-04 -0.2349105E-02
 496234. -0.4801178E-02 -0.4550259E+00 -0.4984112E-03 -0.4625890E-01 -0.1231621E-04 -0.1356063E-02
 458062. -0.2648428E-02 -0.2755112E+00 -0.2779990E-03 -0.2843472E-01 -0.6181600E-05 -0.7433328E-03
 419891. -0.1376086E-02 -0.1579966E+00 -0.1458743E-03 -0.1652288E-01 -0.2905282E-05 -0.3838376E-03
 381719. -0.6664047E-03 -0.8503831E-01 -0.7126210E-04 -0.8996189E-02 -0.1263535E-05 -0.1847802E-03
 343547. -0.2966438E-03 -0.4244364E-01 -0.3196607E-04 -0.4535348E-02 -0.5006209E-06 -0.8179144E-04
 305375. -0.1191065E-03 -0.1932460E-01 -0.1292117E-04 -0.2082943E-02 -0.1769001E-06 -0.3266928E-04
 267203. -0.4200664E-04 -0.7842600E-02 -0.4583532E-05 -0.8516393E-03 -0.5410984E-07 -0.1146713E-04
 229031. -0.1251667E-04 -0.2742276E-02 -0.1372503E-05 -0.2996654E-03 -0.1371347E-07 -0.3402270E-05
 190859. -0.2966435E-05 -0.7836970E-03 -0.3266205E-06 -0.8608668E-04 -0.2690637E-08 -0.8033402E-06
 152688. -0.5054111E-06 -0.1675593E-03 -0.5583334E-07 -0.1848308E-04 -0.3647445E-09 -0.1364400E-06
 114516. -0.5120307E-07 -0.2270227E-04 -0.5670916E-08 -0.2512287E-05 -0.2759426E-10 -0.1378710E-07
  76344. -0.2014861E-08 -0.1342813E-05 -0.2235487E-09 -0.1489306E-06 -0.7215692E-12 -0.5413403E-09
  38172.  0.0000000E+00  0.0000000E+00  0.0000000E+00  0.0000000E+00  0.0000000E+00  0.0000000E+00
      0.  0.0000000E+00  0.0000000E+00  0.0000000E+00  0.0000000E+00  0.0000000E+00  0.0000000E+00
