       3       38 S      258        121.51370          8.55660          8.67345        421.05630      185    7
6371000. -0.2137990E-03 -0.1575308E-01 -0.2733396E-04  0.1864651E-03  0.1925783E-04 -0.3478803E-03
6370000. -0.2113167E-03 -0.1587513E-01 -0.2736084E-04  0.1560316E-03  0.1931223E-04 -0.3452853E-03
6369000. -0.2088158E-03 -0.1599118E-01 -0.2738294E-04  0.1255293E-03  0.1936622E-04 -0.3427248E-03
6368000. -0.2062971E-03 -0.1610122E-01 -0.2740025E-04  0.9496469E-04  0.1941982E-04 -0.3401988E-03
6368000. -0.2062971E-03 -0.1610122E-01 -0.2740025E-04  0.9496469E-04  0.1941982E-04 -0.3401988E-03
6367000. -0.2037615E-03 -0.1620523E-01 -0.2741275E-04  0.6434424E-04  0.1947302E-04 -0.3377077E-03
6366000. -0.2012102E-03 -0.1630318E-01 -0.2742044E-04  0.3367443E-04  0.1952583E-04 -0.3352517E-03
6365000. -0.1986439E-03 -0.1639507E-01 -0.2742332E-04  0.2961816E-05  0.1957826E-04 -0.3328310E-03
6364000. -0.1960637E-03 -0.1648087E-01 -0.2742137E-04 -0.2778709E-04  0.1963032E-04 -0.3304459E-03
6363000. -0.1934705E-03 -0.1656058E-01 -0.2741460E-04 -0.5856576E-04  0.1968200E-04 -0.3280966E-03
6362000. -0.1908653E-03 -0.1663417E-01 -0.2740298E-04 -0.8936763E-04  0.1973332E-04 -0.3257833E-03
6361000. -0.1882490E-03 -0.1670164E-01 -0.2738654E-04 -0.1201861E-03  0.1978427E-04 -0.3235063E-03
6360000. -0.1856226E-03 -0.1676298E-01 -0.2736525E-04 -0.1510147E-03  0.1983488E-04 -0.3212658E-03
6359000. -0.1829871E-03 -0.1681818E-01 -0.2733913E-04 -0.1818469E-03  0.1988513E-04 -0.3190622E-03
6358000. -0.1803433E-03 -0.1686724E-01 -0.2730817E-04 -0.2126760E-03  0.1993504E-04 -0.3168955E-03
6357000. -0.1776924E-03 -0.1691015E-01 -0.2727237E-04 -0.2434954E-03  0.1998461E-04 -0.3147661E-03
6356000. -0.1750352E-03 -0.1694690E-01 -0.2723173E-04 -0.2742987E-03  0.2003385E-04 -0.3126742E-03
6356000. -0.1750352E-03 -0.1456831E-01 -0.2723173E-04 -0.1068373E-03  0.2003385E-04 -0.2745886E-03
6355000. -0.1727456E-03 -0.1460562E-01 -0.2721370E-04 -0.1228829E-03  0.2007666E-04 -0.2709414E-03
6354000. -0.1704503E-03 -0.1463974E-01 -0.2719316E-04 -0.1389310E-03  0.2011891E-04 -0.2673222E-03
6353000. -0.1681500E-03 -0.1467069E-01 -0.2717009E-04 -0.1549797E-03  0.2016059E-04 -0.2637310E-03
6352000. -0.1658450E-03 -0.1469844E-01 -0.2714450E-04 -0.1710268E-03  0.2020170E-04 -0.2601678E-03
6351000. -0.1635360E-03 -0.1472301E-01 -0.2711640E-04 -0.1870703E-03  0.2024226E-04 -0.2566328E-03
6350000. -0.1612233E-03 -0.1474439E-01 -0.2708578E-04 -0.2031082E-03  0.2028226E-04 -0.2531261E-03
6349000. -0.1589075E-03 -0.1476257E-01 -0.2705264E-04 -0.2191384E-03  0.2032172E-04 -0.2496476E-03
6348000. -0.1565892E-03 -0.1477757E-01 -0.2701699E-04 -0.2351588E-03  0.2036064E-04 -0.2461974E-03
6347000. -0.1542687E-03 -0.1478936E-01 -0.2697882E-04 -0.2511675E-03  0.2039901E-04 -0.2427757E-03
6346600. -0.1533400E-03 -0.1479319E-01 -0.2696285E-04 -0.2575672E-03  0.2041421E-04 -0.2414150E-03
6346600. -0.1533400E-03 -0.1658724E-01 -0.2696285E-04 -0.1326817E-03  0.2041421E-04 -0.1879475E-03
6318800. -0.8088443E-04 -0.1638366E-01 -0.2589376E-04 -0.3563439E-03  0.2099871E-04 -0.8255854E-04
6291000. -0.1243369E-04 -0.1475773E-01 -0.2387346E-04 -0.5659785E-03  0.2115568E-04  0.8402312E-05
6291000. -0.1243369E-04 -0.1521471E-01 -0.2387346E-04 -0.5850603E-03  0.2115568E-04  0.8402312E-05
6263000.  0.4801786E-04 -0.1206616E-01 -0.2085191E-04 -0.7830476E-03  0.2095117E-04  0.8277357E-04
6235000.  0.9180237E-04 -0.7677702E-02 -0.1706234E-04 -0.9321949E-03  0.2044326E-04  0.1467999E-03
6207000.  0.1141792E-03 -0.2388707E-02 -0.1274767E-04 -0.1020348E-02  0.1967313E-04  0.2024140E-03
6179000.  0.1121013E-03  0.3374212E-02 -0.8194072E-05 -0.1040143E-02  0.1867387E-04  0.2513315E-03
6151000.  0.8453021E-04  0.9129878E-02 -0.3708156E-05 -0.9897165E-03  0.1747168E-04  0.2949718E-03
6151000.  0.8453021E-04  0.6896149E-02 -0.3708156E-05 -0.8809120E-03  0.1747168E-04  0.2902951E-03
6128500.  0.5404207E-04  0.1030344E-01 -0.7359780E-06 -0.7976647E-03  0.1642185E-04  0.3034587E-03
6106000.  0.1230702E-04  0.1324277E-01  0.1896440E-05 -0.6893726E-03  0.1533360E-04  0.3121044E-03
6083500. -0.3879622E-04  0.1559078E-01  0.4110336E-05 -0.5616402E-03  0.1422237E-04  0.3165092E-03
6061000. -0.9700526E-04  0.1725415E-01  0.5847815E-05 -0.4206302E-03  0.1310271E-04  0.3169242E-03
6038500. -0.1597856E-03  0.1817244E-01  0.7073309E-05 -0.2727766E-03  0.1198829E-04  0.3135757E-03
6016000. -0.2244494E-03  0.1831921E-01  0.7774017E-05 -0.1244883E-03  0.1089204E-04  0.3066645E-03
5993500. -0.2882748E-03  0.1770158E-01  0.7959321E-05  0.1812038E-04  0.9826229E-05  0.2963672E-03
5971000. -0.3486224E-03  0.1635879E-01  0.7659337E-05  0.1494582E-03  0.8802553E-05  0.2828214E-03
5971000. -0.3486224E-03  0.1520831E-01  0.7659337E-05  0.1748727E-03  0.8802553E-05  0.3284591E-03
5937667. -0.4199383E-03  0.1190009E-01  0.6364750E-05  0.3120042E-03  0.7167835E-05  0.2955736E-03
5904333. -0.4718886E-03  0.7869345E-02  0.4479089E-05  0.4007744E-03  0.5717160E-05  0.2583670E-03
5871000. -0.5016858E-03  0.3493109E-02  0.2251968E-05  0.4432281E-03  0.4468987E-05  0.2184314E-03
5837667. -0.5084368E-03 -0.8876162E-03 -0.8754613E-07  0.4448674E-03  0.3433850E-05  0.1771343E-03
5804333. -0.4928895E-03 -0.4988426E-02 -0.2345127E-05  0.4132457E-03  0.2615986E-05  0.1355085E-03
5771000. -0.4571089E-03 -0.8591732E-02 -0.4368472E-05  0.3567717E-03  0.2015286E-05  0.9420010E-04
5771000. -0.4571089E-03 -0.8592132E-02 -0.4368472E-05  0.3567763E-03  0.2015286E-05  0.9420010E-04
5701000. -0.3274918E-03 -0.1447205E-01 -0.7312520E-05  0.1667636E-03  0.1605233E-05 -0.2247014E-04
5701000. -0.3274918E-03 -0.1248910E-01 -0.7312520E-05  0.2067637E-03  0.1605233E-05  0.6983801E-04
5667333. -0.2583375E-03 -0.1370213E-01 -0.8291890E-05  0.1638570E-03  0.1307895E-05  0.4534034E-04
5633667. -0.1823544E-03 -0.1503818E-01 -0.9036249E-05  0.1171626E-03  0.1108067E-05  0.3095663E-04
5600000. -0.1002195E-03 -0.1597018E-01 -0.9529789E-05  0.6993704E-04  0.9769681E-06  0.1911458E-04
5600000. -0.1002195E-03 -0.1597018E-01 -0.9529789E-05  0.6993704E-04  0.9769681E-06  0.1911458E-04
5563518. -0.6951912E-05 -0.1652928E-01 -0.9789428E-05  0.2129435E-04  0.8969999E-06  0.9278579E-05
5527037.  0.8822978E-04 -0.1664493E-01 -0.9781471E-05 -0.2328045E-04  0.8658065E-06  0.2006594E-05
5490556.  0.1828923E-03 -0.1635522E-01 -0.9533040E-05 -0.6252057E-04  0.8699156E-06 -0.3119303E-05
5454074.  0.2748515E-03 -0.1570887E-01 -0.9077347E-05 -0.9555055E-04  0.8981708E-06 -0.6483450E-05
5417593.  0.3622241E-03 -0.1476413E-01 -0.8451670E-05 -0.1218420E-03  0.9413582E-06 -0.8385520E-05
5381111.  0.4434800E-03 -0.1358203E-01 -0.7695131E-05 -0.1412514E-03  0.9920411E-06 -0.9152888E-05
5344630.  0.5174362E-03 -0.1222593E-01 -0.6846948E-05 -0.1538947E-03  0.1044501E-05 -0.9039953E-05
5308148.  0.5832818E-03 -0.1075862E-01 -0.5944980E-05 -0.1601094E-03  0.1094243E-05 -0.8242439E-05
5271667.  0.6405465E-03 -0.9238929E-02 -0.5024458E-05 -0.1604888E-03  0.1138091E-05 -0.7015567E-05
5235185.  0.6890934E-03 -0.7722000E-02 -0.4116967E-05 -0.1556576E-03  0.1173988E-05 -0.5476621E-05
5198704.  0.7290806E-03 -0.6257254E-02 -0.3250386E-05 -0.1463479E-03  0.1200398E-05 -0.3735468E-05
5162222.  0.7609332E-03 -0.4886926E-02 -0.2447829E-05 -0.1334149E-03  0.1216827E-05 -0.2005082E-05
5125741.  0.7852972E-03 -0.3647514E-02 -0.1728142E-05 -0.1175228E-03  0.1223282E-05 -0.2487047E-06
5089259.  0.8030120E-03 -0.2568694E-02 -0.1106153E-05 -0.9941166E-04  0.1219798E-05  0.1442741E-05
5052778.  0.8150661E-03 -0.1673957E-02 -0.5925476E-06 -0.7976533E-04  0.1207070E-05  0.2983364E-05
5016296.  0.8225688E-03 -0.9815427E-03 -0.1947192E-06 -0.5904665E-04  0.1185756E-05  0.4445821E-05
4979815.  0.8267200E-03 -0.5054537E-03  0.8257030E-07 -0.3773818E-04  0.1156401E-05  0.5785146E-05
4943333.  0.8287901E-03 -0.2561396E-03  0.2369196E-06 -0.1613286E-04  0.1119685E-05  0.7035692E-05
4906852.  0.8301029E-03 -0.2423601E-03  0.2669776E-06  0.5647523E-05  0.1075746E-05  0.8312624E-05
4870370.  0.8320307E-03 -0.4722296E-03  0.1722039E-06  0.2746681E-04  0.1024513E-05  0.9592193E-05
4833889.  0.8359926E-03 -0.9545680E-03 -0.4798883E-07  0.4949933E-04  0.9655305E-06  0.1105693E-04
4797407.  0.8434671E-03 -0.1701368E-02 -0.3955957E-06  0.7200321E-04  0.8972179E-06  0.1286197E-04
4760926.  0.8560117E-03 -0.2728587E-02 -0.8739873E-06  0.9526140E-04  0.8174603E-06  0.1509062E-04
4724444.  0.8752933E-03 -0.4058793E-02 -0.1489279E-05  0.1199299E-03  0.7229133E-06  0.1808363E-04
4687963.  0.9031316E-03 -0.5723468E-02 -0.2251422E-05  0.1466750E-03  0.6083812E-06  0.2211515E-04
4651482.  0.9415572E-03 -0.7764975E-02 -0.3174579E-05  0.1763453E-03  0.4670105E-06  0.2754330E-04
4615000.  0.9928861E-03 -0.1024080E-01 -0.4278930E-05  0.2101576E-03  0.2890584E-06  0.3499536E-04
4578518.  0.1059810E-02 -0.1322602E-01 -0.5591694E-05  0.2493735E-03  0.6118984E-07  0.4509951E-04
4542037.  0.1145510E-02 -0.1681834E-01 -0.7148374E-05  0.2956902E-03 -0.2342983E-06  0.5881382E-04
4505556.  0.1253815E-02 -0.2114502E-01 -0.8995605E-05  0.3512129E-03 -0.6218295E-06  0.7747659E-04
4469074.  0.1389375E-02 -0.2636702E-01 -0.1119248E-04  0.4182407E-03 -0.1133854E-05  0.1026083E-03
4432593.  0.1557876E-02 -0.3269092E-01 -0.1381350E-04  0.4999621E-03 -0.1813873E-05  0.1366210E-03
4396111.  0.1766362E-02 -0.4037981E-01 -0.1695337E-04  0.6000779E-03 -0.2721220E-05  0.1825532E-03
4359630.  0.2023542E-02 -0.4976281E-01 -0.2072901E-04  0.7228967E-03 -0.3934608E-05  0.2443244E-03
4323148.  0.2340292E-02 -0.6126174E-01 -0.2528677E-04  0.8742505E-03 -0.5560631E-05  0.3277520E-03
4286667.  0.2730164E-02 -0.7540470E-01 -0.3080814E-04  0.1060687E-02 -0.7743276E-05  0.4401564E-03
4250185.  0.3210154E-02 -0.9285777E-01 -0.3751646E-04  0.1290296E-02 -0.1067579E-04  0.5916284E-03
4213704.  0.3801508E-02 -0.1144636E+00 -0.4568693E-04  0.1573228E-02 -0.1461994E-04  0.7961703E-03
4177222.  0.4530942E-02 -0.1412750E+00 -0.5565676E-04  0.1920714E-02 -0.1992955E-04  0.1072060E-02
4140741.  0.5431859E-02 -0.1746129E+00 -0.6783318E-04  0.2346587E-02 -0.2708181E-04  0.1444782E-02
4104259.  0.6546263E-02 -0.2161372E+00 -0.8271109E-04  0.2866749E-02 -0.3672610E-04  0.1948915E-02
4067778.  0.7926590E-02 -0.2678828E+00 -0.1008739E-03  0.3496945E-02 -0.4973814E-04  0.2630129E-02
4031296.  0.9638458E-02 -0.3323901E+00 -0.1230054E-03  0.4255713E-02 -0.6730681E-04  0.3552658E-02
3994815.  0.1176342E-01 -0.4127489E+00 -0.1498872E-03  0.5158236E-02 -0.9104683E-04  0.4802111E-02
3958333.  0.1440262E-01 -0.5126474E+00 -0.1823683E-03  0.6211859E-02 -0.1231425E-03  0.6493281E-02
3921852.  0.1768003E-01 -0.6364731E+00 -0.2213152E-03  0.7414657E-02 -0.1665542E-03  0.8785296E-02
3885370.  0.2174683E-01 -0.7891965E+00 -0.2675091E-03  0.8733713E-02 -0.2253002E-03  0.1188910E-01
3848889.  0.2678344E-01 -0.9761569E+00 -0.3214107E-03  0.1008883E-01 -0.3047975E-03  0.1608893E-01
3812407.  0.3300166E-01 -0.1202675E+01 -0.3828235E-03  0.1131936E-01 -0.4123772E-03  0.2176960E-01
3775926.  0.4064019E-01 -0.1472800E+01 -0.4502234E-03  0.1211229E-01 -0.5578860E-03  0.2943415E-01
3739444.  0.4995424E-01 -0.1787585E+01 -0.5196868E-03  0.1192194E-01 -0.7545249E-03  0.3975437E-01
3702963.  0.6118762E-01 -0.2141519E+01 -0.5831236E-03  0.9804027E-02 -0.1019890E-02  0.5360378E-01
3666482.  0.7451990E-01 -0.2516064E+01 -0.6252694E-03  0.4144934E-02 -0.1377229E-02  0.7208651E-01
3630000.  0.8996472E-01 -0.2869544E+01 -0.6188657E-03 -0.7716956E-02 -0.1856955E-02  0.9660294E-01
3630000.  0.8996472E-01 -0.2869544E+01 -0.6188657E-03 -0.7716956E-02 -0.1856955E-02  0.9660294E-01
3592500.  0.1076864E+00 -0.3122564E+01 -0.5118767E-03 -0.3105052E-01 -0.2518890E-02  0.1298320E+00
3555000.  0.1261798E+00 -0.3093928E+01 -0.2160405E-03 -0.7356150E-01 -0.3405263E-02  0.1732121E+00
3517500.  0.1429617E+00 -0.2473126E+01  0.4169442E-03 -0.1483853E+00 -0.4581843E-02  0.2287423E+00
3480000.  0.1530752E+00 -0.7084677E+00  0.1635894E-02 -0.2772471E+00 -0.6124525E-02  0.2977113E+00
3480000.  0.1530752E+00  0.8340584E+01  0.4853839E-02  0.2712725E+00 -0.6124525E-02 -0.1904286E+00
3409422.  0.8270293E-01  0.4686192E+01  0.2584044E-02  0.1496836E+00 -0.4062431E-02 -0.1707686E+00
3338844.  0.4362091E-01  0.2566222E+01  0.1344903E-02  0.8065876E-01 -0.2447636E-02 -0.1199736E+00
3268266.  0.2246144E-01  0.1370173E+01  0.6842078E-03  0.4244871E-01 -0.1380404E-02 -0.7478210E-01
3197688.  0.1129023E-01  0.7134022E+00  0.3401540E-03  0.2181615E-01 -0.7396067E-03 -0.4316719E-01
3127109.  0.5538404E-02  0.3622144E+00  0.1651928E-03  0.1094713E-01 -0.3795622E-03 -0.2353270E-01
3056531.  0.2650576E-02  0.1793118E+00  0.7833283E-04  0.5361675E-02 -0.1874790E-03 -0.1224247E-01
2985953.  0.1236985E-02  0.8652268E-01  0.3624824E-04  0.2562047E-02 -0.8938502E-04 -0.6114040E-02
2915375.  0.5626112E-03  0.4067644E-01  0.1635825E-04  0.1193778E-02 -0.4120620E-04 -0.2941601E-02
2844797.  0.2492159E-03  0.1862115E-01  0.7193948E-05  0.5420359E-03 -0.1838429E-04 -0.1366285E-02
2774219.  0.1074290E-03  0.8295169E-02  0.3080403E-05  0.2396458E-03 -0.7941013E-05 -0.6133358E-03
2703641.  0.4502477E-04  0.3592934E-02  0.1283040E-05  0.1030787E-03 -0.3320662E-05 -0.2662382E-03
2633062.  0.1832791E-04  0.1511709E-02  0.5192700E-06  0.4309119E-04 -0.1343746E-05 -0.1117523E-03
2562484.  0.7237937E-05  0.6172065E-03  0.2039666E-06  0.1748863E-04 -0.5258620E-06 -0.4534288E-04
2491906.  0.2769433E-05  0.2442344E-03  0.7765252E-07  0.6882112E-05 -0.1988294E-06 -0.1777162E-04
2421328.  0.1025220E-05  0.9354268E-04  0.2861182E-07  0.2622294E-05 -0.7255042E-07 -0.6721917E-05
2350750.  0.3666056E-06  0.3462434E-04  0.1018647E-07  0.9659681E-06 -0.2551217E-07 -0.2450634E-05
2280172.  0.1264059E-06  0.1236482E-04  0.3497916E-08  0.3434147E-06 -0.8631810E-08 -0.8598969E-06
2209594.  0.4194380E-07  0.4252175E-05  0.1156217E-08  0.1176035E-06 -0.2804780E-08 -0.2899018E-06
2139016.  0.1336449E-07  0.1405209E-05  0.3670773E-09  0.3871208E-07 -0.8734233E-09 -0.9372019E-07
2068438.  0.4079135E-08  0.4452081E-06  0.1116615E-09  0.1222009E-07 -0.2600444E-09 -0.2898764E-07
1997859.  0.1189419E-08  0.1348774E-06  0.3245569E-10  0.3689418E-08 -0.7382398E-10 -0.8556035E-08
1927281.  0.3303408E-09  0.3896003E-07  0.8987128E-11  0.1062286E-08 -0.1992424E-10 -0.2403106E-08
1856703.  0.8709519E-10  0.1069471E-07  0.2362696E-11  0.2907445E-09 -0.5094560E-11 -0.6401840E-09
1786125.  0.2172837E-10  0.2778092E-08  0.5871905E-12  0.7540892E-10 -0.1228682E-11 -0.1612694E-09
1715547.  0.0000000E+00  0.0000000E+00  0.0000000E+00  0.0000000E+00  0.0000000E+00  0.0000000E+00
1644969.  0.0000000E+00  0.0000000E+00  0.0000000E+00  0.0000000E+00  0.0000000E+00  0.0000000E+00
1574391.  0.0000000E+00  0.0000000E+00  0.0000000E+00  0.0000000E+00  0.0000000E+00  0.0000000E+00
1503812.  0.0000000E+00  0.0000000E+00  0.0000000E+00  0.0000000E+00  0.0000000E+00  0.0000000E+00
1433234.  0.0000000E+00  0.0000000E+00  0.0000000E+00  0.0000000E+00  0.0000000E+00  0.0000000E+00
1362656.  0.0000000E+00  0.0000000E+00  0.0000000E+00  0.0000000E+00  0.0000000E+00  0.0000000E+00
1292078.  0.0000000E+00  0.0000000E+00  0.0000000E+00  0.0000000E+00  0.0000000E+00  0.0000000E+00
1221500.  0.0000000E+00  0.0000000E+00  0.0000000E+00  0.0000000E+00  0.0000000E+00  0.0000000E+00
1221500.  0.0000000E+00  0.0000000E+00  0.0000000E+00  0.0000000E+00  0.0000000E+00  0.0000000E+00
1183328.  0.0000000E+00  0.0000000E+00  0.0000000E+00  0.0000000E+00  0.0000000E+00  0.0000000E+00
1145156.  0.0000000E+00  0.0000000E+00  0.0000000E+00  0.0000000E+00  0.0000000E+00  0.0000000E+00
1106984.  0.0000000E+00  0.0000000E+00  0.0000000E+00  0.0000000E+00  0.0000000E+00  0.0000000E+00
1068812.  0.0000000E+00  0.0000000E+00  0.0000000E+00  0.0000000E+00  0.0000000E+00  0.0000000E+00
1030641.  0.0000000E+00  0.0000000E+00  0.0000000E+00  0.0000000E+00  0.0000000E+00  0.0000000E+00
 992469.  0.0000000E+00  0.0000000E+00  0.0000000E+00  0.0000000E+00  0.0000000E+00  0.0000000E+00
 954297.  0.0000000E+00  0.0000000E+00  0.0000000E+00  0.0000000E+00  0.0000000E+00  0.0000000E+00
 916125.  0.0000000E+00  0.0000000E+00  0.0000000E+00  0.0000000E+00  0.0000000E+00  0.0000000E+00
 877953.  0.0000000E+00  0.0000000E+00  0.0000000E+00  0.0000000E+00  0.0000000E+00  0.0000000E+00
 839781.  0.0000000E+00  0.0000000E+00  0.0000000E+00  0.0000000E+00  0.0000000E+00  0.0000000E+00
 801609.  0.0000000E+00  0.0000000E+00  0.0000000E+00  0.0000000E+00  0.0000000E+00  0.0000000E+00
 763438.  0.0000000E+00  0.0000000E+00  0.0000000E+00  0.0000000E+00  0.0000000E+00  0.0000000E+00
 725266.  0.0000000E+00  0.0000000E+00  0.0000000E+00  0.0000000E+00  0.0000000E+00  0.0000000E+00
 687094.  0.0000000E+00  0.0000000E+00  0.0000000E+00  0.0000000E+00  0.0000000E+00  0.0000000E+00
 648922.  0.0000000E+00  0.0000000E+00  0.0000000E+00  0.0000000E+00  0.0000000E+00  0.0000000E+00
 610750.  0.0000000E+00  0.0000000E+00  0.0000000E+00  0.0000000E+00  0.0000000E+00  0.0000000E+00
 572578.  0.0000000E+00  0.0000000E+00  0.0000000E+00  0.0000000E+00  0.0000000E+00  0.0000000E+00
 534406.  0.0000000E+00  0.0000000E+00  0.0000000E+00  0.0000000E+00  0.0000000E+00  0.0000000E+00
 496234.  0.0000000E+00  0.0000000E+00  0.0000000E+00  0.0000000E+00  0.0000000E+00  0.0000000E+00
 458062.  0.0000000E+00  0.0000000E+00  0.0000000E+00  0.0000000E+00  0.0000000E+00  0.0000000E+00
 419891.  0.0000000E+00  0.0000000E+00  0.0000000E+00  0.0000000E+00  0.0000000E+00  0.0000000E+00
 381719.  0.0000000E+00  0.0000000E+00  0.0000000E+00  0.0000000E+00  0.0000000E+00  0.0000000E+00
 343547.  0.0000000E+00  0.0000000E+00  0.0000000E+00  0.0000000E+00  0.0000000E+00  0.0000000E+00
 305375.  0.0000000E+00  0.0000000E+00  0.0000000E+00  0.0000000E+00  0.0000000E+00  0.0000000E+00
 267203.  0.0000000E+00  0.0000000E+00  0.0000000E+00  0.0000000E+00  0.0000000E+00  0.0000000E+00
 229031.  0.0000000E+00  0.0000000E+00  0.0000000E+00  0.0000000E+00  0.0000000E+00  0.0000000E+00
 190859.  0.0000000E+00  0.0000000E+00  0.0000000E+00  0.0000000E+00  0.0000000E+00  0.0000000E+00
 152688.  0.0000000E+00  0.0000000E+00  0.0000000E+00  0.0000000E+00  0.0000000E+00  0.0000000E+00
 114516.  0.0000000E+00  0.0000000E+00  0.0000000E+00  0.0000000E+00  0.0000000E+00  0.0000000E+00
  76344.  0.0000000E+00  0.0000000E+00  0.0000000E+00  0.0000000E+00  0.0000000E+00  0.0000000E+00
  38172.  0.0000000E+00  0.0000000E+00  0.0000000E+00  0.0000000E+00  0.0000000E+00  0.0000000E+00
      0.  0.0000000E+00  0.0000000E+00  0.0000000E+00  0.0000000E+00  0.0000000E+00  0.0000000E+00
