       6       23 S      384        138.08350         12.33610          7.17953        288.63849      185    7
6371000.  0.7049134E-01 -0.3978661E+00 -0.1578264E-02 -0.7206960E-01 -0.2071311E-03 -0.1279590E+00
6370000.  0.7055141E-01 -0.3675902E+00 -0.1566815E-02 -0.7381248E-01 -0.1870592E-03 -0.1277967E+00
6369000.  0.7060672E-01 -0.3371797E+00 -0.1555094E-02 -0.7553318E-01 -0.1670132E-03 -0.1276288E+00
6368000.  0.7065725E-01 -0.3066373E+00 -0.1543105E-02 -0.7723135E-01 -0.1469939E-03 -0.1274555E+00
6368000.  0.7065725E-01 -0.3066373E+00 -0.1543105E-02 -0.7723135E-01 -0.1469939E-03 -0.1274555E+00
6367000.  0.7070298E-01 -0.2759664E+00 -0.1530851E-02 -0.7890667E-01 -0.1270023E-03 -0.1272767E+00
6366000.  0.7074387E-01 -0.2451698E+00 -0.1518335E-02 -0.8055881E-01 -0.1070392E-03 -0.1270925E+00
6365000.  0.7077993E-01 -0.2142509E+00 -0.1505563E-02 -0.8218749E-01 -0.8710543E-04 -0.1269028E+00
6364000.  0.7081113E-01 -0.1832126E+00 -0.1492536E-02 -0.8379237E-01 -0.6720186E-04 -0.1267076E+00
6363000.  0.7083744E-01 -0.1520583E+00 -0.1479260E-02 -0.8537316E-01 -0.4732934E-04 -0.1265070E+00
6362000.  0.7085886E-01 -0.1207910E+00 -0.1465737E-02 -0.8692954E-01 -0.2748874E-04 -0.1263010E+00
6361000.  0.7087535E-01 -0.8941408E-01 -0.1451972E-02 -0.8846124E-01 -0.7680910E-05 -0.1260895E+00
6360000.  0.7088692E-01 -0.5793073E-01 -0.1437968E-02 -0.8996794E-01  0.1209330E-04 -0.1258726E+00
6359000.  0.7089353E-01 -0.2634425E-01 -0.1423730E-02 -0.9144939E-01  0.3183305E-04 -0.1256503E+00
6358000.  0.7089519E-01  0.5342060E-02 -0.1409261E-02 -0.9290530E-01  0.5153747E-04 -0.1254226E+00
6357000.  0.7089185E-01  0.3712487E-01 -0.1394566E-02 -0.9433537E-01  0.7120573E-04 -0.1251895E+00
6356000.  0.7088353E-01  0.6900083E-01 -0.1379649E-02 -0.9573936E-01  0.9083697E-04 -0.1249509E+00
6356000.  0.7088353E-01 -0.3432006E-01 -0.1379649E-02 -0.8650091E-01  0.9083697E-04 -0.1403744E+00
6355000.  0.7088708E-01 -0.1096921E-01 -0.1366005E-02 -0.8734594E-01  0.1128517E-03 -0.1401371E+00
6354000.  0.7088696E-01  0.1243840E-01 -0.1352230E-02 -0.8817529E-01  0.1348290E-03 -0.1398965E+00
6353000.  0.7088317E-01  0.3590094E-01 -0.1338326E-02 -0.8898884E-01  0.1567682E-03 -0.1396524E+00
6352000.  0.7087569E-01  0.5941657E-01 -0.1324295E-02 -0.8978648E-01  0.1786689E-03 -0.1394050E+00
6351000.  0.7086452E-01  0.8298343E-01 -0.1310141E-02 -0.9056815E-01  0.2005304E-03 -0.1391541E+00
6350000.  0.7084964E-01  0.1065997E+00 -0.1295865E-02 -0.9133371E-01  0.2223523E-03 -0.1388999E+00
6349000.  0.7083105E-01  0.1302635E+00 -0.1281470E-02 -0.9208310E-01  0.2441340E-03 -0.1386423E+00
6348000.  0.7080875E-01  0.1539729E+00 -0.1266959E-02 -0.9281621E-01  0.2658750E-03 -0.1383813E+00
6347000.  0.7078271E-01  0.1777261E+00 -0.1252334E-02 -0.9353298E-01  0.2875748E-03 -0.1381169E+00
6346600.  0.7077125E-01  0.1872392E+00 -0.1246452E-02 -0.9381507E-01  0.2962431E-03 -0.1380102E+00
6346600.  0.7077125E-01 -0.4092823E-01 -0.1246452E-02 -0.8682396E-01  0.2962431E-03 -0.1626871E+00
6318800.  0.6983805E-01  0.4724854E+00 -0.8453632E-03 -0.9542847E-01  0.9909254E-03 -0.1554736E+00
6291000.  0.6663439E-01  0.9950930E+00 -0.4277674E-03 -0.9434722E-01  0.1650946E-02 -0.1468022E+00
6291000.  0.6663439E-01  0.1006398E+01 -0.4277674E-03 -0.9528222E-01  0.1650946E-02 -0.1468022E+00
6263000.  0.6106402E-01  0.1522539E+01 -0.3007847E-04 -0.8404410E-01  0.2273957E-02 -0.1364614E+00
6235000.  0.5332629E-01  0.1987747E+01  0.2973231E-03 -0.6351864E-01  0.2848277E-02 -0.1246603E+00
6207000.  0.4370829E-01  0.2373794E+01  0.5170832E-03 -0.3539889E-01  0.3367726E-02 -0.1115140E+00
6179000.  0.3261226E-01  0.2656842E+01  0.6007294E-03 -0.2008470E-02  0.3826730E-02 -0.9718449E-01
6151000.  0.2053221E-01  0.2819257E+01  0.5310783E-03  0.3387129E-01  0.4220532E-02 -0.8188104E-01
6151000.  0.2053221E-01  0.2293356E+01  0.5310783E-03  0.2723678E-01  0.4220532E-02 -0.8301699E-01
6128500.  0.1243585E-01  0.2281221E+01  0.3927881E-03  0.5090113E-01  0.4499143E-02 -0.7476421E-01
6106000.  0.4492608E-02  0.2207159E+01  0.1734313E-03  0.7297201E-01  0.4748665E-02 -0.6655668E-01
6083500. -0.3085627E-02  0.2075384E+01 -0.1195891E-03  0.9246346E-01  0.4969387E-02 -0.5846606E-01
6061000. -0.1010547E-01  0.1892119E+01 -0.4756153E-03  0.1085239E+00  0.5161842E-02 -0.5055938E-01
6038500. -0.1639868E-01  0.1665317E+01 -0.8812674E-03  0.1204680E+00  0.5326791E-02 -0.4289891E-01
6016000. -0.2182759E-01  0.1404287E+01 -0.1321072E-02  0.1277979E+00  0.5465207E-02 -0.3554260E-01
5993500. -0.2628925E-01  0.1119316E+01 -0.1778145E-02  0.1302153E+00  0.5578259E-02 -0.2854386E-01
5971000. -0.2971821E-01  0.8212763E+00 -0.2234916E-02  0.1276279E+00  0.5667299E-02 -0.2195297E-01
5971000. -0.2971821E-01  0.7029421E+00 -0.2234916E-02  0.1167981E+00  0.5667299E-02 -0.1806260E-01
5937667. -0.3226583E-01  0.2764847E+00 -0.2813218E-02  0.1030917E+00  0.5737402E-02 -0.8922989E-02
5904333. -0.3268922E-01 -0.1054703E+00 -0.3303135E-02  0.8334450E-01  0.5762604E-02 -0.8914155E-03
5871000. -0.3127169E-01 -0.4247713E+00 -0.3678433E-02  0.5963085E-01  0.5748576E-02  0.6082343E-02
5837667. -0.2837354E-01 -0.6701159E+00 -0.3923753E-02  0.3398620E-01  0.5700705E-02  0.1205499E-01
5804333. -0.2439710E-01 -0.8365862E+00 -0.4033932E-02  0.8255555E-02  0.5624083E-02  0.1708015E-01
5771000. -0.1975577E-01 -0.9248545E+00 -0.4012725E-02 -0.1600530E-01  0.5523548E-02  0.2120401E-01
5771000. -0.1975577E-01 -0.9249780E+00 -0.4012725E-02 -0.1600421E-01  0.5523548E-02  0.2120401E-01
5701000. -0.9573938E-02 -0.8772786E+00 -0.3567696E-02 -0.6359598E-01  0.5261586E-02  0.2574958E-01
5701000. -0.9573938E-02 -0.8246385E+00 -0.3567696E-02 -0.4885746E-01  0.5261586E-02  0.2844812E-01
5667333. -0.5483264E-02 -0.7238380E+00 -0.3289989E-02 -0.5618506E-01  0.5101083E-02  0.3224352E-01
5633667. -0.1928180E-02 -0.6184781E+00 -0.2971936E-02 -0.6417515E-01  0.4921740E-02  0.3551962E-01
5600000.  0.1001099E-02 -0.4859868E+00 -0.2616104E-02 -0.7004154E-01  0.4726905E-02  0.3811322E-01
5600000.  0.1001099E-02 -0.4859868E+00 -0.2616104E-02 -0.7004154E-01  0.4726905E-02  0.3811322E-01
5563518.  0.3317565E-02 -0.3199129E+00 -0.2203165E-02 -0.7371796E-01  0.4502254E-02  0.4023694E-01
5527037.  0.4636990E-02 -0.1393209E+00 -0.1777201E-02 -0.7460014E-01  0.4267330E-02  0.4171460E-01
5490556.  0.4903248E-02  0.4636946E-01 -0.1353995E-02 -0.7277963E-01  0.4025637E-02  0.4261172E-01
5454074.  0.4113826E-02  0.2279134E+00 -0.9484830E-03 -0.6845944E-01  0.3780318E-02  0.4298811E-01
5417593.  0.2317273E-02  0.3967988E+00 -0.5741502E-03 -0.6195163E-01  0.3534206E-02  0.4290079E-01
5381111. -0.3916125E-03  0.5453652E+00 -0.2424537E-03 -0.5363201E-01  0.3289787E-02  0.4240255E-01
5344630. -0.3877333E-02  0.6672221E+00  0.3743187E-04 -0.4393452E-01  0.3049285E-02  0.4154332E-01
5308148. -0.7972468E-02  0.7574835E+00  0.2589578E-03 -0.3332395E-01  0.2814616E-02  0.4037088E-01
5271667. -0.1248518E-01  0.8126795E+00  0.4182160E-03 -0.2226549E-01  0.2587452E-02  0.3893165E-01
5235185. -0.1720920E-01  0.8310966E+00  0.5139719E-03 -0.1121739E-01  0.2369185E-02  0.3726844E-01
5198704. -0.2193253E-01  0.8125709E+00  0.5475153E-03 -0.6032073E-03  0.2160989E-02  0.3542311E-01
5162222. -0.2644668E-01  0.7583286E+00  0.5224201E-03  0.9205244E-02  0.1963771E-02  0.3343867E-01
5125741. -0.3055416E-01  0.6711338E+00  0.4442497E-03  0.1788753E-01  0.1778238E-02  0.3134952E-01
5089259. -0.3407698E-01  0.5547976E+00  0.3201906E-03  0.2519675E-01  0.1604874E-02  0.2919317E-01
5052778. -0.3686128E-01  0.4140881E+00  0.1586509E-03  0.3095622E-01  0.1443965E-02  0.2700560E-01
5016296. -0.3878320E-01  0.2545245E+00 -0.3116779E-04  0.3506078E-01  0.1295604E-02  0.2481415E-01
4979815. -0.3975149E-01  0.8203509E-01 -0.2396525E-03  0.3747790E-01  0.1159732E-02  0.2264990E-01
4943333. -0.3970972E-01 -0.9724396E-01 -0.4572162E-03  0.3824021E-01  0.1036109E-02  0.2053780E-01
4906852. -0.3863658E-01 -0.2772024E+00 -0.6746046E-03  0.3743850E-01  0.9243904E-03  0.1849705E-01
4870370. -0.3654499E-01 -0.4520045E+00 -0.8832605E-03  0.3521551E-01  0.8240918E-03  0.1655110E-01
4833889. -0.3348031E-01 -0.6162598E+00 -0.1075537E-02  0.3175250E-01  0.7346375E-03  0.1471182E-01
4797407. -0.2951667E-01 -0.7652100E+00 -0.1244935E-02  0.2726005E-01  0.6553826E-03  0.1299024E-01
4760926. -0.2475402E-01 -0.8947739E+00 -0.1386208E-02  0.2196985E-01  0.5856183E-03  0.1139880E-01
4724444. -0.1931259E-01 -0.1001785E+01 -0.1495474E-02  0.1611976E-01  0.5245878E-03  0.9939350E-02
4687963. -0.1332895E-01 -0.1083885E+01 -0.1570204E-02  0.9947560E-02  0.4715306E-03  0.8614980E-02
4651482. -0.6950261E-02 -0.1139608E+01 -0.1609219E-02  0.3681999E-02  0.4256677E-03  0.7426115E-02
4615000. -0.3292749E-03 -0.1168426E+01 -0.1612597E-02 -0.2466442E-02  0.3862333E-03  0.6368497E-02
4578518.  0.6380012E-02 -0.1170550E+01 -0.1581558E-02 -0.8309403E-02  0.3524909E-03  0.5437026E-02
4542037.  0.1302711E-01 -0.1147005E+01 -0.1518330E-02 -0.1368522E-01  0.3237388E-03  0.4624591E-02
4505556.  0.1946985E-01 -0.1099491E+01 -0.1425976E-02 -0.1846362E-01  0.2993169E-03  0.3922799E-02
4469074.  0.2557712E-01 -0.1030187E+01 -0.1308208E-02 -0.2254633E-01  0.2786267E-03  0.3319062E-02
4432593.  0.3123141E-01 -0.9418179E+00 -0.1169230E-02 -0.2586464E-01  0.2611341E-03  0.2804760E-02
4396111.  0.3633237E-01 -0.8373834E+00 -0.1013527E-02 -0.2838298E-01  0.2463574E-03  0.2367537E-02
4359630.  0.4079674E-01 -0.7200693E+00 -0.8457180E-03 -0.3009519E-01  0.2339057E-03  0.1990956E-02
4323148.  0.4456055E-01 -0.5932091E+00 -0.6703762E-03 -0.3101737E-01  0.2234528E-03  0.1667601E-02
4286667.  0.4757838E-01 -0.4600878E+00 -0.4919242E-03 -0.3119211E-01  0.2147379E-03  0.1380909E-02
4250185.  0.4982369E-01 -0.3238773E+00 -0.3144653E-03 -0.3067969E-01  0.2075969E-03  0.1116252E-02
4213704.  0.5128738E-01 -0.1875872E+00 -0.1417463E-03 -0.2955162E-01  0.2019274E-03  0.8646169E-03
4177222.  0.5197702E-01 -0.5393735E-01  0.2296243E-04 -0.2789540E-01  0.1977080E-03  0.6068342E-03
4140741.  0.5191479E-01  0.7464536E-01  0.1768848E-03 -0.2580052E-01  0.1950118E-03  0.3312496E-03
4104259.  0.5113577E-01  0.1960977E+00  0.3177736E-03 -0.2335766E-01  0.1939696E-03  0.2569989E-04
4067778.  0.4968596E-01  0.3086986E+00  0.4439093E-03 -0.2066422E-01  0.1948223E-03 -0.3335011E-03
4031296.  0.4761985E-01  0.4111500E+00  0.5541069E-03 -0.1780289E-01  0.1979107E-03 -0.7570763E-03
3994815.  0.4499859E-01  0.5024887E+00  0.6476273E-03 -0.1485378E-01  0.2036523E-03 -0.1264962E-02
3958333.  0.4188764E-01  0.5820912E+00  0.7241972E-03 -0.1189248E-01  0.2126170E-03 -0.1886598E-02
3921852.  0.3835522E-01  0.6497064E+00  0.7839035E-03 -0.8972628E-02  0.2255111E-03 -0.2641747E-02
3885370.  0.3446997E-01  0.7053050E+00  0.8271274E-03 -0.6142252E-02  0.2431939E-03 -0.3565835E-02
3848889.  0.3030044E-01  0.7490934E+00  0.8544821E-03 -0.3433669E-02  0.2667500E-03 -0.4700062E-02
3812407.  0.2591290E-01  0.7814803E+00  0.8667048E-03 -0.8578809E-03  0.2975056E-03 -0.6089315E-02
3775926.  0.2137169E-01  0.8028873E+00  0.8645643E-03  0.1584617E-02  0.3370976E-03 -0.7798401E-02
3739444.  0.1673803E-01  0.8138090E+00  0.8487678E-03  0.3917867E-02  0.3875688E-03 -0.9902429E-02
3702963.  0.1207096E-01  0.8146402E+00  0.8198170E-03  0.6188421E-02  0.4514359E-03 -0.1249601E-01
3666482.  0.7427717E-02  0.8054937E+00  0.7778922E-03  0.8463211E-02  0.5318471E-03 -0.1570383E-01
3630000.  0.2865498E-02  0.7862307E+00  0.7226930E-03  0.1084412E-01  0.6327446E-03 -0.1967927E-01
3630000.  0.2865498E-02  0.7862307E+00  0.7226930E-03  0.1084412E-01  0.6327446E-03 -0.1967927E-01
3592500. -0.1676531E-02  0.7550833E+00  0.6510857E-03  0.1354450E-01  0.7630099E-03 -0.2477383E-01
3555000. -0.5997701E-02  0.7108332E+00  0.5623617E-03  0.1669824E-01  0.9269193E-03 -0.3116289E-01
3517500. -0.1001344E-01  0.6507123E+00  0.4531087E-03  0.2057067E-01  0.1133091E-02 -0.3920067E-01
3480000. -0.1361809E-01  0.5702360E+00  0.3181097E-03  0.2551366E-01  0.1392514E-02 -0.4934341E-01
3480000. -0.1361809E-01 -0.2588149E+00 -0.9694315E-03 -0.2313956E-01  0.1392514E-02 -0.5916844E-02
3409422. -0.1087530E-01 -0.2344453E+00 -0.7365898E-03 -0.1893690E-01  0.1344940E-02  0.1216838E-01
3338844. -0.8453167E-02 -0.2020283E+00 -0.5485776E-03 -0.1507896E-01  0.1162818E-02  0.1936253E-01
3268266. -0.6407941E-02 -0.1671701E+00 -0.4006888E-03 -0.1170860E-01  0.9381626E-03  0.2048101E-01
3197688. -0.4744339E-02 -0.1336157E+00 -0.2871538E-03 -0.8879944E-02  0.7201293E-03  0.1855665E-01
3127109. -0.3434426E-02 -0.1035713E+00 -0.2019654E-03 -0.6585685E-02  0.5314364E-03  0.1540970E-01
3056531. -0.2432705E-02 -0.7807327E-01 -0.1394323E-03 -0.4780287E-02  0.3793928E-03  0.1206103E-01
2985953. -0.1686963E-02 -0.5734370E-01 -0.9449007E-04 -0.3398020E-02  0.2630242E-03  0.9024093E-02
2915375. -0.1145620E-02 -0.4109431E-01 -0.6285135E-04 -0.2366365E-02  0.1775180E-03  0.6506111E-02
2844797. -0.7620049E-03 -0.2876052E-01 -0.4102759E-04 -0.1614771E-02  0.1168195E-03  0.4541899E-02
2774219. -0.4964268E-03 -0.1966964E-01 -0.2627581E-04 -0.1079780E-02  0.7503085E-04  0.3079421E-02
2703641. -0.3167171E-03 -0.1315016E-01 -0.1650445E-04 -0.7074806E-03  0.4705998E-04  0.2031647E-02
2633062. -0.1978278E-03 -0.8595170E-02 -0.1016284E-04 -0.4540993E-03  0.2882982E-04  0.1305814E-02
2562484. -0.1209314E-03 -0.5492196E-02 -0.6131534E-05 -0.2854331E-03  0.1725032E-04  0.8181946E-03
2491906. -0.7231090E-04 -0.3430068E-02 -0.3622303E-05 -0.1756192E-03  0.1007859E-04  0.4999017E-03
2421328. -0.4226772E-04 -0.2092941E-02 -0.2093836E-05 -0.1057069E-03  0.5747138E-05  0.2978129E-03
2350750. -0.2413398E-04 -0.1247023E-02 -0.1183254E-05 -0.6220119E-04  0.3196525E-05  0.1729418E-03
2280172. -0.1344880E-04 -0.7250304E-03 -0.6530925E-06 -0.3575213E-04  0.1732731E-05  0.9784162E-04
2209594. -0.7306904E-05 -0.4109965E-03 -0.3516929E-06 -0.2005397E-04  0.9145118E-06  0.5388817E-04
2139016. -0.3866128E-05 -0.2269275E-03 -0.1845508E-06 -0.1096530E-04  0.4694146E-06  0.2886697E-04
2068438. -0.1989486E-05 -0.1218985E-03 -0.9424051E-07 -0.5837434E-05  0.2340228E-06  0.1502280E-04
1997859. -0.9942021E-06 -0.6361862E-04 -0.4675802E-07 -0.3021260E-05  0.1131436E-06  0.7584950E-05
1927281. -0.4816747E-06 -0.3220943E-04 -0.2250244E-07 -0.1517856E-05  0.5295765E-07  0.3709655E-05
1856703. -0.2258111E-06 -0.1579161E-04 -0.1048358E-07 -0.7388537E-06  0.2394936E-07  0.1754294E-05
1786125. -0.1022142E-06 -0.7482424E-05 -0.4717849E-08 -0.3477606E-06  0.1044128E-07  0.8004910E-06
1715547. -0.4456439E-07 -0.3418500E-05 -0.2045773E-08 -0.1579004E-06  0.4377270E-08  0.3516114E-06
1644969. -0.1866238E-07 -0.1502010E-05 -0.8523778E-09 -0.6897888E-07  0.1759483E-08  0.1482648E-06
1574391. -0.7482801E-08 -0.6327931E-06 -0.3401626E-09 -0.2890414E-07  0.6758720E-09  0.5983087E-07
1503812. -0.2861832E-08 -0.2547809E-06 -0.1295630E-09 -0.1157573E-07  0.2471719E-09  0.2302258E-07
1433234. -0.1038534E-08 -0.9777654E-07 -0.4695399E-10 -0.4407917E-08  0.8569748E-10  0.8411917E-08
1362656. -0.3517615E-09 -0.3606639E-07 -0.1628953E-10 -0.1568548E-08  0.2805372E-10  0.2902670E-08
1292078. -0.9497742E-10 -0.1457281E-07 -0.6045851E-11 -0.4385402E-09  0.8672446E-11  0.9386696E-09
1221500.  0.4552249E-10 -0.1410191E-07 -0.4998524E-11  0.2634671E-09  0.2551047E-11  0.2930991E-09
1221500.  0.4552249E-10 -0.3922218E-09 -0.2838021E-12 -0.2389127E-09  0.2551047E-11  0.2733786E-09
1183328.  0.4068212E-10  0.1583768E-08  0.5296652E-12 -0.5883682E-10  0.1322963E-11  0.1482237E-09
1145156.  0.2987872E-10  0.1854103E-08  0.6410814E-12  0.9378815E-11  0.6660947E-12  0.7796146E-10
1106984.  0.1964302E-10  0.1514836E-08  0.5154641E-12  0.2742347E-10  0.3252934E-12  0.3976104E-10
1068812.  0.1194161E-10  0.1058021E-08  0.3503445E-12  0.2595770E-10  0.1538980E-12  0.1964203E-10
1030641.  0.6818268E-11  0.6701813E-09  0.2149795E-12  0.1892377E-10  0.7049025E-13  0.9367844E-11
 992469.  0.0000000E+00  0.0000000E+00  0.0000000E+00  0.0000000E+00  0.0000000E+00  0.0000000E+00
 954297.  0.0000000E+00  0.0000000E+00  0.0000000E+00  0.0000000E+00  0.0000000E+00  0.0000000E+00
 916125.  0.0000000E+00  0.0000000E+00  0.0000000E+00  0.0000000E+00  0.0000000E+00  0.0000000E+00
 877953.  0.0000000E+00  0.0000000E+00  0.0000000E+00  0.0000000E+00  0.0000000E+00  0.0000000E+00
 839781.  0.0000000E+00  0.0000000E+00  0.0000000E+00  0.0000000E+00  0.0000000E+00  0.0000000E+00
 801609.  0.0000000E+00  0.0000000E+00  0.0000000E+00  0.0000000E+00  0.0000000E+00  0.0000000E+00
 763438.  0.0000000E+00  0.0000000E+00  0.0000000E+00  0.0000000E+00  0.0000000E+00  0.0000000E+00
 725266.  0.0000000E+00  0.0000000E+00  0.0000000E+00  0.0000000E+00  0.0000000E+00  0.0000000E+00
 687094.  0.0000000E+00  0.0000000E+00  0.0000000E+00  0.0000000E+00  0.0000000E+00  0.0000000E+00
 648922.  0.0000000E+00  0.0000000E+00  0.0000000E+00  0.0000000E+00  0.0000000E+00  0.0000000E+00
 610750.  0.0000000E+00  0.0000000E+00  0.0000000E+00  0.0000000E+00  0.0000000E+00  0.0000000E+00
 572578.  0.0000000E+00  0.0000000E+00  0.0000000E+00  0.0000000E+00  0.0000000E+00  0.0000000E+00
 534406.  0.0000000E+00  0.0000000E+00  0.0000000E+00  0.0000000E+00  0.0000000E+00  0.0000000E+00
 496234.  0.0000000E+00  0.0000000E+00  0.0000000E+00  0.0000000E+00  0.0000000E+00  0.0000000E+00
 458062.  0.0000000E+00  0.0000000E+00  0.0000000E+00  0.0000000E+00  0.0000000E+00  0.0000000E+00
 419891.  0.0000000E+00  0.0000000E+00  0.0000000E+00  0.0000000E+00  0.0000000E+00  0.0000000E+00
 381719.  0.0000000E+00  0.0000000E+00  0.0000000E+00  0.0000000E+00  0.0000000E+00  0.0000000E+00
 343547.  0.0000000E+00  0.0000000E+00  0.0000000E+00  0.0000000E+00  0.0000000E+00  0.0000000E+00
 305375.  0.0000000E+00  0.0000000E+00  0.0000000E+00  0.0000000E+00  0.0000000E+00  0.0000000E+00
 267203.  0.0000000E+00  0.0000000E+00  0.0000000E+00  0.0000000E+00  0.0000000E+00  0.0000000E+00
 229031.  0.0000000E+00  0.0000000E+00  0.0000000E+00  0.0000000E+00  0.0000000E+00  0.0000000E+00
 190859.  0.0000000E+00  0.0000000E+00  0.0000000E+00  0.0000000E+00  0.0000000E+00  0.0000000E+00
 152688.  0.0000000E+00  0.0000000E+00  0.0000000E+00  0.0000000E+00  0.0000000E+00  0.0000000E+00
 114516.  0.0000000E+00  0.0000000E+00  0.0000000E+00  0.0000000E+00  0.0000000E+00  0.0000000E+00
  76344.  0.0000000E+00  0.0000000E+00  0.0000000E+00  0.0000000E+00  0.0000000E+00  0.0000000E+00
  38172.  0.0000000E+00  0.0000000E+00  0.0000000E+00  0.0000000E+00  0.0000000E+00  0.0000000E+00
      0.  0.0000000E+00  0.0000000E+00  0.0000000E+00  0.0000000E+00  0.0000000E+00  0.0000000E+00
