       5       34 S      350        118.90290          9.75834          6.28312        237.15401      185    7
6371000. -0.1285808E-01  0.1211446E+01  0.2568647E-02  0.1542673E-01 -0.1000872E-02  0.5927786E-01
6370000. -0.1304759E-01  0.1203185E+01  0.2565964E-02  0.1876957E-01 -0.1010149E-02  0.5892959E-01
6369000. -0.1323576E-01  0.1194398E+01  0.2562755E-02  0.2210662E-01 -0.1019371E-02  0.5858126E-01
6368000. -0.1342251E-01  0.1185086E+01  0.2559024E-02  0.2543710E-01 -0.1028539E-02  0.5823289E-01
6368000. -0.1342251E-01  0.1185086E+01  0.2559024E-02  0.2543710E-01 -0.1028539E-02  0.5823289E-01
6367000. -0.1360776E-01  0.1175249E+01  0.2554771E-02  0.2876022E-01 -0.1037652E-02  0.5788450E-01
6366000. -0.1379142E-01  0.1164890E+01  0.2549996E-02  0.3207522E-01 -0.1046710E-02  0.5753612E-01
6365000. -0.1397342E-01  0.1154011E+01  0.2544702E-02  0.3538131E-01 -0.1055714E-02  0.5718777E-01
6364000. -0.1415366E-01  0.1142612E+01  0.2538890E-02  0.3867770E-01 -0.1064663E-02  0.5683945E-01
6363000. -0.1433208E-01  0.1130697E+01  0.2532561E-02  0.4196364E-01 -0.1073557E-02  0.5649121E-01
6362000. -0.1450859E-01  0.1118266E+01  0.2525717E-02  0.4523835E-01 -0.1082397E-02  0.5614306E-01
6361000. -0.1468310E-01  0.1105323E+01  0.2518360E-02  0.4850106E-01 -0.1091182E-02  0.5579502E-01
6360000. -0.1485555E-01  0.1091869E+01  0.2510492E-02  0.5175101E-01 -0.1099912E-02  0.5544711E-01
6359000. -0.1502584E-01  0.1077908E+01  0.2502115E-02  0.5498744E-01 -0.1108588E-02  0.5509936E-01
6358000. -0.1519390E-01  0.1063441E+01  0.2493231E-02  0.5820958E-01 -0.1117209E-02  0.5475179E-01
6357000. -0.1535965E-01  0.1048471E+01  0.2483842E-02  0.6141669E-01 -0.1125776E-02  0.5440442E-01
6356000. -0.1552301E-01  0.1033002E+01  0.2473952E-02  0.6460800E-01 -0.1134288E-02  0.5405727E-01
6356000. -0.1552301E-01  0.9351041E+00  0.2473952E-02  0.4614802E-01 -0.1134288E-02  0.5743489E-01
6355000. -0.1566895E-01  0.9243999E+00  0.2466567E-02  0.4794873E-01 -0.1143268E-02  0.5699041E-01
6354000. -0.1581319E-01  0.9134187E+00  0.2458900E-02  0.4974153E-01 -0.1152178E-02  0.5654666E-01
6353000. -0.1595568E-01  0.9021620E+00  0.2450952E-02  0.5152616E-01 -0.1161019E-02  0.5610367E-01
6352000. -0.1609638E-01  0.8906311E+00  0.2442725E-02  0.5330237E-01 -0.1169791E-02  0.5566145E-01
6351000. -0.1623525E-01  0.8788276E+00  0.2434220E-02  0.5506990E-01 -0.1178493E-02  0.5522000E-01
6350000. -0.1637225E-01  0.8667532E+00  0.2425438E-02  0.5682849E-01 -0.1187125E-02  0.5477933E-01
6349000. -0.1650733E-01  0.8544092E+00  0.2416381E-02  0.5857788E-01 -0.1195689E-02  0.5433945E-01
6348000. -0.1664046E-01  0.8417975E+00  0.2407050E-02  0.6031783E-01 -0.1204184E-02  0.5390038E-01
6347000. -0.1677158E-01  0.8289196E+00  0.2397446E-02  0.6204809E-01 -0.1212610E-02  0.5346213E-01
6346600. -0.1682346E-01  0.8236944E+00  0.2393529E-02  0.6273743E-01 -0.1215961E-02  0.5328706E-01
6346600. -0.1682346E-01  0.1050580E+01  0.2393529E-02  0.4862345E-01 -0.1215961E-02  0.5915315E-01
6318800. -0.2073562E-01  0.7209417E+00  0.2122046E-02  0.7489581E-01 -0.1446684E-02  0.4674987E-01
6291000. -0.2294694E-01  0.2760619E+00  0.1749341E-02  0.9470212E-01 -0.1625200E-02  0.3520681E-01
6291000. -0.2294694E-01  0.2950700E+00  0.1749341E-02  0.9708957E-01 -0.1625200E-02  0.3520681E-01
6263000. -0.2306628E-01 -0.2513693E+00  0.1291363E-02  0.1097457E+00 -0.1756227E-02  0.2453478E-01
6235000. -0.2068172E-01 -0.8356177E+00  0.7991397E-03  0.1125723E+00 -0.1841809E-02  0.1451383E-01
6207000. -0.1574595E-01 -0.1403031E+01  0.3165336E-03  0.1054220E+00 -0.1884662E-02  0.5081587E-02
6179000. -0.8455290E-02 -0.1898256E+01 -0.1139822E-03  0.8907208E-01 -0.1887292E-02 -0.3791737E-02
6151000.  0.7586941E-03 -0.2270460E+01 -0.4552848E-03  0.6516279E-01 -0.1852165E-02 -0.1209525E-01
6151000.  0.7586941E-03 -0.1875306E+01 -0.4552848E-03  0.5712273E-01 -0.1852165E-02 -0.1213723E-01
6128500.  0.7624686E-02 -0.1998692E+01 -0.6232853E-03  0.3775888E-01 -0.1803833E-02 -0.1513426E-01
6106000.  0.1477117E-01 -0.2033452E+01 -0.7208030E-03  0.1738985E-01 -0.1745968E-02 -0.1753708E-01
6083500.  0.2188037E-01 -0.1977634E+01 -0.7462120E-03 -0.2898919E-02 -0.1680653E-02 -0.1935519E-01
6061000.  0.2863567E-01 -0.1833835E+01 -0.7016436E-03 -0.2207371E-01 -0.1609932E-02 -0.2060115E-01
6038500.  0.3473733E-01 -0.1608947E+01 -0.5927172E-03 -0.3920059E-01 -0.1535800E-02 -0.2128904E-01
6016000.  0.3991684E-01 -0.1313673E+01 -0.4281122E-03 -0.5348631E-01 -0.1460202E-02 -0.2143363E-01
5993500.  0.4394932E-01 -0.9618941E+00 -0.2190144E-03 -0.6430931E-01 -0.1385030E-02 -0.2104997E-01
5971000.  0.4666344E-01 -0.5699302E+00  0.2153106E-04 -0.7124060E-01 -0.1312128E-02 -0.2014998E-01
5971000.  0.4666344E-01 -0.5178649E+00  0.2153106E-04 -0.6887487E-01 -0.1312128E-02 -0.2625862E-01
5937667.  0.4784454E-01  0.6481518E-01  0.3897706E-03 -0.7059615E-01 -0.1178794E-02 -0.2459230E-01
5904333.  0.4604281E-01  0.6147525E+00  0.7478806E-03 -0.6523539E-01 -0.1055790E-02 -0.2235248E-01
5871000.  0.4153925E-01  0.1091906E+01  0.1062826E-02 -0.5438938E-01 -0.9454629E-03 -0.1978527E-01
5837667.  0.3479396E-01  0.1467958E+01  0.1310557E-02 -0.3984275E-01 -0.8489764E-03 -0.1709072E-01
5804333.  0.2638353E-01  0.1726558E+01  0.1476357E-02 -0.2334840E-01 -0.7665898E-03 -0.1441409E-01
5771000.  0.1694141E-01  0.1862395E+01  0.1554227E-02 -0.6470878E-02 -0.6979557E-03 -0.1184459E-01
5771000.  0.1694141E-01  0.1862513E+01  0.1554227E-02 -0.6471221E-02 -0.6979557E-03 -0.1184459E-01
5701000. -0.3840082E-02  0.1833380E+01  0.1429583E-02  0.2873938E-01 -0.6032907E-03 -0.5188811E-02
5701000. -0.3840082E-02  0.1603501E+01  0.1429583E-02  0.2395603E-01 -0.6032907E-03 -0.4106430E-02
5667333. -0.1177973E-01  0.1406539E+01  0.1286245E-02  0.2997985E-01 -0.5795702E-03 -0.4972697E-02
5633667. -0.1874392E-01  0.1226471E+01  0.1114209E-02  0.3501389E-01 -0.5508031E-03 -0.5846897E-02
5600000. -0.2466341E-01  0.1007460E+01  0.9184266E-03  0.3884125E-01 -0.5183296E-03 -0.6408164E-02
5600000. -0.2466341E-01  0.1007460E+01  0.9184266E-03  0.3884125E-01 -0.5183296E-03 -0.6408164E-02
5563518. -0.2967197E-01  0.7372093E+00  0.6879162E-03  0.4139016E-01 -0.4804461E-03 -0.6789143E-02
5527037. -0.3306470E-01  0.4452857E+00  0.4475976E-03  0.4227326E-01 -0.4409127E-03 -0.6993861E-02
5490556. -0.3475460E-01  0.1445588E+00  0.2068535E-03  0.4155630E-01 -0.4006006E-03 -0.7066831E-02
5454074. -0.3472700E-01 -0.1526212E+00 -0.2552916E-04  0.3937927E-01 -0.3601791E-03 -0.7036353E-02
5417593. -0.3303514E-01 -0.4349788E+00 -0.2417228E-03  0.3594111E-01 -0.3201623E-03 -0.6929092E-02
5381111. -0.2979256E-01 -0.6927342E+00 -0.4351884E-03  0.3148146E-01 -0.2809501E-03 -0.6756392E-02
5344630. -0.2516417E-01 -0.9178872E+00 -0.6008152E-03  0.2626455E-01 -0.2428917E-03 -0.6528319E-02
5308148. -0.1935439E-01 -0.1104479E+01 -0.7350512E-03  0.2056098E-01 -0.2062732E-03 -0.6254008E-02
5271667. -0.1259694E-01 -0.1248452E+01 -0.8358676E-03  0.1463621E-01 -0.1713517E-03 -0.5936687E-02
5235185. -0.5141940E-02 -0.1347892E+01 -0.9027210E-03  0.8736711E-02 -0.1383550E-03 -0.5582495E-02
5198704.  0.2754177E-02 -0.1402714E+01 -0.9363916E-03  0.3080312E-02 -0.1074784E-03 -0.5197383E-02
5162222.  0.1083978E-01 -0.1414389E+01 -0.9388144E-03 -0.2149743E-02 -0.7888210E-04 -0.4786660E-02
5125741.  0.1887563E-01 -0.1386032E+01 -0.9128712E-03 -0.6806443E-02 -0.5270010E-04 -0.4355307E-02
5089259.  0.2664433E-01 -0.1321767E+01 -0.8621595E-03 -0.1078645E-01 -0.2902944E-04 -0.3910785E-02
5052778.  0.3395372E-01 -0.1226568E+01 -0.7907597E-03 -0.1402487E-01 -0.7921586E-05 -0.3461302E-02
5016296.  0.4064297E-01 -0.1106067E+01 -0.7030183E-03 -0.1649157E-01  0.1060686E-04 -0.3010663E-02
4979815.  0.4658348E-01 -0.9660926E+00 -0.6033541E-03 -0.1819378E-01  0.2657342E-04 -0.2568275E-02
4943333.  0.5168093E-01 -0.8125253E+00 -0.4960541E-03 -0.1916476E-01  0.4004730E-04 -0.2140204E-02
4906852.  0.5587373E-01 -0.6510862E+00 -0.3851664E-03 -0.1945944E-01  0.5111324E-04 -0.1728690E-02
4870370.  0.5913233E-01 -0.4870342E+00 -0.2743370E-03 -0.1915710E-01  0.5990053E-04 -0.1345357E-02
4833889.  0.6145559E-01 -0.3251714E+00 -0.1667557E-03 -0.1834030E-01  0.6657129E-04 -0.9889383E-03
4797407.  0.6286838E-01 -0.1696409E+00 -0.6510429E-04 -0.1710161E-01  0.7127997E-04 -0.6615202E-03
4760926.  0.6341708E-01 -0.2388723E-01  0.2848802E-04 -0.1554213E-01  0.7422353E-04 -0.3726617E-03
4724444.  0.6316579E-01  0.1093804E+00  0.1124420E-03 -0.1374880E-01  0.7560706E-04 -0.1158311E-03
4687963.  0.6219216E-01  0.2281453E+00  0.1856709E-03 -0.1181187E-01  0.7561674E-04  0.1060952E-03
4651482.  0.6058326E-01  0.3311047E+00  0.2475998E-03 -0.9813969E-02  0.7446604E-04  0.2901845E-03
4615000.  0.5843168E-01  0.4176081E+00  0.2980700E-03 -0.7819740E-02  0.7234953E-04  0.4438994E-03
4578518.  0.5583231E-01  0.4875337E+00  0.3372867E-03 -0.5893121E-02  0.6944733E-04  0.5641502E-03
4542037.  0.5287921E-01  0.5412911E+00  0.3657798E-03 -0.4080717E-02  0.6594759E-04  0.6540033E-03
4505556.  0.4966271E-01  0.5796924E+00  0.3843009E-03 -0.2415783E-02  0.6200081E-04  0.7201977E-03
4469074.  0.4626767E-01  0.6038308E+00  0.3937913E-03 -0.9301124E-03  0.5775542E-04  0.7584560E-03
4432593.  0.4277205E-01  0.6151038E+00  0.3953169E-03  0.3650615E-03  0.5335132E-04  0.7771110E-03
4396111.  0.3924502E-01  0.6150196E+00  0.3899867E-03  0.1463151E-02  0.4888702E-04  0.7790462E-03
4359630.  0.3574735E-01  0.6051598E+00  0.3789467E-03  0.2360238E-02  0.4446667E-04  0.7624952E-03
4323148.  0.3233004E-01  0.5871900E+00  0.3633173E-03  0.3067954E-02  0.4017331E-04  0.7354993E-03
4286667.  0.2903517E-01  0.5626839E+00  0.3441556E-03  0.3595876E-02  0.3606417E-04  0.6979625E-03
4250185.  0.2589561E-01  0.5331646E+00  0.3224535E-03  0.3958161E-02  0.3219839E-04  0.6511713E-03
4213704.  0.2293603E-01  0.5000710E+00  0.2991020E-03  0.4175270E-02  0.2861525E-04  0.5995198E-03
4177222.  0.2017307E-01  0.4646660E+00  0.2748836E-03  0.4263581E-02  0.2534454E-04  0.5419569E-03
4140741.  0.1761674E-01  0.4281096E+00  0.2504818E-03  0.4243276E-02  0.2241616E-04  0.4804943E-03
4104259.  0.1527054E-01  0.3913978E+00  0.2264558E-03  0.4134899E-02  0.1984567E-04  0.4167128E-03
4067778.  0.1313307E-01  0.3553514E+00  0.2032674E-03  0.3953785E-02  0.1765360E-04  0.3482446E-03
4031296.  0.1119831E-01  0.3206874E+00  0.1812781E-03  0.3718929E-02  0.1586362E-04  0.2764101E-03
3994815.  0.9456773E-02  0.2879566E+00  0.1607497E-03  0.3445826E-02  0.1449663E-04  0.1999880E-03
3958333.  0.7896074E-02  0.2575737E+00  0.1418661E-03  0.3146472E-02  0.1358914E-04  0.1155452E-03
3921852.  0.6501836E-02  0.2298734E+00  0.1247383E-03  0.2834828E-02  0.1319120E-04  0.2157384E-04
3885370.  0.5258001E-02  0.2050545E+00  0.1094048E-03  0.2521148E-02  0.1336910E-04 -0.8652519E-04
3848889.  0.4147763E-02  0.1832365E+00  0.9585053E-04  0.2215314E-02  0.1422024E-04 -0.2145514E-03
3812407.  0.3153725E-02  0.1644553E+00  0.8399879E-04  0.1928073E-02  0.1587694E-04 -0.3692895E-03
3775926.  0.2258708E-02  0.1486409E+00  0.7371465E-04  0.1669819E-02  0.1851988E-04 -0.5609304E-03
3739444.  0.1446091E-02  0.1356301E+00  0.6479432E-04  0.1454296E-02  0.2239510E-04 -0.8020004E-03
3702963.  0.7006529E-03  0.1251166E+00  0.5694291E-04  0.1300143E-02  0.2782972E-04 -0.1108756E-02
3666482.  0.9458102E-05  0.1165762E+00  0.4973858E-04  0.1233627E-02  0.3525864E-04 -0.1502540E-02
3630000. -0.6366330E-03  0.1091840E+00  0.4257256E-04  0.1294834E-02  0.4525444E-04 -0.2010251E-02
3630000. -0.6366330E-03  0.1091840E+00  0.4257256E-04  0.1294834E-02  0.4525444E-04 -0.2010251E-02
3592500. -0.1256864E-02  0.1013699E+00  0.3430389E-04  0.1555166E-02  0.5899013E-04 -0.2686481E-02
3555000. -0.1825084E-02  0.9102488E-01  0.2367661E-04  0.2117296E-02  0.7727507E-04 -0.3564424E-02
3517500. -0.2316230E-02  0.7439592E-01  0.8479784E-05  0.3140640E-02  0.1014544E-03 -0.4699245E-02
3480000. -0.2676876E-02  0.4541617E-01 -0.1467908E-04  0.4873810E-02  0.1332224E-03 -0.6154028E-02
3480000. -0.2676876E-02 -0.1180555E+00 -0.1020245E-03 -0.4712136E-02  0.1332224E-03  0.2382232E-02
3409422. -0.1621676E-02 -0.7520057E-01 -0.6047513E-04 -0.2916620E-02  0.1008440E-03  0.3127425E-02
3338844. -0.9582965E-03 -0.4656858E-01 -0.3504767E-04 -0.1761430E-02  0.6829719E-04  0.2650289E-02
3268266. -0.5526065E-03 -0.2806658E-01 -0.1986014E-04 -0.1038429E-02  0.4303850E-04  0.1906661E-02
3197688. -0.3110376E-03 -0.1647582E-01 -0.1100335E-04 -0.5977642E-03  0.2570298E-04  0.1249704E-02
3127109. -0.1708898E-03 -0.9424981E-02 -0.5959541E-05 -0.3360212E-03  0.1469151E-04  0.7680012E-03
3056531. -0.9164279E-04 -0.5255499E-02 -0.3154548E-05 -0.1844488E-03  0.8083676E-05  0.4488964E-03
2985953. -0.4795824E-04 -0.2856773E-02 -0.1631294E-05 -0.9884975E-04  0.4296536E-05  0.2515381E-03
2915375. -0.2448294E-04 -0.1513642E-02 -0.8237458E-06 -0.5170503E-04  0.2210613E-05  0.1357582E-03
2844797. -0.1218707E-04 -0.7815287E-03 -0.4059492E-06 -0.2638535E-04  0.1102364E-05  0.7077123E-04
2774219. -0.5911795E-05 -0.3930670E-03 -0.1951078E-06 -0.1312896E-04  0.5331177E-06  0.3569415E-04
2703641. -0.2792678E-05 -0.1924652E-03 -0.9138258E-07 -0.6365714E-05  0.2500794E-06  0.1743300E-04
2633062. -0.1283642E-05 -0.9168589E-04 -0.4167234E-07 -0.3005180E-05  0.1137639E-06  0.8247490E-05
2562484. -0.5735731E-06 -0.4245923E-04 -0.1848425E-07 -0.1380127E-05  0.5016572E-07  0.3779365E-05
2491906. -0.2488770E-06 -0.1909589E-04 -0.7965823E-08 -0.6159423E-06  0.2142725E-07  0.1676781E-05
2421328. -0.1047383E-06 -0.8331582E-05 -0.3331105E-08 -0.2668249E-06  0.8856639E-08  0.7197567E-06
2350750. -0.4269326E-07 -0.3521989E-05 -0.1349788E-08 -0.1120492E-06  0.3538399E-08  0.2986251E-06
2280172. -0.1683000E-07 -0.1440465E-05 -0.5291571E-09 -0.4554583E-07  0.1364516E-08  0.1196114E-06
2209594. -0.6405309E-08 -0.5690827E-06 -0.2003512E-09 -0.1789084E-07  0.5070923E-09  0.4618428E-07
2139016. -0.2349101E-08 -0.2167819E-06 -0.7312222E-10 -0.6778868E-08  0.1812732E-09  0.1716145E-07
2068438. -0.8284140E-09 -0.7946371E-07 -0.2566998E-10 -0.2472503E-08  0.6220308E-10  0.6124959E-08
1997859. -0.2802474E-09 -0.2796548E-07 -0.8647174E-11 -0.8660990E-09  0.2044042E-10  0.2094914E-08
1927281. -0.9070819E-10 -0.9425240E-08 -0.2787723E-11 -0.2906348E-09  0.6415412E-11  0.6849453E-09
1856703. -0.2800698E-10 -0.3033431E-08 -0.8575273E-12 -0.9315843E-10  0.1917365E-11  0.2134606E-09
1786125. -0.8221529E-11 -0.9292893E-09 -0.2508491E-12 -0.2843078E-10  0.5438223E-12  0.6320331E-10
1715547. -0.2286050E-11 -0.2699942E-09 -0.6951713E-13 -0.8231492E-11  0.1458149E-12  0.1771474E-10
1644969. -0.5998409E-12 -0.7404995E-10 -0.1816445E-13 -0.2252853E-11  0.3677975E-13  0.4683081E-11
1574391.  0.0000000E+00  0.0000000E+00  0.0000000E+00  0.0000000E+00  0.0000000E+00  0.0000000E+00
1503812.  0.0000000E+00  0.0000000E+00  0.0000000E+00  0.0000000E+00  0.0000000E+00  0.0000000E+00
1433234.  0.0000000E+00  0.0000000E+00  0.0000000E+00  0.0000000E+00  0.0000000E+00  0.0000000E+00
1362656.  0.0000000E+00  0.0000000E+00  0.0000000E+00  0.0000000E+00  0.0000000E+00  0.0000000E+00
1292078.  0.0000000E+00  0.0000000E+00  0.0000000E+00  0.0000000E+00  0.0000000E+00  0.0000000E+00
1221500.  0.0000000E+00  0.0000000E+00  0.0000000E+00  0.0000000E+00  0.0000000E+00  0.0000000E+00
1221500.  0.0000000E+00  0.0000000E+00  0.0000000E+00  0.0000000E+00  0.0000000E+00  0.0000000E+00
1183328.  0.0000000E+00  0.0000000E+00  0.0000000E+00  0.0000000E+00  0.0000000E+00  0.0000000E+00
1145156.  0.0000000E+00  0.0000000E+00  0.0000000E+00  0.0000000E+00  0.0000000E+00  0.0000000E+00
1106984.  0.0000000E+00  0.0000000E+00  0.0000000E+00  0.0000000E+00  0.0000000E+00  0.0000000E+00
1068812.  0.0000000E+00  0.0000000E+00  0.0000000E+00  0.0000000E+00  0.0000000E+00  0.0000000E+00
1030641.  0.0000000E+00  0.0000000E+00  0.0000000E+00  0.0000000E+00  0.0000000E+00  0.0000000E+00
 992469.  0.0000000E+00  0.0000000E+00  0.0000000E+00  0.0000000E+00  0.0000000E+00  0.0000000E+00
 954297.  0.0000000E+00  0.0000000E+00  0.0000000E+00  0.0000000E+00  0.0000000E+00  0.0000000E+00
 916125.  0.0000000E+00  0.0000000E+00  0.0000000E+00  0.0000000E+00  0.0000000E+00  0.0000000E+00
 877953.  0.0000000E+00  0.0000000E+00  0.0000000E+00  0.0000000E+00  0.0000000E+00  0.0000000E+00
 839781.  0.0000000E+00  0.0000000E+00  0.0000000E+00  0.0000000E+00  0.0000000E+00  0.0000000E+00
 801609.  0.0000000E+00  0.0000000E+00  0.0000000E+00  0.0000000E+00  0.0000000E+00  0.0000000E+00
 763438.  0.0000000E+00  0.0000000E+00  0.0000000E+00  0.0000000E+00  0.0000000E+00  0.0000000E+00
 725266.  0.0000000E+00  0.0000000E+00  0.0000000E+00  0.0000000E+00  0.0000000E+00  0.0000000E+00
 687094.  0.0000000E+00  0.0000000E+00  0.0000000E+00  0.0000000E+00  0.0000000E+00  0.0000000E+00
 648922.  0.0000000E+00  0.0000000E+00  0.0000000E+00  0.0000000E+00  0.0000000E+00  0.0000000E+00
 610750.  0.0000000E+00  0.0000000E+00  0.0000000E+00  0.0000000E+00  0.0000000E+00  0.0000000E+00
 572578.  0.0000000E+00  0.0000000E+00  0.0000000E+00  0.0000000E+00  0.0000000E+00  0.0000000E+00
 534406.  0.0000000E+00  0.0000000E+00  0.0000000E+00  0.0000000E+00  0.0000000E+00  0.0000000E+00
 496234.  0.0000000E+00  0.0000000E+00  0.0000000E+00  0.0000000E+00  0.0000000E+00  0.0000000E+00
 458062.  0.0000000E+00  0.0000000E+00  0.0000000E+00  0.0000000E+00  0.0000000E+00  0.0000000E+00
 419891.  0.0000000E+00  0.0000000E+00  0.0000000E+00  0.0000000E+00  0.0000000E+00  0.0000000E+00
 381719.  0.0000000E+00  0.0000000E+00  0.0000000E+00  0.0000000E+00  0.0000000E+00  0.0000000E+00
 343547.  0.0000000E+00  0.0000000E+00  0.0000000E+00  0.0000000E+00  0.0000000E+00  0.0000000E+00
 305375.  0.0000000E+00  0.0000000E+00  0.0000000E+00  0.0000000E+00  0.0000000E+00  0.0000000E+00
 267203.  0.0000000E+00  0.0000000E+00  0.0000000E+00  0.0000000E+00  0.0000000E+00  0.0000000E+00
 229031.  0.0000000E+00  0.0000000E+00  0.0000000E+00  0.0000000E+00  0.0000000E+00  0.0000000E+00
 190859.  0.0000000E+00  0.0000000E+00  0.0000000E+00  0.0000000E+00  0.0000000E+00  0.0000000E+00
 152688.  0.0000000E+00  0.0000000E+00  0.0000000E+00  0.0000000E+00  0.0000000E+00  0.0000000E+00
 114516.  0.0000000E+00  0.0000000E+00  0.0000000E+00  0.0000000E+00  0.0000000E+00  0.0000000E+00
  76344.  0.0000000E+00  0.0000000E+00  0.0000000E+00  0.0000000E+00  0.0000000E+00  0.0000000E+00
  38172.  0.0000000E+00  0.0000000E+00  0.0000000E+00  0.0000000E+00  0.0000000E+00  0.0000000E+00
      0.  0.0000000E+00  0.0000000E+00  0.0000000E+00  0.0000000E+00  0.0000000E+00  0.0000000E+00
