       7       18 S      419        147.89090         14.63101          6.15338        240.04190      185    7
6371000. -0.1458213E-01 -0.5668664E+00 -0.4301740E-02  0.1028039E-01  0.9451396E-03  0.9540833E-02
6370000. -0.1449275E-01 -0.5719729E+00 -0.4303017E-02  0.5979808E-02  0.9436255E-03  0.9751569E-02
6369000. -0.1440258E-01 -0.5768908E+00 -0.4303617E-02  0.1675390E-02  0.9420785E-03  0.9961171E-02
6368000. -0.1431166E-01 -0.5816195E+00 -0.4303542E-02 -0.2632156E-02  0.9404985E-03  0.1016963E-01
6368000. -0.1431166E-01 -0.5816195E+00 -0.4303542E-02 -0.2632156E-02  0.9404985E-03  0.1016963E-01
6367000. -0.1422001E-01 -0.5861586E+00 -0.4302791E-02 -0.6942120E-02  0.9388860E-03  0.1037692E-01
6366000. -0.1412766E-01 -0.5905079E+00 -0.4301363E-02 -0.1125379E-01  0.9372411E-03  0.1058306E-01
6365000. -0.1403465E-01 -0.5946667E+00 -0.4299258E-02 -0.1556646E-01  0.9355639E-03  0.1078801E-01
6364000. -0.1394099E-01 -0.5986349E+00 -0.4296476E-02 -0.1987940E-01  0.9338545E-03  0.1099178E-01
6363000. -0.1384673E-01 -0.6024121E+00 -0.4293018E-02 -0.2419193E-01  0.9321133E-03  0.1119434E-01
6362000. -0.1375189E-01 -0.6059982E+00 -0.4288882E-02 -0.2850331E-01  0.9303404E-03  0.1139570E-01
6361000. -0.1365651E-01 -0.6093928E+00 -0.4284070E-02 -0.3281283E-01  0.9285361E-03  0.1159584E-01
6360000. -0.1356060E-01 -0.6125958E+00 -0.4278582E-02 -0.3711979E-01  0.9267003E-03  0.1179475E-01
6359000. -0.1346421E-01 -0.6156070E+00 -0.4272418E-02 -0.4142348E-01  0.9248335E-03  0.1199243E-01
6358000. -0.1336736E-01 -0.6184264E+00 -0.4265578E-02 -0.4572317E-01  0.9229357E-03  0.1218885E-01
6357000. -0.1327008E-01 -0.6210539E+00 -0.4258064E-02 -0.5001816E-01  0.9210072E-03  0.1238401E-01
6356000. -0.1317241E-01 -0.6234894E+00 -0.4249877E-02 -0.5430774E-01  0.9190482E-03  0.1257790E-01
6356000. -0.1317241E-01 -0.5320867E+00 -0.4249877E-02 -0.2923464E-01  0.9190482E-03  0.1544406E-01
6355000. -0.1308872E-01 -0.5341887E+00 -0.4245075E-02 -0.3195057E-01  0.9166043E-03  0.1569550E-01
6354000. -0.1300472E-01 -0.5361738E+00 -0.4239846E-02 -0.3466480E-01  0.9141210E-03  0.1594602E-01
6353000. -0.1292041E-01 -0.5380415E+00 -0.4234192E-02 -0.3737706E-01  0.9115985E-03  0.1619562E-01
6352000. -0.1283582E-01 -0.5397919E+00 -0.4228113E-02 -0.4008704E-01  0.9090369E-03  0.1644428E-01
6351000. -0.1275096E-01 -0.5414251E+00 -0.4221608E-02 -0.4279446E-01  0.9064364E-03  0.1669201E-01
6350000. -0.1266586E-01 -0.5429409E+00 -0.4214679E-02 -0.4549903E-01  0.9037969E-03  0.1693880E-01
6349000. -0.1258053E-01 -0.5443394E+00 -0.4207326E-02 -0.4820045E-01  0.9011189E-03  0.1718463E-01
6348000. -0.1249499E-01 -0.5456205E+00 -0.4199548E-02 -0.5089844E-01  0.8984024E-03  0.1742950E-01
6347000. -0.1240925E-01 -0.5467843E+00 -0.4191348E-02 -0.5359270E-01  0.8956474E-03  0.1767340E-01
6346600. -0.1237491E-01 -0.5472170E+00 -0.4187949E-02 -0.5466929E-01  0.8945348E-03  0.1777069E-01
6346600. -0.1237491E-01 -0.6024593E+00 -0.4187949E-02 -0.3423968E-01  0.8945348E-03  0.2208564E-01
6318800. -0.9729393E-02 -0.5986748E+00 -0.3921612E-02 -0.8734179E-01  0.7822352E-03  0.2928680E-01
6291000. -0.7248479E-02 -0.5275297E+00 -0.3432386E-02 -0.1358652E+00  0.6398711E-03  0.3585365E-01
6291000. -0.7248479E-02 -0.5437617E+00 -0.3432386E-02 -0.1408796E+00  0.6398711E-03  0.3585365E-01
6263000. -0.5147926E-02 -0.4019638E+00 -0.2715442E-02 -0.1837316E+00  0.4694365E-03  0.4158169E-01
6235000. -0.3795325E-02 -0.2057183E+00 -0.1833860E-02 -0.2153846E+00  0.2754992E-03  0.4654289E-01
6207000. -0.3396012E-02  0.2883375E-01 -0.8417731E-03 -0.2337395E+00  0.6150143E-04  0.5070648E-01
6179000. -0.4076178E-02  0.2820166E+00  0.1993608E-03 -0.2375805E+00 -0.1690026E-03  0.5405146E-01
6151000. -0.5870161E-02  0.5319480E+00  0.1224840E-02 -0.2266563E+00 -0.4123783E-03  0.5656138E-01
6151000. -0.5870161E-02  0.4640967E+00  0.1224840E-02 -0.1981631E+00 -0.4123783E-03  0.5688615E-01
6128500. -0.7778188E-02  0.6132682E+00  0.1895468E-02 -0.1805711E+00 -0.6150193E-03  0.5778130E-01
6106000. -0.1017491E-01  0.7397250E+00  0.2493368E-02 -0.1571312E+00 -0.8198658E-03  0.5813603E-01
6083500. -0.1296871E-01  0.8371987E+00  0.2999634E-02 -0.1288606E+00 -0.1025021E-02  0.5795778E-01
6061000. -0.1604795E-01  0.9006528E+00  0.3399221E-02 -0.9692100E-01 -0.1228624E-02  0.5725946E-01
6038500. -0.1928564E-01  0.9264579E+00  0.3681375E-02 -0.6257278E-01 -0.1428867E-02  0.5605875E-01
6016000. -0.2254465E-01  0.9125043E+00  0.3839892E-02 -0.2712242E-01 -0.1624016E-02  0.5437818E-01
5993500. -0.2568313E-01  0.8582437E+00  0.3873187E-02  0.8127457E-02 -0.1812421E-02  0.5224526E-01
5971000. -0.2856008E-01  0.7646883E+00  0.3784201E-02  0.4192431E-01 -0.1992540E-02  0.4969092E-01
5971000. -0.2856008E-01  0.7377800E+00  0.3784201E-02  0.4110761E-01 -0.1992540E-02  0.5342968E-01
5937667. -0.3193078E-01  0.5412420E+00  0.3462476E-02  0.8030437E-01 -0.2259769E-02  0.4858775E-01
5904333. -0.3414083E-01  0.2971399E+00  0.2961465E-02  0.1094520E+00 -0.2499742E-02  0.4304242E-01
5871000. -0.3499021E-01  0.2432952E-01  0.2335836E-02  0.1279182E+00 -0.2709304E-02  0.3699984E-01
5837667. -0.3437850E-01 -0.2582848E+00  0.1641218E-02  0.1359218E+00 -0.2886395E-02  0.3066255E-01
5804333. -0.3230131E-01 -0.5330547E+00  0.9302655E-03  0.1343461E+00 -0.3029979E-02  0.2422067E-01
5771000. -0.2884137E-01 -0.7845342E+00  0.2497603E-03  0.1245470E+00 -0.3139965E-02  0.1784731E-01
5771000. -0.2884137E-01 -0.7845375E+00  0.2497603E-03  0.1245440E+00 -0.3139965E-02  0.1784731E-01
5701000. -0.1745281E-01 -0.1260157E+01 -0.9467761E-03  0.8877376E-01 -0.3255804E-02  0.3315409E-02
5701000. -0.1745281E-01 -0.1056916E+01 -0.9467761E-03  0.7402159E-01 -0.3255804E-02  0.8234729E-02
5667333. -0.1166799E-01 -0.1133734E+01 -0.1278438E-02  0.5218677E-01 -0.3287839E-02  0.4107901E-02
5633667. -0.5450729E-02 -0.1216716E+01 -0.1502326E-02  0.3248851E-01 -0.3300592E-02  0.7683448E-03
5600000.  0.1106773E-02 -0.1256930E+01 -0.1619430E-02  0.1171525E-01 -0.3296350E-02 -0.2323044E-02
5600000.  0.1106773E-02 -0.1256930E+01 -0.1619430E-02  0.1171525E-01 -0.3296350E-02 -0.2323044E-02
5563518.  0.8309975E-02 -0.1250214E+01 -0.1621596E-02 -0.1088715E-01 -0.3274292E-02 -0.5320689E-02
5527037.  0.1532551E-01 -0.1191700E+01 -0.1496599E-02 -0.3252403E-01 -0.3236117E-02 -0.7951751E-02
5490556.  0.2186337E-01 -0.1083973E+01 -0.1252879E-02 -0.5219867E-01 -0.3183923E-02 -0.1021860E-01
5454074.  0.2765426E-01 -0.9317068E+00 -0.9041993E-03 -0.6905083E-01 -0.3119761E-02 -0.1213335E-01
5417593.  0.3246126E-01 -0.7416150E+00 -0.4687911E-03 -0.8239596E-01 -0.3045615E-02 -0.1371020E-01
5381111.  0.3609042E-01 -0.5217136E+00  0.3177529E-04 -0.9173787E-01 -0.2963340E-02 -0.1497636E-01
5344630.  0.3839673E-01 -0.2812166E+00  0.5736092E-03 -0.9678354E-01 -0.2874639E-02 -0.1596003E-01
5308148.  0.3929051E-01 -0.2999944E-01  0.1131801E-02 -0.9744719E-01 -0.2781044E-02 -0.1669085E-01
5271667.  0.3873914E-01  0.2218540E+00  0.1681424E-02 -0.9382875E-01 -0.2683898E-02 -0.1720698E-01
5235185.  0.3676756E-01  0.4644164E+00  0.2198727E-02 -0.8621544E-01 -0.2584333E-02 -0.1753978E-01
5198704.  0.3345621E-01  0.6883453E+00  0.2662002E-02 -0.7504655E-01 -0.2483316E-02 -0.1772128E-01
5162222.  0.2893621E-01  0.8852192E+00  0.3052464E-02 -0.6088334E-01 -0.2381598E-02 -0.1778865E-01
5125741.  0.2338392E-01  0.1047874E+01  0.3354819E-02 -0.4439351E-01 -0.2279766E-02 -0.1776593E-01
5089259.  0.1701204E-01  0.1170599E+01  0.3557808E-02 -0.2629870E-01 -0.2178256E-02 -0.1767987E-01
5052778.  0.1006221E-01  0.1249270E+01  0.3654383E-02 -0.7354609E-02 -0.2077365E-02 -0.1755385E-01
5016296.  0.2793734E-02  0.1281576E+01  0.3641850E-02  0.1168753E-01 -0.1977268E-02 -0.1740414E-01
4979815. -0.4524831E-02  0.1266873E+01  0.3521728E-02  0.3010767E-01 -0.1878064E-02 -0.1724469E-01
4943333. -0.1162703E-01  0.1206262E+01  0.3299498E-02  0.4724543E-01 -0.1779775E-02 -0.1708515E-01
4906852. -0.1825670E-01  0.1102464E+01  0.2984216E-02  0.6252236E-01 -0.1682386E-02 -0.1693174E-01
4870370. -0.2417794E-01  0.9595619E+00  0.2587953E-02  0.7545447E-01 -0.1585854E-02 -0.1678490E-01
4833889. -0.2918146E-01  0.7829690E+00  0.2125276E-02  0.8567167E-01 -0.1490143E-02 -0.1664618E-01
4797407. -0.3309243E-01  0.5790403E+00  0.1612479E-02  0.9292214E-01 -0.1395204E-02 -0.1651306E-01
4760926. -0.3577411E-01  0.3548741E+00  0.1067037E-02  0.9706632E-01 -0.1301035E-02 -0.1637716E-01
4724444. -0.3713229E-01  0.1180377E+00  0.5068014E-03  0.9809070E-01 -0.1207653E-02 -0.1623702E-01
4687963. -0.3711654E-01 -0.1237116E+00 -0.5054381E-04  0.9608538E-01 -0.1115106E-02 -0.1608491E-01
4651482. -0.3572082E-01 -0.3626978E+00 -0.5881598E-03  0.9123947E-01 -0.1023485E-02 -0.1591261E-01
4615000. -0.3298206E-01 -0.5916048E+00 -0.1090559E-02  0.8383261E-01 -0.9329096E-03 -0.1571840E-01
4578518. -0.2897781E-01 -0.8036146E+00 -0.1544019E-02  0.7420884E-01 -0.8435264E-03 -0.1549508E-01
4542037. -0.2382273E-01 -0.9926820E+00 -0.1936961E-02  0.6277002E-01 -0.7555152E-03 -0.1524023E-01
4505556. -0.1766310E-01 -0.1153702E+01 -0.2260244E-02  0.4995291E-01 -0.6690496E-03 -0.1495507E-01
4469074. -0.1067183E-01 -0.1282489E+01 -0.2507270E-02  0.3620933E-01 -0.5843068E-03 -0.1463796E-01
4432593. -0.3042998E-02 -0.1376062E+01 -0.2674040E-02  0.2199922E-01 -0.5014616E-03 -0.1429416E-01
4396111.  0.5016305E-02 -0.1432533E+01 -0.2759166E-02  0.7763606E-02 -0.4206443E-03 -0.1393010E-01
4359630.  0.1329023E-01 -0.1451070E+01 -0.2763701E-02 -0.6081846E-02 -0.3419509E-03 -0.1355480E-01
4323148.  0.2156265E-01 -0.1432077E+01 -0.2690984E-02 -0.1915917E-01 -0.2654129E-03 -0.1317855E-01
4286667.  0.2962155E-01 -0.1376868E+01 -0.2546381E-02 -0.3114059E-01 -0.1909972E-03 -0.1281736E-01
4250185.  0.3726600E-01 -0.1287701E+01 -0.2336968E-02 -0.4175272E-01 -0.1185611E-03 -0.1248912E-01
4213704.  0.4430978E-01 -0.1167710E+01 -0.2071245E-02 -0.5078008E-01 -0.4787339E-04 -0.1221112E-01
4177222.  0.5058709E-01 -0.1020598E+01 -0.1758733E-02 -0.5807192E-01  0.2143465E-04 -0.1201124E-01
4140741.  0.5595436E-01 -0.8506687E+00 -0.1409680E-02 -0.6353524E-01  0.8987887E-04 -0.1191382E-01
4104259.  0.6029448E-01 -0.6625810E+00 -0.1034662E-02 -0.6713715E-01  0.1581220E-03 -0.1194671E-01
4067778.  0.6351700E-01 -0.4611835E+00 -0.6443111E-03 -0.6890193E-01  0.2270314E-03 -0.1215359E-01
4031296.  0.6556012E-01 -0.2514393E+00 -0.2489511E-03 -0.6889811E-01  0.2976993E-03 -0.1256582E-01
3994815.  0.6638999E-01 -0.3824155E-01  0.1415732E-03 -0.6723934E-01  0.3714180E-03 -0.1322974E-01
3958333.  0.6600042E-01  0.1737181E+00  0.5182273E-03 -0.6407690E-01  0.4498144E-03 -0.1420813E-01
3921852.  0.6441133E-01  0.3800290E+00  0.8728594E-03 -0.5958160E-01  0.5348294E-03 -0.1555244E-01
3885370.  0.6166670E-01  0.5766646E+00  0.1198404E-02 -0.5394788E-01  0.6287753E-03 -0.1734145E-01
3848889.  0.5783261E-01  0.7600254E+00  0.1488908E-02 -0.4737958E-01  0.7344526E-03 -0.1966588E-01
3812407.  0.5299382E-01  0.9270680E+00  0.1739609E-02 -0.4007662E-01  0.8552023E-03 -0.2262419E-01
3775926.  0.4725179E-01  0.1075169E+01  0.1946866E-02 -0.3224047E-01  0.9950225E-03 -0.2635234E-01
3739444.  0.4072072E-01  0.1202313E+01  0.2108170E-02 -0.2405328E-01  0.1158760E-02 -0.3100399E-01
3702963.  0.3352550E-01  0.1306976E+01  0.2221972E-02 -0.1567594E-01  0.1352209E-02 -0.3676737E-01
3666482.  0.2579828E-01  0.1387986E+01  0.2287605E-02 -0.7249500E-02  0.1582415E-02 -0.4388672E-01
3630000.  0.1767624E-01  0.1444719E+01  0.2305098E-02  0.1124443E-02  0.1857951E-02 -0.5265136E-01
3630000.  0.1767624E-01  0.1444719E+01  0.2305098E-02  0.1124443E-02  0.1857951E-02 -0.5265136E-01
3592500.  0.9064030E-02  0.1477241E+01  0.2273450E-02  0.9604064E-02  0.2199407E-02 -0.6376316E-01
3555000.  0.3378742E-03  0.1483420E+01  0.2192352E-02  0.1792677E-01  0.2613720E-02 -0.7750017E-01
3517500. -0.8346980E-02  0.1463182E+01  0.2062673E-02  0.2612033E-01  0.3118116E-02 -0.9448908E-01
3480000. -0.1683427E-01  0.1416219E+01  0.1884953E-02  0.3427016E-01  0.3733976E-02 -0.1155225E+00
3480000. -0.1683427E-01  0.2165422E-01 -0.2321166E-02 -0.2652889E-01  0.3733976E-02 -0.6183989E-01
3409422. -0.1659635E-01 -0.6019700E-01 -0.2021988E-02 -0.2721009E-01  0.4111173E-02 -0.1013087E-01
3338844. -0.1559506E-01 -0.1165142E+00 -0.1723600E-02 -0.2645562E-01  0.4032175E-02  0.2156455E-01
3268266. -0.1409853E-01 -0.1502104E+00 -0.1439638E-02 -0.2467067E-01  0.3686382E-02  0.3886982E-01
3197688. -0.1233570E-01 -0.1653125E+00 -0.1179426E-02 -0.2222564E-01  0.3207570E-02  0.4623058E-01
3127109. -0.1048825E-01 -0.1662126E+00 -0.9484674E-03 -0.1943606E-01  0.2686055E-02  0.4707234E-01
3056531. -0.8689897E-02 -0.1571210E+00 -0.7491347E-03 -0.1655280E-01  0.2179155E-02  0.4395600E-01
2985953. -0.7030224E-02 -0.1417381E+00 -0.5813778E-03 -0.1376105E-01  0.1719891E-02  0.3872818E-01
2915375. -0.5561527E-02 -0.1230860E+00 -0.4434386E-03 -0.1118589E-01  0.1324135E-02  0.3266163E-01
2844797. -0.4306626E-02 -0.1034642E+00 -0.3324652E-03 -0.8901238E-02  0.9962429E-03  0.2658308E-01
2774219. -0.3266701E-02 -0.8449211E-01 -0.2450245E-03 -0.6940012E-02  0.7333573E-03  0.2098481E-01
2703641. -0.2428357E-02 -0.6719939E-01 -0.1774969E-03 -0.5304519E-02  0.5285799E-03  0.1611855E-01
2633062. -0.1769527E-02 -0.5214065E-01 -0.1263612E-03 -0.3976109E-02  0.3731938E-03  0.1207170E-01
2562484. -0.1264105E-02 -0.3951442E-01 -0.8838285E-04 -0.2923307E-02  0.2581472E-03  0.8827088E-02
2491906. -0.8852308E-03 -0.2927011E-01 -0.6071486E-04 -0.2108099E-02  0.1749416E-03  0.6307070E-02
2421328. -0.6075515E-03 -0.2120162E-01 -0.4094487E-04 -0.1490883E-02  0.1161234E-03  0.4405414E-02
2350750. -0.4085175E-03 -0.1501968E-01 -0.2709220E-04 -0.1033742E-02  0.7547205E-04  0.3008513E-02
2280172. -0.2689860E-03 -0.1040578E-01 -0.1757713E-04 -0.7024533E-03  0.4800276E-04  0.2008508E-02
2209594. -0.1733301E-03 -0.7048549E-02 -0.1117336E-04 -0.4675450E-03  0.2985864E-04  0.1310412E-02
2139016. -0.1092242E-03 -0.4666001E-02 -0.6953043E-05 -0.3046049E-03  0.1814866E-04  0.8350748E-03
2068438. -0.6724775E-04 -0.3016763E-02 -0.4231473E-05 -0.1940914E-03  0.1076889E-04  0.5194157E-03
1997859. -0.4041063E-04 -0.1903446E-02 -0.2515589E-05 -0.1208409E-03  0.6230989E-05  0.3150525E-03
1927281. -0.2367311E-04 -0.1170906E-02 -0.1459048E-05 -0.7343112E-04  0.3511114E-05  0.1861489E-03
1856703. -0.1350052E-04 -0.7014144E-03 -0.8244177E-06 -0.4349532E-04  0.1923906E-05  0.1069995E-03
1786125. -0.7483216E-05 -0.4086001E-03 -0.4530629E-06 -0.2507584E-04  0.1023372E-05  0.5974318E-04
1715547. -0.4024094E-05 -0.2311005E-03 -0.2417119E-06 -0.1404653E-04  0.5274113E-06  0.3234554E-04
1644969. -0.2094806E-05 -0.1266814E-03 -0.1249333E-06 -0.7629415E-05  0.2627687E-06  0.1694601E-04
1574391. -0.1052647E-05 -0.6719176E-04 -0.6243452E-07 -0.4007115E-05  0.1262518E-06  0.8570290E-05
1503812. -0.5080137E-06 -0.3449049E-04 -0.3014934E-07 -0.2024571E-05  0.5834885E-07  0.4171468E-05
1433234. -0.2315836E-06 -0.1734811E-04 -0.1419753E-07 -0.9663697E-06  0.2589569E-07  0.1945831E-05
1362656. -0.9053324E-07 -0.9289946E-05 -0.6973554E-08 -0.3907086E-06  0.1107117E-07  0.8634177E-06
1292078. -0.2995279E-08 -0.7531630E-05 -0.4889474E-08  0.9310988E-08  0.4655690E-08  0.3614996E-06
1221500.  0.1053375E-06 -0.1395496E-04 -0.7795663E-08  0.5900136E-06  0.1967343E-08  0.1629333E-06
1221500.  0.1053375E-06 -0.1527393E-05 -0.1067955E-08 -0.5549810E-06  0.1967343E-08  0.1173007E-06
1183328.  0.1028022E-06  0.1906340E-05  0.1166428E-08 -0.2233141E-06  0.1338461E-08  0.9182432E-07
1145156.  0.8677157E-07  0.3180958E-05  0.1916937E-08 -0.4727031E-07  0.8672995E-09  0.6595265E-07
1106984.  0.6698965E-07  0.3289006E-05  0.1919096E-08  0.3481902E-07  0.5389989E-09  0.4453936E-07
1068812.  0.4843170E-07  0.2851403E-05  0.1604872E-08  0.6373254E-07  0.3224954E-09  0.2862536E-07
1030641.  0.3317334E-07  0.2231874E-05  0.1209273E-08  0.6530936E-07  0.1861408E-09  0.1762290E-07
 992469.  0.2165782E-07  0.1623559E-05  0.8454737E-09  0.5502983E-07  0.1037184E-09  0.1042820E-07
 954297.  0.1351924E-07  0.1112724E-05  0.5560832E-09  0.4147389E-07  0.5578527E-10  0.5940679E-08
 916125.  0.8078958E-08  0.7234794E-06  0.3464384E-09  0.2885370E-07  0.2893870E-10  0.3259378E-08
 877953.  0.4622103E-08  0.4477596E-06  0.2051049E-09  0.1879890E-07  0.1445822E-10  0.1721292E-08
 839781.  0.2529378E-08  0.2641046E-06  0.1155215E-09  0.1154949E-07  0.6943350E-11  0.8738295E-09
 801609.  0.1321730E-08  0.1484310E-06  0.6187534E-10  0.6711460E-08  0.3196970E-11  0.4255900E-09
 763438.  0.6579329E-09  0.7938058E-07  0.3146856E-10  0.3691261E-08  0.1406910E-11  0.1983350E-09
 725266.  0.3109850E-09  0.4030237E-07  0.1515731E-10  0.1919500E-08  0.5895061E-12  0.8813814E-10
 687094.  0.1390276E-09  0.1936292E-07  0.6890215E-11  0.9415241E-09  0.2341164E-12  0.3719857E-10
 648922.  0.5849931E-10  0.8766082E-08  0.2942651E-11  0.4340504E-09  0.8764276E-13  0.1483450E-10
 610750.  0.2303063E-10  0.3719875E-08  0.1174002E-11  0.1871551E-09  0.3072573E-13  0.5556150E-11
 572578.  0.8422030E-11  0.1469846E-08  0.4344694E-12  0.7500533E-10  0.1000813E-13  0.1940102E-11
 534406.  0.2835463E-11  0.5363905E-09  0.1478487E-12  0.2771816E-10  0.2999783E-14  0.6258945E-12
 496234.  0.8692814E-12  0.1789498E-09  0.4576465E-13  0.9351423E-11  0.8176902E-15  0.1844923E-12
 458062.  0.2393696E-12  0.5388490E-10  0.1271113E-13  0.2844087E-11  0.1997435E-15  0.4900708E-13
 419891.  0.5818542E-13  0.1440912E-10  0.3113712E-14  0.7672913E-12  0.4292334E-16  0.1152775E-13
 381719.  0.1220709E-13  0.3350191E-11  0.6577478E-15  0.1798049E-12  0.7922071E-17  0.2347555E-14
 343547.  0.2145884E-14  0.6587035E-12  0.1163302E-15  0.3559790E-13  0.1216836E-17  0.4017572E-15
 305375.  0.3036249E-15  0.1054599E-12  0.1654760E-16  0.5733907E-14  0.1490477E-18  0.5549906E-16
 267203.  0.3268933E-16  0.1303757E-13  0.1789425E-17  0.7123916E-15  0.1371570E-19  0.5838282E-17
 229031.  0.0000000E+00  0.0000000E+00  0.0000000E+00  0.0000000E+00  0.0000000E+00  0.0000000E+00
 190859.  0.0000000E+00  0.0000000E+00  0.0000000E+00  0.0000000E+00  0.0000000E+00  0.0000000E+00
 152688.  0.0000000E+00  0.0000000E+00  0.0000000E+00  0.0000000E+00  0.0000000E+00  0.0000000E+00
 114516.  0.0000000E+00  0.0000000E+00  0.0000000E+00  0.0000000E+00  0.0000000E+00  0.0000000E+00
  76344.  0.0000000E+00  0.0000000E+00  0.0000000E+00  0.0000000E+00  0.0000000E+00  0.0000000E+00
  38172.  0.0000000E+00  0.0000000E+00  0.0000000E+00  0.0000000E+00  0.0000000E+00  0.0000000E+00
      0.  0.0000000E+00  0.0000000E+00  0.0000000E+00  0.0000000E+00  0.0000000E+00  0.0000000E+00
