       1        3 S       99       1063.92395         10.75001          9.84075        282.72131      185    7
6371000. -0.2068755E+00 -0.5483702E+00 -0.1505051E+00  0.5637034E-01  0.1209069E+00 -0.9350866E-01
6370000. -0.2067893E+00 -0.5497795E+00 -0.1505138E+00  0.5373215E-01  0.1209215E+00 -0.9351614E-01
6369000. -0.2067029E+00 -0.5511853E+00 -0.1505220E+00  0.5109272E-01  0.1209362E+00 -0.9352399E-01
6368000. -0.2066163E+00 -0.5525874E+00 -0.1505298E+00  0.4845205E-01  0.1209509E+00 -0.9353222E-01
6368000. -0.2066163E+00 -0.5525874E+00 -0.1505298E+00  0.4845205E-01  0.1209509E+00 -0.9353222E-01
6367000. -0.2065294E+00 -0.5539861E+00 -0.1505372E+00  0.4581017E-01  0.1209656E+00 -0.9354083E-01
6366000. -0.2064424E+00 -0.5553811E+00 -0.1505442E+00  0.4316706E-01  0.1209803E+00 -0.9354982E-01
6365000. -0.2063551E+00 -0.5567725E+00 -0.1505508E+00  0.4052274E-01  0.1209949E+00 -0.9355918E-01
6364000. -0.2062676E+00 -0.5581604E+00 -0.1505569E+00  0.3787722E-01  0.1210096E+00 -0.9356892E-01
6363000. -0.2061799E+00 -0.5595446E+00 -0.1505627E+00  0.3523051E-01  0.1210243E+00 -0.9357905E-01
6362000. -0.2060919E+00 -0.5609252E+00 -0.1505680E+00  0.3258260E-01  0.1210390E+00 -0.9358955E-01
6361000. -0.2060038E+00 -0.5623023E+00 -0.1505729E+00  0.2993352E-01  0.1210537E+00 -0.9360044E-01
6360000. -0.2059154E+00 -0.5636757E+00 -0.1505774E+00  0.2728326E-01  0.1210684E+00 -0.9361169E-01
6359000. -0.2058268E+00 -0.5650455E+00 -0.1505815E+00  0.2463183E-01  0.1210831E+00 -0.9362335E-01
6358000. -0.2057380E+00 -0.5664117E+00 -0.1505851E+00  0.2197924E-01  0.1210978E+00 -0.9363537E-01
6357000. -0.2056490E+00 -0.5677743E+00 -0.1505884E+00  0.1932549E-01  0.1211125E+00 -0.9364778E-01
6356000. -0.2055598E+00 -0.5691332E+00 -0.1505912E+00  0.1667061E-01  0.1211272E+00 -0.9366057E-01
6356000. -0.2055598E+00 -0.4942818E+00 -0.1505912E+00  0.3190352E-01  0.1211272E+00 -0.4893314E-01
6355000. -0.2054821E+00 -0.4953669E+00 -0.1505961E+00  0.3028394E-01  0.1211349E+00 -0.4887914E-01
6354000. -0.2054043E+00 -0.4964500E+00 -0.1506007E+00  0.2866367E-01  0.1211425E+00 -0.4882541E-01
6353000. -0.2053263E+00 -0.4975311E+00 -0.1506051E+00  0.2704274E-01  0.1211502E+00 -0.4877197E-01
6352000. -0.2052481E+00 -0.4986103E+00 -0.1506092E+00  0.2542114E-01  0.1211578E+00 -0.4871882E-01
6351000. -0.2051698E+00 -0.4996873E+00 -0.1506130E+00  0.2379887E-01  0.1211655E+00 -0.4866597E-01
6350000. -0.2050912E+00 -0.5007624E+00 -0.1506167E+00  0.2217594E-01  0.1211731E+00 -0.4861339E-01
6349000. -0.2050126E+00 -0.5018354E+00 -0.1506200E+00  0.2055235E-01  0.1211807E+00 -0.4856111E-01
6348000. -0.2049337E+00 -0.5029064E+00 -0.1506231E+00  0.1892810E-01  0.1211884E+00 -0.4850911E-01
6347000. -0.2048547E+00 -0.5039754E+00 -0.1506259E+00  0.1730320E-01  0.1211960E+00 -0.4845741E-01
6346600. -0.2048230E+00 -0.5044025E+00 -0.1506270E+00  0.1665305E-01  0.1211990E+00 -0.4843681E-01
6346600. -0.2048230E+00 -0.5746794E+00 -0.1506270E+00  0.2891689E-01  0.1211990E+00  0.2298200E-01
6318800. -0.2022549E+00 -0.6022746E+00 -0.1506854E+00 -0.2226886E-02  0.1210940E+00  0.2510556E-01
6291000. -0.1995683E+00 -0.6289483E+00 -0.1506072E+00 -0.3366663E-01  0.1209802E+00  0.2702678E-01
6291000. -0.1995683E+00 -0.6563937E+00 -0.1506072E+00 -0.3790331E-01  0.1209802E+00  0.2702678E-01
6263000. -0.1966255E+00 -0.6826447E+00 -0.1503653E+00 -0.7219311E-01  0.1208582E+00  0.2845218E-01
6235000. -0.1935698E+00 -0.7076976E+00 -0.1499722E+00 -0.1067387E+00  0.1207304E+00  0.2965618E-01
6207000. -0.1904068E+00 -0.7314810E+00 -0.1494268E+00 -0.1415064E+00  0.1205979E+00  0.3063211E-01
6179000. -0.1871422E+00 -0.7539226E+00 -0.1487281E+00 -0.1764623E+00  0.1204615E+00  0.3137349E-01
6151000. -0.1837821E+00 -0.7749510E+00 -0.1478755E+00 -0.2115689E+00  0.1203225E+00  0.3187809E-01
6151000. -0.1837821E+00 -0.7370819E+00 -0.1478755E+00 -0.1796548E+00  0.1203225E+00  0.4204592E-01
6128500. -0.1811546E+00 -0.7508165E+00 -0.1472032E+00 -0.2009801E+00  0.1201688E+00  0.4495736E-01
6106000. -0.1784803E+00 -0.7636008E+00 -0.1464564E+00 -0.2219154E+00  0.1200050E+00  0.4775709E-01
6083500. -0.1757626E+00 -0.7754470E+00 -0.1456363E+00 -0.2424558E+00  0.1198316E+00  0.5044315E-01
6061000. -0.1730046E+00 -0.7863613E+00 -0.1447443E+00 -0.2625946E+00  0.1196489E+00  0.5301743E-01
6038500. -0.1702097E+00 -0.7963516E+00 -0.1437820E+00 -0.2823279E+00  0.1194573E+00  0.5547794E-01
6016000. -0.1673812E+00 -0.8054301E+00 -0.1427507E+00 -0.3016526E+00  0.1192572E+00  0.5782268E-01
5993500. -0.1645222E+00 -0.8136035E+00 -0.1416518E+00 -0.3205635E+00  0.1190490E+00  0.6005327E-01
5971000. -0.1616359E+00 -0.8208806E+00 -0.1404869E+00 -0.3390593E+00  0.1188331E+00  0.6216644E-01
5971000. -0.1616359E+00 -0.7894738E+00 -0.1404869E+00 -0.2992202E+00  0.1188331E+00  0.8332594E-01
5937667. -0.1575028E+00 -0.7902124E+00 -0.1388901E+00 -0.3108449E+00  0.1183796E+00  0.9004295E-01
5904333. -0.1533685E+00 -0.7898824E+00 -0.1372377E+00 -0.3204771E+00  0.1178910E+00  0.9669933E-01
5871000. -0.1492386E+00 -0.7886316E+00 -0.1355397E+00 -0.3282959E+00  0.1173678E+00  0.1032999E+00
5837667. -0.1451174E+00 -0.7865938E+00 -0.1338053E+00 -0.3344653E+00  0.1168102E+00  0.1098505E+00
5804333. -0.1410085E+00 -0.7838910E+00 -0.1320424E+00 -0.3391374E+00  0.1162184E+00  0.1163536E+00
5771000. -0.1369154E+00 -0.7806327E+00 -0.1302589E+00 -0.3424462E+00  0.1155927E+00  0.1228147E+00
5771000. -0.1369154E+00 -0.7807092E+00 -0.1302589E+00 -0.3424348E+00  0.1155927E+00  0.1228147E+00
5701000. -0.1282963E+00 -0.7874930E+00 -0.1263310E+00 -0.3721654E+00  0.1142097E+00  0.1288062E+00
5701000. -0.1282963E+00 -0.7132760E+00 -0.1263310E+00 -0.2921778E+00  0.1142097E+00  0.1649683E+00
5667333. -0.1245887E+00 -0.6948190E+00 -0.1248291E+00 -0.2798854E+00  0.1133241E+00  0.1704685E+00
5633667. -0.1209045E+00 -0.7015566E+00 -0.1233379E+00 -0.2859680E+00  0.1124058E+00  0.1771589E+00
5600000. -0.1171797E+00 -0.7077386E+00 -0.1218103E+00 -0.2917932E+00  0.1114522E+00  0.1837024E+00
5600000. -0.1171797E+00 -0.7077386E+00 -0.1218103E+00 -0.2917932E+00  0.1114522E+00  0.1837024E+00
5563518. -0.1131093E+00 -0.7138816E+00 -0.1201224E+00 -0.2977067E+00  0.1103803E+00  0.1906618E+00
5527037. -0.1090054E+00 -0.7194614E+00 -0.1184016E+00 -0.3032634E+00  0.1092690E+00  0.1974680E+00
5490556. -0.1048711E+00 -0.7244968E+00 -0.1166500E+00 -0.3084611E+00  0.1081191E+00  0.2041306E+00
5454074. -0.1007094E+00 -0.7290087E+00 -0.1148697E+00 -0.3132858E+00  0.1069314E+00  0.2106649E+00
5417593. -0.9652348E-01 -0.7330118E+00 -0.1130628E+00 -0.3177770E+00  0.1057068E+00  0.2170595E+00
5381111. -0.9231589E-01 -0.7365276E+00 -0.1112311E+00 -0.3219227E+00  0.1044458E+00  0.2233286E+00
5344630. -0.8808964E-01 -0.7395726E+00 -0.1093767E+00 -0.3257312E+00  0.1031493E+00  0.2294753E+00
5308148. -0.8384712E-01 -0.7421675E+00 -0.1075013E+00 -0.3292297E+00  0.1018180E+00  0.2354982E+00
5271667. -0.7959113E-01 -0.7443214E+00 -0.1056068E+00 -0.3323945E+00  0.1004525E+00  0.2414112E+00
5235185. -0.7532389E-01 -0.7460595E+00 -0.1036951E+00 -0.3352552E+00  0.9905349E-01  0.2472133E+00
5198704. -0.7104797E-01 -0.7473979E+00 -0.1017679E+00 -0.3378266E+00  0.9762157E-01  0.2529059E+00
5162222. -0.6676540E-01 -0.7483430E+00 -0.9982685E-01 -0.3400798E+00  0.9615730E-01  0.2585059E+00
5125741. -0.6247858E-01 -0.7489227E+00 -0.9787372E-01 -0.3420589E+00  0.9466127E-01  0.2640071E+00
5089259. -0.5818934E-01 -0.7491495E+00 -0.9590999E-01 -0.3437610E+00  0.9313396E-01  0.2694182E+00
5052778. -0.5389991E-01 -0.7490321E+00 -0.9393740E-01 -0.3451765E+00  0.9157594E-01  0.2747488E+00
5016296. -0.4961196E-01 -0.7485941E+00 -0.9195738E-01 -0.3463369E+00  0.8998759E-01  0.2799994E+00
4979815. -0.4532753E-01 -0.7478468E+00 -0.8997153E-01 -0.3472322E+00  0.8836942E-01  0.2851792E+00
4943333. -0.4104810E-01 -0.7468063E+00 -0.8798125E-01 -0.3478719E+00  0.8672173E-01  0.2902949E+00
4906852. -0.3677553E-01 -0.7454916E+00 -0.8598803E-01 -0.3482777E+00  0.8504498E-01  0.2953496E+00
4870370. -0.3251116E-01 -0.7439072E+00 -0.8399314E-01 -0.3484296E+00  0.8333938E-01  0.3003554E+00
4833889. -0.2825669E-01 -0.7420761E+00 -0.8199812E-01 -0.3483541E+00  0.8160529E-01  0.3053160E+00
4797407. -0.2401325E-01 -0.7400153E+00 -0.8000408E-01 -0.3480622E+00  0.7984286E-01  0.3102387E+00
4760926. -0.1978237E-01 -0.7377300E+00 -0.7801244E-01 -0.3475357E+00  0.7805237E-01  0.3151345E+00
4724444. -0.1556505E-01 -0.7352445E+00 -0.7602435E-01 -0.3468069E+00  0.7623386E-01  0.3200090E+00
4687963. -0.1136261E-01 -0.7325700E+00 -0.7404107E-01 -0.3458737E+00  0.7438754E-01  0.3248716E+00
4651482. -0.7176015E-02 -0.7297156E+00 -0.7206374E-01 -0.3447329E+00  0.7251337E-01  0.3297323E+00
4615000. -0.3006092E-02 -0.7267081E+00 -0.7009341E-01 -0.3434105E+00  0.7061131E-01  0.3345999E+00
4578518.  0.1146175E-02 -0.7235500E+00 -0.6813119E-01 -0.3418966E+00  0.6868133E-01  0.3394848E+00
4542037.  0.5279861E-02 -0.7202615E+00 -0.6617823E-01 -0.3402029E+00  0.6672335E-01  0.3443978E+00
4505556.  0.9394396E-02 -0.7168615E+00 -0.6423543E-01 -0.3383467E+00  0.6473713E-01  0.3493504E+00
4469074.  0.1348926E-01 -0.7133536E+00 -0.6230371E-01 -0.3363133E+00  0.6272236E-01  0.3543535E+00
4432593.  0.1756368E-01 -0.7097617E+00 -0.6038414E-01 -0.3341265E+00  0.6067883E-01  0.3594210E+00
4396111.  0.2161743E-01 -0.7061007E+00 -0.5847745E-01 -0.3317933E+00  0.5860600E-01  0.3645662E+00
4359630.  0.2564994E-01 -0.7023787E+00 -0.5658462E-01 -0.3293045E+00  0.5650351E-01  0.3698008E+00
4323148.  0.2966112E-01 -0.6986190E+00 -0.5470638E-01 -0.3266853E+00  0.5437070E-01  0.3751432E+00
4286667.  0.3365058E-01 -0.6948311E+00 -0.5284356E-01 -0.3239341E+00  0.5220700E-01  0.3806070E+00
4250185.  0.3761842E-01 -0.6910297E+00 -0.5099682E-01 -0.3210536E+00  0.5001158E-01  0.3862083E+00
4213704.  0.4156440E-01 -0.6872381E+00 -0.4916694E-01 -0.3180631E+00  0.4778370E-01  0.3919680E+00
4177222.  0.4548882E-01 -0.6834626E+00 -0.4735447E-01 -0.3149574E+00  0.4552229E-01  0.3979011E+00
4140741.  0.4939160E-01 -0.6797222E+00 -0.4556014E-01 -0.3117481E+00  0.4322642E-01  0.4040296E+00
4104259.  0.5327323E-01 -0.6760386E+00 -0.4378438E-01 -0.3084496E+00  0.4089478E-01  0.4103779E+00
4067778.  0.5713382E-01 -0.6724135E+00 -0.4202785E-01 -0.3050531E+00  0.3852618E-01  0.4169605E+00
4031296.  0.6097400E-01 -0.6688758E+00 -0.4029095E-01 -0.3015792E+00  0.3611908E-01  0.4238100E+00
3994815.  0.6479412E-01 -0.6654425E+00 -0.3857419E-01 -0.2980357E+00  0.3367200E-01  0.4309516E+00
3958333.  0.6859497E-01 -0.6621160E+00 -0.3687789E-01 -0.2944179E+00  0.3118308E-01  0.4384045E+00
3921852.  0.7237707E-01 -0.6589303E+00 -0.3520251E-01 -0.2907473E+00  0.2865056E-01  0.4462090E+00
3885370.  0.7614145E-01 -0.6558924E+00 -0.3354824E-01 -0.2870254E+00  0.2607221E-01  0.4543919E+00
3848889.  0.7988878E-01 -0.6530176E+00 -0.3191547E-01 -0.2832583E+00  0.2344592E-01  0.4629837E+00
3812407.  0.8362030E-01 -0.6503344E+00 -0.3030432E-01 -0.2794615E+00  0.2076908E-01  0.4720311E+00
3775926.  0.8733691E-01 -0.6478459E+00 -0.2871504E-01 -0.2756360E+00  0.1803913E-01  0.4815611E+00
3739444.  0.9103998E-01 -0.6455762E+00 -0.2714767E-01 -0.2717938E+00  0.1525305E-01  0.4916220E+00
3702963.  0.9473065E-01 -0.6435531E+00 -0.2560236E-01 -0.2679479E+00  0.1240778E-01  0.5022659E+00
3666482.  0.9841044E-01 -0.6417748E+00 -0.2407908E-01 -0.2641006E+00  0.9499830E-02  0.5135244E+00
3630000.  0.1020809E+00 -0.6402782E+00 -0.2257776E-01 -0.2602669E+00  0.6525404E-02  0.5254667E+00
3630000.  0.1020809E+00 -0.6402782E+00 -0.2257776E-01 -0.2602669E+00  0.6525404E-02  0.5254667E+00
3592500.  0.1058458E+00 -0.6390354E+00 -0.2105737E-01 -0.2563479E+00  0.3394517E-02  0.5385003E+00
3555000.  0.1096042E+00 -0.6381167E+00 -0.1955995E-01 -0.2524631E+00  0.1844909E-03  0.5523704E+00
3517500.  0.1133583E+00 -0.6375573E+00 -0.1808525E-01 -0.2486265E+00 -0.3109856E-02  0.5671644E+00
3480000.  0.1171102E+00 -0.6373671E+00 -0.1663297E-01 -0.2448500E+00 -0.6494160E-02  0.5829485E+00
3480000.  0.1171102E+00  0.1682333E+00  0.4753577E-01  0.1267022E+00 -0.6494160E-02  0.2094970E+00
3409422.  0.1151149E+00  0.1915523E+00  0.4612188E-01  0.1284808E+00 -0.8632997E-02  0.1771059E+00
3338844.  0.1128757E+00  0.2122972E+00  0.4469072E-01  0.1298335E+00 -0.1042809E-01  0.1474153E+00
3268266.  0.1104199E+00  0.2306939E+00  0.4324672E-01  0.1308002E+00 -0.1190858E-01  0.1202825E+00
3197688.  0.1077724E+00  0.2469441E+00  0.4179406E-01  0.1314002E+00 -0.1310202E-01  0.9557203E-01
3127109.  0.1049558E+00  0.2612345E+00  0.4033665E-01  0.1316586E+00 -0.1403455E-01  0.7315294E-01
3056531.  0.1019910E+00  0.2737330E+00  0.3887818E-01  0.1315995E+00 -0.1473081E-01  0.5289990E-01
2985953.  0.9889701E-01  0.2845946E+00  0.3742204E-01  0.1312393E+00 -0.1521414E-01  0.3468992E-01
2915375.  0.9569105E-01  0.2939649E+00  0.3597151E-01  0.1305883E+00 -0.1550651E-01  0.1840603E-01
2844797.  0.9238892E-01  0.3019804E+00  0.3452975E-01  0.1296599E+00 -0.1562864E-01  0.3935338E-02
2774219.  0.8900488E-01  0.3087726E+00  0.3309975E-01  0.1284646E+00 -0.1559999E-01 -0.8831842E-02
2703641.  0.8555179E-01  0.3144695E+00  0.3168446E-01  0.1270035E+00 -0.1543886E-01 -0.2000145E-01
2633062.  0.8204101E-01  0.3192002E+00  0.3028682E-01  0.1252782E+00 -0.1516236E-01 -0.2967469E-01
2562484.  0.7848261E-01  0.3230971E+00  0.2890974E-01  0.1232917E+00 -0.1478654E-01 -0.3795040E-01
2491906.  0.7488503E-01  0.3262998E+00  0.2755617E-01  0.1210329E+00 -0.1432634E-01 -0.4492491E-01
2421328.  0.7125510E-01  0.3289633E+00  0.2622920E-01  0.1184859E+00 -0.1379565E-01 -0.5068966E-01
2350750.  0.6759787E-01  0.3312611E+00  0.2493211E-01  0.1156353E+00 -0.1320740E-01 -0.5533366E-01
2280172.  0.6391628E-01  0.3333962E+00  0.2366841E-01  0.1124502E+00 -0.1257349E-01 -0.5894413E-01
2209594.  0.6021084E-01  0.3356139E+00  0.2244205E-01  0.1088879E+00 -0.1190494E-01 -0.6160459E-01
2139016.  0.5647900E-01  0.3382174E+00  0.2125750E-01  0.1048891E+00 -0.1121179E-01 -0.6339649E-01
2068438.  0.5271445E-01  0.3415922E+00  0.2012003E-01  0.1003740E+00 -0.1050324E-01 -0.6439820E-01
1997859.  0.4890595E-01  0.3462380E+00  0.1903590E-01  0.9523343E-01 -0.9787602E-02 -0.6468726E-01
1927281.  0.4503603E-01  0.3528163E+00  0.1801290E-01  0.8931203E-01 -0.9072372E-02 -0.6433892E-01
1856703.  0.4107855E-01  0.3622206E+00  0.1706075E-01  0.8239852E-01 -0.8364188E-02 -0.6342726E-01
1786125.  0.3699577E-01  0.3756753E+00  0.1619202E-01  0.7419676E-01 -0.7668883E-02 -0.6202640E-01
1715547.  0.3273390E-01  0.3948893E+00  0.1542315E-01  0.6428420E-01 -0.6991460E-02 -0.6021116E-01
1644969.  0.2821650E-01  0.4222876E+00  0.1477624E-01  0.5206017E-01 -0.6336091E-02 -0.5805818E-01
1574391.  0.2333475E-01  0.4613664E+00  0.1428141E-01  0.3665213E-01 -0.5706067E-02 -0.5564953E-01
1503812.  0.1793259E-01  0.5172607E+00  0.1398060E-01  0.1677212E-01 -0.5103724E-02 -0.5307525E-01
1433234.  0.1178428E-01  0.5976462E+00  0.1393331E-01 -0.9507169E-02 -0.4530351E-02 -0.5043991E-01
1362656.  0.4558214E-02  0.7142379E+00  0.1422556E-01 -0.4513318E-01 -0.3985934E-02 -0.4787130E-01
1292078. -0.4240226E-02  0.8852987E+00  0.1498443E-01 -0.9469890E-01 -0.3468859E-02 -0.4553591E-01
1221500. -0.1536308E-01  0.1139987E+01  0.1640174E-01 -0.1655443E+00 -0.2975341E-02 -0.4366416E-01
1221500. -0.1536308E-01  0.9833675E-02 -0.1578372E-02  0.7189715E-01 -0.2975341E-02 -0.3700881E-01
1183328. -0.1536347E-01 -0.9442743E-02 -0.1973517E-02  0.6012312E-01 -0.2756343E-02 -0.3607081E-01
1145156. -0.1525304E-01 -0.2715955E-01 -0.2300266E-02  0.4906778E-01 -0.2543361E-02 -0.3500340E-01
1106984. -0.1504111E-01 -0.4332690E-01 -0.2562949E-02  0.3873833E-01 -0.2337126E-02 -0.3382072E-01
1068812. -0.1473692E-01 -0.5795872E-01 -0.2765928E-02  0.2913905E-01 -0.2138289E-02 -0.3253616E-01
1030641. -0.1434962E-01 -0.7107265E-01 -0.2913581E-02  0.2027151E-01 -0.1947425E-02 -0.3116338E-01
 992469. -0.1388824E-01 -0.8269121E-01 -0.3010295E-02  0.1213377E-01 -0.1765012E-02 -0.2971551E-01
 954297. -0.1336166E-01 -0.9283912E-01 -0.3060429E-02  0.4722055E-02 -0.1591467E-02 -0.2820525E-01
 916125. -0.1277861E-01 -0.1015454E+00 -0.3068315E-02 -0.1970047E-02 -0.1427126E-02 -0.2664546E-01
 877953. -0.1214764E-01 -0.1088423E+00 -0.3038237E-02 -0.7952401E-02 -0.1272248E-02 -0.2504821E-01
 839781. -0.1147708E-01 -0.1147649E+00 -0.2974416E-02 -0.1323581E-01 -0.1127023E-02 -0.2342540E-01
 801609. -0.1077505E-01 -0.1193518E+00 -0.2880996E-02 -0.1783506E-01 -0.9915677E-03 -0.2178868E-01
 763438. -0.1004947E-01 -0.1226440E+00 -0.2762035E-02 -0.2176525E-01 -0.8659364E-03 -0.2014917E-01
 725266. -0.9307907E-02 -0.1246860E+00 -0.2621480E-02 -0.2504568E-01 -0.7501066E-03 -0.1851758E-01
 687094. -0.8557742E-02 -0.1255239E+00 -0.2463169E-02 -0.2769571E-01 -0.6440022E-03 -0.1690446E-01
 648922. -0.7806042E-02 -0.1252070E+00 -0.2290813E-02 -0.2973761E-01 -0.5474832E-03 -0.1531956E-01
 610750. -0.7059571E-02 -0.1237869E+00 -0.2107986E-02 -0.3119542E-01 -0.4603514E-03 -0.1377250E-01
 572578. -0.6324781E-02 -0.1213173E+00 -0.1918110E-02 -0.3209475E-01 -0.3823528E-03 -0.1227233E-01
 534406. -0.5607794E-02 -0.1178539E+00 -0.1724452E-02 -0.3246275E-01 -0.3131806E-03 -0.1082759E-01
 496234. -0.4914392E-02 -0.1134542E+00 -0.1530109E-02 -0.3232810E-01 -0.2524783E-03 -0.9446350E-02
 458062. -0.4250008E-02 -0.1081778E+00 -0.1338004E-02 -0.3172097E-01 -0.1998423E-03 -0.8136263E-02
 419891. -0.3619729E-02 -0.1020860E+00 -0.1150879E-02 -0.3067272E-01 -0.1548259E-03 -0.6904407E-02
 381719. -0.3028221E-02 -0.9524100E-01 -0.9712702E-03 -0.2921600E-01 -0.1169383E-03 -0.5757309E-02
 343547. -0.2479822E-02 -0.8770698E-01 -0.8015305E-03 -0.2738403E-01 -0.8565439E-04 -0.4701005E-02
 305375. -0.1978464E-02 -0.7954957E-01 -0.6438029E-03 -0.2521221E-01 -0.6041349E-04 -0.3741001E-02
 267203. -0.1527685E-02 -0.7083496E-01 -0.5000191E-03 -0.2273549E-01 -0.4062356E-04 -0.2882218E-02
 229031. -0.1130620E-02 -0.6163089E-01 -0.3718963E-03 -0.1999073E-01 -0.2566478E-04 -0.2129027E-02
 190859. -0.7899982E-03 -0.5200543E-01 -0.2609303E-03 -0.1701465E-01 -0.1489276E-04 -0.1485244E-02
 152688. -0.5081440E-03 -0.4202826E-01 -0.1683968E-03 -0.1384508E-01 -0.7642177E-05 -0.9541067E-03
 114516. -0.2869422E-03 -0.3176862E-01 -0.9533605E-04 -0.1052018E-01 -0.3229605E-05 -0.5382336E-03
  76344. -0.1278823E-03 -0.2129679E-01 -0.4256599E-04 -0.7078405E-02 -0.9580951E-06 -0.2397059E-03
  38172. -0.3202397E-04 -0.1068356E-01 -0.1067070E-04 -0.3558545E-02 -0.1198501E-06 -0.5999890E-04
      0.  0.0000000E+00  0.0000000E+00  0.0000000E+00  0.0000000E+00  0.0000000E+00  0.0000000E+00
