       0        9 S        8        633.64862          6.64990          6.21805        333.02951      185    7
6371000.  0.2543580E+00 -0.1047625E+01 -0.2391712E-01 -0.2782751E+00 -0.2236096E-01 -0.2560500E+00
6370000.  0.2545219E+00 -0.1041192E+01 -0.2387338E-01 -0.2790631E+00 -0.2232083E-01 -0.2553365E+00
6369000.  0.2546848E+00 -0.1034747E+01 -0.2382951E-01 -0.2798481E+00 -0.2228081E-01 -0.2546223E+00
6368000.  0.2548467E+00 -0.1028290E+01 -0.2378553E-01 -0.2806300E+00 -0.2224090E-01 -0.2539074E+00
6368000.  0.2548467E+00 -0.1028290E+01 -0.2378553E-01 -0.2806300E+00 -0.2224090E-01 -0.2539074E+00
6367000.  0.2550076E+00 -0.1021821E+01 -0.2374142E-01 -0.2814090E+00 -0.2220110E-01 -0.2531918E+00
6366000.  0.2551675E+00 -0.1015341E+01 -0.2369718E-01 -0.2821849E+00 -0.2216142E-01 -0.2524756E+00
6365000.  0.2553264E+00 -0.1008849E+01 -0.2365283E-01 -0.2829577E+00 -0.2212184E-01 -0.2517585E+00
6364000.  0.2554842E+00 -0.1002345E+01 -0.2360836E-01 -0.2837275E+00 -0.2208238E-01 -0.2510408E+00
6363000.  0.2556410E+00 -0.9958304E+00 -0.2356376E-01 -0.2844943E+00 -0.2204304E-01 -0.2503224E+00
6362000.  0.2557968E+00 -0.9893038E+00 -0.2351905E-01 -0.2852580E+00 -0.2200380E-01 -0.2496033E+00
6361000.  0.2559516E+00 -0.9827658E+00 -0.2347421E-01 -0.2860186E+00 -0.2196468E-01 -0.2488835E+00
6360000.  0.2561053E+00 -0.9762163E+00 -0.2342926E-01 -0.2867761E+00 -0.2192567E-01 -0.2481629E+00
6359000.  0.2562580E+00 -0.9696555E+00 -0.2338419E-01 -0.2875306E+00 -0.2188678E-01 -0.2474416E+00
6358000.  0.2564097E+00 -0.9630832E+00 -0.2333900E-01 -0.2882820E+00 -0.2184799E-01 -0.2467197E+00
6357000.  0.2565604E+00 -0.9564996E+00 -0.2329369E-01 -0.2890303E+00 -0.2180933E-01 -0.2459970E+00
6356000.  0.2567100E+00 -0.9499049E+00 -0.2324827E-01 -0.2897754E+00 -0.2177077E-01 -0.2452736E+00
6356000.  0.2567100E+00 -0.8490837E+00 -0.2324827E-01 -0.2861458E+00 -0.2177077E-01 -0.3011307E+00
6355000.  0.2568429E+00 -0.8442219E+00 -0.2320333E-01 -0.2863755E+00 -0.2172357E-01 -0.3003344E+00
6354000.  0.2569750E+00 -0.8393553E+00 -0.2315837E-01 -0.2866035E+00 -0.2167649E-01 -0.2995379E+00
6353000.  0.2571064E+00 -0.8344840E+00 -0.2311336E-01 -0.2868297E+00 -0.2162953E-01 -0.2987413E+00
6352000.  0.2572370E+00 -0.8296079E+00 -0.2306833E-01 -0.2870543E+00 -0.2158271E-01 -0.2979445E+00
6351000.  0.2573668E+00 -0.8247271E+00 -0.2302325E-01 -0.2872770E+00 -0.2153600E-01 -0.2971476E+00
6350000.  0.2574959E+00 -0.8198417E+00 -0.2297814E-01 -0.2874981E+00 -0.2148943E-01 -0.2963505E+00
6349000.  0.2576241E+00 -0.8149515E+00 -0.2293300E-01 -0.2877174E+00 -0.2144297E-01 -0.2955532E+00
6348000.  0.2577517E+00 -0.8100567E+00 -0.2288782E-01 -0.2879350E+00 -0.2139664E-01 -0.2947558E+00
6347000.  0.2578785E+00 -0.8051573E+00 -0.2284261E-01 -0.2881508E+00 -0.2135044E-01 -0.2939583E+00
6346600.  0.2579289E+00 -0.8031963E+00 -0.2282451E-01 -0.2882366E+00 -0.2133200E-01 -0.2936392E+00
6346600.  0.2579289E+00 -0.9798523E+00 -0.2282451E-01 -0.2861563E+00 -0.2133200E-01 -0.3835753E+00
6318800.  0.2619758E+00 -0.8745485E+00 -0.2158166E-01 -0.2833922E+00 -0.1970773E-01 -0.3609462E+00
6291000.  0.2655573E+00 -0.7666304E+00 -0.2035231E-01 -0.2799613E+00 -0.1818165E-01 -0.3385600E+00
6291000.  0.2655573E+00 -0.8038273E+00 -0.2035231E-01 -0.2795118E+00 -0.1818165E-01 -0.3385600E+00
6263000.  0.2688400E+00 -0.6896009E+00 -0.1913119E-01 -0.2760516E+00 -0.1674204E-01 -0.3165886E+00
6235000.  0.2716151E+00 -0.5729648E+00 -0.1792706E-01 -0.2717761E+00 -0.1539873E-01 -0.2947291E+00
6207000.  0.2738731E+00 -0.4542491E+00 -0.1674356E-01 -0.2666602E+00 -0.1415134E-01 -0.2729272E+00
6179000.  0.2756053E+00 -0.3338012E+00 -0.1558443E-01 -0.2606815E+00 -0.1299974E-01 -0.2511280E+00
6151000.  0.2768051E+00 -0.2120023E+00 -0.1445350E-01 -0.2538203E+00 -0.1194403E-01 -0.2292812E+00
6151000.  0.2768051E+00 -0.3215800E+00 -0.1445350E-01 -0.2598773E+00 -0.1194403E-01 -0.2445956E+00
6128500.  0.2778134E+00 -0.2497959E+00 -0.1354726E-01 -0.2532631E+00 -0.1110424E-01 -0.2310143E+00
6106000.  0.2785712E+00 -0.1797290E+00 -0.1266516E-01 -0.2462061E+00 -0.1031214E-01 -0.2175824E+00
6083500.  0.2790848E+00 -0.1115064E+00 -0.1180874E-01 -0.2387281E+00 -0.9567240E-02 -0.2042881E+00
6061000.  0.2793608E+00 -0.4524490E-01 -0.1097944E-01 -0.2308511E+00 -0.8869051E-02 -0.1911251E+00
6038500.  0.2794065E+00  0.1894788E-01 -0.1017862E-01 -0.2225961E+00 -0.8217135E-02 -0.1780804E+00
6016000.  0.2792293E+00  0.8095738E-01 -0.9407604E-02 -0.2139835E+00 -0.7611101E-02 -0.1651404E+00
5993500.  0.2788372E+00  0.1406778E+00 -0.8667601E-02 -0.2050336E+00 -0.7050592E-02 -0.1522971E+00
5971000.  0.2782383E+00  0.1980152E+00 -0.7959776E-02 -0.1957652E+00 -0.6535295E-02 -0.1395339E+00
5971000.  0.2782383E+00  0.1354704E+00 -0.7959776E-02 -0.2078401E+00 -0.6535295E-02 -0.1759576E+00
5937667.  0.2773576E+00  0.2001430E+00 -0.6898542E-02 -0.1978110E+00 -0.5651324E-02 -0.1620337E+00
5904333.  0.2761550E+00  0.2586073E+00 -0.5889950E-02 -0.1877267E+00 -0.4838889E-02 -0.1486057E+00
5871000.  0.2746620E+00  0.3111576E+00 -0.4934031E-02 -0.1777062E+00 -0.4095398E-02 -0.1356904E+00
5837667.  0.2729089E+00  0.3581055E+00 -0.4030148E-02 -0.1678498E+00 -0.3418108E-02 -0.1233014E+00
5804333.  0.2709240E+00  0.3997754E+00 -0.3177196E-02 -0.1582411E+00 -0.2804231E-02 -0.1114440E+00
5771000.  0.2687343E+00  0.4364806E+00 -0.2373731E-02 -0.1489526E+00 -0.2250996E-02 -0.1001288E+00
5771000.  0.2687343E+00  0.4364480E+00 -0.2373731E-02 -0.1489575E+00 -0.2250996E-02 -0.1001288E+00
5701000.  0.2633106E+00  0.5468551E+00 -0.9023050E-03 -0.1188528E+00 -0.1352810E-02 -0.6356749E-01
5701000.  0.2633106E+00  0.4211090E+00 -0.9023050E-03 -0.1563642E+00 -0.1352810E-02 -0.1377853E+00
5667333.  0.2610334E+00  0.4446648E+00 -0.7685997E-04 -0.1543257E+00 -0.6671768E-03 -0.1223419E+00
5633667.  0.2585717E+00  0.4884225E+00  0.7116929E-03 -0.1434175E+00 -0.5356471E-04 -0.1102171E+00
5600000.  0.2558818E+00  0.5286607E+00  0.1441083E-02 -0.1328547E+00  0.4984509E-03 -0.9878200E-01
5600000.  0.2558818E+00  0.5286607E+00  0.1441083E-02 -0.1328547E+00  0.4984509E-03 -0.9878200E-01
5563518.  0.2527388E+00  0.5684203E+00  0.2170041E-02 -0.1218149E+00  0.1030520E-02 -0.8717949E-01
5527037.  0.2493793E+00  0.6043776E+00  0.2836931E-02 -0.1111829E+00  0.1498277E-02 -0.7631796E-01
5490556.  0.2458245E+00  0.6365997E+00  0.3444126E-02 -0.1009682E+00  0.1905886E-02 -0.6616978E-01
5454074.  0.2420958E+00  0.6651241E+00  0.3994086E-02 -0.9118607E-01  0.2257427E-02 -0.5672339E-01
5417593.  0.2382139E+00  0.6901661E+00  0.4489208E-02 -0.8181819E-01  0.2556694E-02 -0.4790677E-01
5381111.  0.2341984E+00  0.7117665E+00  0.4931912E-02 -0.7287598E-01  0.2807254E-02 -0.3970691E-01
5344630.  0.2300690E+00  0.7300440E+00  0.5324623E-02 -0.6435758E-01  0.3012544E-02 -0.3208782E-01
5308148.  0.2258438E+00  0.7451667E+00  0.5669729E-02 -0.5624637E-01  0.3175740E-02 -0.2499915E-01
5271667.  0.2215411E+00  0.7571595E+00  0.5969595E-02 -0.4855973E-01  0.3299852E-02 -0.1843460E-01
5235185.  0.2171782E+00  0.7661994E+00  0.6226622E-02 -0.4127711E-01  0.3387766E-02 -0.1234550E-01
5198704.  0.2127718E+00  0.7724164E+00  0.6443060E-02 -0.3438728E-01  0.3442062E-02 -0.6692553E-02
5162222.  0.2083377E+00  0.7758266E+00  0.6621234E-02 -0.2790948E-01  0.3465263E-02 -0.1479382E-02
5125741.  0.2038917E+00  0.7766441E+00  0.6763407E-02 -0.2180987E-01  0.3459718E-02  0.3356365E-02
5089259.  0.1994482E+00  0.7749457E+00  0.6871728E-02 -0.1608753E-01  0.3427509E-02  0.7833678E-02
5052778.  0.1950215E+00  0.7708022E+00  0.6948382E-02 -0.1074717E-01  0.3370671E-02  0.1196500E-01
5016296.  0.1906251E+00  0.7643830E+00  0.6995481E-02 -0.5761453E-02  0.3291045E-02  0.1579768E-01
4979815.  0.1862719E+00  0.7557469E+00  0.7015054E-02 -0.1134757E-02  0.3190300E-02  0.1934370E-01
4943333.  0.1819741E+00  0.7450065E+00  0.7009142E-02  0.3144023E-02  0.3070015E-02  0.2262851E-01
4906852.  0.1777436E+00  0.7322968E+00  0.6979667E-02  0.7095417E-02  0.2931570E-02  0.2569007E-01
4870370.  0.1735914E+00  0.7176525E+00  0.6928538E-02  0.1070698E-01  0.2776234E-02  0.2852926E-01
4833889.  0.1695283E+00  0.7012210E+00  0.6857647E-02  0.1400322E-01  0.2605190E-02  0.3118549E-01
4797407.  0.1655640E+00  0.6830984E+00  0.6768743E-02  0.1699626E-01  0.2419382E-02  0.3368470E-01
4760926.  0.1617084E+00  0.6633250E+00  0.6663612E-02  0.1967346E-01  0.2219726E-02  0.3602816E-01
4724444.  0.1579703E+00  0.6420483E+00  0.6543978E-02  0.2206390E-01  0.2006987E-02  0.3825803E-01
4687963.  0.1543583E+00  0.6193340E+00  0.6411477E-02  0.2416706E-01  0.1781770E-02  0.4038884E-01
4651482.  0.1508803E+00  0.5952523E+00  0.6267770E-02  0.2598066E-01  0.1544616E-02  0.4243257E-01
4615000.  0.1475437E+00  0.5699242E+00  0.6114441E-02  0.2752705E-01  0.1295909E-02  0.4442566E-01
4578518.  0.1443556E+00  0.5434036E+00  0.5953049E-02  0.2879585E-01  0.1035915E-02  0.4637574E-01
4542037.  0.1413226E+00  0.5157877E+00  0.5785178E-02  0.2979457E-01  0.7648388E-03  0.4830506E-01
4505556.  0.1384506E+00  0.4871771E+00  0.5612324E-02  0.3053463E-01  0.4826906E-03  0.5024461E-01
4469074.  0.1357451E+00  0.4576232E+00  0.5436022E-02  0.3099640E-01  0.1894058E-03  0.5219456E-01
4432593.  0.1332114E+00  0.4272495E+00  0.5257844E-02  0.3119409E-01 -0.1151513E-03  0.5419084E-01
4396111.  0.1308536E+00  0.3961438E+00  0.5079284E-02  0.3112415E-01 -0.4313365E-03  0.5625347E-01
4359630.  0.1286759E+00  0.3643870E+00  0.4901958E-02  0.3076443E-01 -0.7595166E-03  0.5838763E-01
4323148.  0.1266815E+00  0.3321131E+00  0.4727489E-02  0.3012439E-01 -0.1100231E-02  0.6063338E-01
4286667.  0.1248732E+00  0.2994271E+00  0.4557540E-02  0.2918276E-01 -0.1454145E-02  0.6300202E-01
4250185.  0.1232529E+00  0.2664564E+00  0.4393896E-02  0.2791921E-01 -0.1822021E-02  0.6551203E-01
4213704.  0.1218219E+00  0.2333608E+00  0.4238422E-02  0.2632679E-01 -0.2204751E-02  0.6819759E-01
4177222.  0.1205804E+00  0.2002928E+00  0.4093097E-02  0.2436663E-01 -0.2603396E-02  0.7106902E-01
4140741.  0.1195277E+00  0.1674522E+00  0.3960117E-02  0.2201335E-01 -0.3019070E-02  0.7415631E-01
4104259.  0.1186619E+00  0.1350579E+00  0.3841792E-02  0.1923798E-01 -0.3453137E-02  0.7749104E-01
4067778.  0.1179797E+00  0.1033639E+00  0.3740730E-02  0.1597649E-01 -0.3907007E-02  0.8108097E-01
4031296.  0.1174762E+00  0.7267584E-01  0.3659819E-02  0.1219244E-01 -0.4382280E-02  0.8496984E-01
3994815.  0.1171448E+00  0.4334356E-01  0.3602212E-02  0.7822692E-02 -0.4880738E-02  0.8918524E-01
3958333.  0.1169764E+00  0.1578961E-01  0.3571529E-02  0.2775852E-02 -0.5404304E-02  0.9374032E-01
3921852.  0.1169596E+00 -0.9495165E-02  0.3571838E-02 -0.3016483E-02 -0.5955035E-02  0.9868558E-01
3885370.  0.1170797E+00 -0.3192518E-01  0.3607715E-02 -0.9668023E-02 -0.6535277E-02  0.1040451E+00
3848889.  0.1173185E+00 -0.5079573E-01  0.3684438E-02 -0.1730343E-01 -0.7147439E-02  0.1098478E+00
3812407.  0.1176532E+00 -0.6529386E-01  0.3808004E-02 -0.2605407E-01 -0.7794244E-02  0.1161448E+00
3775926.  0.1180560E+00 -0.7441656E-01  0.3985295E-02 -0.3610119E-01 -0.8478549E-02  0.1229567E+00
3739444.  0.1184929E+00 -0.7699680E-01  0.4224285E-02 -0.4763523E-01 -0.9203462E-02  0.1303310E+00
3702963.  0.1189227E+00 -0.7165052E-01  0.4534087E-02 -0.6087961E-01 -0.9972321E-02  0.1383179E+00
3666482.  0.1192951E+00 -0.5667748E-01  0.4925302E-02 -0.7611973E-01 -0.1078871E-01  0.1469381E+00
3630000.  0.1195497E+00 -0.3011439E-01  0.5410225E-02 -0.9366080E-01 -0.1165645E-01  0.1562558E+00
3630000.  0.1195497E+00 -0.3011439E-01  0.5410225E-02 -0.9366080E-01 -0.1165645E-01  0.1562558E+00
3592500.  0.1196116E+00  0.1179899E-01  0.6021321E-02 -0.1144907E+00 -0.1260620E-01  0.1665908E+00
3555000.  0.1193758E+00  0.7158959E-01  0.6764505E-02 -0.1386280E+00 -0.1361917E-01  0.1777449E+00
3517500.  0.1187267E+00  0.1529323E+00  0.7660837E-02 -0.1666300E+00 -0.1470037E-01  0.1897839E+00
3480000.  0.1175245E+00  0.2603121E+00  0.8734980E-02 -0.1991661E+00 -0.1585513E-01  0.2027429E+00
3480000.  0.1175245E+00  0.1526042E+01  0.1405561E-01  0.1892341E+00 -0.1585513E-01 -0.1720296E+00
3409422.  0.1015538E+00  0.1359276E+01  0.1208387E-01  0.1670759E+00 -0.1399755E-01 -0.1629146E+00
3338844.  0.8736334E-01  0.1204686E+01  0.1034656E-01  0.1468984E+00 -0.1225309E-01 -0.1517619E+00
3268266.  0.7481713E-01  0.1062436E+01  0.8822172E-02  0.1286192E+00 -0.1063957E-01 -0.1393958E+00
3197688.  0.6377877E-01  0.9324253E+00  0.7490225E-02  0.1121389E+00 -0.9166710E-02 -0.1264618E+00
3127109.  0.5411405E-01  0.8143544E+00  0.6331355E-02  0.9735094E-01 -0.7837911E-02 -0.1134557E+00
3056531.  0.4569335E-01  0.7077730E+00  0.5327458E-02  0.8414450E-01 -0.6651843E-02 -0.1007498E+00
2985953.  0.3839227E-01  0.6121159E+00  0.4461632E-02  0.7240468E-01 -0.5603579E-02 -0.8861431E-01
2915375.  0.3209330E-01  0.5267447E+00  0.3718268E-02  0.6201642E-01 -0.4685703E-02 -0.7723487E-01
2844797.  0.2668626E-01  0.4509719E+00  0.3083020E-02  0.5286714E-01 -0.3889127E-02 -0.6672981E-01
2774219.  0.2206875E-01  0.3840846E+00  0.2542773E-02  0.4484718E-01 -0.3203763E-02 -0.5716389E-01
2703641.  0.1814633E-01  0.3253614E+00  0.2085607E-02  0.3785056E-01 -0.2619047E-02 -0.4855977E-01
2633062.  0.1483248E-01  0.2740875E+00  0.1700744E-02  0.3177660E-01 -0.2124347E-02 -0.4090753E-01
2562484.  0.1204866E-01  0.2295674E+00  0.1378502E-02  0.2653061E-01 -0.1709297E-02 -0.3417397E-01
2491906.  0.9723730E-02  0.1911289E+00  0.1110205E-02  0.2202308E-01 -0.1363981E-02 -0.2830850E-01
2421328.  0.7793903E-02  0.1581340E+00  0.8881387E-03  0.1817089E-01 -0.1079117E-02 -0.2324893E-01
2350750.  0.6202237E-02  0.1299808E+00  0.7054741E-03  0.1489739E-01 -0.8461555E-03 -0.1892627E-01
2280172.  0.4898245E-02  0.1061076E+00  0.5561966E-03  0.1213194E-01 -0.6573313E-03 -0.1526833E-01
2209594.  0.3837435E-02  0.8599428E-01  0.4350414E-03  0.9810024E-02 -0.5056842E-03 -0.1220237E-01
2139016.  0.2980841E-02  0.6916283E-01  0.3374246E-03  0.7873091E-02 -0.3850520E-03 -0.9657367E-02
2068438.  0.2294557E-02  0.5517767E-01  0.2593792E-03  0.6268316E-02 -0.2900424E-03 -0.7565574E-02
1997859.  0.1749267E-02  0.4364430E-01  0.1974920E-03  0.4948292E-02 -0.2159888E-03 -0.5863690E-02
1927281.  0.1319823E-02  0.3420890E-01  0.1488490E-03  0.3870744E-02 -0.1589008E-03 -0.4493593E-02
1856703.  0.9847574E-03  0.2655575E-01  0.1109753E-03  0.2998166E-02 -0.1153986E-03 -0.3402635E-02
1786125.  0.7259055E-03  0.2040602E-01  0.8178731E-04  0.2297491E-02 -0.8265509E-04 -0.2543910E-02
1715547.  0.5279939E-03  0.1551594E-01  0.5954504E-04  0.1739663E-02 -0.5833116E-04 -0.1876161E-02
1644969.  0.3782625E-03  0.1167538E-01  0.4281018E-04  0.1299228E-02 -0.4051451E-04 -0.1363572E-02
1574391.  0.2660965E-03  0.8707247E-02  0.3040888E-04  0.9537729E-03 -0.2766069E-04 -0.9754806E-03
1503812.  0.1826531E-03  0.6468992E-02  0.2140193E-04  0.6831873E-03 -0.1853814E-04 -0.6859677E-03
1433234.  0.1204565E-03  0.4858553E-02  0.1506545E-04  0.4685220E-03 -0.1217837E-04 -0.4734581E-03
1362656.  0.7286984E-04  0.3829796E-02  0.1088792E-04  0.2898318E-03 -0.7829596E-05 -0.3202622E-03
1292078.  0.3329885E-04  0.3430898E-02  0.8602811E-05  0.1218170E-03 -0.4916325E-05 -0.2122109E-03
1221500. -0.6293158E-05  0.3897181E-02  0.8294760E-05 -0.7602429E-04 -0.3001814E-05 -0.1383992E-03
1221500. -0.6293158E-05 -0.9628980E-05 -0.2597525E-07  0.3268786E-04 -0.3001814E-05 -0.1356729E-03
1183328. -0.6045936E-05 -0.6800286E-04 -0.1758105E-06  0.1818557E-04 -0.2279014E-05 -0.1065973E-03
1145156. -0.5528531E-05 -0.1011500E-03 -0.2528867E-06  0.8195033E-05 -0.1713484E-05 -0.8301813E-04
1106984. -0.4869841E-05 -0.1162184E-03 -0.2807855E-06  0.1604148E-05 -0.1274998E-05 -0.6405203E-04
1068812. -0.4160688E-05 -0.1188141E-03 -0.2771040E-06 -0.2478703E-05 -0.9382788E-06 -0.4892804E-04
1030641. -0.3462300E-05 -0.1132563E-03 -0.2546721E-06 -0.4758658E-05 -0.6823623E-06 -0.3697888E-04
 992469. -0.2813258E-05 -0.1028008E-03 -0.2225748E-06 -0.5784787E-05 -0.4899780E-06 -0.2763014E-04
 954297. -0.2235379E-05 -0.8983789E-04 -0.1870101E-06 -0.5976575E-05 -0.3470571E-06 -0.2039279E-04
 916125. -0.1738299E-05 -0.7606269E-04 -0.1519898E-06 -0.5647751E-05 -0.2422240E-06 -0.1485314E-04
 877953. -0.1323210E-05 -0.6262182E-04 -0.1199099E-06 -0.5027023E-05 -0.1663771E-06 -0.1066438E-04
 839781. -0.9857595E-06 -0.5023745E-04 -0.9200818E-07 -0.4275120E-05 -0.1123124E-06 -0.7538672E-05
 801609. -0.7182753E-06 -0.3931235E-04 -0.6872291E-07 -0.3500405E-05 -0.7439305E-07 -0.5239453E-05
 763438. -0.5114151E-06 -0.3001558E-04 -0.4997018E-07 -0.2770920E-05 -0.4826416E-07 -0.3574487E-05
 725266. -0.3553296E-06 -0.2235230E-04 -0.3535020E-07 -0.2125143E-05 -0.3060451E-07 -0.2389250E-05
 687094. -0.2405011E-06 -0.1622045E-04 -0.2430166E-07 -0.1580247E-05 -0.1892178E-07 -0.1561334E-05
 648922. -0.1582290E-06 -0.1145371E-04 -0.1620622E-07 -0.1138946E-05 -0.1137404E-07 -0.9949795E-06
 610750. -0.1009178E-06 -0.7854251E-05 -0.1045922E-07 -0.7947069E-06 -0.6624898E-08 -0.6164755E-06
 572578. -0.6218974E-07 -0.5216753E-05 -0.6512616E-08 -0.5357411E-06 -0.3723969E-08 -0.3700384E-06
 534406. -0.3687706E-07 -0.3344815E-05 -0.3897217E-08 -0.3479191E-06 -0.2010405E-08 -0.2142546E-06
 496234. -0.2093466E-07 -0.2061403E-05 -0.2230244E-08 -0.2168033E-06 -0.1036167E-08 -0.1190341E-06
 458062. -0.1130497E-07 -0.1214528E-05 -0.1212907E-08 -0.1289634E-06 -0.5061060E-09 -0.6304109E-07
 419891. -0.5760264E-08 -0.6793217E-06 -0.6218727E-09 -0.7273399E-07 -0.2321065E-09 -0.3156485E-07
 381719. -0.2740311E-08 -0.3574358E-06 -0.2974582E-09 -0.3854651E-07 -0.9875317E-10 -0.1478346E-07
 343547. -0.1200363E-08 -0.1747944E-06 -0.1309171E-09 -0.1896779E-07 -0.3837025E-10 -0.6386500E-08
 305375. -0.4751169E-09 -0.7814526E-07 -0.5202722E-10 -0.8525729E-08 -0.1332738E-10 -0.2497023E-08
 267203. -0.1655219E-09 -0.3121039E-07 -0.1818471E-10 -0.3418675E-08 -0.4016221E-11 -0.8603034E-09
 229031.  0.0000000E+00  0.0000000E+00  0.0000000E+00  0.0000000E+00  0.0000000E+00  0.0000000E+00
 190859.  0.0000000E+00  0.0000000E+00  0.0000000E+00  0.0000000E+00  0.0000000E+00  0.0000000E+00
 152688.  0.0000000E+00  0.0000000E+00  0.0000000E+00  0.0000000E+00  0.0000000E+00  0.0000000E+00
 114516.  0.0000000E+00  0.0000000E+00  0.0000000E+00  0.0000000E+00  0.0000000E+00  0.0000000E+00
  76344.  0.0000000E+00  0.0000000E+00  0.0000000E+00  0.0000000E+00  0.0000000E+00  0.0000000E+00
  38172.  0.0000000E+00  0.0000000E+00  0.0000000E+00  0.0000000E+00  0.0000000E+00  0.0000000E+00
      0.  0.0000000E+00  0.0000000E+00  0.0000000E+00  0.0000000E+00  0.0000000E+00  0.0000000E+00
