      10        9 S      511        168.36110         25.02776          9.23310        322.99869      185    7
6371000. -0.1570556E-01 -0.2639679E+00 -0.7809167E-02  0.7896394E-02  0.5020731E-03  0.2459628E-01
6370000. -0.1566380E-01 -0.2681271E+00 -0.7809893E-02  0.1359840E-02  0.4982029E-03  0.2471698E-01
6369000. -0.1562139E-01 -0.2722124E+00 -0.7809594E-02 -0.5180326E-02  0.4943140E-03  0.2483661E-01
6368000. -0.1557835E-01 -0.2762235E+00 -0.7808268E-02 -0.1172323E-01  0.4904062E-03  0.2495517E-01
6368000. -0.1557835E-01 -0.2762235E+00 -0.7808268E-02 -0.1172323E-01  0.4904062E-03  0.2495517E-01
6367000. -0.1553468E-01 -0.2801600E+00 -0.7805914E-02 -0.1826800E-01  0.4864800E-03  0.2507265E-01
6366000. -0.1549041E-01 -0.2840219E+00 -0.7802533E-02 -0.2481377E-01  0.4825354E-03  0.2518906E-01
6365000. -0.1544553E-01 -0.2878090E+00 -0.7798124E-02 -0.3135966E-01  0.4785726E-03  0.2530437E-01
6364000. -0.1540006E-01 -0.2915210E+00 -0.7792688E-02 -0.3790480E-01  0.4745919E-03  0.2541859E-01
6363000. -0.1535402E-01 -0.2951577E+00 -0.7786225E-02 -0.4444832E-01  0.4705932E-03  0.2553172E-01
6362000. -0.1530741E-01 -0.2987191E+00 -0.7778735E-02 -0.5098933E-01  0.4665769E-03  0.2564374E-01
6361000. -0.1526025E-01 -0.3022049E+00 -0.7770218E-02 -0.5752698E-01  0.4625431E-03  0.2575466E-01
6360000. -0.1521254E-01 -0.3056150E+00 -0.7760677E-02 -0.6406038E-01  0.4584920E-03  0.2586447E-01
6359000. -0.1516431E-01 -0.3089494E+00 -0.7750109E-02 -0.7058866E-01  0.4544238E-03  0.2597316E-01
6358000. -0.1511556E-01 -0.3122077E+00 -0.7738518E-02 -0.7711095E-01  0.4503385E-03  0.2608073E-01
6357000. -0.1506631E-01 -0.3153901E+00 -0.7725902E-02 -0.8362637E-01  0.4462365E-03  0.2618717E-01
6356000. -0.1501656E-01 -0.3184963E+00 -0.7712265E-02 -0.9013407E-01  0.4421179E-03  0.2629249E-01
6356000. -0.1501656E-01 -0.2661137E+00 -0.7712265E-02 -0.5150224E-01  0.4421179E-03  0.2955992E-01
6355000. -0.1497460E-01 -0.2685071E+00 -0.7703844E-02 -0.5579793E-01  0.4374675E-03  0.2969441E-01
6354000. -0.1493227E-01 -0.2708525E+00 -0.7694749E-02 -0.6009088E-01  0.4327962E-03  0.2982803E-01
6353000. -0.1488957E-01 -0.2731497E+00 -0.7684980E-02 -0.6438070E-01  0.4281039E-03  0.2996077E-01
6352000. -0.1484652E-01 -0.2753986E+00 -0.7674539E-02 -0.6866701E-01  0.4233908E-03  0.3009263E-01
6351000. -0.1480312E-01 -0.2775993E+00 -0.7663425E-02 -0.7294943E-01  0.4186572E-03  0.3022361E-01
6350000. -0.1475938E-01 -0.2797516E+00 -0.7651639E-02 -0.7722759E-01  0.4139030E-03  0.3035370E-01
6349000. -0.1471531E-01 -0.2818555E+00 -0.7639181E-02 -0.8150109E-01  0.4091285E-03  0.3048290E-01
6348000. -0.1467090E-01 -0.2839110E+00 -0.7626054E-02 -0.8576956E-01  0.4043338E-03  0.3061120E-01
6347000. -0.1462618E-01 -0.2859180E+00 -0.7612257E-02 -0.9003261E-01  0.3995190E-03  0.3073860E-01
6346600. -0.1460821E-01 -0.2867072E+00 -0.7606550E-02 -0.9173624E-01  0.3975875E-03  0.3078931E-01
6346600. -0.1460821E-01 -0.3001960E+00 -0.7606550E-02 -0.5965165E-01  0.3975875E-03  0.3588298E-01
6318800. -0.1322524E-01 -0.3287942E+00 -0.7150568E-02 -0.1485750E+00  0.2328066E-03  0.3954528E-01
6291000. -0.1178128E-01 -0.3282527E+00 -0.6320033E-02 -0.2305647E+00  0.5337209E-04  0.4259067E-01
6291000. -0.1178128E-01 -0.3372647E+00 -0.6320033E-02 -0.2392664E+00  0.5337209E-04  0.4259067E-01
6263000. -0.1035798E-01 -0.3057992E+00 -0.5101141E-02 -0.3129885E+00 -0.1391106E-03  0.4488574E-01
6235000. -0.9131094E-02 -0.2486534E+00 -0.3593107E-02 -0.3702291E+00 -0.3401178E-03  0.4646582E-01
6207000. -0.8202040E-02 -0.1713073E+00 -0.1875789E-02 -0.4077798E+00 -0.5464624E-03  0.4731261E-01
6179000. -0.7644827E-02 -0.8069317E-01 -0.4079872E-04 -0.4235228E+00 -0.7549030E-03  0.4741935E-01
6151000. -0.7500538E-02  0.1520960E-01  0.1813549E-02 -0.4165400E+00 -0.9621902E-03  0.4678893E-01
6151000. -0.7500538E-02  0.2686805E-01  0.1813549E-02 -0.3644648E+00 -0.9621902E-03  0.4720391E-01
6128500. -0.7711119E-02  0.9166919E-01  0.3065131E-02 -0.3425432E+00 -0.1127515E-02  0.4635105E-01
6106000. -0.8141030E-02  0.1505781E+00  0.4221051E-02 -0.3104649E+00 -0.1289089E-02  0.4508206E-01
6083500. -0.8764292E-02  0.2007196E+00  0.5247454E-02 -0.2694158E+00 -0.1445465E-02  0.4340920E-01
6061000. -0.9545378E-02  0.2395739E+00  0.6115119E-02 -0.2208264E+00 -0.1595243E-02  0.4134839E-01
6038500. -0.1044061E-01  0.2650563E+00  0.6800243E-02 -0.1663253E+00 -0.1737085E-02  0.3891867E-01
6016000. -0.1139981E-01  0.2755818E+00  0.7285035E-02 -0.1076789E+00 -0.1869727E-02  0.3614223E-01
5993500. -0.1236814E-01  0.2701046E+00  0.7558098E-02 -0.4673252E-01 -0.1991988E-02  0.3304449E-01
5971000. -0.1328809E-01  0.2481456E+00  0.7614611E-02  0.1464617E-01 -0.2102782E-02  0.2965320E-01
5971000. -0.1328809E-01  0.2487429E+00  0.7614611E-02  0.1548969E-01 -0.2102782E-02  0.3139272E-01
5937667. -0.1445013E-01  0.1906336E+00  0.7321790E-02  0.9468197E-01 -0.2252575E-02  0.2577829E-01
5904333. -0.1523724E-01  0.1063287E+00  0.6645139E-02  0.1617038E+00 -0.2371708E-02  0.1969286E-01
5871000. -0.1552770E-01  0.1889172E-02  0.5655158E-02  0.2141715E+00 -0.2458057E-02  0.1327018E-01
5837667. -0.1523380E-01 -0.1158836E+00  0.4431559E-02  0.2509032E+00 -0.2510213E-02  0.6644625E-02
5804333. -0.1430414E-01 -0.2399534E+00  0.3057395E-02  0.2717668E+00 -0.2527462E-02 -0.5259831E-04
5771000. -0.1272394E-01 -0.3634641E+00  0.1614189E-02  0.2774970E+00 -0.2509759E-02 -0.6695662E-02
5771000. -0.1272394E-01 -0.3634602E+00  0.1614189E-02  0.2774885E+00 -0.2509759E-02 -0.6695662E-02
5701000. -0.7208051E-02 -0.6349438E+00 -0.1413437E-02  0.2639353E+00 -0.2357695E-02 -0.2085564E-01
5701000. -0.7208051E-02 -0.5308079E+00 -0.1413437E-02  0.2098642E+00 -0.2357695E-02 -0.1882395E-01
5667333. -0.4250131E-02 -0.5901102E+00 -0.2430771E-02  0.1770804E+00 -0.2244182E-02 -0.2400870E-01
5633667. -0.9508845E-03 -0.6582897E+00 -0.3299340E-02  0.1515916E+00 -0.2104862E-02 -0.2867340E-01
5600000.  0.2673296E-02 -0.7098988E+00 -0.4021770E-02  0.1209189E+00 -0.1941632E-02 -0.3304793E-01
5600000.  0.2673296E-02 -0.7098988E+00 -0.4021770E-02  0.1209189E+00 -0.1941632E-02 -0.3304793E-01
5563518.  0.6847769E-02 -0.7442027E+00 -0.4608390E-02  0.8335831E-01 -0.1739769E-02 -0.3738296E-01
5527037.  0.1114935E-01 -0.7540595E+00 -0.4971149E-02  0.4303596E-01 -0.1514388E-02 -0.4125803E-01
5490556.  0.1543436E-01 -0.7383032E+00 -0.5099448E-02  0.1770128E-02 -0.1268217E-02 -0.4463938E-01
5454074.  0.1955527E-01 -0.6967730E+00 -0.4993064E-02 -0.3863604E-01 -0.1004149E-02 -0.4750333E-01
5417593.  0.2336656E-01 -0.6304336E+00 -0.4661902E-02 -0.7646808E-01 -0.7252171E-03 -0.4983126E-01
5381111.  0.2673122E-01 -0.5411276E+00 -0.4125204E-02 -0.1101774E+00 -0.4344955E-03 -0.5161841E-01
5344630.  0.2952511E-01 -0.4316445E+00 -0.3410550E-02 -0.1384286E+00 -0.1350958E-03 -0.5286550E-01
5308148.  0.3164275E-01 -0.3055536E+00 -0.2552327E-02 -0.1601603E+00  0.1699205E-03 -0.5357954E-01
5271667.  0.3300064E-01 -0.1670413E+00 -0.1590306E-02 -0.1745867E+00  0.4775357E-03 -0.5377955E-01
5235185.  0.3354093E-01 -0.2078811E-01 -0.5677143E-03 -0.1812600E+00  0.7848782E-03 -0.5348463E-01
5198704.  0.3323340E-01  0.1282395E+00  0.4704827E-03 -0.1800489E+00  0.1089163E-02 -0.5272001E-01
5162222.  0.3207671E-01  0.2749523E+00  0.1479512E-02 -0.1711188E+00  0.1387820E-02 -0.5152143E-01
5125741.  0.3009852E-01  0.4143685E+00  0.2416403E-02 -0.1549679E+00  0.1678430E-02 -0.4991737E-01
5089259.  0.2735421E-01  0.5417574E+00  0.3241882E-02 -0.1323406E+00  0.1958788E-02 -0.4794480E-01
5052778.  0.2392548E-01  0.6527805E+00  0.3921510E-02 -0.1042155E+00  0.2226884E-02 -0.4564296E-01
5016296.  0.1991668E-01  0.7437621E+00  0.4427138E-02 -0.7176913E-01  0.2480945E-02 -0.4304641E-01
4979815.  0.1545187E-01  0.8116490E+00  0.4737677E-02 -0.3630656E-01  0.2719379E-02 -0.4019382E-01
4943333.  0.1066980E-01  0.8542414E+00  0.4839829E-02  0.7802071E-03  0.2940840E-02 -0.3712134E-01
4906852.  0.5719673E-02  0.8702434E+00  0.4728364E-02  0.3806773E-01  0.3144151E-02 -0.3386269E-01
4870370.  0.7553015E-03  0.8591733E+00  0.4406156E-02  0.7415530E-01  0.3328357E-02 -0.3045162E-01
4833889. -0.4069148E-02  0.8215894E+00  0.3883945E-02  0.1077163E+00  0.3492663E-02 -0.2691886E-01
4797407. -0.8605781E-02  0.7588955E+00  0.3179675E-02  0.1375474E+00  0.3636463E-02 -0.2329239E-01
4760926. -0.1271639E-01  0.6732725E+00  0.2317870E-02  0.1625861E+00  0.3759286E-02 -0.1959767E-01
4724444. -0.1627830E-01  0.5677720E+00  0.1328451E-02  0.1819864E+00  0.3860819E-02 -0.1585940E-01
4687963. -0.1918762E-01  0.4460127E+00  0.2457126E-03  0.1950995E+00  0.3940870E-02 -0.1209815E-01
4651482. -0.2136294E-01  0.3121346E+00 -0.8930514E-03  0.2015074E+00  0.3999360E-02 -0.8331863E-02
4615000. -0.2274784E-01  0.1706991E+00 -0.2048910E-02  0.2010505E+00  0.4036317E-02 -0.4579420E-02
4578518. -0.2331248E-01  0.2644347E-01 -0.3182569E-02  0.1937830E+00  0.4051858E-02 -0.8541403E-03
4542037. -0.2305456E-01 -0.1157943E+00 -0.4255741E-02  0.1800043E+00  0.4046177E-02  0.2829873E-02
4505556. -0.2199932E-01 -0.2512780E+00 -0.5232560E-02  0.1602285E+00  0.4019556E-02  0.6458700E-02
4469074. -0.2019834E-01 -0.3755285E+00 -0.6080579E-02  0.1351399E+00  0.3972329E-02  0.1002433E-01
4432593. -0.1772806E-01 -0.4844185E+00 -0.6771748E-02  0.1056090E+00  0.3904900E-02  0.1351358E-01
4396111. -0.1468687E-01 -0.5743573E+00 -0.7283441E-02  0.7261939E-01  0.3817731E-02  0.1691677E-01
4359630. -0.1119234E-01 -0.6423508E+00 -0.7598864E-02  0.3724740E-01  0.3711341E-02  0.2022599E-01
4323148. -0.7376792E-02 -0.6861291E+00 -0.7707631E-02  0.6290753E-03  0.3586296E-02  0.2343022E-01
4286667. -0.3383810E-02 -0.7041744E+00 -0.7605888E-02 -0.3608663E-01  0.3443227E-02  0.2652088E-01
4250185.  0.6370582E-03 -0.6957830E+00 -0.7296321E-02 -0.7177197E-01  0.3282801E-02  0.2948934E-01
4213704.  0.4534197E-02 -0.6610842E+00 -0.6787946E-02 -0.1053573E+00  0.3105755E-02  0.3232643E-01
4177222.  0.8159420E-02 -0.6009925E+00 -0.6095626E-02 -0.1358576E+00  0.2912854E-02  0.3502337E-01
4140741.  0.1137166E-01 -0.5172182E+00 -0.5239611E-02 -0.1624074E+00  0.2704937E-02  0.3757203E-01
4104259.  0.1404207E-01 -0.4121752E+00 -0.4244589E-02 -0.1842906E+00  0.2482862E-02  0.3996517E-01
4067778.  0.1605718E-01 -0.2889140E+00 -0.3139084E-02 -0.2009255E+00  0.2247558E-02  0.4219341E-01
4031296.  0.1732282E-01 -0.1510245E+00 -0.1954267E-02 -0.2119330E+00  0.1999970E-02  0.4425243E-01
3994815.  0.1776648E-01 -0.2524811E-02 -0.7231105E-03 -0.2170987E+00  0.1741096E-02  0.4613652E-01
3958333.  0.1733970E-01  0.1522595E+00  0.5207605E-03 -0.2163716E+00  0.1471945E-02  0.4783890E-01
3921852.  0.1601935E-01  0.3088344E+00  0.1743909E-02 -0.2099119E+00  0.1193575E-02  0.4935941E-01
3885370.  0.1380808E-01  0.4626595E+00  0.2914359E-02 -0.1980158E+00  0.9070158E-03  0.5069553E-01
3848889.  0.1073467E-01  0.6092586E+00  0.4002143E-02 -0.1811395E+00  0.6133445E-03  0.5184685E-01
3812407.  0.6852511E-02  0.7444212E+00  0.4980475E-02 -0.1598857E+00  0.3135919E-03  0.5281731E-01
3775926.  0.2238788E-02  0.8641933E+00  0.5826171E-02 -0.1349462E+00  0.8801908E-05  0.5360990E-01
3739444. -0.3008460E-02  0.9651189E+00  0.6520410E-02 -0.1071192E+00 -0.3000410E-03  0.5423127E-01
3702963. -0.8772416E-02  0.1044273E+01  0.7049075E-02 -0.7726575E-01 -0.6119629E-03  0.5468995E-01
3666482. -0.1492141E-01  0.1099267E+01  0.7403080E-02 -0.4626486E-01 -0.9260733E-03  0.5499765E-01
3630000. -0.2131227E-01  0.1128480E+01  0.7578467E-02 -0.1502710E-01 -0.1241547E-02  0.5516505E-01
3630000. -0.2131227E-01  0.1128480E+01  0.7578467E-02 -0.1502710E-01 -0.1241547E-02  0.5516505E-01
3592500. -0.2797470E-01  0.1130584E+01  0.7573853E-02  0.1640286E-01 -0.1566440E-02  0.5520911E-01
3555000. -0.3456545E-01  0.1104156E+01  0.7388521E-02  0.4622978E-01 -0.1891254E-02  0.5514070E-01
3517500. -0.4091796E-01  0.1049799E+01  0.7034457E-02  0.7360169E-01 -0.2215369E-02  0.5497510E-01
3480000. -0.4687143E-01  0.9688538E+00  0.6528385E-02  0.9776156E-01 -0.2538285E-02  0.5473735E-01
3480000. -0.4687143E-01  0.5795565E+00 -0.1480000E-02 -0.8307578E-01 -0.2538285E-02  0.2042051E+00
3409422. -0.5160172E-01  0.2752685E+00 -0.4857264E-03 -0.9551325E-01 -0.5153423E-02  0.2635376E+00
3338844. -0.5302916E-01 -0.1325504E-01  0.6155256E-03 -0.1023676E+00 -0.8280670E-02  0.2967795E+00
3268266. -0.5143372E-01 -0.2679371E+00  0.1761917E-02 -0.1037050E+00 -0.1163797E-01  0.3054504E+00
3197688. -0.4726412E-01 -0.4763920E+00  0.2894339E-02 -0.9993942E-01 -0.1496801E-01  0.2924285E+00
3127109. -0.4107547E-01 -0.6317186E+00  0.3959839E-02 -0.9175148E-01 -0.1805103E-01  0.2615410E+00
3056531. -0.3347170E-01 -0.7319292E+00  0.4914042E-02 -0.8000289E-01 -0.2071291E-01  0.2171582E+00
2985953. -0.2505492E-01 -0.7791412E+00  0.5722782E-02 -0.6565459E-01 -0.2282932E-01  0.1638142E+00
2915375. -0.1638555E-01 -0.7786232E+00  0.6362734E-02 -0.4969319E-01 -0.2432551E-01  0.1058862E+00
2844797. -0.7952560E-02 -0.7378426E+00  0.6821335E-02 -0.3306547E-01 -0.2517313E-01  0.4733961E-01
2774219. -0.1544114E-03 -0.6655240E+00  0.7096056E-02 -0.1662911E-01 -0.2538462E-01 -0.8454488E-02
2703641.  0.6710259E-02 -0.5708438E+00  0.7193207E-02 -0.1118298E-02 -0.2500591E-01 -0.5882971E-01
2633062.  0.1244384E-01 -0.4627443E+00  0.7126429E-02  0.1288206E-01 -0.2410835E-01 -0.1018703E+00
2562484.  0.1694365E-01 -0.3493907E+00  0.6914960E-02  0.2494640E-01 -0.2278039E-01 -0.1363969E+00
2491906.  0.2019165E-01 -0.2378043E+00  0.6581882E-02  0.3480442E-01 -0.2111968E-01 -0.1619129E+00
2421328.  0.2224001E-01 -0.1336327E+00  0.6152447E-02  0.4233375E-01 -0.1922603E-01 -0.1785121E+00
2350750.  0.2319546E-01 -0.4106797E-01  0.5652505E-02  0.4754572E-01 -0.1719542E-01 -0.1867680E+00
2280172.  0.2320304E-01  0.3715399E-01  0.5107150E-02  0.5055996E-01 -0.1511538E-01 -0.1876144E+00
2209594.  0.2243056E-01  0.9963195E-01  0.4539660E-02  0.5158243E-01 -0.1306168E-01 -0.1822225E+00
2139016.  0.2105470E-01  0.1461331E+00  0.3970661E-02  0.5088039E-01 -0.1109631E-01 -0.1718885E+00
2068438.  0.1924927E-01  0.1773747E+00  0.3417596E-02  0.4875897E-01 -0.9266678E-02 -0.1579334E+00
1997859.  0.1717581E-01  0.1948062E+00  0.2894407E-02  0.4553852E-01 -0.7605796E-02 -0.1416214E+00
1927281.  0.1497700E-01  0.2003631E+00  0.2411526E-02  0.4153465E-01 -0.6133344E-02 -0.1240969E+00
1856703.  0.1277221E-01  0.1962677E+00  0.1975959E-02  0.3704367E-01 -0.4857135E-02 -0.1063405E+00
1786125.  0.1065560E-01  0.1848277E+00  0.1591604E-02  0.3232970E-01 -0.3775163E-02 -0.8914587E-01
1715547.  0.8695970E-02  0.1682900E+00  0.1259655E-02  0.2761590E-01 -0.2877709E-02 -0.7311158E-01
1644969.  0.6938114E-02  0.1487253E+00  0.9790834E-03  0.2307989E-01 -0.2149481E-02 -0.5864781E-01
1574391.  0.5405217E-02  0.1279580E+00  0.7471585E-03  0.1885047E-01 -0.1571605E-02 -0.4599418E-01
1503812.  0.4101708E-02  0.1075480E+00  0.5600016E-03  0.1500593E-01 -0.1123379E-02 -0.3524537E-01
1433234.  0.3016083E-02  0.8883488E-01  0.4131609E-03  0.1157188E-01 -0.7837224E-03 -0.2638398E-01
1362656.  0.2122605E-02  0.7307285E-01  0.3022216E-03  0.8512444E-02 -0.5321828E-03 -0.1931764E-01
1292078.  0.1380820E-02  0.6174123E-01  0.2236031E-03  0.5707335E-02 -0.3495376E-03 -0.1392686E-01
1221500.  0.7297609E-03  0.5722943E-01  0.1757785E-03  0.2890665E-02 -0.2177376E-03 -0.1013388E-01
1221500.  0.7297609E-03 -0.8641210E-01 -0.1730042E-03 -0.4708569E-02 -0.2177376E-03 -0.1045001E-01
1183328.  0.1227560E-02 -0.7885221E-01 -0.1399232E-03 -0.6233823E-02 -0.1625397E-03 -0.8065399E-02
1145156.  0.1664898E-02 -0.6641743E-01 -0.9959436E-04 -0.7115437E-02 -0.1201110E-03 -0.6171242E-02
1106984.  0.2016299E-02 -0.5040895E-01 -0.5600977E-04 -0.7322750E-02 -0.8779015E-04 -0.4677699E-02
1068812.  0.2264898E-02 -0.3236902E-01 -0.1309404E-04 -0.6906683E-02 -0.6340897E-04 -0.3509482E-02
1030641.  0.2403319E-02 -0.1389391E-01  0.2573497E-04 -0.5982337E-02 -0.4521280E-04 -0.2603726E-02
 992469.  0.2433482E-02  0.3541215E-02  0.5788737E-04 -0.4705833E-02 -0.3178964E-04 -0.1908187E-02
 954297.  0.2365416E-02  0.1871933E-01  0.8176672E-04 -0.3249617E-02 -0.2201355E-04 -0.1379811E-02
 916125.  0.2215423E-02  0.3077762E-01  0.9680100E-04 -0.1779276E-02 -0.1499276E-04 -0.9831229E-03
 877953.  0.2003793E-02  0.3924935E-01  0.1033412E-03 -0.4347507E-03 -0.1002783E-04 -0.6892277E-03
 839781.  0.1752434E-02  0.4405649E-01  0.1024689E-03  0.6815526E-03 -0.6575616E-05 -0.4746639E-03
 801609.  0.1482672E-02  0.4546034E-01  0.9574970E-04  0.1510750E-02 -0.4219487E-05 -0.3205450E-03
 763438.  0.1213452E-02  0.4398101E-01  0.8497496E-04  0.2035857E-02 -0.2644090E-05 -0.2118447E-03
 725266.  0.9600468E-03  0.4030135E-01  0.7192404E-04  0.2276190E-02 -0.1614157E-05 -0.1367100E-03
 687094.  0.7334180E-03  0.3516769E-01  0.5817776E-04  0.2277168E-02 -0.9574510E-06 -0.8591935E-04
 648922.  0.5400838E-03  0.2930168E-01  0.4499304E-04  0.2099571E-02 -0.5501329E-06 -0.5244614E-04
 610750.  0.3824933E-03  0.2333018E-01  0.3324412E-04  0.1808639E-02 -0.3051059E-06 -0.3098834E-04
 572578.  0.2597429E-03  0.1774005E-01  0.2342415E-04  0.1465037E-02 -0.1626605E-06 -0.1765512E-04
 534406.  0.1684864E-03  0.1285851E-01  0.1569312E-04  0.1118511E-02 -0.8295687E-07 -0.9656336E-05
 496234.  0.1038922E-03  0.8856507E-02  0.9954820E-05  0.8045193E-03 -0.4023525E-07 -0.5043394E-05
 458062.  0.6052226E-04  0.5770206E-02  0.5945346E-05  0.5436888E-03 -0.1842620E-07 -0.2498795E-05
 419891.  0.3304601E-04  0.3533884E-02  0.3317996E-05  0.3434867E-03 -0.7897403E-08 -0.1165299E-05
 381719.  0.1673720E-04  0.2017095E-02  0.1713011E-05  0.2013264E-03 -0.3131726E-08 -0.5062126E-06
 343547.  0.7755960E-05  0.1060641E-02  0.8071841E-06  0.1082852E-03 -0.1132190E-08 -0.2021968E-06
 305375.  0.3227210E-05  0.5055891E-03  0.3407675E-06  0.5262148E-04 -0.3656947E-09 -0.7294764E-07
 267203.  0.1174308E-05  0.2135444E-03  0.1255494E-06  0.2259045E-04 -0.1026007E-09 -0.2318686E-07
 229031.  0.3594542E-06  0.7726623E-04  0.3883737E-07  0.8285882E-05 -0.2397877E-10 -0.6261618E-08
 190859.  0.8714267E-07  0.2272314E-04  0.9497949E-08  0.2464182E-05 -0.4371017E-11 -0.1355654E-08
 152688.  0.1512373E-07  0.4972634E-05  0.1660006E-08  0.5440844E-06 -0.5562369E-12 -0.2134155E-09
 114516.  0.1554270E-08  0.6859499E-06  0.1715221E-09  0.7556641E-07 -0.4002827E-13 -0.2028891E-10
  76344.  0.6178574E-10  0.4109534E-07  0.6844430E-11  0.4548935E-08 -0.1011145E-14 -0.7632952E-12
  38172.  0.2440513E-12  0.3255571E-09  0.2709636E-13  0.3613890E-10 -0.1946386E-17 -0.2929456E-14
      0.  0.0000000E+00  0.0000000E+00  0.0000000E+00  0.0000000E+00  0.0000000E+00  0.0000000E+00
