       5       43 S      359        101.75720          9.04343          6.36001        235.94310      185    7
6371000. -0.3357446E-02  0.1421207E+01  0.1908009E-02  0.5265455E-02 -0.9410675E-03  0.4773833E-01
6370000. -0.3580257E-02  0.1417709E+01  0.1906932E-02  0.8459868E-02 -0.9485327E-03  0.4738367E-01
6369000. -0.3802455E-02  0.1413409E+01  0.1905354E-02  0.1165149E-01 -0.9559424E-03  0.4703050E-01
6368000. -0.4023915E-02  0.1408306E+01  0.1903274E-02  0.1483935E-01 -0.9632967E-03  0.4667883E-01
6368000. -0.4023915E-02  0.1408306E+01  0.1903274E-02  0.1483935E-01 -0.9632967E-03  0.4667883E-01
6367000. -0.4244512E-02  0.1402403E+01  0.1900695E-02  0.1802243E-01 -0.9705960E-03  0.4632870E-01
6366000. -0.4464119E-02  0.1395700E+01  0.1897617E-02  0.2119975E-01 -0.9778404E-03  0.4598014E-01
6365000. -0.4682612E-02  0.1388200E+01  0.1894041E-02  0.2437032E-01 -0.9850303E-03  0.4563317E-01
6364000. -0.4899865E-02  0.1379903E+01  0.1889967E-02  0.2753315E-01 -0.9921658E-03  0.4528783E-01
6363000. -0.5115753E-02  0.1370812E+01  0.1885398E-02  0.3068727E-01 -0.9992472E-03  0.4494415E-01
6362000. -0.5330152E-02  0.1360930E+01  0.1880334E-02  0.3383168E-01 -0.1006275E-02  0.4460216E-01
6361000. -0.5542938E-02  0.1350259E+01  0.1874778E-02  0.3696541E-01 -0.1013249E-02  0.4426188E-01
6360000. -0.5753987E-02  0.1338803E+01  0.1868731E-02  0.4008749E-01 -0.1020170E-02  0.4392334E-01
6359000. -0.5963177E-02  0.1326564E+01  0.1862194E-02  0.4319694E-01 -0.1027038E-02  0.4358659E-01
6358000. -0.6170385E-02  0.1313546E+01  0.1855171E-02  0.4629280E-01 -0.1033853E-02  0.4325165E-01
6357000. -0.6375488E-02  0.1299753E+01  0.1847662E-02  0.4937410E-01 -0.1040615E-02  0.4291855E-01
6356000. -0.6578366E-02  0.1285189E+01  0.1839672E-02  0.5243989E-01 -0.1047326E-02  0.4258732E-01
6356000. -0.6578366E-02  0.1145093E+01  0.1839672E-02  0.3499731E-01 -0.1047326E-02  0.4401870E-01
6355000. -0.6757347E-02  0.1135407E+01  0.1834049E-02  0.3665148E-01 -0.1054200E-02  0.4356792E-01
6354000. -0.6934775E-02  0.1125310E+01  0.1828167E-02  0.3829847E-01 -0.1061003E-02  0.4311918E-01
6353000. -0.7110586E-02  0.1114805E+01  0.1822026E-02  0.3993795E-01 -0.1067736E-02  0.4267248E-01
6352000. -0.7284716E-02  0.1103893E+01  0.1815630E-02  0.4156963E-01 -0.1074399E-02  0.4222785E-01
6351000. -0.7457101E-02  0.1092577E+01  0.1808977E-02  0.4319319E-01 -0.1080992E-02  0.4178528E-01
6350000. -0.7627679E-02  0.1080858E+01  0.1802071E-02  0.4480833E-01 -0.1087516E-02  0.4134478E-01
6349000. -0.7796386E-02  0.1068740E+01  0.1794911E-02  0.4641474E-01 -0.1093971E-02  0.4090638E-01
6348000. -0.7963160E-02  0.1056224E+01  0.1787500E-02  0.4801213E-01 -0.1100358E-02  0.4047007E-01
6347000. -0.8127938E-02  0.1043313E+01  0.1779840E-02  0.4960018E-01 -0.1106676E-02  0.4003588E-01
6346600. -0.8193277E-02  0.1038039E+01  0.1776706E-02  0.5023272E-01 -0.1109184E-02  0.3986279E-01
6346600. -0.8193277E-02  0.1276033E+01  0.1776706E-02  0.3716549E-01 -0.1109184E-02  0.4271967E-01
6318800. -0.1306032E-01  0.9253303E+00  0.1565074E-02  0.5899969E-01 -0.1268365E-02  0.3051073E-01
6291000. -0.1604204E-01  0.4194873E+00  0.1270684E-02  0.7475638E-01 -0.1377614E-02  0.1978856E-01
6291000. -0.1604204E-01  0.4418986E+00  0.1270684E-02  0.7665037E-01 -0.1377614E-02  0.1978856E-01
6263000. -0.1662042E-01 -0.1912533E+00  0.9110837E-03  0.8546863E-01 -0.1443686E-02  0.1046410E-01
6235000. -0.1430844E-01 -0.8599588E+00  0.5333085E-03  0.8485118E-01 -0.1471076E-02  0.2154863E-02
6207000. -0.9130784E-02 -0.1481467E+01  0.1789089E-03  0.7495237E-01 -0.1463876E-02 -0.5299288E-02
6179000. -0.1473687E-02 -0.1975698E+01 -0.1137337E-03  0.5704819E-01 -0.1425598E-02 -0.1199954E-01
6151000.  0.7949022E-02 -0.2275273E+01 -0.3140828E-03  0.3339915E-01 -0.1359452E-02 -0.1798093E-01
6151000.  0.7949022E-02 -0.1885150E+01 -0.3140828E-03  0.2834159E-01 -0.1359452E-02 -0.1842071E-01
6128500.  0.1469387E-01 -0.1914660E+01 -0.3833793E-03  0.1086290E-01 -0.1292087E-02 -0.1963663E-01
6106000.  0.2133196E-01 -0.1825062E+01 -0.3912308E-03 -0.6262134E-02 -0.1221390E-02 -0.2031205E-01
6083500.  0.2745112E-01 -0.1622415E+01 -0.3408746E-03 -0.2192654E-01 -0.1149221E-02 -0.2047539E-01
6061000.  0.3267352E-01 -0.1319952E+01 -0.2392174E-03 -0.3516944E-01 -0.1077337E-02 -0.2015468E-01
6038500.  0.3667916E-01 -0.9369969E+00 -0.9622179E-04 -0.4522856E-01 -0.1007404E-02 -0.1937500E-01
6016000.  0.3922498E-01 -0.4975163E+00  0.7586461E-04 -0.5157686E-01 -0.9410030E-03 -0.1815693E-01
5993500.  0.4015835E-01 -0.2847495E-01  0.2633788E-03 -0.5394141E-01 -0.8796550E-03 -0.1651521E-01
5971000.  0.3942457E-01  0.4419124E+00  0.4521477E-03 -0.5230538E-01 -0.8248449E-03 -0.1445426E-01
5971000.  0.3942457E-01  0.4261641E+00  0.4521477E-03 -0.5112415E-01 -0.8248449E-03 -0.1961527E-01
5937667.  0.3558545E-01  0.1023918E+01  0.7024120E-03 -0.4359801E-01 -0.7281621E-03 -0.1731368E-01
5904333.  0.2893538E-01  0.1493160E+01  0.9003505E-03 -0.3148226E-01 -0.6437452E-03 -0.1496832E-01
5871000.  0.2024374E-01  0.1800794E+01  0.1027637E-02 -0.1694592E-01 -0.5712180E-03 -0.1280058E-01
5837667.  0.1039375E-01  0.1935801E+01  0.1076925E-02 -0.1969010E-02 -0.5092275E-03 -0.1095939E-01
5804333.  0.2753285E-03  0.1905903E+01  0.1050283E-02  0.1185127E-01 -0.4558256E-03 -0.9525032E-02
5771000. -0.9300096E-02  0.1732889E+01  0.9569175E-03  0.2339079E-01 -0.4088069E-03 -0.8519160E-02
5771000. -0.9300096E-02  0.1733005E+01  0.9569175E-03  0.2339039E-01 -0.4088069E-03 -0.8519160E-02
5701000. -0.2509153E-01  0.1069250E+01  0.5959678E-03  0.4046194E-01 -0.3206610E-03 -0.7628524E-02
5701000. -0.2509153E-01  0.9445682E+00  0.5959678E-03  0.3800471E-01 -0.3206610E-03 -0.5561233E-03
5667333. -0.2901471E-01  0.5488622E+00  0.3951325E-03  0.3771752E-01 -0.3120569E-03 -0.2624688E-02
5633667. -0.3095182E-01  0.1861783E+00  0.1994552E-03  0.3616026E-01 -0.2942805E-03 -0.3981943E-02
5600000. -0.3099913E-01 -0.1652197E+00  0.1495815E-04  0.3348885E-01 -0.2708208E-03 -0.4830597E-02
5600000. -0.3099913E-01 -0.1652197E+00  0.1495815E-04  0.3348885E-01 -0.2708208E-03 -0.4830597E-02
5563518. -0.2902624E-01 -0.5177504E+00 -0.1658973E-03  0.2951251E-01 -0.2415410E-03 -0.5335635E-02
5527037. -0.2515210E-01 -0.8272511E+00 -0.3214144E-03  0.2469014E-01 -0.2103004E-03 -0.5533017E-02
5490556. -0.1965505E-01 -0.1083139E+01 -0.4476214E-03  0.1932650E-01 -0.1785949E-03 -0.5509969E-02
5454074. -0.1286353E-01 -0.1278493E+01 -0.5422985E-03  0.1372614E-01 -0.1475025E-03 -0.5327639E-02
5417593. -0.5135166E-02 -0.1410195E+01 -0.6049117E-03  0.8172709E-02 -0.1177913E-03 -0.5034585E-02
5381111.  0.3164934E-02 -0.1478395E+01 -0.6364600E-03  0.2913316E-02 -0.8999246E-04 -0.4664252E-02
5344630.  0.1168043E-01 -0.1486270E+01 -0.6392299E-03 -0.1849010E-02 -0.6447324E-04 -0.4242339E-02
5308148.  0.2008162E-01 -0.1439493E+01 -0.6165258E-03 -0.5963444E-02 -0.4146886E-04 -0.3788799E-02
5271667.  0.2807543E-01 -0.1345414E+01 -0.5723606E-03 -0.9332930E-02 -0.2110830E-04 -0.3321675E-02
5235185.  0.3541591E-01 -0.1212749E+01 -0.5111628E-03 -0.1190756E-01 -0.3432525E-05 -0.2852350E-02
5198704.  0.4190826E-01 -0.1050808E+01 -0.4375180E-03 -0.1368458E-01  0.1157133E-04 -0.2390976E-02
5162222.  0.4741180E-01 -0.8688666E+00 -0.3558894E-03 -0.1470390E-01  0.2399520E-04 -0.1952393E-02
5125741.  0.5183793E-01 -0.6759970E+00 -0.2704563E-03 -0.1502686E-01  0.3397325E-04 -0.1537062E-02
5089259.  0.5514836E-01 -0.4804315E+00 -0.1849539E-03 -0.1474422E-01  0.4165780E-04 -0.1153117E-02
5052778.  0.5734867E-01 -0.2893949E+00 -0.1025544E-03 -0.1396140E-01  0.4725535E-04 -0.8083159E-03
5016296.  0.5848283E-01 -0.1089357E+00 -0.2581970E-04 -0.1278303E-01  0.5098213E-04 -0.4996809E-03
4979815.  0.5862562E-01  0.5617293E-01  0.4330233E-04 -0.1132163E-01  0.5305781E-04 -0.2325256E-03
4943333.  0.5787546E-01  0.2024796E+00  0.1034968E-03 -0.9680063E-02  0.5372506E-04 -0.6798938E-05
4906852.  0.5634701E-01  0.3277450E+00  0.1539905E-03 -0.7948996E-02  0.5320271E-04  0.1827798E-03
4870370.  0.5416437E-01  0.4308608E+00  0.1945302E-03 -0.6215726E-02  0.5171269E-04  0.3311764E-03
4833889.  0.5145516E-01  0.5117512E+00  0.2252923E-03 -0.4543313E-02  0.4947347E-04  0.4460280E-03
4797407.  0.4834474E-01  0.5711393E+00  0.2467762E-03 -0.2983206E-02  0.4665957E-04  0.5315712E-03
4760926.  0.4495282E-01  0.6103852E+00  0.2597585E-03 -0.1579248E-02  0.4344832E-04  0.5854942E-03
4724444.  0.4138922E-01  0.6314149E+00  0.2651970E-03 -0.3507506E-03  0.3999563E-04  0.6171537E-03
4687963.  0.3775232E-01  0.6364038E+00  0.2641394E-03  0.6877479E-03  0.3641909E-04  0.6286870E-03
4651482.  0.3412715E-01  0.6277319E+00  0.2576944E-03  0.1531568E-02  0.3283257E-04  0.6215752E-03
4615000.  0.3058473E-01  0.6078643E+00  0.2469525E-03  0.2190157E-02  0.2932171E-04  0.6029177E-03
4578518.  0.2718251E-01  0.5791543E+00  0.2329491E-03  0.2672688E-02  0.2594927E-04  0.5733127E-03
4542037.  0.2396464E-01  0.5438701E+00  0.2166478E-03  0.2996472E-02  0.2277118E-04  0.5359711E-03
4505556.  0.2096264E-01  0.5040727E+00  0.1988950E-03  0.3182789E-02  0.1981674E-04  0.4953391E-03
4469074.  0.1819706E-01  0.4615531E+00  0.1804270E-03  0.3249504E-02  0.1710757E-04  0.4504742E-03
4432593.  0.1567894E-01  0.4179068E+00  0.1618643E-03  0.3219871E-02  0.1465809E-04  0.4052853E-03
4396111.  0.1341076E-01  0.3744216E+00  0.1436965E-03  0.3114429E-02  0.1246391E-04  0.3611721E-03
4359630.  0.1138868E-01  0.3321281E+00  0.1263095E-03  0.2950348E-02  0.1052148E-04  0.3176035E-03
4323148.  0.9603295E-02  0.2918451E+00  0.1099838E-03  0.2746408E-02  0.8820365E-05  0.2771080E-03
4286667.  0.8041462E-02  0.2541393E+00  0.9490595E-04  0.2516723E-02  0.7342725E-05  0.2394528E-03
4250185.  0.6687170E-02  0.2193930E+00  0.8118770E-04  0.2273392E-02  0.6072752E-05  0.2047002E-03
4213704.  0.5522817E-02  0.1878335E+00  0.6887499E-04  0.2027436E-02  0.4991154E-05  0.1736685E-03
4177222.  0.4529838E-02  0.1595288E+00  0.5796020E-04  0.1786087E-02  0.4078136E-05  0.1457337E-03
4140741.  0.3689674E-02  0.1344560E+00  0.4839955E-04  0.1555508E-02  0.3316130E-05  0.1209816E-03
4104259.  0.2984058E-02  0.1125010E+00  0.4011667E-04  0.1340206E-02  0.2686479E-05  0.9939907E-04
4067778.  0.2395673E-02  0.9348401E-01  0.3301818E-04  0.1142207E-02  0.2173416E-05  0.8019344E-04
4031296.  0.1908242E-02  0.7719734E-01  0.2699919E-04  0.9633123E-03  0.1763589E-05  0.6332005E-04
3994815.  0.1506829E-02  0.6340302E-01  0.2194870E-04  0.8039204E-03  0.1444660E-05  0.4831973E-04
3958333.  0.1177853E-02  0.5185292E-01  0.1775670E-04  0.6633071E-03  0.1208204E-05  0.3442124E-04
3921852.  0.9091624E-03  0.4231026E-01  0.1431763E-04  0.5408082E-03  0.1049109E-05  0.2120384E-04
3885370.  0.6899198E-03  0.3454226E-01  0.1153137E-04  0.4350013E-03  0.9657015E-06  0.7820348E-05
3848889.  0.5105930E-03  0.2833710E-01  0.9306877E-05  0.3443902E-03  0.9617921E-06 -0.6733338E-05
3812407.  0.3627790E-03  0.2350365E-01  0.7560823E-05  0.2676559E-03  0.1047243E-05 -0.2362699E-04
3775926.  0.2391353E-03  0.1986921E-01  0.6217446E-05  0.2036061E-03  0.1240053E-05 -0.4454943E-04
3739444.  0.1332390E-03  0.1727904E-01  0.5205834E-05  0.1517694E-03  0.1569205E-05 -0.7165589E-04
3702963.  0.3954190E-04  0.1558365E-01  0.4454886E-05  0.1128014E-03  0.2077932E-05 -0.1078335E-03
3666482. -0.4661998E-04  0.1461669E-01  0.3884869E-05  0.8921567E-04  0.2828806E-05 -0.1569731E-03
3630000. -0.1288350E-03  0.1416051E-01  0.3393091E-05  0.8680344E-04  0.3910051E-05 -0.2241820E-03
3630000. -0.1288350E-03  0.1416051E-01  0.3393091E-05  0.8680344E-04  0.3910051E-05 -0.2241820E-03
3592500. -0.2113464E-03  0.1386349E-01  0.2810627E-05  0.1183011E-03  0.5493870E-05 -0.3189976E-03
3555000. -0.2911620E-03  0.1310454E-01  0.1890127E-05  0.2065999E-03  0.7733538E-05 -0.4486291E-03
3517500. -0.3624966E-03  0.1072631E-01  0.1900098E-06  0.3919721E-03  0.1086321E-04 -0.6231125E-03
3480000. -0.4102121E-03  0.4612394E-02 -0.3050606E-05  0.7454096E-03  0.1517559E-04 -0.8518363E-03
3480000. -0.4102121E-03 -0.2455478E-01 -0.1184739E-04 -0.7290996E-03  0.1517559E-04  0.4562841E-03
3409422. -0.2083232E-03 -0.1301287E-01 -0.5911398E-05 -0.3781663E-03  0.9892806E-05  0.4496884E-03
3338844. -0.1028010E-03 -0.6686756E-02 -0.2871214E-05 -0.1906591E-03  0.5672148E-05  0.3081835E-03
3268266. -0.4930221E-04 -0.3333733E-02 -0.1357433E-05 -0.9345569E-04  0.2996868E-05  0.1814760E-03
3197688. -0.2297982E-04 -0.1613138E-02 -0.6245422E-06 -0.4453917E-04  0.1489847E-05  0.9753257E-04
3127109. -0.1040796E-04 -0.7576862E-03 -0.2795429E-06 -0.2063515E-04  0.7045123E-06  0.4907116E-04
3056531. -0.4579319E-05 -0.3454333E-03 -0.1216731E-06 -0.9291655E-05  0.3188515E-06  0.2341053E-04
2985953. -0.1956384E-05 -0.1528215E-03 -0.5146936E-07 -0.4064558E-05  0.1386122E-06  0.1066541E-04
2915375. -0.8110969E-06 -0.6558024E-04 -0.2114535E-07 -0.1726350E-05  0.5800065E-07  0.4659117E-05
2844797. -0.3260970E-06 -0.2728250E-04 -0.8430340E-08 -0.7114480E-06  0.2338648E-07  0.1956205E-05
2774219. -0.1270304E-06 -0.1099530E-04 -0.3258655E-08 -0.2842516E-06  0.9090475E-08  0.7904176E-06
2703641. -0.4789910E-07 -0.4289095E-05 -0.1219940E-08 -0.1100004E-06  0.3406205E-08  0.3075049E-06
2633062. -0.1746267E-07 -0.1617752E-05 -0.4418010E-09 -0.4118492E-07  0.1229745E-08  0.1151801E-06
2562484. -0.6147743E-08 -0.5893159E-06 -0.1545752E-09 -0.1490084E-07  0.4274591E-09  0.4151871E-07
2491906. -0.2086960E-08 -0.2070557E-06 -0.5217123E-10 -0.5202366E-08  0.1429033E-09  0.1439100E-07
2421328. -0.6820405E-09 -0.7006047E-07 -0.1695853E-10 -0.1749975E-08  0.4588616E-10  0.4791028E-08
2350750. -0.2142040E-09 -0.2279127E-07 -0.5299335E-11 -0.5661738E-09  0.1412946E-10  0.1529829E-08
2280172. -0.6452121E-10 -0.7114560E-08 -0.1588744E-11 -0.1758383E-09  0.4164618E-11  0.4677335E-09
2209594. -0.1859837E-10 -0.2126622E-08 -0.4559477E-12 -0.5231040E-10  0.1172507E-11  0.1366590E-09
2139016. -0.5117732E-11 -0.6072490E-09 -0.1249473E-12 -0.1487075E-10  0.3145632E-12  0.3806964E-10
2068438. -0.1340673E-11 -0.1652075E-09 -0.3260561E-13 -0.4028943E-11  0.8020119E-13  0.1008557E-10
1997859. -0.3333428E-12 -0.4269496E-10 -0.8077177E-14 -0.1037234E-11  0.1937285E-13  0.2533624E-11
1927281. -0.7844582E-13 -0.1044060E-10 -0.1891987E-14 -0.2530612E-12  0.4415746E-14  0.6019714E-12
1856703.  0.0000000E+00  0.0000000E+00  0.0000000E+00  0.0000000E+00  0.0000000E+00  0.0000000E+00
1786125.  0.0000000E+00  0.0000000E+00  0.0000000E+00  0.0000000E+00  0.0000000E+00  0.0000000E+00
1715547.  0.0000000E+00  0.0000000E+00  0.0000000E+00  0.0000000E+00  0.0000000E+00  0.0000000E+00
1644969.  0.0000000E+00  0.0000000E+00  0.0000000E+00  0.0000000E+00  0.0000000E+00  0.0000000E+00
1574391.  0.0000000E+00  0.0000000E+00  0.0000000E+00  0.0000000E+00  0.0000000E+00  0.0000000E+00
1503812.  0.0000000E+00  0.0000000E+00  0.0000000E+00  0.0000000E+00  0.0000000E+00  0.0000000E+00
1433234.  0.0000000E+00  0.0000000E+00  0.0000000E+00  0.0000000E+00  0.0000000E+00  0.0000000E+00
1362656.  0.0000000E+00  0.0000000E+00  0.0000000E+00  0.0000000E+00  0.0000000E+00  0.0000000E+00
1292078.  0.0000000E+00  0.0000000E+00  0.0000000E+00  0.0000000E+00  0.0000000E+00  0.0000000E+00
1221500.  0.0000000E+00  0.0000000E+00  0.0000000E+00  0.0000000E+00  0.0000000E+00  0.0000000E+00
1221500.  0.0000000E+00  0.0000000E+00  0.0000000E+00  0.0000000E+00  0.0000000E+00  0.0000000E+00
1183328.  0.0000000E+00  0.0000000E+00  0.0000000E+00  0.0000000E+00  0.0000000E+00  0.0000000E+00
1145156.  0.0000000E+00  0.0000000E+00  0.0000000E+00  0.0000000E+00  0.0000000E+00  0.0000000E+00
1106984.  0.0000000E+00  0.0000000E+00  0.0000000E+00  0.0000000E+00  0.0000000E+00  0.0000000E+00
1068812.  0.0000000E+00  0.0000000E+00  0.0000000E+00  0.0000000E+00  0.0000000E+00  0.0000000E+00
1030641.  0.0000000E+00  0.0000000E+00  0.0000000E+00  0.0000000E+00  0.0000000E+00  0.0000000E+00
 992469.  0.0000000E+00  0.0000000E+00  0.0000000E+00  0.0000000E+00  0.0000000E+00  0.0000000E+00
 954297.  0.0000000E+00  0.0000000E+00  0.0000000E+00  0.0000000E+00  0.0000000E+00  0.0000000E+00
 916125.  0.0000000E+00  0.0000000E+00  0.0000000E+00  0.0000000E+00  0.0000000E+00  0.0000000E+00
 877953.  0.0000000E+00  0.0000000E+00  0.0000000E+00  0.0000000E+00  0.0000000E+00  0.0000000E+00
 839781.  0.0000000E+00  0.0000000E+00  0.0000000E+00  0.0000000E+00  0.0000000E+00  0.0000000E+00
 801609.  0.0000000E+00  0.0000000E+00  0.0000000E+00  0.0000000E+00  0.0000000E+00  0.0000000E+00
 763438.  0.0000000E+00  0.0000000E+00  0.0000000E+00  0.0000000E+00  0.0000000E+00  0.0000000E+00
 725266.  0.0000000E+00  0.0000000E+00  0.0000000E+00  0.0000000E+00  0.0000000E+00  0.0000000E+00
 687094.  0.0000000E+00  0.0000000E+00  0.0000000E+00  0.0000000E+00  0.0000000E+00  0.0000000E+00
 648922.  0.0000000E+00  0.0000000E+00  0.0000000E+00  0.0000000E+00  0.0000000E+00  0.0000000E+00
 610750.  0.0000000E+00  0.0000000E+00  0.0000000E+00  0.0000000E+00  0.0000000E+00  0.0000000E+00
 572578.  0.0000000E+00  0.0000000E+00  0.0000000E+00  0.0000000E+00  0.0000000E+00  0.0000000E+00
 534406.  0.0000000E+00  0.0000000E+00  0.0000000E+00  0.0000000E+00  0.0000000E+00  0.0000000E+00
 496234.  0.0000000E+00  0.0000000E+00  0.0000000E+00  0.0000000E+00  0.0000000E+00  0.0000000E+00
 458062.  0.0000000E+00  0.0000000E+00  0.0000000E+00  0.0000000E+00  0.0000000E+00  0.0000000E+00
 419891.  0.0000000E+00  0.0000000E+00  0.0000000E+00  0.0000000E+00  0.0000000E+00  0.0000000E+00
 381719.  0.0000000E+00  0.0000000E+00  0.0000000E+00  0.0000000E+00  0.0000000E+00  0.0000000E+00
 343547.  0.0000000E+00  0.0000000E+00  0.0000000E+00  0.0000000E+00  0.0000000E+00  0.0000000E+00
 305375.  0.0000000E+00  0.0000000E+00  0.0000000E+00  0.0000000E+00  0.0000000E+00  0.0000000E+00
 267203.  0.0000000E+00  0.0000000E+00  0.0000000E+00  0.0000000E+00  0.0000000E+00  0.0000000E+00
 229031.  0.0000000E+00  0.0000000E+00  0.0000000E+00  0.0000000E+00  0.0000000E+00  0.0000000E+00
 190859.  0.0000000E+00  0.0000000E+00  0.0000000E+00  0.0000000E+00  0.0000000E+00  0.0000000E+00
 152688.  0.0000000E+00  0.0000000E+00  0.0000000E+00  0.0000000E+00  0.0000000E+00  0.0000000E+00
 114516.  0.0000000E+00  0.0000000E+00  0.0000000E+00  0.0000000E+00  0.0000000E+00  0.0000000E+00
  76344.  0.0000000E+00  0.0000000E+00  0.0000000E+00  0.0000000E+00  0.0000000E+00  0.0000000E+00
  38172.  0.0000000E+00  0.0000000E+00  0.0000000E+00  0.0000000E+00  0.0000000E+00  0.0000000E+00
      0.  0.0000000E+00  0.0000000E+00  0.0000000E+00  0.0000000E+00  0.0000000E+00  0.0000000E+00
