       3       19 S      239        225.12740          9.11852          6.46277        214.76660      185    7
6371000. -0.2331299E-01 -0.1408756E+01 -0.9549604E-02  0.1376339E-01  0.5696953E-02 -0.6997621E-01
6370000. -0.2309159E-01 -0.1412392E+01 -0.9551506E-02  0.1047569E-01  0.5707915E-02 -0.6969526E-01
6369000. -0.2286962E-01 -0.1415863E+01 -0.9552892E-02  0.7185720E-02  0.5718832E-02 -0.6941556E-01
6368000. -0.2264712E-01 -0.1419169E+01 -0.9553762E-02  0.3893680E-02  0.5729706E-02 -0.6913711E-01
6368000. -0.2264712E-01 -0.1419169E+01 -0.9553762E-02  0.3893680E-02  0.5729706E-02 -0.6913711E-01
6367000. -0.2242412E-01 -0.1422311E+01 -0.9554114E-02  0.5997818E-03  0.5740536E-02 -0.6885992E-01
6366000. -0.2220064E-01 -0.1425287E+01 -0.9553950E-02 -0.2695766E-02  0.5751322E-02 -0.6858400E-01
6365000. -0.2197670E-01 -0.1428098E+01 -0.9553269E-02 -0.5992753E-02  0.5762066E-02 -0.6830934E-01
6364000. -0.2175233E-01 -0.1430744E+01 -0.9552069E-02 -0.9290973E-02  0.5772767E-02 -0.6803596E-01
6363000. -0.2152757E-01 -0.1433224E+01 -0.9550351E-02 -0.1259021E-01  0.5783424E-02 -0.6776387E-01
6362000. -0.2130242E-01 -0.1435538E+01 -0.9548116E-02 -0.1589027E-01  0.5794039E-02 -0.6749308E-01
6361000. -0.2107693E-01 -0.1437686E+01 -0.9545363E-02 -0.1919092E-01  0.5804612E-02 -0.6722359E-01
6360000. -0.2085111E-01 -0.1439668E+01 -0.9542092E-02 -0.2249197E-01  0.5815142E-02 -0.6695541E-01
6359000. -0.2062499E-01 -0.1441483E+01 -0.9538302E-02 -0.2579320E-01  0.5825631E-02 -0.6668855E-01
6358000. -0.2039860E-01 -0.1443133E+01 -0.9533994E-02 -0.2909441E-01  0.5836078E-02 -0.6642300E-01
6357000. -0.2017197E-01 -0.1444615E+01 -0.9529169E-02 -0.3239539E-01  0.5846482E-02 -0.6615879E-01
6356000. -0.1994511E-01 -0.1445932E+01 -0.9523825E-02 -0.3569591E-01  0.5856846E-02 -0.6589592E-01
6356000. -0.1994511E-01 -0.1257848E+01 -0.9523825E-02 -0.1740510E-01  0.5856846E-02 -0.6155609E-01
6355000. -0.1974757E-01 -0.1259234E+01 -0.9520951E-02 -0.1921002E-01  0.5866477E-02 -0.6115782E-01
6354000. -0.1954982E-01 -0.1260531E+01 -0.9517794E-02 -0.2101497E-01  0.5876045E-02 -0.6076061E-01
6353000. -0.1935187E-01 -0.1261738E+01 -0.9514354E-02 -0.2281987E-01  0.5885551E-02 -0.6036448E-01
6352000. -0.1915373E-01 -0.1262855E+01 -0.9510631E-02 -0.2462466E-01  0.5894995E-02 -0.5996943E-01
6351000. -0.1895543E-01 -0.1263883E+01 -0.9506624E-02 -0.2642927E-01  0.5904377E-02 -0.5957545E-01
6350000. -0.1875698E-01 -0.1264821E+01 -0.9502334E-02 -0.2823362E-01  0.5913697E-02 -0.5918255E-01
6349000. -0.1855838E-01 -0.1265668E+01 -0.9497761E-02 -0.3003765E-01  0.5922955E-02 -0.5879073E-01
6348000. -0.1835966E-01 -0.1266426E+01 -0.9492905E-02 -0.3184129E-01  0.5932153E-02 -0.5840000E-01
6347000. -0.1816083E-01 -0.1267094E+01 -0.9487766E-02 -0.3364447E-01  0.5941289E-02 -0.5801036E-01
6346600. -0.1808126E-01 -0.1267336E+01 -0.9485630E-02 -0.3436559E-01  0.5944926E-02 -0.5785481E-01
6346600. -0.1808126E-01 -0.1453656E+01 -0.9485630E-02 -0.2039854E-01  0.5944926E-02 -0.5155014E-01
6318800. -0.1170327E-01 -0.1462340E+01 -0.9335046E-02 -0.4858036E-01  0.6143462E-02 -0.3956937E-01
6291000. -0.5384230E-02 -0.1426487E+01 -0.9062470E-02 -0.7621008E-01  0.6291278E-02 -0.2829552E-01
6291000. -0.5384230E-02 -0.1476561E+01 -0.9062470E-02 -0.7903990E-01  0.6291278E-02 -0.2829552E-01
6263000.  0.9312337E-03 -0.1389274E+01 -0.8650898E-02 -0.1079789E+00  0.6393102E-02 -0.1815113E-01
6235000.  0.6756023E-02 -0.1253531E+01 -0.8116287E-02 -0.1349181E+00  0.6451747E-02 -0.8637348E-02
6207000.  0.1188179E-01 -0.1071653E+01 -0.7468882E-02 -0.1592038E+00  0.6469872E-02  0.2973084E-03
6179000.  0.1611327E-01 -0.8472660E+00 -0.6721677E-02 -0.1802398E+00  0.6449902E-02  0.8707139E-02
6151000.  0.1927395E-01 -0.5852696E+00 -0.5890138E-02 -0.1975018E+00  0.6394025E-02  0.1664752E-01
6151000.  0.1927395E-01 -0.6578479E+00 -0.5890138E-02 -0.1763903E+00  0.6394025E-02  0.1558118E-01
6128500.  0.2127702E-01 -0.4749802E+00 -0.5255590E-02 -0.1825754E+00  0.6329184E-02  0.2107566E-01
6106000.  0.2261866E-01 -0.2837436E+00 -0.4603286E-02 -0.1864477E+00  0.6245601E-02  0.2619656E-01
6083500.  0.2327451E-01 -0.8708708E-01 -0.3941349E-02 -0.1880386E+00  0.6144576E-02  0.3095617E-01
6061000.  0.2323061E-01  0.1120646E+00 -0.3277739E-02 -0.1874080E+00  0.6027361E-02  0.3536629E-01
6038500.  0.2248324E-01  0.3108476E+00 -0.2620151E-02 -0.1846446E+00  0.5895171E-02  0.3943939E-01
6016000.  0.2103861E-01  0.5064832E+00 -0.1975924E-02 -0.1798620E+00  0.5749173E-02  0.4318811E-01
5993500.  0.1891259E-01  0.6963228E+00 -0.1351960E-02 -0.1731942E+00  0.5590490E-02  0.4662494E-01
5971000.  0.1613005E-01  0.8778846E+00 -0.7546478E-03 -0.1647957E+00  0.5420200E-02  0.4976337E-01
5971000.  0.1613005E-01  0.7832617E+00 -0.7546478E-03 -0.1486254E+00  0.5420200E-02  0.4765182E-01
5937667.  0.1151210E-01  0.9766025E+00 -0.2258759E-04 -0.1309780E+00  0.5162045E-02  0.5089724E-01
5904333.  0.5968680E-02  0.1136718E+01  0.6141492E-03 -0.1123100E+00  0.4888979E-02  0.5335467E-01
5871000. -0.3233356E-03  0.1262792E+01  0.1152120E-02 -0.9333938E-01  0.4605040E-02  0.5506403E-01
5837667. -0.7186573E-02  0.1355224E+01  0.1591354E-02 -0.7465426E-01  0.4314009E-02  0.5607486E-01
5804333. -0.1444843E-01  0.1415375E+01  0.1934625E-02 -0.5671969E-01  0.4019383E-02  0.5644474E-01
5771000. -0.2194472E-01  0.1445317E+01  0.2186804E-02 -0.3988646E-01  0.3724368E-02  0.5623823E-01
5771000. -0.2194472E-01  0.1445381E+01  0.2186804E-02 -0.3988429E-01  0.3724368E-02  0.5623823E-01
5701000. -0.3819389E-01  0.1493331E+01  0.2467425E-02 -0.1153139E-01  0.3119994E-02  0.5362401E-01
5701000. -0.3819389E-01  0.1285955E+01  0.2467425E-02  0.4662521E-03  0.3119994E-02  0.6438949E-01
5667333. -0.4475978E-01  0.1207352E+01  0.2436347E-02  0.1031903E-01  0.2792083E-02  0.5966175E-01
5633667. -0.5103329E-01  0.1169269E+01  0.2366204E-02  0.1590116E-01  0.2488924E-02  0.5516032E-01
5600000. -0.5709030E-01  0.1120730E+01  0.2268726E-02  0.2093112E-01  0.2208675E-02  0.5093525E-01
5600000. -0.5709030E-01  0.1120730E+01  0.2268726E-02  0.2093112E-01  0.2208675E-02  0.5093525E-01
5563518. -0.6333140E-01  0.1057397E+01  0.2135010E-02  0.2564459E-01  0.1929512E-02  0.4661020E-01
5527037. -0.6918145E-01  0.9844509E+00  0.1976494E-02  0.2959486E-01  0.1674401E-02  0.4253494E-01
5490556. -0.7458983E-01  0.9033713E+00  0.1797522E-02  0.3279276E-01  0.1441934E-02  0.3870133E-01
5454074. -0.7951428E-01  0.8156314E+00  0.1602330E-02  0.3526171E-01  0.1230721E-02  0.3510680E-01
5417593. -0.8392086E-01  0.7227836E+00  0.1395042E-02  0.3702519E-01  0.1039464E-02  0.3173134E-01
5381111. -0.8778468E-01  0.6262507E+00  0.1179570E-02  0.3812598E-01  0.8669038E-03  0.2857452E-01
5344630. -0.9108845E-01  0.5274360E+00  0.9595896E-03  0.3860874E-01  0.7118157E-03  0.2562793E-01
5308148. -0.9382316E-01  0.4276710E+00  0.7385022E-03  0.3851993E-01  0.5730318E-03  0.2287795E-01
5271667. -0.9598672E-01  0.3281702E+00  0.5194164E-03  0.3792160E-01  0.4494242E-03  0.2032809E-01
5235185. -0.9758408E-01  0.2300687E+00  0.3050855E-03  0.3686531E-01  0.3398731E-03  0.1796408E-01
5198704. -0.9862615E-01  0.1343947E+00  0.9798939E-04  0.3540792E-01  0.2433620E-03  0.1577538E-01
5162222. -0.9912953E-01  0.4204699E-01 -0.9978807E-04  0.3361832E-01  0.1588523E-03  0.1377019E-01
5125741. -0.9911554E-01 -0.4618665E-01 -0.2864742E-03  0.3154413E-01  0.8535734E-04  0.1192588E-01
5089259. -0.9860970E-01 -0.1296360E+00 -0.4606130E-03  0.2924488E-01  0.2197076E-04  0.1023991E-01
5052778. -0.9764113E-01 -0.2077390E+00 -0.6210838E-03  0.2678010E-01 -0.3221914E-04  0.8712310E-02
5016296. -0.9624161E-01 -0.2800805E+00 -0.7670730E-03  0.2419320E-01 -0.7807167E-04  0.7325655E-02
4979815. -0.9444524E-01 -0.3463161E+00 -0.8980238E-03  0.2153756E-01 -0.1163851E-03  0.6079638E-02
4943333. -0.9228756E-01 -0.4062365E+00 -0.1013681E-02  0.1885614E-01 -0.1479536E-03  0.4966871E-02
4906852. -0.8980518E-01 -0.4597341E+00 -0.1113987E-02  0.1618370E-01 -0.1734918E-03  0.3973302E-02
4870370. -0.8703495E-01 -0.5067537E+00 -0.1199128E-02  0.1356482E-01 -0.1936968E-03  0.3103371E-02
4833889. -0.8401392E-01 -0.5473813E+00 -0.1269485E-02  0.1102385E-01 -0.2092390E-03  0.2341955E-02
4797407. -0.8077814E-01 -0.5817544E+00 -0.1325572E-02  0.8585628E-02 -0.2207069E-03  0.1680605E-02
4760926. -0.7736316E-01 -0.6100389E+00 -0.1368070E-02  0.6281382E-02 -0.2286875E-03  0.1122899E-02
4724444. -0.7380284E-01 -0.6325411E+00 -0.1397780E-02  0.4120135E-02 -0.2337316E-03  0.6527363E-03
4687963. -0.7012964E-01 -0.6495525E+00 -0.1415562E-02  0.2118977E-02 -0.2363247E-03  0.2672363E-03
4651482. -0.6637395E-01 -0.6614153E+00 -0.1422381E-02  0.2917776E-03 -0.2369531E-03 -0.3503320E-04
4615000. -0.6256396E-01 -0.6685500E+00 -0.1419234E-02 -0.1361543E-02 -0.2360571E-03 -0.2662436E-03
4578518. -0.5872575E-01 -0.6713395E+00 -0.1407140E-02 -0.2831763E-02 -0.2340424E-03 -0.4255819E-03
4542037. -0.5488306E-01 -0.6702297E+00 -0.1387153E-02 -0.4119748E-02 -0.2313120E-03 -0.5179083E-03
4505556. -0.5105677E-01 -0.6656818E+00 -0.1360295E-02 -0.5231250E-02 -0.2282223E-03 -0.5510077E-03
4469074. -0.4726529E-01 -0.6581087E+00 -0.1327587E-02 -0.6163654E-02 -0.2251265E-03 -0.5201033E-03
4432593. -0.4352478E-01 -0.6479986E+00 -0.1290027E-02 -0.6928555E-02 -0.2223727E-03 -0.4328014E-03
4396111. -0.3984825E-01 -0.6357941E+00 -0.1248542E-02 -0.7534456E-02 -0.2202748E-03 -0.2902019E-03
4359630. -0.3624673E-01 -0.6219070E+00 -0.1204036E-02 -0.7986084E-02 -0.2191655E-03 -0.8774758E-04
4323148. -0.3272833E-01 -0.6067998E+00 -0.1157345E-02 -0.8299812E-02 -0.2193738E-03  0.1697987E-03
4286667. -0.2929909E-01 -0.5908631E+00 -0.1109229E-02 -0.8485536E-02 -0.2212243E-03  0.4869130E-03
4250185. -0.2596248E-01 -0.5744814E+00 -0.1060388E-02 -0.8555328E-02 -0.2250723E-03  0.8676513E-03
4213704. -0.2272008E-01 -0.5580452E+00 -0.1011438E-02 -0.8526607E-02 -0.2312851E-03  0.1313862E-02
4177222. -0.1957111E-01 -0.5418707E+00 -0.9629038E-03 -0.8411885E-02 -0.2402613E-03  0.1834176E-02
4140741. -0.1651332E-01 -0.5262823E+00 -0.9152338E-03 -0.8228580E-02 -0.2524453E-03  0.2435431E-02
4104259. -0.1354231E-01 -0.5115692E+00 -0.8687606E-03 -0.7996234E-02 -0.2683237E-03  0.3126484E-02
4067778. -0.1065263E-01 -0.4979422E+00 -0.8237210E-03 -0.7731684E-02 -0.2884503E-03  0.3921665E-02
4031296. -0.7837245E-02 -0.4856251E+00 -0.7802302E-03 -0.7459167E-02 -0.3134597E-03  0.4834109E-02
3994815. -0.5088350E-02 -0.4747586E+00 -0.7382630E-03 -0.7204191E-02 -0.3440693E-03  0.5881370E-02
3958333. -0.2397327E-02 -0.4653941E+00 -0.6976396E-03 -0.6994748E-02 -0.3811149E-03  0.7085443E-02
3921852.  0.2443984E-03 -0.4575590E+00 -0.6580009E-03 -0.6867180E-02 -0.4255594E-03  0.8470440E-02
3885370.  0.2845447E-02 -0.4511298E+00 -0.6187584E-03 -0.6863760E-02 -0.4785226E-03  0.1006562E-01
3848889.  0.5413075E-02 -0.4458610E+00 -0.5790594E-03 -0.7036687E-02 -0.5413002E-03  0.1190502E-01
3812407.  0.7953051E-02 -0.4413599E+00 -0.5377118E-03 -0.7451399E-02 -0.6154066E-03  0.1402894E-01
3775926.  0.1046785E-01 -0.4369615E+00 -0.4931052E-03 -0.8190841E-02 -0.7025928E-03  0.1648232E-01
3739444.  0.1295570E-01 -0.4317367E+00 -0.4430899E-03 -0.9359636E-02 -0.8048997E-03  0.1931905E-01
3702963.  0.1540816E-01 -0.4243619E+00 -0.3848429E-03 -0.1109201E-01 -0.9246907E-03  0.2260070E-01
3666482.  0.1780783E-01 -0.4129341E+00 -0.3146553E-03 -0.1356291E-01 -0.1064703E-02  0.2639405E-01
3630000.  0.2012466E-01 -0.3949070E+00 -0.2276855E-03 -0.1699511E-01 -0.1228097E-02  0.3078027E-01
3630000.  0.2012466E-01 -0.3949070E+00 -0.2276855E-03 -0.1699511E-01 -0.1228097E-02  0.3078027E-01
3592500.  0.2236970E-01 -0.3657599E+00 -0.1141534E-03 -0.2183351E-01 -0.1424245E-02  0.3599603E-01
3555000.  0.2439923E-01 -0.3206705E+00  0.3274228E-04 -0.2840997E-01 -0.1653456E-02  0.4203304E-01
3517500.  0.2609963E-01 -0.2525491E+00  0.2247537E-03 -0.3726674E-01 -0.1920903E-02  0.4900803E-01
3480000.  0.2730823E-01 -0.1516870E+00  0.4773154E-03 -0.4912062E-01 -0.2232452E-02  0.5703789E-01
3480000.  0.2730823E-01  0.6840017E+00  0.1759910E-02  0.4674296E-01 -0.2232452E-02 -0.3004501E-01
3409422.  0.2055740E-01  0.5389268E+00  0.1303924E-02  0.3596304E-01 -0.1874819E-02 -0.3342967E-01
3338844.  0.1527800E-01  0.4181151E+00  0.9552095E-03  0.2732303E-01 -0.1509675E-02 -0.3192237E-01
3268266.  0.1121112E-01  0.3196284E+00  0.6918357E-03  0.2050305E-01 -0.1176219E-02 -0.2803433E-01
3197688.  0.8123429E-02  0.2408706E+00  0.4953555E-03  0.1519725E-01 -0.8916008E-03 -0.2329754E-01
3127109.  0.5812008E-02  0.1789982E+00  0.3505652E-03  0.1112692E-01 -0.6598835E-03 -0.1858784E-01
3056531.  0.4105572E-02  0.1311974E+00  0.2451724E-03  0.8046935E-02 -0.4779692E-03 -0.1435577E-01
2985953.  0.2862934E-02  0.9485162E-01  0.1693992E-03  0.5747473E-02 -0.3393492E-03 -0.1078688E-01
2915375.  0.1970352E-02  0.6763925E-01  0.1155993E-03  0.4053527E-02 -0.2364051E-03 -0.7911223E-02
2844797.  0.1337979E-02  0.4757074E-01  0.7788423E-04  0.2822238E-02 -0.1617011E-03 -0.5675326E-02
2774219.  0.8961467E-03  0.3299024E-01  0.5178669E-04  0.1939221E-02 -0.1086361E-03 -0.3987874E-02
2703641.  0.5917780E-03  0.2255374E-01  0.3396738E-04  0.1314540E-02 -0.7169690E-04 -0.2747124E-02
2633062.  0.3851087E-03  0.1519454E-01  0.2196623E-04  0.8787112E-03 -0.4648032E-04 -0.1856174E-02
2562484.  0.2468466E-03  0.1008358E-01  0.1399765E-04  0.5789463E-03 -0.2959357E-04 -0.1230452E-02
2491906.  0.1557495E-03  0.6588434E-02  0.8783752E-05  0.3757547E-03 -0.1849833E-04 -0.8002253E-03
2421328.  0.9666935E-04  0.4235841E-02  0.5424050E-05  0.2400881E-03 -0.1134665E-04 -0.5104741E-03
2350750.  0.5897739E-04  0.2677940E-02  0.3293409E-05  0.1509151E-03 -0.6825619E-05 -0.3192920E-03
2280172.  0.3533871E-04  0.1663565E-02  0.1964573E-05  0.9324972E-04 -0.4023834E-05 -0.1957163E-03
2209594.  0.2077670E-04  0.1014588E-02  0.1150200E-05  0.5658906E-04 -0.2322686E-05 -0.1174886E-03
2139016.  0.1197316E-04  0.6069273E-03  0.6602345E-06  0.3369461E-04 -0.1311489E-05 -0.6901371E-04
2068438.  0.6755244E-05  0.3557272E-03  0.3711323E-06  0.1966329E-04 -0.7235533E-06 -0.3962951E-04
1997859.  0.3726534E-05  0.2040357E-03  0.2040278E-06  0.1123273E-04 -0.3895344E-06 -0.2222009E-04
1927281.  0.2007138E-05  0.1143736E-03  0.1095342E-06  0.6272771E-05 -0.2043449E-06 -0.1214929E-04
1856703.  0.1053775E-05  0.6256274E-04  0.5733176E-07  0.3419091E-05 -0.1042805E-06 -0.6468060E-05
1786125.  0.5382996E-06  0.3333772E-04  0.2920300E-07  0.1815899E-05 -0.5167146E-07 -0.3347074E-05
1715547.  0.2670003E-06  0.1727234E-04  0.1444606E-07  0.9379042E-06 -0.2480764E-07 -0.1680233E-05
1644969.  0.1282916E-06  0.8681998E-05  0.6923901E-08  0.4700625E-06 -0.1151227E-07 -0.8164110E-06
1574391.  0.5955484E-07  0.4223655E-05  0.3207016E-08  0.2280234E-06 -0.5149746E-08 -0.3829700E-06
1503812.  0.2662166E-07  0.1983651E-05  0.1431528E-08  0.1067227E-06 -0.2213607E-08 -0.1729188E-06
1433234.  0.1139890E-07  0.8984192E-06  0.6147731E-09  0.4793944E-07 -0.9111686E-09 -0.7489258E-07
1362656.  0.4593852E-08  0.3969616E-06  0.2561863E-09  0.2028153E-07 -0.3578607E-09 -0.3098180E-07
1292078.  0.1535396E-08  0.1903160E-06  0.1130959E-09  0.7013736E-08 -0.1337776E-09 -0.1218204E-07
1221500. -0.2748420E-09  0.1656093E-06  0.8457003E-10 -0.1873976E-08 -0.4743631E-10 -0.4600668E-08
1221500. -0.2748420E-09 -0.1663956E-09  0.1036903E-11  0.1438907E-08 -0.4743631E-10 -0.4481605E-08
1183328. -0.2437836E-09 -0.8539335E-08 -0.4070058E-11  0.4017366E-09 -0.2666159E-10 -0.2609692E-08
1145156. -0.1861528E-09 -0.9966936E-08 -0.4960473E-11 -0.3531078E-10 -0.1467369E-10 -0.1489249E-08
1106984. -0.1298321E-09 -0.8581405E-08 -0.4227456E-11 -0.1770750E-09 -0.7897914E-11 -0.8318610E-09
1068812. -0.8477222E-10 -0.6431951E-08 -0.3093916E-11 -0.1883047E-09 -0.4151275E-11 -0.4542131E-09
1030641. -0.5245125E-10 -0.4416973E-08 -0.2061975E-11 -0.1524992E-09 -0.2127439E-11 -0.2420766E-09
 992469. -0.3095108E-10 -0.2840241E-08 -0.1282051E-11 -0.1081459E-09 -0.1061059E-11 -0.1257141E-09
 954297. -0.1748103E-10 -0.1728475E-08 -0.7524247E-12 -0.7024192E-10 -0.5140006E-12 -0.6348881E-10
 916125. -0.9468173E-11 -0.1001865E-08 -0.4197695E-12 -0.4247427E-10 -0.2413733E-12 -0.3109036E-10
 877953.  0.0000000E+00  0.0000000E+00  0.0000000E+00  0.0000000E+00  0.0000000E+00  0.0000000E+00
 839781.  0.0000000E+00  0.0000000E+00  0.0000000E+00  0.0000000E+00  0.0000000E+00  0.0000000E+00
 801609.  0.0000000E+00  0.0000000E+00  0.0000000E+00  0.0000000E+00  0.0000000E+00  0.0000000E+00
 763438.  0.0000000E+00  0.0000000E+00  0.0000000E+00  0.0000000E+00  0.0000000E+00  0.0000000E+00
 725266.  0.0000000E+00  0.0000000E+00  0.0000000E+00  0.0000000E+00  0.0000000E+00  0.0000000E+00
 687094.  0.0000000E+00  0.0000000E+00  0.0000000E+00  0.0000000E+00  0.0000000E+00  0.0000000E+00
 648922.  0.0000000E+00  0.0000000E+00  0.0000000E+00  0.0000000E+00  0.0000000E+00  0.0000000E+00
 610750.  0.0000000E+00  0.0000000E+00  0.0000000E+00  0.0000000E+00  0.0000000E+00  0.0000000E+00
 572578.  0.0000000E+00  0.0000000E+00  0.0000000E+00  0.0000000E+00  0.0000000E+00  0.0000000E+00
 534406.  0.0000000E+00  0.0000000E+00  0.0000000E+00  0.0000000E+00  0.0000000E+00  0.0000000E+00
 496234.  0.0000000E+00  0.0000000E+00  0.0000000E+00  0.0000000E+00  0.0000000E+00  0.0000000E+00
 458062.  0.0000000E+00  0.0000000E+00  0.0000000E+00  0.0000000E+00  0.0000000E+00  0.0000000E+00
 419891.  0.0000000E+00  0.0000000E+00  0.0000000E+00  0.0000000E+00  0.0000000E+00  0.0000000E+00
 381719.  0.0000000E+00  0.0000000E+00  0.0000000E+00  0.0000000E+00  0.0000000E+00  0.0000000E+00
 343547.  0.0000000E+00  0.0000000E+00  0.0000000E+00  0.0000000E+00  0.0000000E+00  0.0000000E+00
 305375.  0.0000000E+00  0.0000000E+00  0.0000000E+00  0.0000000E+00  0.0000000E+00  0.0000000E+00
 267203.  0.0000000E+00  0.0000000E+00  0.0000000E+00  0.0000000E+00  0.0000000E+00  0.0000000E+00
 229031.  0.0000000E+00  0.0000000E+00  0.0000000E+00  0.0000000E+00  0.0000000E+00  0.0000000E+00
 190859.  0.0000000E+00  0.0000000E+00  0.0000000E+00  0.0000000E+00  0.0000000E+00  0.0000000E+00
 152688.  0.0000000E+00  0.0000000E+00  0.0000000E+00  0.0000000E+00  0.0000000E+00  0.0000000E+00
 114516.  0.0000000E+00  0.0000000E+00  0.0000000E+00  0.0000000E+00  0.0000000E+00  0.0000000E+00
  76344.  0.0000000E+00  0.0000000E+00  0.0000000E+00  0.0000000E+00  0.0000000E+00  0.0000000E+00
  38172.  0.0000000E+00  0.0000000E+00  0.0000000E+00  0.0000000E+00  0.0000000E+00  0.0000000E+00
      0.  0.0000000E+00  0.0000000E+00  0.0000000E+00  0.0000000E+00  0.0000000E+00  0.0000000E+00
