       3       29 S      249        159.34129          8.51603          8.69168        417.77560      185    7
6371000. -0.8523712E-03 -0.3716605E-01 -0.1106245E-03  0.7417467E-03  0.8409053E-04 -0.9153432E-03
6370000. -0.8465149E-03 -0.3745221E-01 -0.1107353E-03  0.6705663E-03  0.8423379E-04 -0.9101667E-03
6369000. -0.8406145E-03 -0.3773017E-01 -0.1108350E-03  0.5992207E-03  0.8437625E-04 -0.9050603E-03
6368000. -0.8346710E-03 -0.3799991E-01 -0.1109234E-03  0.5277186E-03  0.8451792E-04 -0.9000243E-03
6368000. -0.8346710E-03 -0.3799991E-01 -0.1109234E-03  0.5277186E-03  0.8451792E-04 -0.9000243E-03
6367000. -0.8286859E-03 -0.3826141E-01 -0.1110006E-03  0.4560689E-03  0.8465879E-04 -0.8950591E-03
6366000. -0.8226603E-03 -0.3851462E-01 -0.1110666E-03  0.3842803E-03  0.8479890E-04 -0.8901650E-03
6365000. -0.8165957E-03 -0.3875953E-01 -0.1111212E-03  0.3123616E-03  0.8493824E-04 -0.8853422E-03
6364000. -0.8104933E-03 -0.3899611E-01 -0.1111646E-03  0.2403218E-03  0.8507683E-04 -0.8805914E-03
6363000. -0.8043544E-03 -0.3922433E-01 -0.1111967E-03  0.1681696E-03  0.8521468E-04 -0.8759126E-03
6362000. -0.7981804E-03 -0.3944418E-01 -0.1112174E-03  0.9591401E-04  0.8535180E-04 -0.8713064E-03
6361000. -0.7919724E-03 -0.3965563E-01 -0.1112268E-03  0.2356381E-04  0.8548821E-04 -0.8667730E-03
6360000. -0.7857320E-03 -0.3985865E-01 -0.1112248E-03 -0.4887204E-04  0.8562391E-04 -0.8623128E-03
6359000. -0.7794604E-03 -0.4005323E-01 -0.1112114E-03 -0.1213846E-03  0.8575891E-04 -0.8579261E-03
6358000. -0.7731588E-03 -0.4023936E-01 -0.1111867E-03 -0.1939650E-03  0.8589323E-04 -0.8536135E-03
6357000. -0.7668287E-03 -0.4041701E-01 -0.1111505E-03 -0.2666043E-03  0.8602688E-04 -0.8493750E-03
6356000. -0.7604714E-03 -0.4058617E-01 -0.1111030E-03 -0.3392934E-03  0.8615987E-04 -0.8452113E-03
6356000. -0.7604714E-03 -0.3483408E-01 -0.1111030E-03  0.5322396E-04  0.8615987E-04 -0.6797415E-03
6355000. -0.7549926E-03 -0.3497653E-01 -0.1111084E-03  0.1543635E-04  0.8626594E-04 -0.6718196E-03
6354000. -0.7494917E-03 -0.3511460E-01 -0.1111078E-03 -0.2239457E-04  0.8637078E-04 -0.6639505E-03
6353000. -0.7439696E-03 -0.3524830E-01 -0.1111013E-03 -0.6026599E-04  0.8647438E-04 -0.6561343E-03
6352000. -0.7384268E-03 -0.3537760E-01 -0.1110889E-03 -0.9817511E-04  0.8657675E-04 -0.6483710E-03
6351000. -0.7328640E-03 -0.3550250E-01 -0.1110705E-03 -0.1361191E-03  0.8667792E-04 -0.6406609E-03
6350000. -0.7272820E-03 -0.3562300E-01 -0.1110462E-03 -0.1740953E-03  0.8677787E-04 -0.6330039E-03
6349000. -0.7216813E-03 -0.3573906E-01 -0.1110159E-03 -0.2121007E-03  0.8687664E-04 -0.6254002E-03
6348000. -0.7160629E-03 -0.3585071E-01 -0.1109796E-03 -0.2501325E-03  0.8697421E-04 -0.6178499E-03
6347000. -0.7104272E-03 -0.3595792E-01 -0.1109373E-03 -0.2881880E-03  0.8707059E-04 -0.6103531E-03
6346600. -0.7081683E-03 -0.3599956E-01 -0.1109188E-03 -0.3034162E-03  0.8710882E-04 -0.6073695E-03
6346600. -0.7081683E-03 -0.4010339E-01 -0.1109188E-03 -0.1008138E-04  0.8710882E-04 -0.3604415E-03
6318800. -0.5283171E-03 -0.4199825E-01 -0.1096983E-03 -0.5516218E-03  0.8814812E-04 -0.1206373E-03
6291000. -0.3446300E-03 -0.4184641E-01 -0.1061014E-03 -0.1095444E-02  0.8820056E-04  0.9239907E-04
6291000. -0.3446300E-03 -0.4315091E-01 -0.1061014E-03 -0.1144170E-02  0.8820056E-04  0.9239907E-04
6263000. -0.1596171E-03 -0.4065968E-01 -0.9979121E-04 -0.1721097E-02  0.8739861E-04  0.2686842E-03
6235000.  0.9447365E-05 -0.3591289E-01 -0.9104817E-04 -0.2246959E-02  0.8587066E-04  0.4232698E-03
6207000.  0.1529967E-03 -0.2908673E-01 -0.8015215E-04 -0.2696942E-02  0.8370564E-04  0.5590761E-03
6179000.  0.2624790E-03 -0.2046568E-01 -0.6748556E-04 -0.3049417E-02  0.8097978E-04  0.6789694E-03
6151000.  0.3308139E-03 -0.1043279E-01 -0.5351681E-04 -0.3287043E-02  0.7775693E-04  0.7856748E-03
6151000.  0.3308139E-03 -0.1228059E-01 -0.5351681E-04 -0.2934566E-02  0.7775693E-04  0.7673724E-03
6128500.  0.3617825E-03 -0.5228441E-02 -0.4308796E-04 -0.2960890E-02  0.7493192E-04  0.8308026E-03
6106000.  0.3676342E-03  0.1911933E-02 -0.3267640E-04 -0.2925175E-02  0.7190002E-04  0.8846518E-03
6083500.  0.3483932E-03  0.8951525E-02 -0.2249607E-04 -0.2830584E-02  0.6869388E-04  0.9295942E-03
6061000.  0.3047359E-03  0.1571077E-01 -0.1274736E-04 -0.2681594E-02  0.6534381E-04  0.9662546E-03
6038500.  0.2379499E-03  0.2202366E-01 -0.3612719E-05 -0.2483849E-02  0.6187802E-04  0.9952344E-03
6016000.  0.1498804E-03  0.2774108E-01  0.4747034E-05 -0.2243927E-02  0.5832258E-04  0.1017109E-02
5993500.  0.4286456E-04  0.3273380E-01  0.1219561E-04 -0.1969099E-02  0.5470163E-04  0.1032433E-02
5971000. -0.8034294E-04  0.3689508E-01  0.1862336E-04 -0.1667151E-02  0.5103732E-04  0.1041753E-02
5971000. -0.8034294E-04  0.3393334E-01  0.1862336E-04 -0.1471853E-02  0.5103732E-04  0.1052271E-02
5937667. -0.2667111E-03  0.3699161E-01  0.2514613E-04 -0.1023977E-02  0.4559258E-04  0.1026254E-02
5904333. -0.4642268E-03  0.3821362E-01  0.2938164E-04 -0.6007275E-03  0.4032626E-04  0.9843006E-03
5871000. -0.6636720E-03  0.3776453E-01  0.3150417E-04 -0.2185335E-03  0.3531725E-04  0.9282793E-03
5837667. -0.8568735E-03  0.3586762E-01  0.3175860E-04  0.1120753E-03  0.3063374E-04  0.8602217E-03
5804333. -0.1036923E-02  0.3277912E-01  0.3043099E-04  0.3856887E-03  0.2633313E-04  0.7822114E-03
5771000. -0.1198274E-02  0.2876711E-01  0.2782434E-04  0.6011317E-03  0.2246226E-04  0.6963366E-03
5771000. -0.1198274E-02  0.2876885E-01  0.2782434E-04  0.6011563E-03  0.2246226E-04  0.6963366E-03
5701000. -0.1464730E-02  0.1929386E-01  0.1968559E-04  0.8503540E-03  0.1620153E-04  0.4408449E-03
5701000. -0.1464730E-02  0.1697385E-01  0.1968559E-04  0.1020069E-02  0.1620153E-04  0.8536996E-03
5667333. -0.1539044E-02  0.1131198E-01  0.1415110E-04  0.1059875E-02  0.1212750E-04  0.6926763E-03
5633667. -0.1585457E-02  0.6293593E-02  0.8611380E-05  0.1030463E-02  0.8821405E-05  0.5633326E-03
5600000. -0.1605674E-02  0.1378217E-02  0.3276047E-05  0.9874323E-03  0.6141827E-05  0.4535382E-03
5600000. -0.1605674E-02  0.1378217E-02  0.3276047E-05  0.9874323E-03  0.6141827E-05  0.4535382E-03
5563518. -0.1598753E-02 -0.3755550E-02 -0.2211929E-05  0.9272257E-03  0.3840124E-05  0.3533564E-03
5527037. -0.1563190E-02 -0.8614584E-02 -0.7321539E-05  0.8558361E-03  0.2063503E-05  0.2697193E-03
5490556. -0.1500739E-02 -0.1313828E-01 -0.1199761E-04  0.7763117E-03  0.7242382E-06  0.2002558E-03
5454074. -0.1413456E-02 -0.1728091E-01 -0.1620238E-04  0.6916489E-03 -0.2533662E-06  0.1430624E-03
5417593. -0.1303617E-02 -0.2101371E-01 -0.1991391E-04  0.6045118E-03 -0.9337786E-06  0.9618146E-04
5381111. -0.1173616E-02 -0.2432054E-01 -0.2312573E-04  0.5174907E-03 -0.1371982E-05  0.5825458E-04
5344630. -0.1025911E-02 -0.2719961E-01 -0.2584505E-04  0.4328739E-03 -0.1615621E-05  0.2801699E-04
5308148. -0.8629133E-03 -0.2966293E-01 -0.2809144E-04  0.3525923E-03 -0.1705288E-05  0.4316843E-05
5271667. -0.6869614E-03 -0.3173037E-01 -0.2989481E-04  0.2784224E-03 -0.1676045E-05 -0.1364559E-04
5235185. -0.5002221E-03 -0.3343539E-01 -0.3129436E-04  0.2117360E-03 -0.1558407E-05 -0.2668756E-04
5198704. -0.3046659E-03 -0.3481876E-01 -0.3233612E-04  0.1536370E-03 -0.1378517E-05 -0.3547778E-04
5162222. -0.1019989E-03 -0.3592565E-01 -0.3307204E-04  0.1050310E-03 -0.1159368E-05 -0.4047505E-04
5125741.  0.1063429E-03 -0.3681257E-01 -0.3355836E-04  0.6655532E-04 -0.9213736E-06 -0.4212618E-04
5089259.  0.3192780E-03 -0.3753777E-01 -0.3385443E-04  0.3862918E-04 -0.6827061E-06 -0.4075450E-04
5052778.  0.5360426E-03 -0.3816320E-01 -0.3402145E-04  0.2152631E-04 -0.4599777E-06 -0.3658566E-04
5016296.  0.7562730E-03 -0.3875775E-01 -0.3412208E-04  0.1545796E-04 -0.2689411E-06 -0.2969229E-04
4979815.  0.9799775E-03 -0.3939052E-01 -0.3421963E-04  0.2045644E-04 -0.1250227E-06 -0.2013202E-04
4943333.  0.1207596E-02 -0.4013536E-01 -0.3437765E-04  0.3659909E-04 -0.4368328E-07 -0.7791481E-05
4906852.  0.1439981E-02 -0.4107077E-01 -0.3466038E-04  0.6402106E-04 -0.4173893E-07  0.7637015E-05
4870370.  0.1678462E-02 -0.4227592E-01 -0.3513228E-04  0.1026838E-03 -0.1374009E-06  0.2636666E-04
4833889.  0.1924816E-02 -0.4383857E-01 -0.3585860E-04  0.1529748E-03 -0.3513506E-06  0.4909302E-04
4797407.  0.2181372E-02 -0.4585219E-01 -0.3690725E-04  0.2152970E-03 -0.7087904E-06  0.7658851E-04
4760926.  0.2450973E-02 -0.4841483E-01 -0.3834773E-04  0.2899617E-03 -0.1238892E-05  0.1095934E-03
4724444.  0.2737094E-02 -0.5163972E-01 -0.4025384E-04  0.3781010E-03 -0.1977465E-05  0.1496696E-03
4687963.  0.3043860E-02 -0.5564985E-01 -0.4270544E-04  0.4806652E-03 -0.2969341E-05  0.1983289E-03
4651482.  0.3376161E-02 -0.6058338E-01 -0.4578842E-04  0.5989337E-03 -0.4268703E-05  0.2574824E-03
4615000.  0.3739748E-02 -0.6660265E-01 -0.4959897E-04  0.7350934E-03 -0.5943843E-05  0.3300580E-03
4578518.  0.4141339E-02 -0.7388970E-01 -0.5424477E-04  0.8910228E-03 -0.8079905E-05  0.4190272E-03
4542037.  0.4588776E-02 -0.8265863E-01 -0.5984651E-04  0.1069607E-02 -0.1078185E-04  0.5285647E-03
4505556.  0.5091264E-02 -0.9316317E-01 -0.6654446E-04  0.1274440E-02 -0.1418299E-04  0.6641466E-03
4469074.  0.5659567E-02 -0.1056938E+00 -0.7449788E-04  0.1508709E-02 -0.1844840E-04  0.8315719E-03
4432593.  0.6306226E-02 -0.1206007E+00 -0.8388901E-04  0.1777623E-02 -0.2378390E-04  0.1039573E-02
4396111.  0.7046040E-02 -0.1382979E+00 -0.9493220E-04  0.2086402E-02 -0.3045086E-04  0.1298320E-02
4359630.  0.7896276E-02 -0.1592636E+00 -0.1078687E-03  0.2440095E-02 -0.3877206E-04  0.1619854E-02
4323148.  0.8877316E-02 -0.1840805E+00 -0.1229780E-03  0.2846418E-02 -0.4915483E-04  0.2021368E-02
4286667.  0.1001304E-01 -0.2134233E+00 -0.1405796E-03  0.3311753E-02 -0.6211110E-04  0.2522423E-02
4250185.  0.1133164E-01 -0.2480874E+00 -0.1610315E-03  0.3843186E-02 -0.7828025E-04  0.3148278E-02
4213704.  0.1286615E-01 -0.2890169E+00 -0.1847362E-03  0.4449192E-02 -0.9846741E-04  0.3931928E-02
4177222.  0.1465556E-01 -0.3372968E+00 -0.2121373E-03  0.5134796E-02 -0.1236852E-03  0.4912481E-02
4140741.  0.1674538E-01 -0.3941902E+00 -0.2437042E-03  0.5905355E-02 -0.1552001E-03  0.6141404E-02
4104259.  0.1918917E-01 -0.4611650E+00 -0.2799359E-03  0.6763249E-02 -0.1946164E-03  0.7683493E-02
4067778.  0.2204905E-01 -0.5398297E+00 -0.3213101E-03  0.7700221E-02 -0.2439380E-03  0.9616442E-02
4031296.  0.2539729E-01 -0.6320315E+00 -0.3682534E-03  0.8705060E-02 -0.3056914E-03  0.1204436E-01
3994815.  0.2931684E-01 -0.7397462E+00 -0.4210777E-03  0.9747265E-02 -0.3830595E-03  0.1509392E-01
3958333.  0.3390248E-01 -0.8649752E+00 -0.4798429E-03  0.1076811E-01 -0.4800325E-03  0.1892078E-01
3921852.  0.3926007E-01 -0.1009735E+01 -0.5442018E-03  0.1168298E-01 -0.6016186E-03  0.2372908E-01
3885370.  0.4550674E-01 -0.1175683E+01 -0.6131586E-03  0.1234229E-01 -0.7541262E-03  0.2976473E-01
3848889.  0.5276656E-01 -0.1363743E+01 -0.6846326E-03  0.1251714E-01 -0.9454168E-03  0.3733443E-01
3812407.  0.6116653E-01 -0.1573619E+01 -0.7549464E-03  0.1186509E-01 -0.1185360E-02  0.4682606E-01
3775926.  0.7082454E-01 -0.1802498E+01 -0.8179292E-03  0.9849555E-02 -0.1486223E-02  0.5869929E-01
3739444.  0.8183335E-01 -0.2043801E+01 -0.8636707E-03  0.5685217E-02 -0.1863243E-02  0.7352874E-01
3702963.  0.9423063E-01 -0.2284725E+01 -0.8767442E-03 -0.1798612E-02 -0.2335253E-02  0.9200351E-01
3666482.  0.1079546E+00 -0.2502289E+01 -0.8334293E-03 -0.1435983E-01 -0.2925343E-02  0.1149158E+00
3630000.  0.1227718E+00 -0.2658420E+01 -0.6978010E-03 -0.3455437E-01 -0.3661592E-02  0.1432142E+00
3630000.  0.1227718E+00 -0.2658420E+01 -0.6978010E-03 -0.3455437E-01 -0.3661592E-02  0.1432142E+00
3592500.  0.1385961E+00 -0.2689223E+01 -0.4053102E-03 -0.6727930E-01 -0.4606231E-02  0.1789868E+00
3555000.  0.1539654E+00 -0.2481532E+01  0.1296847E-03 -0.1181777E+00 -0.5784226E-02  0.2227022E+00
3517500.  0.1670135E+00 -0.1865339E+01  0.1038985E-02 -0.1962849E+00 -0.7245692E-02  0.2754707E+00
3480000.  0.1746094E+00 -0.5742064E+00  0.2519727E-02 -0.3150527E+00 -0.9046334E-02  0.3380227E+00
3480000.  0.1746094E+00  0.7192801E+01  0.7204269E-02  0.3063541E+00 -0.9046334E-02 -0.2187873E+00
3409422.  0.1096219E+00  0.4696975E+01  0.4460007E-02  0.1964588E+00 -0.6635344E-02 -0.2075688E+00
3338844.  0.6757647E-01  0.3006661E+01  0.2714722E-02  0.1237457E+00 -0.4558078E-02 -0.1653124E+00
3268266.  0.4090481E-01  0.1887371E+01  0.1624415E-02  0.7656480E-01 -0.2982861E-02 -0.1197543E+00
3197688.  0.2431097E-01  0.1162050E+01  0.9553367E-03  0.4653176E-01 -0.1877098E-02 -0.8144397E-01
3127109.  0.1418412E-01  0.7017978E+00  0.5520449E-03  0.2777337E-01 -0.1142245E-02 -0.5281565E-01
3056531.  0.8122111E-02  0.4157163E+00  0.3133295E-03  0.1627701E-01 -0.6744621E-03 -0.3294279E-01
2985953.  0.4562982E-02  0.2414901E+00  0.1746005E-03  0.9363716E-02 -0.3872801E-03 -0.1986497E-01
2915375.  0.2513946E-02  0.1375297E+00  0.9547480E-04  0.5285376E-02 -0.2165442E-03 -0.1161790E-01
2844797.  0.1357587E-02  0.7675761E-01  0.5120124E-04  0.2925834E-02 -0.1179931E-03 -0.6602928E-02
2774219.  0.7181650E-03  0.4196284E-01  0.2691145E-04  0.1587542E-02 -0.6267712E-04 -0.3651131E-02
2703641.  0.3719020E-03  0.2245818E-01  0.1385287E-04  0.8437615E-03 -0.3245760E-04 -0.1965489E-02
2633062.  0.1883819E-03  0.1175851E-01  0.6977972E-05  0.4389428E-03 -0.1638228E-04 -0.1030273E-02
2562484.  0.9325793E-04  0.6018197E-02  0.3436521E-05  0.2233252E-03 -0.8055536E-05 -0.5258123E-03
2491906.  0.4507548E-04  0.3008340E-02  0.1652976E-05  0.1110194E-03 -0.3856470E-05 -0.2611781E-03
2421328.  0.2124865E-04  0.1467234E-02  0.7756899E-06  0.5386895E-04 -0.1795965E-05 -0.1261835E-03
2350750.  0.9757400E-05  0.6974213E-03  0.3546895E-06  0.2548326E-04 -0.8127882E-06 -0.5924722E-04
2280172.  0.4358798E-05  0.3226773E-03  0.1578174E-06  0.1173786E-04 -0.3570346E-06 -0.2700759E-04
2209594.  0.1891400E-05  0.1451141E-03  0.6822658E-07  0.5256776E-05 -0.1520189E-06 -0.1193770E-04
2139016.  0.7959153E-06  0.6333440E-04  0.2861008E-07  0.2285370E-05 -0.6264048E-07 -0.5109129E-05
2068438.  0.3242058E-06  0.2677940E-04  0.1161578E-07  0.9627956E-06 -0.2493486E-07 -0.2113705E-05
1997859.  0.1275712E-06  0.1094819E-04  0.4556615E-08  0.3922773E-06 -0.9569096E-08 -0.8436961E-06
1927281.  0.4838211E-07  0.4318463E-05  0.1723130E-08  0.1542383E-06 -0.3532403E-08 -0.3242271E-06
1856703.  0.1764033E-07  0.1639452E-05  0.6265558E-09  0.5837959E-07 -0.1251080E-08 -0.1196658E-06
1786125.  0.6165641E-08  0.5973953E-06  0.2184354E-09  0.2121319E-07 -0.4238945E-09 -0.4230092E-07
1715547.  0.2059232E-08  0.2082952E-06  0.7277948E-10  0.7377044E-08 -0.1369516E-09 -0.1427673E-07
1644969.  0.6548069E-09  0.6925270E-07  0.2309073E-10  0.2446660E-08 -0.4203388E-10 -0.4584198E-08
1574391.  0.1974371E-09  0.2186752E-07  0.6947118E-11  0.7708537E-09 -0.1220406E-10 -0.1394798E-08
1503812.  0.5620955E-10  0.6524898E-08  0.1971802E-11  0.2297861E-09 -0.3333665E-11 -0.4005128E-09
1433234.  0.0000000E+00  0.0000000E+00  0.0000000E+00  0.0000000E+00  0.0000000E+00  0.0000000E+00
1362656.  0.0000000E+00  0.0000000E+00  0.0000000E+00  0.0000000E+00  0.0000000E+00  0.0000000E+00
1292078.  0.0000000E+00  0.0000000E+00  0.0000000E+00  0.0000000E+00  0.0000000E+00  0.0000000E+00
1221500.  0.0000000E+00  0.0000000E+00  0.0000000E+00  0.0000000E+00  0.0000000E+00  0.0000000E+00
1221500.  0.0000000E+00  0.0000000E+00  0.0000000E+00  0.0000000E+00  0.0000000E+00  0.0000000E+00
1183328.  0.0000000E+00  0.0000000E+00  0.0000000E+00  0.0000000E+00  0.0000000E+00  0.0000000E+00
1145156.  0.0000000E+00  0.0000000E+00  0.0000000E+00  0.0000000E+00  0.0000000E+00  0.0000000E+00
1106984.  0.0000000E+00  0.0000000E+00  0.0000000E+00  0.0000000E+00  0.0000000E+00  0.0000000E+00
1068812.  0.0000000E+00  0.0000000E+00  0.0000000E+00  0.0000000E+00  0.0000000E+00  0.0000000E+00
1030641.  0.0000000E+00  0.0000000E+00  0.0000000E+00  0.0000000E+00  0.0000000E+00  0.0000000E+00
 992469.  0.0000000E+00  0.0000000E+00  0.0000000E+00  0.0000000E+00  0.0000000E+00  0.0000000E+00
 954297.  0.0000000E+00  0.0000000E+00  0.0000000E+00  0.0000000E+00  0.0000000E+00  0.0000000E+00
 916125.  0.0000000E+00  0.0000000E+00  0.0000000E+00  0.0000000E+00  0.0000000E+00  0.0000000E+00
 877953.  0.0000000E+00  0.0000000E+00  0.0000000E+00  0.0000000E+00  0.0000000E+00  0.0000000E+00
 839781.  0.0000000E+00  0.0000000E+00  0.0000000E+00  0.0000000E+00  0.0000000E+00  0.0000000E+00
 801609.  0.0000000E+00  0.0000000E+00  0.0000000E+00  0.0000000E+00  0.0000000E+00  0.0000000E+00
 763438.  0.0000000E+00  0.0000000E+00  0.0000000E+00  0.0000000E+00  0.0000000E+00  0.0000000E+00
 725266.  0.0000000E+00  0.0000000E+00  0.0000000E+00  0.0000000E+00  0.0000000E+00  0.0000000E+00
 687094.  0.0000000E+00  0.0000000E+00  0.0000000E+00  0.0000000E+00  0.0000000E+00  0.0000000E+00
 648922.  0.0000000E+00  0.0000000E+00  0.0000000E+00  0.0000000E+00  0.0000000E+00  0.0000000E+00
 610750.  0.0000000E+00  0.0000000E+00  0.0000000E+00  0.0000000E+00  0.0000000E+00  0.0000000E+00
 572578.  0.0000000E+00  0.0000000E+00  0.0000000E+00  0.0000000E+00  0.0000000E+00  0.0000000E+00
 534406.  0.0000000E+00  0.0000000E+00  0.0000000E+00  0.0000000E+00  0.0000000E+00  0.0000000E+00
 496234.  0.0000000E+00  0.0000000E+00  0.0000000E+00  0.0000000E+00  0.0000000E+00  0.0000000E+00
 458062.  0.0000000E+00  0.0000000E+00  0.0000000E+00  0.0000000E+00  0.0000000E+00  0.0000000E+00
 419891.  0.0000000E+00  0.0000000E+00  0.0000000E+00  0.0000000E+00  0.0000000E+00  0.0000000E+00
 381719.  0.0000000E+00  0.0000000E+00  0.0000000E+00  0.0000000E+00  0.0000000E+00  0.0000000E+00
 343547.  0.0000000E+00  0.0000000E+00  0.0000000E+00  0.0000000E+00  0.0000000E+00  0.0000000E+00
 305375.  0.0000000E+00  0.0000000E+00  0.0000000E+00  0.0000000E+00  0.0000000E+00  0.0000000E+00
 267203.  0.0000000E+00  0.0000000E+00  0.0000000E+00  0.0000000E+00  0.0000000E+00  0.0000000E+00
 229031.  0.0000000E+00  0.0000000E+00  0.0000000E+00  0.0000000E+00  0.0000000E+00  0.0000000E+00
 190859.  0.0000000E+00  0.0000000E+00  0.0000000E+00  0.0000000E+00  0.0000000E+00  0.0000000E+00
 152688.  0.0000000E+00  0.0000000E+00  0.0000000E+00  0.0000000E+00  0.0000000E+00  0.0000000E+00
 114516.  0.0000000E+00  0.0000000E+00  0.0000000E+00  0.0000000E+00  0.0000000E+00  0.0000000E+00
  76344.  0.0000000E+00  0.0000000E+00  0.0000000E+00  0.0000000E+00  0.0000000E+00  0.0000000E+00
  38172.  0.0000000E+00  0.0000000E+00  0.0000000E+00  0.0000000E+00  0.0000000E+00  0.0000000E+00
      0.  0.0000000E+00  0.0000000E+00  0.0000000E+00  0.0000000E+00  0.0000000E+00  0.0000000E+00
