       9       26 S      498        105.26260         14.35051          6.10643        244.71100      185    7
6371000. -0.5751902E-02  0.6108169E+00  0.2197784E-02  0.7949686E-02 -0.3922548E-03  0.2143762E-01
6370000. -0.5847432E-02  0.6063628E+00  0.2196197E-02  0.1226873E-01 -0.3956017E-03  0.2120789E-01
6369000. -0.5942232E-02  0.6015148E+00  0.2193932E-02  0.1658364E-01 -0.3989124E-03  0.2097736E-01
6368000. -0.6036241E-02  0.5962735E+00  0.2190991E-02  0.2089302E-01 -0.4021869E-03  0.2074606E-01
6368000. -0.6036241E-02  0.5962735E+00  0.2190991E-02  0.2089302E-01 -0.4021869E-03  0.2074606E-01
6367000. -0.6129396E-02  0.5906398E+00  0.2187374E-02  0.2519545E-01 -0.4054250E-03  0.2051401E-01
6366000. -0.6221635E-02  0.5846146E+00  0.2183082E-02  0.2948954E-01 -0.4086267E-03  0.2028122E-01
6365000. -0.6312899E-02  0.5781991E+00  0.2178117E-02  0.3377389E-01 -0.4117917E-03  0.2004772E-01
6364000. -0.6403125E-02  0.5713946E+00  0.2172480E-02  0.3804710E-01 -0.4149200E-03  0.1981352E-01
6363000. -0.6492252E-02  0.5642023E+00  0.2166174E-02  0.4230778E-01 -0.4180116E-03  0.1957867E-01
6362000. -0.6580221E-02  0.5566239E+00  0.2159200E-02  0.4655453E-01 -0.4210662E-03  0.1934316E-01
6361000. -0.6666969E-02  0.5486612E+00  0.2151560E-02  0.5078598E-01 -0.4240838E-03  0.1910703E-01
6360000. -0.6752437E-02  0.5403159E+00  0.2143258E-02  0.5500074E-01 -0.4270643E-03  0.1887029E-01
6359000. -0.6836566E-02  0.5315901E+00  0.2134295E-02  0.5919744E-01 -0.4300076E-03  0.1863297E-01
6358000. -0.6919296E-02  0.5224859E+00  0.2124675E-02  0.6337471E-01 -0.4329136E-03  0.1839509E-01
6357000. -0.7000566E-02  0.5130055E+00  0.2114401E-02  0.6753120E-01 -0.4357822E-03  0.1815668E-01
6356000. -0.7080320E-02  0.5031515E+00  0.2103477E-02  0.7166553E-01 -0.4386133E-03  0.1791774E-01
6356000. -0.7080320E-02  0.4591058E+00  0.2103477E-02  0.4690609E-01 -0.4386133E-03  0.1945834E-01
6355000. -0.7151860E-02  0.4524187E+00  0.2095910E-02  0.4950663E-01 -0.4416450E-03  0.1917109E-01
6354000. -0.7222333E-02  0.4455040E+00  0.2087936E-02  0.5209655E-01 -0.4446316E-03  0.1888354E-01
6353000. -0.7291702E-02  0.4383629E+00  0.2079557E-02  0.5467530E-01 -0.4475729E-03  0.1859570E-01
6352000. -0.7359933E-02  0.4309966E+00  0.2070773E-02  0.5724233E-01 -0.4504691E-03  0.1830758E-01
6351000. -0.7426990E-02  0.4234066E+00  0.2061588E-02  0.5979709E-01 -0.4533201E-03  0.1801920E-01
6350000. -0.7492838E-02  0.4155940E+00  0.2052002E-02  0.6233906E-01 -0.4561258E-03  0.1773059E-01
6349000. -0.7557442E-02  0.4075603E+00  0.2042019E-02  0.6486769E-01 -0.4588861E-03  0.1744175E-01
6348000. -0.7620769E-02  0.3993071E+00  0.2031639E-02  0.6738244E-01 -0.4616011E-03  0.1715270E-01
6347000. -0.7682783E-02  0.3908356E+00  0.2020866E-02  0.6988279E-01 -0.4642707E-03  0.1686346E-01
6346600. -0.7707213E-02  0.3873864E+00  0.2016448E-02  0.7087878E-01 -0.4653259E-03  0.1674771E-01
6346600. -0.7707213E-02  0.5083024E+00  0.2016448E-02  0.5102417E-01 -0.4653259E-03  0.1943511E-01
6318800. -0.9462348E-02  0.2759570E+00  0.1690664E-02  0.9671777E-01 -0.5319265E-03  0.1109575E-01
6291000. -0.9961231E-02 -0.6189283E-01  0.1189963E-02  0.1303786E+00 -0.5623056E-03  0.2856867E-02
6291000. -0.9961231E-02 -0.5675124E-01  0.1189963E-02  0.1343501E+00 -0.5623056E-03  0.2856867E-02
6263000. -0.8805478E-02 -0.4761246E+00  0.5526682E-03  0.1524979E+00 -0.5571612E-03 -0.5146722E-02
6235000. -0.5759744E-02 -0.9065276E+00 -0.1215671E-03  0.1510064E+00 -0.5176227E-03 -0.1277051E-01
6207000. -0.9135365E-03 -0.1284976E+01 -0.7463390E-03  0.1302744E+00 -0.4456905E-03 -0.1986126E-01
6179000.  0.5370706E-02 -0.1551694E+01 -0.1242680E-02  0.9324873E-01 -0.3440777E-03 -0.2624672E-01
6151000.  0.1249041E-01 -0.1658512E+01 -0.1549511E-02  0.4503184E-01 -0.2163048E-03 -0.3173146E-01
6151000.  0.1249041E-01 -0.1428949E+01 -0.1549511E-02  0.3784426E-01 -0.2163048E-03 -0.3242250E-01
6128500.  0.1746662E-01 -0.1373356E+01 -0.1618881E-02  0.1427596E-02 -0.9828890E-04 -0.3429756E-01
6106000.  0.2208024E-01 -0.1224334E+01 -0.1561136E-02 -0.3368738E-01  0.2514280E-04 -0.3548982E-01
6083500.  0.2601304E-01 -0.9896242E+00 -0.1385547E-02 -0.6490116E-01  0.1515907E-03 -0.3600839E-01
6061000.  0.2898536E-01 -0.6831900E+00 -0.1109952E-02 -0.8999202E-01  0.2787127E-03 -0.3587639E-01
6038500.  0.3077631E-01 -0.3241201E+00 -0.7591402E-03 -0.1072643E+00  0.4042689E-03 -0.3512822E-01
6016000.  0.3123935E-01  0.6482153E-01 -0.3628047E-03 -0.1156506E+00  0.5261585E-03 -0.3380812E-01
5993500.  0.3031240E-01  0.4588662E+00  0.4678596E-04 -0.1147638E+00  0.6424526E-03 -0.3196857E-01
5971000.  0.2802178E-01  0.8330109E+00  0.4372080E-03 -0.1048993E+00  0.7514160E-03 -0.2966644E-01
5971000.  0.2802178E-01  0.7620748E+00  0.4372080E-03 -0.9658539E-01  0.7514160E-03 -0.3333473E-01
5937667.  0.2291006E-01  0.1170190E+01  0.8763747E-03 -0.6943650E-01  0.9185129E-03 -0.3046565E-01
5904333.  0.1603397E-01  0.1431488E+01  0.1149391E-02 -0.3403350E-01  0.1069688E-02 -0.2729408E-01
5871000.  0.8219859E-02  0.1527666E+01  0.1228124E-02  0.3905073E-02  0.1204039E-02 -0.2407254E-01
5837667.  0.3315021E-03  0.1462065E+01  0.1113087E-02  0.3926850E-01  0.1321819E-02 -0.2098483E-01
5804333. -0.6833770E-02  0.1255959E+01  0.8287019E-03  0.6808951E-01  0.1424064E-02 -0.1814623E-01
5771000. -0.1262512E-01  0.9433907E+00  0.4165518E-03  0.8780765E-01  0.1512237E-02 -0.1561155E-01
5771000. -0.1262512E-01  0.9434196E+00  0.4165518E-03  0.8780525E-01  0.1512237E-02 -0.1561155E-01
5701000. -0.1872185E-01  0.1365942E+00 -0.6658245E-03  0.1015691E+00  0.1661169E-02 -0.1162662E-01
5701000. -0.1872185E-01  0.9114602E-01 -0.6658245E-03  0.8455077E-01  0.1661169E-02 -0.6349607E-02
5667333. -0.1830755E-01 -0.2392919E+00 -0.1084733E-02  0.7400341E-01  0.1689868E-02 -0.4500097E-02
5633667. -0.1625703E-01 -0.5310599E+00 -0.1446486E-02  0.6232550E-01  0.1708488E-02 -0.2544805E-02
5600000. -0.1278668E-01 -0.7718099E+00 -0.1734635E-02  0.4603585E-01  0.1716921E-02 -0.6582022E-03
5600000. -0.1278668E-01 -0.7718099E+00 -0.1734635E-02  0.4603585E-01  0.1716921E-02 -0.6582022E-03
5563518. -0.7802068E-02 -0.9541724E+00 -0.1938908E-02  0.2484867E-01  0.1714978E-02  0.1325125E-02
5527037. -0.2043077E-02 -0.1040586E+01 -0.2015876E-02  0.1914229E-02  0.1701883E-02  0.3235919E-02
5490556.  0.3919713E-02 -0.1025132E+01 -0.1961403E-02 -0.2072473E-01  0.1678074E-02  0.5065126E-02
5454074.  0.9507992E-02 -0.9109976E+00 -0.1782781E-02 -0.4114509E-01  0.1644059E-02  0.6797512E-02
5417593.  0.1418617E-01 -0.7098987E+00 -0.1497581E-02 -0.5771037E-01  0.1600447E-02  0.8413590E-02
5381111.  0.1750741E-01 -0.4406498E+00 -0.1131599E-02 -0.6919020E-01  0.1547973E-02  0.9888180E-02
5344630.  0.1914836E-01 -0.1273797E+00 -0.7163537E-03 -0.7483994E-01  0.1487524E-02  0.1119545E-01
5308148.  0.1893381E-01  0.2027845E+00 -0.2860868E-03 -0.7443791E-01  0.1420123E-02  0.1231141E-01
5271667.  0.1684718E-01  0.5219179E+00  0.1250761E-03 -0.6825715E-01  0.1346943E-02  0.1321135E-01
5235185.  0.1302801E-01  0.8037664E+00  0.4859607E-03 -0.5702864E-01  0.1269266E-02  0.1387907E-01
5198704.  0.7756994E-02  0.1025665E+01  0.7706209E-03 -0.4184227E-01  0.1188457E-02  0.1430479E-01
5162222.  0.1430124E-02  0.1170097E+01  0.9601393E-03 -0.2403454E-01  0.1105913E-02  0.1448422E-01
5125741. -0.5474108E-02  0.1226140E+01  0.1043692E-02 -0.5082409E-02  0.1023036E-02  0.1442414E-01
5089259. -0.1243506E-01  0.1189746E+01  0.1018985E-02  0.1353746E-01  0.9411522E-03  0.1413975E-01
5052778. -0.1892816E-01  0.1063874E+01  0.8919332E-03  0.3044895E-01  0.8614868E-03  0.1365433E-01
5016296. -0.2446598E-01  0.8581183E+00  0.6757866E-03  0.4448017E-01  0.7851093E-03  0.1299597E-01
4979815. -0.2863158E-01  0.5875512E+00  0.3897650E-03  0.5473293E-01  0.7129126E-03  0.1220122E-01
4943333. -0.3110782E-01  0.2715422E+00  0.5729546E-04  0.6063287E-01  0.6455643E-03  0.1130804E-01
4906852. -0.3169680E-01 -0.6779094E-01 -0.2958528E-03  0.6194840E-01  0.5835265E-03  0.1035379E-01
4870370. -0.3033110E-01 -0.4073147E+00 -0.6435820E-03  0.5878037E-01  0.5270230E-03  0.9381006E-02
4833889. -0.2707512E-01 -0.7244078E+00 -0.9612349E-03  0.5153787E-01  0.4760638E-03  0.8422862E-02
4797407. -0.2211712E-01 -0.9985703E+00 -0.1227285E-02  0.4088189E-01  0.4304741E-03  0.7510421E-02
4760926. -0.1575445E-01 -0.1212546E+01 -0.1424534E-02  0.2766470E-01  0.3899068E-03  0.6672923E-02
4724444. -0.8370371E-02 -0.1353517E+01 -0.1541076E-02  0.1285877E-01  0.3538768E-03  0.5927777E-02
4687963. -0.4085233E-03 -0.1413521E+01 -0.1570710E-02 -0.2519492E-02  0.3218169E-03  0.5288318E-02
4651482.  0.7657274E-02 -0.1389814E+01 -0.1513030E-02 -0.1747809E-01  0.2930987E-03  0.4761111E-02
4615000.  0.1535261E-01 -0.1284867E+01 -0.1373076E-02 -0.3111448E-01  0.2670755E-03  0.4346208E-02
4578518.  0.2223031E-01 -0.1105785E+01 -0.1160686E-02 -0.4266434E-01  0.2431219E-03  0.4036703E-02
4542037.  0.2789612E-01 -0.8638138E+00 -0.8895880E-03 -0.5154024E-01  0.2206635E-03  0.3822487E-02
4505556.  0.3203014E-01 -0.5733737E+00 -0.5762895E-03 -0.5735686E-01  0.1991859E-03  0.3691296E-02
4469074.  0.3440150E-01 -0.2510156E+00 -0.2389131E-03 -0.5993402E-01  0.1782712E-03  0.3622695E-02
4432593.  0.3487779E-01  0.8552545E-01  0.1039455E-03 -0.5929481E-01  0.1576026E-03  0.3603391E-02
4396111.  0.3342879E-01  0.4185328E+00  0.4343965E-03 -0.5564519E-01  0.1369415E-03  0.3616489E-02
4359630.  0.3012369E-01  0.7311609E+00  0.7361507E-03 -0.4934638E-01  0.1161619E-03  0.3642799E-02
4323148.  0.2512291E-01  0.1008450E+01  0.9953888E-03 -0.4088115E-01  0.9521248E-04  0.3674090E-02
4286667.  0.1866628E-01  0.1237850E+01  0.1201277E-02 -0.3081381E-01  0.7409842E-04  0.3698775E-02
4250185.  0.1105652E-01  0.1409827E+01  0.1346380E-02 -0.1975147E-01  0.5287852E-04  0.3710511E-02
4213704.  0.2642227E-02  0.1518176E+01  0.1426752E-02 -0.8306270E-02  0.3162902E-04  0.3709511E-02
4177222. -0.6202789E-02  0.1559975E+01  0.1441887E-02  0.2941589E-02  0.1041578E-04  0.3698581E-02
4140741. -0.1509661E-01  0.1535646E+01  0.1394449E-02  0.1346800E-01 -0.1072407E-04  0.3685734E-02
4104259. -0.2366962E-01  0.1448635E+01  0.1289870E-02  0.2283300E-01 -0.3181414E-04  0.3683937E-02
4067778. -0.3157832E-01  0.1304891E+01  0.1135838E-02  0.3069291E-01 -0.5297646E-04  0.3714798E-02
4031296. -0.3852084E-01  0.1112614E+01  0.9417047E-03  0.3680659E-01 -0.7445733E-04  0.3798812E-02
3994815. -0.4424613E-01  0.8815103E+00  0.7179108E-03  0.4104130E-01 -0.9664055E-04  0.3966968E-02
3958333. -0.4856221E-01  0.6221974E+00  0.4753341E-03  0.4336690E-01 -0.1201341E-03  0.4263013E-02
3921852. -0.5133915E-01  0.3458089E+00  0.2248029E-03  0.4383836E-01 -0.1457780E-03  0.4726166E-02
3885370. -0.5251076E-01  0.6326870E-01 -0.2343797E-04  0.4259312E-01 -0.1746960E-03  0.5418169E-02
3848889. -0.5207187E-01 -0.2150432E+00 -0.2600842E-03  0.3982705E-01 -0.2084081E-03  0.6413478E-02
3812407. -0.5007403E-01 -0.4797532E+00 -0.4770907E-03  0.3577314E-01 -0.2488825E-03  0.7796967E-02
3775926. -0.4661931E-01 -0.7226733E+00 -0.6678157E-03  0.3069397E-01 -0.2986786E-03  0.9692459E-02
3739444. -0.4185223E-01 -0.9371014E+00 -0.8271505E-03  0.2484996E-01 -0.3611417E-03  0.1224802E-01
3702963. -0.3595185E-01 -0.1117799E+01 -0.9514176E-03  0.1848673E-01 -0.4405709E-03  0.1565722E-01
3666482. -0.2912295E-01 -0.1260888E+01 -0.1038303E-02  0.1182658E-01 -0.5425884E-03  0.2018745E-01
3630000. -0.2158831E-01 -0.1363913E+01 -0.1086619E-02  0.5038725E-02 -0.6745470E-03  0.2617928E-01
3630000. -0.2158831E-01 -0.1363913E+01 -0.1086619E-02  0.5038725E-02 -0.6745470E-03  0.2617928E-01
3592500. -0.1335455E-01 -0.1426411E+01 -0.1095699E-02 -0.1949101E-02 -0.8515452E-03  0.3435180E-01
3555000. -0.4884646E-02 -0.1444050E+01 -0.1063751E-02 -0.8902231E-02 -0.1084249E-02  0.4523804E-01
3517500.  0.3555673E-02 -0.1416233E+01 -0.9908788E-03 -0.1587129E-01 -0.1391202E-02  0.5975947E-01
3480000.  0.1169583E-01 -0.1341786E+01 -0.8765762E-03 -0.2301690E-01 -0.1797321E-02  0.7917780E-01
3480000.  0.1169583E-01  0.4694942E-01  0.1116818E-02  0.1934777E-01 -0.1797321E-02  0.4188109E-01
3409422.  0.1079015E-01  0.1106215E+00  0.9061499E-03  0.1845882E-01 -0.1992072E-02 -0.1880186E-02
3338844.  0.9364127E-02  0.1420801E+00  0.7117672E-03  0.1650452E-01 -0.1840158E-02 -0.2260920E-01
3268266.  0.7732197E-02  0.1491803E+00  0.5424432E-03  0.1401311E-01 -0.1540998E-02 -0.2973013E-01
3197688.  0.6118622E-02  0.1400662E+00  0.4017644E-03  0.1138950E-01 -0.1208611E-02 -0.2942244E-01
3127109.  0.4662289E-02  0.1218442E+00  0.2895535E-03  0.8908841E-02 -0.9019582E-03 -0.2558350E-01
3056531.  0.3432286E-02  0.9996980E-01  0.2032493E-03  0.6730887E-02 -0.6461061E-03 -0.2053814E-01
2985953.  0.2446933E-02  0.7815861E-01  0.1390437E-03  0.4924586E-02 -0.4465815E-03 -0.1556110E-01
2915375.  0.1692132E-02  0.5860199E-01  0.9274270E-04  0.3495431E-02 -0.2988027E-03 -0.1125648E-01
2844797.  0.1136372E-02  0.4231570E-01  0.6032727E-04  0.2410013E-02 -0.1939291E-03 -0.7825856E-02
2774219.  0.7416716E-03  0.2951058E-01  0.3827168E-04  0.1615474E-02 -0.1222434E-03 -0.5250294E-02
2703641.  0.4706560E-03  0.1991475E-01  0.2367703E-04  0.1053348E-02 -0.7489367E-04 -0.3407610E-02
2633062.  0.2904528E-03  0.1302093E-01  0.1428079E-04  0.6682618E-03 -0.4461072E-04 -0.2142877E-02
2562484.  0.1743081E-03  0.8255152E-02  0.8394415E-05  0.4125193E-03 -0.2583565E-04 -0.1306815E-02
2491906.  0.1017003E-03  0.5076845E-02  0.4806279E-05  0.2477329E-03 -0.1454374E-04 -0.7731640E-03
2421328.  0.5766376E-04  0.3028897E-02  0.2678673E-05  0.1446786E-03 -0.7954378E-05 -0.4437932E-03
2350750.  0.3175373E-04  0.1752719E-02  0.1452019E-05  0.8212387E-04 -0.4223943E-05 -0.2470700E-03
2280172.  0.1696894E-04  0.9832996E-03  0.7648073E-06  0.4527553E-04 -0.2175886E-05 -0.1333381E-03
2209594.  0.8791451E-05  0.5344580E-03  0.3910000E-06  0.2422106E-04 -0.1086178E-05 -0.6970146E-04
2139016.  0.4410712E-05  0.2811933E-03  0.1937719E-06  0.1255985E-04 -0.5247696E-06 -0.3525665E-04
2068438.  0.2139973E-05  0.1430445E-03  0.9295230E-07  0.6304919E-05 -0.2450214E-06 -0.1723489E-04
1997859.  0.1002466E-05  0.7026133E-04  0.4308806E-07  0.3059321E-05 -0.1103752E-06 -0.8130047E-05
1927281.  0.4526010E-06  0.3326971E-04  0.1926507E-07  0.1432452E-05 -0.4787896E-07 -0.3694424E-05
1856703.  0.1965347E-06  0.1515821E-04  0.8290234E-08  0.6459243E-06 -0.1995557E-07 -0.1613941E-05
1786125.  0.8188626E-07  0.6630787E-05  0.3425237E-08  0.2798635E-06 -0.7971574E-08 -0.6762475E-06
1715547.  0.3264786E-07  0.2777837E-05  0.1355015E-08  0.1162115E-06 -0.3043318E-08 -0.2710450E-06
1644969.  0.1241726E-07  0.1111258E-05  0.5116403E-09  0.4611096E-07 -0.1106786E-08 -0.1036010E-06
1574391.  0.4489315E-08  0.4231005E-06  0.1837389E-09  0.1742337E-07 -0.3820164E-09 -0.3763085E-07
1503812.  0.1536358E-08  0.1527461E-06  0.6250461E-10  0.6244215E-08 -0.1246116E-09 -0.1293622E-07
1433234.  0.4947129E-09  0.5213479E-07  0.2007347E-10  0.2109930E-08 -0.3823672E-10 -0.4188467E-08
1362656.  0.1464061E-09  0.1707008E-07  0.6156345E-11  0.6557553E-09 -0.1099853E-10 -0.1268418E-08
1292078.  0.2799822E-10  0.6851753E-08  0.2235420E-11  0.1270447E-09 -0.3001817E-11 -0.3538870E-09
1221500. -0.5360228E-10  0.1048989E-07  0.2922571E-11 -0.2947964E-09 -0.8261887E-12 -0.1002749E-09
1221500. -0.5360228E-10  0.1090525E-08  0.4391819E-12  0.2818651E-09 -0.8261887E-12 -0.7705422E-10
1183328. -0.4924522E-10 -0.1901449E-08 -0.5127529E-12  0.6812487E-10 -0.4538621E-12 -0.4815619E-10
1145156. -0.3580936E-10 -0.2335898E-08 -0.6434582E-12 -0.9908654E-11 -0.2328537E-12 -0.2709856E-10
1106984. -0.2295605E-10 -0.1887817E-08 -0.5087011E-12 -0.2922673E-10 -0.1128223E-12 -0.1414150E-10
1068812. -0.1346993E-10 -0.1283542E-08 -0.3352570E-12 -0.2683096E-10 -0.5192009E-13 -0.6939047E-11
1030641. -0.7354844E-11 -0.7832293E-09 -0.1975071E-12 -0.1894082E-10 -0.2275642E-13 -0.3223955E-11
 992469. -0.3766285E-11 -0.4399712E-09 -0.1068413E-12 -0.1163235E-10 -0.9507472E-14 -0.1422961E-11
 954297. -0.1815173E-11 -0.2301641E-09 -0.5371444E-13 -0.6473572E-11 -0.3784938E-14 -0.5973123E-12
 916125. -0.8241883E-12 -0.1127222E-09 -0.2523428E-13 -0.3320996E-11 -0.1433795E-14 -0.2383909E-12
 877953. -0.3523353E-12 -0.5177756E-10 -0.1109800E-13 -0.1582536E-11 -0.5156718E-15 -0.9032397E-13
 839781. -0.1415417E-12 -0.2229990E-10 -0.4567611E-14 -0.7024627E-12 -0.1755513E-15 -0.3241045E-13
 801609. -0.5327587E-13 -0.8988739E-11 -0.1755786E-14 -0.2904626E-12 -0.5635299E-16 -0.1097716E-13
 763438. -0.1871522E-13 -0.3380560E-11 -0.6283137E-15 -0.1116641E-12 -0.1697789E-16 -0.3494493E-14
 725266. -0.6105182E-14 -0.1181119E-11 -0.2083664E-15 -0.3976947E-13 -0.4773476E-17 -0.1040039E-14
 687094. -0.1838272E-14 -0.3812741E-12 -0.6367008E-16 -0.1305724E-13 -0.1244116E-17 -0.2876003E-15
 648922. -0.5071375E-15 -0.1129434E-12 -0.1779936E-16 -0.3926636E-14 -0.2981604E-18 -0.7332348E-16
 610750. -0.1270497E-15 -0.3044638E-13 -0.4512769E-17 -0.1072875E-14 -0.6507890E-19 -0.1707833E-16
 572578. -0.2859290E-16 -0.7393048E-14 -0.1026643E-17 -0.2636874E-15 -0.1278789E-19 -0.3594108E-17
 534406. -0.5704941E-17 -0.1596913E-14 -0.2068494E-18 -0.5757944E-16 -0.2230591E-20 -0.6742465E-18
 496234. -0.9928814E-18 -0.3021210E-15 -0.3631886E-19 -0.1100043E-16 -0.3394938E-21 -0.1109035E-18
 458062. -0.1477090E-18 -0.4910301E-16 -0.5446074E-20 -0.1803658E-17 -0.4412787E-22 -0.1567082E-19
 419891. -0.1831752E-19 -0.6689744E-17 -0.6799284E-21 -0.2475474E-18 -0.4771946E-23 -0.1843709E-20
 381719.  0.0000000E+00  0.0000000E+00  0.0000000E+00  0.0000000E+00  0.0000000E+00  0.0000000E+00
 343547.  0.0000000E+00  0.0000000E+00  0.0000000E+00  0.0000000E+00  0.0000000E+00  0.0000000E+00
 305375.  0.0000000E+00  0.0000000E+00  0.0000000E+00  0.0000000E+00  0.0000000E+00  0.0000000E+00
 267203.  0.0000000E+00  0.0000000E+00  0.0000000E+00  0.0000000E+00  0.0000000E+00  0.0000000E+00
 229031.  0.0000000E+00  0.0000000E+00  0.0000000E+00  0.0000000E+00  0.0000000E+00  0.0000000E+00
 190859.  0.0000000E+00  0.0000000E+00  0.0000000E+00  0.0000000E+00  0.0000000E+00  0.0000000E+00
 152688.  0.0000000E+00  0.0000000E+00  0.0000000E+00  0.0000000E+00  0.0000000E+00  0.0000000E+00
 114516.  0.0000000E+00  0.0000000E+00  0.0000000E+00  0.0000000E+00  0.0000000E+00  0.0000000E+00
  76344.  0.0000000E+00  0.0000000E+00  0.0000000E+00  0.0000000E+00  0.0000000E+00  0.0000000E+00
  38172.  0.0000000E+00  0.0000000E+00  0.0000000E+00  0.0000000E+00  0.0000000E+00  0.0000000E+00
      0.  0.0000000E+00  0.0000000E+00  0.0000000E+00  0.0000000E+00  0.0000000E+00  0.0000000E+00
