      16        9 S      642        122.46060         34.40864         13.54168        644.05872      185    7
6371000.  0.4548903E-01 -0.5381924E-02  0.8587185E-03 -0.4463031E-01 -0.1102422E-03 -0.8467924E-01
6370000.  0.4548807E-01  0.1761596E-01  0.8656164E-03 -0.4325928E-01 -0.9694928E-04 -0.8469860E-01
6369000.  0.4548350E-01  0.4060606E-01  0.8722976E-03 -0.4186869E-01 -0.8365378E-04 -0.8471152E-01
6368000.  0.4547532E-01  0.6358640E-01  0.8787590E-03 -0.4045888E-01 -0.7035676E-04 -0.8471801E-01
6368000.  0.4547532E-01  0.6358640E-01  0.8787590E-03 -0.4045888E-01 -0.7035676E-04 -0.8471801E-01
6367000.  0.4546354E-01  0.8655500E-01  0.8849975E-03 -0.3903021E-01 -0.5705923E-04 -0.8471808E-01
6366000.  0.4544815E-01  0.1095099E+00  0.8910105E-03 -0.3758302E-01 -0.4376219E-04 -0.8471170E-01
6365000.  0.4542916E-01  0.1324491E+00  0.8967947E-03 -0.3611769E-01 -0.3046666E-04 -0.8469889E-01
6364000.  0.4540657E-01  0.1553706E+00  0.9023476E-03 -0.3463457E-01 -0.1717364E-04 -0.8467965E-01
6363000.  0.4538039E-01  0.1782725E+00  0.9076664E-03 -0.3313403E-01 -0.3884154E-05 -0.8465397E-01
6362000.  0.4535061E-01  0.2011529E+00  0.9127483E-03 -0.3161646E-01  0.9400800E-05 -0.8462185E-01
6361000.  0.4531724E-01  0.2240096E+00  0.9175907E-03 -0.3008224E-01  0.2268021E-04 -0.8458328E-01
6360000.  0.4528029E-01  0.2468410E+00  0.9221910E-03 -0.2853174E-01  0.3595306E-04 -0.8453829E-01
6359000.  0.4523975E-01  0.2696448E+00  0.9265465E-03 -0.2696537E-01  0.4921834E-04 -0.8448686E-01
6358000.  0.4519564E-01  0.2924193E+00  0.9306552E-03 -0.2538351E-01  0.6247505E-04 -0.8442900E-01
6357000.  0.4514796E-01  0.3151625E+00  0.9345142E-03 -0.2378658E-01  0.7572216E-04 -0.8436471E-01
6356000.  0.4509671E-01  0.3378724E+00  0.9381215E-03 -0.2217497E-01  0.8895869E-04 -0.8429399E-01
6356000.  0.4509671E-01  0.2199075E+00  0.9381215E-03 -0.3093068E-01  0.8895869E-04 -0.9410651E-01
6355000.  0.4506089E-01  0.2364701E+00  0.9428919E-03 -0.2985098E-01  0.1037262E-03 -0.9406033E-01
6354000.  0.4502248E-01  0.2530142E+00  0.9474918E-03 -0.2876062E-01  0.1184861E-03 -0.9400904E-01
6353000.  0.4498146E-01  0.2695388E+00  0.9519199E-03 -0.2765979E-01  0.1332375E-03 -0.9395266E-01
6352000.  0.4493786E-01  0.2860429E+00  0.9561743E-03 -0.2654867E-01  0.1479796E-03 -0.9389117E-01
6351000.  0.4489167E-01  0.3025254E+00  0.9602536E-03 -0.2542747E-01  0.1627118E-03 -0.9382459E-01
6350000.  0.4484290E-01  0.3189853E+00  0.9641561E-03 -0.2429635E-01  0.1774330E-03 -0.9375291E-01
6349000.  0.4479153E-01  0.3354215E+00  0.9678802E-03 -0.2315553E-01  0.1921426E-03 -0.9367613E-01
6348000.  0.4473760E-01  0.3518331E+00  0.9714246E-03 -0.2200519E-01  0.2068398E-03 -0.9359428E-01
6347000.  0.4468109E-01  0.3682190E+00  0.9747877E-03 -0.2084553E-01  0.2215237E-03 -0.9350733E-01
6346600.  0.4465776E-01  0.3747660E+00  0.9760819E-03 -0.2037910E-01  0.2273934E-03 -0.9347113E-01
6346600.  0.4465776E-01  0.2306775E+00  0.9760819E-03 -0.2800369E-01  0.2273934E-03 -0.1090426E+00
6318800.  0.4293502E-01  0.5569566E+00  0.1039451E-02 -0.2261736E-03  0.6975077E-03 -0.1058954E+00
6291000.  0.3982306E-01  0.8654786E+00  0.9731583E-03  0.3090338E-01  0.1146900E-02 -0.9955625E-01
6291000.  0.3982306E-01  0.8774395E+00  0.9731583E-03  0.3332530E-01  0.1146900E-02 -0.9955625E-01
6263000.  0.3532837E-01  0.1162024E+01  0.7546476E-03  0.6577084E-01  0.1564379E-02 -0.8991578E-01
6235000.  0.2966829E-01  0.1406270E+01  0.4007575E-03  0.9432687E-01  0.1932949E-02 -0.7734727E-01
6207000.  0.2303838E-01  0.1602224E+01 -0.6374728E-04  0.1155869E+00  0.2240450E-02 -0.6218925E-01
6179000.  0.1566423E-01  0.1744193E+01 -0.6005012E-03  0.1268246E+00  0.2476420E-02 -0.4487560E-01
6151000.  0.7791414E-02  0.1828770E+01 -0.1161209E-02  0.1262897E+00  0.2632496E-02 -0.2592416E-01
6151000.  0.7791414E-02  0.1464626E+01 -0.1161209E-02  0.1098670E+00  0.2632496E-02 -0.2635522E-01
6128500.  0.2628228E-02  0.1455316E+01 -0.1533814E-02  0.1001457E+00  0.2702728E-02 -0.1336702E-01
6106000. -0.2460449E-02  0.1422840E+01 -0.1861851E-02  0.8473390E-01  0.2726684E-02 -0.1858408E-03
6083500. -0.7397284E-02  0.1369765E+01 -0.2126531E-02  0.6442165E-01  0.2704073E-02  0.1296813E-01
6061000. -0.1211425E-01  0.1298773E+01 -0.2312352E-02  0.4027208E-01  0.2635372E-02  0.2587998E-01
6038500. -0.1655282E-01  0.1212553E+01 -0.2407954E-02  0.1355433E-01  0.2521805E-02  0.3834321E-01
6016000. -0.2066383E-01  0.1113677E+01 -0.2406708E-02 -0.1433487E-01  0.2365303E-02  0.5016273E-01
5993500. -0.2440683E-01  0.1004520E+01 -0.2307023E-02 -0.4195347E-01  0.2168463E-02  0.6115810E-01
5971000. -0.2774937E-01  0.8872235E+00 -0.2112356E-02 -0.6789699E-01  0.1934492E-02  0.7116492E-01
5971000. -0.2774937E-01  0.7980042E+00 -0.2112356E-02 -0.5740345E-01  0.1934492E-02  0.7479755E-01
5937667. -0.3141242E-01  0.6026585E+00 -0.1735672E-02 -0.8522638E-01  0.1509037E-02  0.8737399E-01
5904333. -0.3406398E-01  0.4120083E+00 -0.1236148E-02 -0.1041358E+00  0.1025235E-02  0.9706561E-01
5871000. -0.3573790E-01  0.2294101E+00 -0.6628840E-03 -0.1133894E+00  0.4985913E-03  0.1037440E+00
5837667. -0.3648226E-01  0.5694108E-01 -0.6600337E-04 -0.1132908E+00 -0.5503038E-04  0.1073811E+00
5804333. -0.3635360E-01 -0.1041507E+00  0.5082388E-03 -0.1049734E+00 -0.6198549E-03  0.1080367E+00
5771000. -0.3541368E-01 -0.2530663E+00  0.1021077E-02 -0.9014361E-01 -0.1180576E-02  0.1058476E+00
5771000. -0.3541368E-01 -0.2530614E+00  0.1021077E-02 -0.9013936E-01 -0.1180576E-02  0.1058476E+00
5701000. -0.3091827E-01 -0.5600763E+00  0.1823464E-02 -0.5298661E-01 -0.2271185E-02  0.9081282E-01
5701000. -0.3091827E-01 -0.4518315E+00  0.1823464E-02 -0.3423012E-01 -0.2271185E-02  0.9952758E-01
5667333. -0.2827922E-01 -0.5489204E+00  0.1941504E-02 -0.1181377E-01 -0.2771515E-02  0.8961820E-01
5633667. -0.2508713E-01 -0.6600194E+00  0.1958564E-02  0.4891056E-02 -0.3215859E-02  0.7828245E-01
5600000. -0.2132736E-01 -0.7604109E+00  0.1893009E-02  0.1951961E-01 -0.3595870E-02  0.6528868E-01
5600000. -0.2132736E-01 -0.7604109E+00  0.1893009E-02  0.1951961E-01 -0.3595870E-02  0.6528868E-01
5563518. -0.1669673E-01 -0.8540752E+00  0.1743380E-02  0.3211175E-01 -0.3925768E-02  0.4970201E-01
5527037. -0.1158181E-01 -0.9291041E+00  0.1532994E-02  0.4066187E-01 -0.4162792E-02  0.3291896E-01
5490556. -0.6097603E-02 -0.9825968E+00  0.1285997E-02  0.4488379E-01 -0.4301252E-02  0.1534440E-01
5454074. -0.3747738E-03 -0.1012054E+01  0.1027064E-02  0.4487708E-01 -0.4337797E-02 -0.2609015E-02
5417593.  0.5443819E-02 -0.1015881E+01  0.7792495E-03  0.4110694E-01 -0.4271434E-02 -0.2053170E-01
5381111.  0.1120843E-01 -0.9930437E+00  0.5620437E-03  0.3433147E-01 -0.4103474E-02 -0.3802807E-01
5344630.  0.1676549E-01 -0.9435437E+00  0.3899405E-03  0.2553368E-01 -0.3837462E-02 -0.5472011E-01
5308148.  0.2196525E-01 -0.8684351E+00  0.2713622E-03  0.1582506E-01 -0.3479001E-02 -0.7025942E-01
5271667.  0.2666569E-01 -0.7695953E+00  0.2082777E-03  0.6338516E-02 -0.3035626E-02 -0.8433309E-01
5235185.  0.3073926E-01 -0.6500232E+00  0.1962951E-03 -0.1855950E-02 -0.2516514E-02 -0.9666526E-01
5198704.  0.3407757E-01 -0.5135002E+00  0.2253115E-03 -0.7847622E-02 -0.1932353E-02 -0.1070237E+00
5162222.  0.3659590E-01 -0.3643811E+00  0.2806555E-03 -0.1095934E-01 -0.1294948E-02 -0.1152299E+00
5125741.  0.3823605E-01 -0.2076441E+00  0.3445268E-03 -0.1078397E-01 -0.6170833E-03 -0.1211421E+00
5089259.  0.3896907E-01 -0.4839220E-01  0.3976799E-03 -0.7225521E-02  0.8787282E-04 -0.1246760E+00
5052778.  0.3879527E-01  0.1082436E+00  0.4212070E-03 -0.4962566E-03  0.8061432E-03 -0.1257966E+00
5016296.  0.3774370E-01  0.2574126E+00  0.3982296E-03  0.8913400E-02  0.1523941E-02 -0.1245094E+00
4979815.  0.3587001E-01  0.3947146E+00  0.3154119E-03  0.2026456E-01  0.2227582E-02 -0.1208719E+00
4943333.  0.3325305E-01  0.5164540E+00  0.1641858E-03  0.3264234E-01  0.2903907E-02 -0.1149809E+00
4906852.  0.2999059E-01  0.6197910E+00 -0.5843576E-04  0.4502713E-01  0.3540335E-02 -0.1069695E+00
4870370.  0.2619403E-01  0.7027214E+00 -0.3494700E-03  0.5636070E-01  0.4125243E-02 -0.9701112E-01
4833889.  0.2198355E-01  0.7643378E+00 -0.6999854E-03  0.6564856E-01  0.4648003E-02 -0.8530370E-01
4797407.  0.1748126E-01  0.8046616E+00 -0.1095722E-02  0.7201841E-01  0.5099257E-02 -0.7207085E-01
4760926.  0.1280752E-01  0.8244894E+00 -0.1517851E-02  0.7477518E-01  0.5470948E-02 -0.5756110E-01
4724444.  0.8074661E-02  0.8256102E+00 -0.1944323E-02  0.7347927E-01  0.5756520E-02 -0.4203224E-01
4687963.  0.3383778E-02  0.8102848E+00 -0.2351257E-02  0.6794667E-01  0.5950891E-02 -0.2575568E-01
4651482. -0.1178589E-02  0.7812141E+00 -0.2714540E-02  0.5827320E-01  0.6050578E-02 -0.9007256E-02
4615000. -0.5542581E-02  0.7414617E+00 -0.3011419E-02  0.4483343E-01  0.6053669E-02  0.7937569E-02
4578518. -0.9655416E-02  0.6939791E+00 -0.3221960E-02  0.2823899E-01  0.5959818E-02  0.2480668E-01
4542037. -0.1348105E-01  0.6416553E+00 -0.3330357E-02  0.9309401E-02  0.5770226E-02  0.4133557E-01
4505556. -0.1699954E-01  0.5870813E+00 -0.3325951E-02 -0.1099106E-01  0.5487566E-02  0.5727255E-01
4469074. -0.2020402E-01  0.5322509E+00 -0.3203870E-02 -0.3161161E-01  0.5115894E-02  0.7238438E-01
4432593. -0.2309771E-01  0.4787762E+00 -0.2965349E-02 -0.5148784E-01  0.4660592E-02  0.8645095E-01
4396111. -0.2569152E-01  0.4275774E+00 -0.2617570E-02 -0.6960708E-01  0.4128193E-02  0.9927797E-01
4359630. -0.2799933E-01  0.3789150E+00 -0.2173290E-02 -0.8505891E-01  0.3526317E-02  0.1106956E+00
4323148. -0.3003551E-01  0.3325991E+00 -0.1649929E-02 -0.9711839E-01  0.2863444E-02  0.1205542E+00
4286667. -0.3181140E-01  0.2878574E+00 -0.1068565E-02 -0.1052522E+00  0.2148889E-02  0.1287360E+00
4250185. -0.3333298E-01  0.2435550E+00 -0.4526167E-03 -0.1091651E+00  0.1392487E-02  0.1351500E+00
4213704. -0.3459896E-01  0.1983531E+00  0.1734966E-03 -0.1088215E+00  0.6046097E-03  0.1397284E+00
4177222. -0.3560005E-01  0.1507840E+00  0.7858603E-03 -0.1044078E+00 -0.2041659E-03  0.1424381E+00
4140741. -0.3631864E-01  0.9947716E-01  0.1362244E-02 -0.9634974E-01 -0.1023052E-02  0.1432672E+00
4104259. -0.3672988E-01  0.4326613E-01  0.1883510E-02 -0.8526538E-01 -0.1841348E-02  0.1422298E+00
4067778. -0.3680324E-01 -0.1863358E-01  0.2334373E-02 -0.7190118E-01 -0.2648444E-02  0.1393717E+00
4031296. -0.3650485E-01 -0.8659382E-01  0.2704255E-02 -0.5712694E-01 -0.3434116E-02  0.1347508E+00
3994815. -0.3580026E-01 -0.1604282E+00  0.2987640E-02 -0.4184189E-01 -0.4188452E-02  0.1284507E+00
3958333. -0.3465784E-01 -0.2393351E+00  0.3184139E-02 -0.2692147E-01 -0.4902178E-02  0.1205780E+00
3921852. -0.3305196E-01 -0.3220574E+00  0.3298245E-02 -0.1319456E-01 -0.5566564E-02  0.1112441E+00
3885370. -0.3096576E-01 -0.4067256E+00  0.3338864E-02 -0.1357954E-02 -0.6173647E-02  0.1005805E+00
3848889. -0.2839468E-01 -0.4910319E+00  0.3318464E-02  0.8040024E-02 -0.6716182E-02  0.8872841E-01
3812407. -0.2534773E-01 -0.5724515E+00  0.3252158E-02  0.1463077E-01 -0.7187795E-02  0.7582915E-01
3775926. -0.2184982E-01 -0.6480904E+00  0.3156591E-02  0.1825042E-01 -0.7582902E-02  0.6203648E-01
3739444. -0.1794190E-01 -0.7151753E+00  0.3048765E-02  0.1893361E-01 -0.7896835E-02  0.4749811E-01
3702963. -0.1368075E-01 -0.7710565E+00  0.2944934E-02  0.1690974E-01 -0.8125723E-02  0.3236004E-01
3666482. -0.9137947E-02 -0.8131801E+00  0.2859512E-02  0.1258478E-01 -0.8266561E-02  0.1676675E-01
3630000. -0.4397727E-02 -0.8396940E+00  0.2804163E-02  0.6506538E-02 -0.8317123E-02  0.8496677E-03
3630000. -0.4397727E-02 -0.8396940E+00  0.2804163E-02  0.6506538E-02 -0.8317123E-02  0.8496677E-03
3592500.  0.5814963E-03 -0.8490726E+00  0.2787216E-02 -0.8773797E-03 -0.8273436E-02 -0.1571896E-01
3555000.  0.5560435E-02 -0.8395417E+00  0.2815229E-02 -0.8636761E-02 -0.8131898E-02 -0.3237996E-01
3517500.  0.1042773E-01 -0.8112091E+00  0.2888049E-02 -0.1596931E-01 -0.7892275E-02 -0.4903197E-01
3480000.  0.1507453E-01 -0.7648119E+00  0.3000865E-02 -0.2210382E-01 -0.7554865E-02 -0.6559500E-01
3480000.  0.1507453E-01 -0.1393778E+01  0.1841160E-02  0.2419436E-01 -0.7554865E-02 -0.1136660E+00
3409422.  0.2880363E-01 -0.1055648E+01  0.1418904E-02  0.5115550E-01 -0.5717684E-02 -0.2139129E+00
3338844.  0.3795924E-01 -0.5812975E+00  0.7341019E-03  0.7102563E-01 -0.2931023E-02 -0.2830482E+00
3268266.  0.4148164E-01 -0.5232322E-01 -0.1183568E-03  0.8109374E-01  0.4043060E-03 -0.3119892E+00
3197688.  0.3920694E-01  0.4531789E+00 -0.1021771E-02  0.8015248E-01  0.3822471E-02 -0.2980919E+00
3127109.  0.3176742E-01  0.8709434E+00 -0.1854509E-02  0.6849902E-01  0.6862635E-02 -0.2447551E+00
3056531.  0.2039963E-01  0.1156941E+01 -0.2505702E-02  0.4773962E-01  0.9129811E-02 -0.1602466E+00
2985953.  0.6702070E-02  0.1289899E+01 -0.2888063E-02  0.2045482E-01  0.1034015E-01 -0.5603935E-01
2915375. -0.7613868E-02  0.1270325E+01 -0.2946407E-02 -0.1020850E-01  0.1034615E-01  0.5502397E-01
2844797. -0.2094763E-01  0.1116962E+01 -0.2661587E-02 -0.4096018E-01  0.9141997E-02  0.1604750E+00
2774219. -0.3198368E-01  0.8615772E+00 -0.2049901E-02 -0.6874910E-01  0.6851076E-02  0.2496628E+00
2703641. -0.3980369E-01  0.5431269E+00 -0.1158673E-02 -0.9106817E-01  0.3699825E-02  0.3147645E+00
2633062. -0.4393423E-01  0.2020750E+00 -0.5896562E-04 -0.1061613E+00 -0.1704216E-04  0.3513129E+00
2562484. -0.4433551E-01 -0.1244349E+00  0.1163310E-02 -0.1131197E+00 -0.3974211E-02  0.3582543E+00
2491906. -0.4134360E-01 -0.4062042E+00  0.2416944E-02 -0.1118784E+00 -0.7852375E-02  0.3376129E+00
2421328. -0.3557998E-01 -0.6221396E+00  0.3614278E-02 -0.1031255E+00 -0.1136881E-01  0.2938560E+00
2350750. -0.2784509E-01 -0.7610425E+00  0.4678749E-02 -0.8814540E-01 -0.1430016E-01  0.2330919E+00
2280172. -0.1901035E-01 -0.8211299E+00  0.5550445E-02 -0.6862669E-01 -0.1649585E-01  0.1622138E+00
2209594. -0.9920873E-02 -0.8086375E+00  0.6189450E-02 -0.4645563E-01 -0.1788229E-01  0.8809448E-01
2139016. -0.1317526E-02 -0.7357811E+00  0.6576914E-02 -0.2352000E-01 -0.1845868E-01  0.1691427E-01
2068438.  0.6216790E-02 -0.6184682E+00  0.6714126E-02 -0.1540189E-02 -0.1828653E-01 -0.4633030E-01
1997859.  0.1228500E-01 -0.4739597E+00  0.6619881E-02  0.1805717E-01 -0.1747469E-01 -0.9811221E-01
1927281.  0.1667929E-01 -0.3189041E+00  0.6326803E-02  0.3421435E-01 -0.1616254E-01 -0.1364588E+00
1856703.  0.1936512E-01 -0.1676560E+00  0.5876997E-02  0.4627626E-01 -0.1450292E-01 -0.1608713E+00
1786125.  0.2044906E-01 -0.3121593E-01  0.5317679E-02  0.5396925E-01 -0.1264705E-01 -0.1721056E+00
1715547.  0.2013773E-01  0.8343277E-01  0.4697242E-02  0.5734026E-01 -0.1073214E-01 -0.1718786E+00
1644969.  0.1869160E-01  0.1735600E+00  0.4062212E-02  0.5666180E-01 -0.8872581E-02 -0.1625429E+00
1574391.  0.1637768E-01  0.2407218E+00  0.3455447E-02  0.5229615E-01 -0.7154545E-02 -0.1467914E+00
1503812.  0.1342140E-01  0.2909166E+00  0.2916107E-02  0.4451299E-01 -0.5633533E-02 -0.1274430E+00
1433234.  0.9954114E-02  0.3353893E+00  0.2482064E-02  0.3322315E-01 -0.4333535E-02 -0.1073870E+00
1362656.  0.5943093E-02  0.3931430E+00  0.2196086E-02  0.1752893E-01 -0.3245228E-02 -0.8980979E-01
1292078.  0.1075348E-02  0.4973862E+00  0.2119024E-02 -0.5133633E-02 -0.2319119E-02 -0.7898449E-01
1221500. -0.5473912E-02  0.7111805E+00  0.2357074E-02 -0.4082730E-01 -0.1443967E-02 -0.8228929E-01
1221500. -0.5473912E-02 -0.2470875E+01 -0.5654105E-02 -0.9398355E-03 -0.1443967E-02 -0.7991796E-01
1183328.  0.9575444E-02 -0.2463903E+01 -0.5091324E-02 -0.1841117E+00 -0.1029292E-02 -0.5937485E-01
1145156.  0.2299033E-01 -0.1929499E+01 -0.3522304E-02 -0.3303918E+00 -0.7231305E-03 -0.4351670E-01
1106984.  0.3179847E-01 -0.9484095E+00 -0.1269887E-02 -0.4083363E+00 -0.5004097E-03 -0.3137875E-01
1068812.  0.3380823E-01  0.3047698E+00  0.1205417E-02 -0.4041214E+00 -0.3412347E-03 -0.2219087E-01
1030641.  0.2805943E-01  0.1601453E+01  0.3418285E-02 -0.3231630E+00 -0.2298411E-03 -0.1533905E-01
 992469.  0.1499887E-01  0.2708879E+01  0.4966947E-02 -0.1870213E+00 -0.1537538E-03 -0.1033139E-01
 954297. -0.3639651E-02  0.3437550E+01  0.5611350E-02 -0.2690698E-01 -0.1031600E-03 -0.6769189E-02
 916125. -0.2520948E-01  0.3676607E+01  0.5307531E-02  0.1242917E+00 -0.7041693E-04 -0.4322722E-02
 877953. -0.4668082E-01  0.3409929E+01  0.4194794E-02  0.2393679E+00 -0.4969005E-04 -0.2715932E-02
 839781. -0.6520392E-01  0.2711303E+01  0.2544962E-02  0.3018891E+00 -0.3666250E-04 -0.1717569E-02
 801609. -0.7858770E-01  0.1721865E+01  0.6903715E-03  0.3081422E+00 -0.2827797E-04 -0.1137405E-02
 763438. -0.8560563E-01  0.6163989E+00 -0.1050230E-02  0.2659622E+00 -0.2250596E-04 -0.8231580E-03
 725266. -0.8608799E-01 -0.4331122E+00 -0.2431254E-02  0.1911587E+00 -0.1811467E-04 -0.6604734E-03
 687094. -0.8080733E-01 -0.1288329E+01 -0.3313972E-02  0.1028291E+00 -0.1444580E-04 -0.5713002E-03
 648922. -0.7121104E-01 -0.1864578E+01 -0.3672291E-02  0.1876599E-01 -0.1122414E-04 -0.5051271E-03
 610750. -0.5907423E-01 -0.2137031E+01 -0.3573926E-02 -0.4793982E-01 -0.8393176E-05 -0.4386087E-03
 572578. -0.4615524E-01 -0.2134113E+01 -0.3146327E-02 -0.9056087E-01 -0.5982637E-05 -0.3645729E-03
 534406. -0.3392056E-01 -0.1921648E+01 -0.2538081E-02 -0.1086196E+00 -0.4033154E-05 -0.2857176E-03
 496234. -0.2338020E-01 -0.1582782E+01 -0.1885366E-02 -0.1064068E+00 -0.2553064E-05 -0.2092470E-03
 458062. -0.1504290E-01 -0.1198791E+01 -0.1289767E-02 -0.9079284E-01 -0.1505646E-05 -0.1423091E-03
 419891. -0.8973681E-02 -0.8347262E+00 -0.8095818E-03 -0.6902666E-01 -0.8195532E-06 -0.8913878E-04
 381719. -0.4916478E-02 -0.5319116E+00 -0.4628631E-03 -0.4706332E-01 -0.4069554E-06 -0.5098135E-04
 343547. -0.2441915E-02 -0.3074564E+00 -0.2382775E-03 -0.2869622E-01 -0.1814926E-06 -0.2627045E-04
 305375. -0.1079717E-02 -0.1589483E+00 -0.1085764E-03 -0.1548488E-01 -0.7119711E-07 -0.1198510E-04
 267203. -0.4141219E-03 -0.7193901E-01 -0.4270631E-04 -0.7255105E-02 -0.2384448E-07 -0.4718313E-05
 229031. -0.1325871E-03 -0.2758891E-01 -0.1396154E-04 -0.2861106E-02 -0.6528068E-08 -0.1542160E-05
 190859. -0.3337229E-04 -0.8513178E-02 -0.3574482E-05 -0.9027534E-03 -0.1365687E-08 -0.3945241E-06
 152688. -0.5970475E-05 -0.1936286E-02 -0.6481978E-06 -0.2089333E-03 -0.1948008E-09 -0.7141590E-07
 114516. -0.6281385E-06 -0.2751192E-03 -0.6889938E-07 -0.3007701E-04 -0.1530196E-10 -0.7564632E-08
  76344. -0.2538893E-07 -0.1683057E-04 -0.2805013E-08 -0.1856788E-05 -0.4100511E-12 -0.3064111E-09
  38172. -0.1012879E-09 -0.1350030E-06 -0.1123827E-10 -0.1497376E-07 -0.8125987E-15 -0.1218225E-11
      0.  0.0000000E+00  0.0000000E+00  0.0000000E+00  0.0000000E+00  0.0000000E+00  0.0000000E+00
