       4       34 S      303        129.99409          8.92575          6.50704        247.75050      185    7
6371000. -0.1074594E-01 -0.1356365E+01 -0.2917926E-02  0.7828017E-02  0.1750318E-02 -0.4099679E-01
6370000. -0.1053264E-01 -0.1361425E+01 -0.2918923E-02  0.4870866E-02  0.1756731E-02 -0.4071768E-01
6369000. -0.1031859E-01 -0.1366018E+01 -0.2919455E-02  0.1910899E-02  0.1763100E-02 -0.4044065E-01
6368000. -0.1010384E-01 -0.1370145E+01 -0.2919522E-02 -0.1051326E-02  0.1769426E-02 -0.4016573E-01
6368000. -0.1010384E-01 -0.1370145E+01 -0.2919522E-02 -0.1051326E-02  0.1769426E-02 -0.4016573E-01
6367000. -0.9888491E-02 -0.1373803E+01 -0.2919125E-02 -0.4015247E-02  0.1775709E-02 -0.3989292E-01
6366000. -0.9672600E-02 -0.1376994E+01 -0.2918262E-02 -0.6980305E-02  0.1781950E-02 -0.3962226E-01
6365000. -0.9456246E-02 -0.1379715E+01 -0.2916933E-02 -0.9945937E-02  0.1788148E-02 -0.3935375E-01
6364000. -0.9239501E-02 -0.1381967E+01 -0.2915139E-02 -0.1291158E-01  0.1794304E-02 -0.3908742E-01
6363000. -0.9022440E-02 -0.1383749E+01 -0.2912880E-02 -0.1587668E-01  0.1800418E-02 -0.3882329E-01
6362000. -0.8805136E-02 -0.1385062E+01 -0.2910155E-02 -0.1884067E-01  0.1806491E-02 -0.3856137E-01
6361000. -0.8587662E-02 -0.1385904E+01 -0.2906966E-02 -0.2180298E-01  0.1812524E-02 -0.3830168E-01
6360000. -0.8370094E-02 -0.1386277E+01 -0.2903311E-02 -0.2476307E-01  0.1818515E-02 -0.3804424E-01
6359000. -0.8152504E-02 -0.1386179E+01 -0.2899192E-02 -0.2772036E-01  0.1824467E-02 -0.3778908E-01
6358000. -0.7934966E-02 -0.1385612E+01 -0.2894609E-02 -0.3067430E-01  0.1830378E-02 -0.3753620E-01
6357000. -0.7717554E-02 -0.1384576E+01 -0.2889563E-02 -0.3362432E-01  0.1836250E-02 -0.3728563E-01
6356000. -0.7500341E-02 -0.1383070E+01 -0.2884054E-02 -0.3656988E-01  0.1842083E-02 -0.3703739E-01
6356000. -0.7500341E-02 -0.1202323E+01 -0.2884054E-02 -0.2023918E-01  0.1842083E-02 -0.3540540E-01
6355000. -0.7311647E-02 -0.1201972E+01 -0.2880753E-02 -0.2182236E-01  0.1847611E-02 -0.3502936E-01
6354000. -0.7123028E-02 -0.1201372E+01 -0.2877204E-02 -0.2340395E-01  0.1853080E-02 -0.3465524E-01
6353000. -0.6934523E-02 -0.1200523E+01 -0.2873406E-02 -0.2498379E-01  0.1858490E-02 -0.3428303E-01
6352000. -0.6746170E-02 -0.1199425E+01 -0.2869361E-02 -0.2656169E-01  0.1863842E-02 -0.3391275E-01
6351000. -0.6558009E-02 -0.1198079E+01 -0.2865068E-02 -0.2813746E-01  0.1869136E-02 -0.3354440E-01
6350000. -0.6370079E-02 -0.1196484E+01 -0.2860528E-02 -0.2971094E-01  0.1874372E-02 -0.3317800E-01
6349000. -0.6182419E-02 -0.1194641E+01 -0.2855741E-02 -0.3128193E-01  0.1879551E-02 -0.3281354E-01
6348000. -0.5995067E-02 -0.1192550E+01 -0.2850708E-02 -0.3285027E-01  0.1884673E-02 -0.3245103E-01
6347000. -0.5808063E-02 -0.1190212E+01 -0.2845429E-02 -0.3441576E-01  0.1889739E-02 -0.3209048E-01
6346600. -0.5733368E-02 -0.1189208E+01 -0.2843248E-02 -0.3504111E-01  0.1891749E-02 -0.3194681E-01
6346600. -0.5733368E-02 -0.1368206E+01 -0.2843248E-02 -0.2271522E-01  0.1891749E-02 -0.2994767E-01
6318800.  0.8274190E-04 -0.1278248E+01 -0.2693387E-02 -0.4571553E-01  0.1998474E-02 -0.1917587E-01
6291000.  0.5257453E-02 -0.1075486E+01 -0.2447603E-02 -0.6644032E-01  0.2060786E-02 -0.9564683E-02
6291000.  0.5257453E-02 -0.1111793E+01 -0.2447603E-02 -0.6848808E-01  0.2060786E-02 -0.9564683E-02
6263000.  0.9475455E-02 -0.7907680E+00 -0.2103898E-02 -0.8713268E-01  0.2084296E-02 -0.1292511E-02
6235000.  0.1207670E-01 -0.3803351E+00 -0.1689557E-02 -0.1004414E+00  0.2073432E-02  0.6101489E-02
6207000.  0.1273008E-01  0.9024465E-01 -0.1230261E-02 -0.1074683E+00  0.2031755E-02  0.1275079E-01
6179000.  0.1124627E-01  0.5860888E+00 -0.7548849E-03 -0.1077161E+00  0.1962272E-02  0.1877324E-01
6151000.  0.7597188E-02  0.1069135E+01 -0.2934184E-03 -0.1011800E+00  0.1867519E-02  0.2426407E-01
6151000.  0.7597188E-02  0.8320273E+00 -0.2934184E-03 -0.8989449E-01  0.1867519E-02  0.2384375E-01
6128500.  0.4160231E-02  0.1108334E+01  0.8947452E-05 -0.8090309E-01  0.1779497E-02  0.2592317E-01
6106000. -0.1822050E-03  0.1343122E+01  0.2752358E-03 -0.6954794E-01  0.1684977E-02  0.2752736E-01
6083500. -0.5266656E-02  0.1527216E+01  0.4980327E-03 -0.5636766E-01  0.1585600E-02  0.2867660E-01
6061000. -0.1090123E-01  0.1653729E+01  0.6719137E-03 -0.4194611E-01  0.1482940E-02  0.2939039E-01
6038500. -0.1687405E-01  0.1718262E+01  0.7935608E-03 -0.2688815E-01  0.1378499E-02  0.2968741E-01
6016000. -0.2296223E-01  0.1718961E+01  0.8617917E-03 -0.1179446E-01  0.1273720E-02  0.2958525E-01
5993500. -0.2894077E-01  0.1656488E+01  0.8775039E-03  0.2761527E-02  0.1169982E-02  0.2910062E-01
5971000. -0.3459132E-01  0.1533920E+01  0.8435433E-03  0.1625287E-01  0.1068609E-02  0.2824783E-01
5971000. -0.3459132E-01  0.1424125E+01  0.8435433E-03  0.1862760E-01  0.1068609E-02  0.3277613E-01
5937667. -0.4130743E-01  0.1130283E+01  0.7062879E-03  0.3306457E-01  0.9035245E-03  0.3021755E-01
5904333. -0.4631080E-01  0.7744346E+00  0.5058017E-03  0.4278454E-01  0.7534317E-03  0.2707188E-01
5871000. -0.4935561E-01  0.3865154E+00  0.2665986E-03  0.4792032E-01  0.6209770E-03  0.2350309E-01
5837667. -0.5034765E-01 -0.5965773E-02  0.1156675E-04  0.4893298E-01  0.5079761E-03  0.1965786E-01
5804333. -0.4932649E-01 -0.3795104E+00 -0.2394119E-03  0.4649099E-01  0.4155468E-03  0.1565575E-01
5771000. -0.4644221E-01 -0.7154991E+00 -0.4702402E-03  0.4136529E-01  0.3442691E-03  0.1158508E-01
5771000. -0.4644221E-01 -0.7155326E+00 -0.4702402E-03  0.4136560E-01  0.3442691E-03  0.1158508E-01
5701000. -0.3517958E-01 -0.1293317E+01 -0.8320714E-03  0.2310119E-01  0.2794804E-03 -0.5431065E-04
5701000. -0.3517958E-01 -0.1116524E+01 -0.8320714E-03  0.2630310E-01  0.2794804E-03  0.9861547E-02
5667333. -0.2892830E-01 -0.1250836E+01 -0.9582827E-03  0.2145786E-01  0.2351989E-03  0.7148704E-02
5633667. -0.2193108E-01 -0.1395887E+01 -0.1057949E-02  0.1616949E-01  0.2021600E-03  0.5424836E-02
5600000. -0.1425096E-01 -0.1503558E+01 -0.1128834E-02  0.1066335E-01  0.1774835E-03  0.3960358E-02
5600000. -0.1425096E-01 -0.1503558E+01 -0.1128834E-02  0.1066335E-01  0.1774835E-03  0.3960358E-02
5563518. -0.5409386E-02 -0.1577139E+01 -0.1172998E-02  0.4792994E-02  0.1585970E-03  0.2685218E-02
5527037.  0.3726880E-02 -0.1606830E+01 -0.1184281E-02 -0.7886533E-03  0.1462018E-03  0.1687145E-02
5490556.  0.1291248E-01 -0.1594841E+01 -0.1164854E-02 -0.5907519E-02  0.1388144E-03  0.9301921E-03
5454074.  0.2191814E-01 -0.1544564E+01 -0.1117770E-02 -0.1042877E-01  0.1351545E-03  0.3799025E-03
5417593.  0.3053669E-01 -0.1460523E+01 -0.1046750E-02 -0.1425603E-01  0.1341231E-03  0.7178597E-05
5381111.  0.3858946E-01 -0.1347749E+01 -0.9559359E-03 -0.1733520E-01  0.1347946E-03 -0.2200683E-03
5344630.  0.4592707E-01 -0.1211762E+01 -0.8496928E-03 -0.1964482E-01  0.1364163E-03 -0.3284022E-03
5308148.  0.5243340E-01 -0.1058274E+01 -0.7324116E-03 -0.2119391E-01  0.1383687E-03 -0.3398409E-03
5271667.  0.5802387E-01 -0.8928497E+00 -0.6083476E-03 -0.2202322E-01  0.1401775E-03 -0.2821005E-03
5235185.  0.6264605E-01 -0.7208959E+00 -0.4814657E-03 -0.2218720E-01  0.1414966E-03 -0.1706966E-03
5198704.  0.6627686E-01 -0.5474138E+00 -0.3553854E-03 -0.2175871E-01  0.1420561E-03 -0.2063563E-04
5162222.  0.6892066E-01 -0.3768203E+00 -0.2332327E-03 -0.2082875E-01  0.1417094E-03  0.1436159E-03
5125741.  0.7060529E-01 -0.2130149E+00 -0.1176487E-03 -0.1947996E-01  0.1403847E-03  0.3204311E-03
5089259.  0.7137926E-01 -0.5921091E-01 -0.1076133E-04 -0.1780647E-01  0.1380409E-03  0.4966208E-03
5052778.  0.7130741E-01  0.8203571E-01  0.8583852E-04 -0.1590195E-01  0.1347248E-03  0.6594821E-03
5016296.  0.7046733E-01  0.2088466E+00  0.1710614E-03 -0.1384518E-01  0.1305088E-03  0.8104966E-03
4979815.  0.6894569E-01  0.3199378E+00  0.2442659E-03 -0.1171796E-01  0.1254835E-03  0.9406891E-03
4943333.  0.6683461E-01  0.4146450E+00  0.3052559E-03 -0.9588080E-02  0.1197812E-03  0.1047623E-02
4906852.  0.6422866E-01  0.4928156E+00  0.3541705E-03 -0.7510222E-02  0.1135206E-03  0.1135110E-02
4870370.  0.6122183E-01  0.5547214E+00  0.3914731E-03 -0.5539430E-02  0.1068372E-03  0.1194863E-02
4833889.  0.5790556E-01  0.6010744E+00  0.4178775E-03 -0.3708414E-02  0.9987669E-04  0.1233340E-02
4797407.  0.5436600E-01  0.6328557E+00  0.4342597E-03 -0.2043412E-02  0.9274710E-04  0.1253131E-02
4760926.  0.5068352E-01  0.6512486E+00  0.4416469E-03 -0.5691451E-03  0.8557281E-04  0.1249412E-02
4724444.  0.4693056E-01  0.6576810E+00  0.4411478E-03  0.7108767E-03  0.7846546E-04  0.1230828E-02
4687963.  0.4317165E-01  0.6536057E+00  0.4338861E-03  0.1792165E-02  0.7150449E-04  0.1197930E-02
4651482.  0.3946258E-01  0.6405348E+00  0.4210024E-03  0.2676018E-02  0.6477534E-04  0.1150663E-02
4615000.  0.3585030E-01  0.6200099E+00  0.4035905E-03  0.3375546E-02  0.5834027E-04  0.1095712E-02
4578518.  0.3237346E-01  0.5934644E+00  0.3826799E-03  0.3899880E-02  0.5224358E-04  0.1032352E-02
4542037.  0.2906260E-01  0.5622977E+00  0.3592320E-03  0.4265266E-02  0.4652905E-04  0.9631896E-03
4505556.  0.2594033E-01  0.5277954E+00  0.3340991E-03  0.4491069E-02  0.4121481E-04  0.8925442E-03
4469074.  0.2302238E-01  0.4910821E+00  0.3080393E-03  0.4591636E-02  0.3631553E-04  0.8183151E-03
4432593.  0.2031852E-01  0.4532118E+00  0.2817127E-03  0.4588047E-02  0.3184163E-04  0.7447062E-03
4396111.  0.1783262E-01  0.4150591E+00  0.2556595E-03  0.4498425E-02  0.2778324E-04  0.6729055E-03
4359630.  0.1556429E-01  0.3773578E+00  0.2303324E-03  0.4337466E-02  0.2413507E-04  0.6016983E-03
4323148.  0.1350893E-01  0.3407448E+00  0.2060862E-03  0.4123395E-02  0.2088488E-04  0.5341455E-03
4286667.  0.1165899E-01  0.3056985E+00  0.1831860E-03  0.3869524E-02  0.1801237E-04  0.4696045E-03
4250185.  0.1000429E-01  0.2725930E+00  0.1618244E-03  0.3587965E-02  0.1550171E-04  0.4079020E-03
4213704.  0.8532926E-02  0.2417138E+00  0.1421246E-03  0.3290905E-02  0.1333336E-04  0.3500231E-03
4177222.  0.7231547E-02  0.2132313E+00  0.1241503E-03  0.2986410E-02  0.1148844E-04  0.2947568E-03
4140741.  0.6086142E-02  0.1872612E+00  0.1079225E-03  0.2682354E-02  0.9953050E-05  0.2419579E-03
4104259.  0.5082097E-02  0.1638486E+00  0.9341753E-04  0.2385268E-02  0.8713333E-05  0.1912333E-03
4067778.  0.4204850E-02  0.1429788E+00  0.8058584E-04  0.2098675E-02  0.7762837E-05  0.1407300E-03
4031296.  0.3439881E-02  0.1246158E+00  0.6935482E-04  0.1826688E-02  0.7102593E-05  0.8968729E-04
3994815.  0.2773072E-02  0.1086848E+00  0.5963342E-04  0.1571715E-02  0.6740034E-05  0.3634564E-04
3958333.  0.2190741E-02  0.9508801E-01  0.5132085E-04  0.1334773E-02  0.6696014E-05 -0.2198081E-04
3921852.  0.1679824E-02  0.8372914E-01  0.4430936E-04  0.1117569E-02  0.7005844E-05 -0.8774752E-04
3885370.  0.1227804E-02  0.7449244E-01  0.3848291E-04  0.9209477E-03  0.7722358E-05 -0.1647437E-03
3848889.  0.8228887E-03  0.6726076E-01  0.3372056E-04  0.7462929E-03  0.8922967E-05 -0.2576934E-03
3812407.  0.4539261E-03  0.6190867E-01  0.2988923E-04  0.5962682E-03  0.1071500E-04 -0.3724149E-03
3775926.  0.1105957E-03  0.5828348E-01  0.2683686E-04  0.4752160E-03  0.1324406E-04 -0.5165595E-03
3739444. -0.2164858E-03  0.5619283E-01  0.2437706E-04  0.3909560E-03  0.1670520E-04 -0.6997325E-03
3702963. -0.5353506E-03  0.5535972E-01  0.2226465E-04  0.3566880E-03  0.2135504E-04 -0.9340254E-03
3666482. -0.8520566E-03  0.5534911E-01  0.2015634E-04  0.3940430E-03  0.2752783E-04 -0.1234445E-02
3630000. -0.1169504E-02  0.5547075E-01  0.1755038E-04  0.5376869E-03  0.3565385E-04 -0.1619548E-02
3630000. -0.1169504E-02  0.5547075E-01  0.1755038E-04  0.5376869E-03  0.3565385E-04 -0.1619548E-02
3592500. -0.1494173E-02  0.5453190E-01  0.1355653E-04  0.8544101E-03  0.4661724E-04 -0.2126590E-02
3555000. -0.1805448E-02  0.5048879E-01  0.6974924E-05  0.1436571E-02  0.6096217E-04 -0.2773313E-02
3517500. -0.2075965E-02  0.3997072E-01 -0.4163629E-05  0.2433762E-02  0.7959583E-04 -0.3588550E-02
3480000. -0.2252597E-02  0.1741799E-01 -0.2294416E-04  0.4081931E-02  0.1035877E-03 -0.4597482E-02
3480000. -0.2252597E-02 -0.1064867E+00 -0.8135796E-04 -0.3973592E-02  0.1035877E-03  0.2585800E-02
3409422. -0.1319300E-02 -0.6505123E-01 -0.4687131E-04 -0.2377170E-02  0.7382831E-04  0.2603963E-02
3338844. -0.7555542E-03 -0.3877763E-01 -0.2644745E-04 -0.1391045E-02  0.4804802E-04  0.2012381E-02
3268266. -0.4231612E-03 -0.2256896E-01 -0.1461469E-04 -0.7963418E-03  0.2937237E-04  0.1373610E-02
3197688. -0.2317722E-03 -0.1282889E-01 -0.7907553E-05 -0.4460105E-03  0.1710643E-04  0.8676104E-03
3127109. -0.1241284E-03 -0.7123186E-02 -0.4188070E-05 -0.2443608E-03  0.9566889E-05  0.5178556E-03
3056531. -0.6498834E-04 -0.3863381E-02 -0.2170452E-05 -0.1309402E-03  0.5162115E-05  0.2953379E-03
2985953. -0.3325032E-04 -0.2046421E-02 -0.1100131E-05 -0.6860012E-04  0.2695122E-05  0.1619601E-03
2915375. -0.1661696E-04 -0.1058350E-02 -0.5450746E-06 -0.3512361E-04  0.1363893E-05  0.8572886E-04
2844797. -0.8106939E-05 -0.5341810E-03 -0.2638183E-06 -0.1756566E-04  0.6696725E-06  0.4390089E-04
2774219. -0.3858515E-05 -0.2629888E-03 -0.1246436E-06 -0.8575206E-05  0.3191689E-06  0.2177834E-04
2703641. -0.1790209E-05 -0.1262086E-03 -0.5743647E-07 -0.4083345E-05  0.1476644E-06  0.1047300E-04
2633062. -0.8089403E-06 -0.5899290E-04 -0.2578965E-07 -0.1894980E-05  0.6629867E-07  0.4882987E-05
2562484. -0.3556574E-06 -0.2683403E-04 -0.1127189E-07 -0.8562511E-06  0.2887250E-07  0.2206952E-05
2491906. -0.1519689E-06 -0.1186569E-04 -0.4789933E-08 -0.3762951E-06  0.1218634E-07  0.9664296E-06
2421328. -0.6302851E-07 -0.5094636E-05 -0.1976426E-08 -0.1606416E-06  0.4980126E-08  0.4097147E-06
2350750. -0.2533776E-07 -0.2121162E-05 -0.7907273E-09 -0.6652743E-07  0.1968174E-08  0.1679904E-06
2280172. -0.9857538E-08 -0.8551324E-06 -0.3062501E-09 -0.2668705E-07  0.7511548E-09  0.6653283E-07
2209594. -0.3704953E-08 -0.3332536E-06 -0.1146209E-09 -0.1035206E-07  0.2763955E-09  0.2541506E-07
2139016. -0.1342676E-08 -0.1253135E-06 -0.4137518E-10 -0.3875849E-08  0.9787261E-10  0.9347628E-08
2068438. -0.4681663E-09 -0.4537416E-07 -0.1437352E-10 -0.1397711E-08  0.3328174E-10  0.3303750E-08
1997859. -0.1566830E-09 -0.1578346E-07 -0.4793785E-11 -0.4843558E-09  0.1084244E-10  0.1119501E-08
1927281. -0.5019826E-10 -0.5261083E-08 -0.1530846E-11 -0.1608778E-09  0.3375014E-11  0.3627924E-09
1856703. -0.1534953E-10 -0.1675598E-08 -0.4666709E-12 -0.5106784E-10  0.1000772E-11  0.1121108E-09
1786125. -0.4464616E-11 -0.5082526E-09 -0.1353482E-12 -0.1544215E-10  0.2817265E-12  0.3292865E-10
1715547. -0.1230631E-11 -0.1462871E-09 -0.3720477E-13 -0.4432003E-11  0.7500133E-13  0.9158951E-11
1644969. -0.3202510E-12 -0.3976677E-10 -0.9646709E-14 -0.1202981E-11  0.1878935E-13  0.2403810E-11
1574391.  0.0000000E+00  0.0000000E+00  0.0000000E+00  0.0000000E+00  0.0000000E+00  0.0000000E+00
1503812.  0.0000000E+00  0.0000000E+00  0.0000000E+00  0.0000000E+00  0.0000000E+00  0.0000000E+00
1433234.  0.0000000E+00  0.0000000E+00  0.0000000E+00  0.0000000E+00  0.0000000E+00  0.0000000E+00
1362656.  0.0000000E+00  0.0000000E+00  0.0000000E+00  0.0000000E+00  0.0000000E+00  0.0000000E+00
1292078.  0.0000000E+00  0.0000000E+00  0.0000000E+00  0.0000000E+00  0.0000000E+00  0.0000000E+00
1221500.  0.0000000E+00  0.0000000E+00  0.0000000E+00  0.0000000E+00  0.0000000E+00  0.0000000E+00
1221500.  0.0000000E+00  0.0000000E+00  0.0000000E+00  0.0000000E+00  0.0000000E+00  0.0000000E+00
1183328.  0.0000000E+00  0.0000000E+00  0.0000000E+00  0.0000000E+00  0.0000000E+00  0.0000000E+00
1145156.  0.0000000E+00  0.0000000E+00  0.0000000E+00  0.0000000E+00  0.0000000E+00  0.0000000E+00
1106984.  0.0000000E+00  0.0000000E+00  0.0000000E+00  0.0000000E+00  0.0000000E+00  0.0000000E+00
1068812.  0.0000000E+00  0.0000000E+00  0.0000000E+00  0.0000000E+00  0.0000000E+00  0.0000000E+00
1030641.  0.0000000E+00  0.0000000E+00  0.0000000E+00  0.0000000E+00  0.0000000E+00  0.0000000E+00
 992469.  0.0000000E+00  0.0000000E+00  0.0000000E+00  0.0000000E+00  0.0000000E+00  0.0000000E+00
 954297.  0.0000000E+00  0.0000000E+00  0.0000000E+00  0.0000000E+00  0.0000000E+00  0.0000000E+00
 916125.  0.0000000E+00  0.0000000E+00  0.0000000E+00  0.0000000E+00  0.0000000E+00  0.0000000E+00
 877953.  0.0000000E+00  0.0000000E+00  0.0000000E+00  0.0000000E+00  0.0000000E+00  0.0000000E+00
 839781.  0.0000000E+00  0.0000000E+00  0.0000000E+00  0.0000000E+00  0.0000000E+00  0.0000000E+00
 801609.  0.0000000E+00  0.0000000E+00  0.0000000E+00  0.0000000E+00  0.0000000E+00  0.0000000E+00
 763438.  0.0000000E+00  0.0000000E+00  0.0000000E+00  0.0000000E+00  0.0000000E+00  0.0000000E+00
 725266.  0.0000000E+00  0.0000000E+00  0.0000000E+00  0.0000000E+00  0.0000000E+00  0.0000000E+00
 687094.  0.0000000E+00  0.0000000E+00  0.0000000E+00  0.0000000E+00  0.0000000E+00  0.0000000E+00
 648922.  0.0000000E+00  0.0000000E+00  0.0000000E+00  0.0000000E+00  0.0000000E+00  0.0000000E+00
 610750.  0.0000000E+00  0.0000000E+00  0.0000000E+00  0.0000000E+00  0.0000000E+00  0.0000000E+00
 572578.  0.0000000E+00  0.0000000E+00  0.0000000E+00  0.0000000E+00  0.0000000E+00  0.0000000E+00
 534406.  0.0000000E+00  0.0000000E+00  0.0000000E+00  0.0000000E+00  0.0000000E+00  0.0000000E+00
 496234.  0.0000000E+00  0.0000000E+00  0.0000000E+00  0.0000000E+00  0.0000000E+00  0.0000000E+00
 458062.  0.0000000E+00  0.0000000E+00  0.0000000E+00  0.0000000E+00  0.0000000E+00  0.0000000E+00
 419891.  0.0000000E+00  0.0000000E+00  0.0000000E+00  0.0000000E+00  0.0000000E+00  0.0000000E+00
 381719.  0.0000000E+00  0.0000000E+00  0.0000000E+00  0.0000000E+00  0.0000000E+00  0.0000000E+00
 343547.  0.0000000E+00  0.0000000E+00  0.0000000E+00  0.0000000E+00  0.0000000E+00  0.0000000E+00
 305375.  0.0000000E+00  0.0000000E+00  0.0000000E+00  0.0000000E+00  0.0000000E+00  0.0000000E+00
 267203.  0.0000000E+00  0.0000000E+00  0.0000000E+00  0.0000000E+00  0.0000000E+00  0.0000000E+00
 229031.  0.0000000E+00  0.0000000E+00  0.0000000E+00  0.0000000E+00  0.0000000E+00  0.0000000E+00
 190859.  0.0000000E+00  0.0000000E+00  0.0000000E+00  0.0000000E+00  0.0000000E+00  0.0000000E+00
 152688.  0.0000000E+00  0.0000000E+00  0.0000000E+00  0.0000000E+00  0.0000000E+00  0.0000000E+00
 114516.  0.0000000E+00  0.0000000E+00  0.0000000E+00  0.0000000E+00  0.0000000E+00  0.0000000E+00
  76344.  0.0000000E+00  0.0000000E+00  0.0000000E+00  0.0000000E+00  0.0000000E+00  0.0000000E+00
  38172.  0.0000000E+00  0.0000000E+00  0.0000000E+00  0.0000000E+00  0.0000000E+00  0.0000000E+00
      0.  0.0000000E+00  0.0000000E+00  0.0000000E+00  0.0000000E+00  0.0000000E+00  0.0000000E+00
