       4       20 S      289        186.53191         10.46840          6.54177        259.16711      185    7
6371000. -0.1518770E-01  0.9068155E+00  0.5418858E-02  0.2060655E-01 -0.1866447E-02  0.6783583E-01
6370000. -0.1532972E-01  0.9028830E+00  0.5415388E-02  0.2360809E-01 -0.1877073E-02  0.6756580E-01
6369000. -0.1547112E-01  0.8987838E+00  0.5411447E-02  0.2660698E-01 -0.1887657E-02  0.6729551E-01
6368000. -0.1561186E-01  0.8945181E+00  0.5407036E-02  0.2960292E-01 -0.1898199E-02  0.6702496E-01
6368000. -0.1561186E-01  0.8945181E+00  0.5407036E-02  0.2960292E-01 -0.1898199E-02  0.6702496E-01
6367000. -0.1575192E-01  0.8900861E+00  0.5402154E-02  0.3259563E-01 -0.1908698E-02  0.6675416E-01
6366000. -0.1589127E-01  0.8854880E+00  0.5396803E-02  0.3558481E-01 -0.1919155E-02  0.6648313E-01
6365000. -0.1602989E-01  0.8807241E+00  0.5390984E-02  0.3857017E-01 -0.1929569E-02  0.6621186E-01
6364000. -0.1616774E-01  0.8757946E+00  0.5384696E-02  0.4155141E-01 -0.1939940E-02  0.6594037E-01
6363000. -0.1630481E-01  0.8706998E+00  0.5377940E-02  0.4452826E-01 -0.1950269E-02  0.6566865E-01
6362000. -0.1644107E-01  0.8654400E+00  0.5370717E-02  0.4750041E-01 -0.1960555E-02  0.6539673E-01
6361000. -0.1657648E-01  0.8600154E+00  0.5363028E-02  0.5046758E-01 -0.1970798E-02  0.6512460E-01
6360000. -0.1671104E-01  0.8544264E+00  0.5354875E-02  0.5342948E-01 -0.1980999E-02  0.6485228E-01
6359000. -0.1684470E-01  0.8486734E+00  0.5346256E-02  0.5638582E-01 -0.1991157E-02  0.6457977E-01
6358000. -0.1697745E-01  0.8427567E+00  0.5337175E-02  0.5933630E-01 -0.2001272E-02  0.6430708E-01
6357000. -0.1710925E-01  0.8366767E+00  0.5327630E-02  0.6228065E-01 -0.2011344E-02  0.6403422E-01
6356000. -0.1724009E-01  0.8304337E+00  0.5317623E-02  0.6521858E-01 -0.2021374E-02  0.6376119E-01
6356000. -0.1724009E-01  0.7410096E+00  0.5317623E-02  0.4832873E-01 -0.2021374E-02  0.6751243E-01
6355000. -0.1735606E-01  0.7366998E+00  0.5309903E-02  0.5004411E-01 -0.2031943E-02  0.6716175E-01
6354000. -0.1747135E-01  0.7322968E+00  0.5301914E-02  0.5175613E-01 -0.2042457E-02  0.6681116E-01
6353000. -0.1758594E-01  0.7278007E+00  0.5293656E-02  0.5346468E-01 -0.2052916E-02  0.6646067E-01
6352000. -0.1769982E-01  0.7232119E+00  0.5285130E-02  0.5516966E-01 -0.2063321E-02  0.6611028E-01
6351000. -0.1781297E-01  0.7185304E+00  0.5276337E-02  0.5687097E-01 -0.2073670E-02  0.6575999E-01
6350000. -0.1792538E-01  0.7137566E+00  0.5267277E-02  0.5856849E-01 -0.2083964E-02  0.6540982E-01
6349000. -0.1803703E-01  0.7088906E+00  0.5257951E-02  0.6026212E-01 -0.2094204E-02  0.6505976E-01
6348000. -0.1814791E-01  0.7039326E+00  0.5248359E-02  0.6195178E-01 -0.2104388E-02  0.6470982E-01
6347000. -0.1825800E-01  0.6988829E+00  0.5238503E-02  0.6363734E-01 -0.2114518E-02  0.6436000E-01
6346600. -0.1830182E-01  0.6968374E+00  0.5234487E-02  0.6431039E-01 -0.2118554E-02  0.6422011E-01
6346600. -0.1830182E-01  0.8506880E+00  0.5234487E-02  0.5109398E-01 -0.2118554E-02  0.7060168E-01
6318800. -0.2176158E-01  0.7267905E+00  0.4947877E-02  0.7986405E-01 -0.2404111E-02  0.6032808E-01
6291000. -0.2457461E-01  0.5548898E+00  0.4541781E-02  0.1057004E+00 -0.2645433E-02  0.5032442E-01
6291000. -0.2457461E-01  0.5785555E+00  0.4541781E-02  0.1085680E+00 -0.2645433E-02  0.5032442E-01
6263000. -0.2663900E-01  0.3536623E+00  0.4011147E-02  0.1321320E+00 -0.2845482E-02  0.4075076E-01
6235000. -0.2762534E-01  0.8936397E-01  0.3387795E-02  0.1506301E+00 -0.3003950E-02  0.3139886E-01
6207000. -0.2738040E-01 -0.2049522E+00  0.2695566E-02  0.1633802E+00 -0.3121766E-02  0.2224787E-01
6179000. -0.2579593E-01 -0.5182704E+00  0.1960818E-02  0.1699212E+00 -0.3199770E-02  0.1327835E-01
6151000. -0.2281499E-01 -0.8383198E+00  0.1211420E-02  0.1700318E+00 -0.3238725E-02  0.4475567E-02
6151000. -0.2281499E-01 -0.6300457E+00  0.1211420E-02  0.1522477E+00 -0.3238725E-02  0.5737817E-02
6128500. -0.2024658E-01 -0.8230174E+00  0.6817195E-03  0.1472233E+00 -0.3250028E-02  0.7166306E-03
6106000. -0.1701467E-01 -0.1005103E+01  0.1749664E-03  0.1392935E+00 -0.3244167E-02 -0.3981332E-02
6083500. -0.1316497E-01 -0.1172249E+01 -0.2990457E-03  0.1287311E+00 -0.3222294E-02 -0.8350530E-02
6061000. -0.8756816E-02 -0.1320796E+01 -0.7315676E-03  0.1158534E+00 -0.3185577E-02 -0.1238678E-01
6038500. -0.3861682E-02 -0.1447553E+01 -0.1115039E-02  0.1010149E+00 -0.3135198E-02 -0.1608805E-01
6016000.  0.1438589E-02 -0.1549836E+01 -0.1443203E-02  0.8459713E-01 -0.3072338E-02 -0.1945407E-01
5993500.  0.7053631E-02 -0.1625513E+01 -0.1711180E-02  0.6699831E-01 -0.2998182E-02 -0.2248636E-01
5971000.  0.1288660E-01 -0.1673049E+01 -0.1915519E-02  0.4862606E-01 -0.2913901E-02 -0.2518831E-01
5971000.  0.1288660E-01 -0.1541783E+01 -0.1915519E-02  0.4152914E-01 -0.2913901E-02 -0.2687528E-01
5937667.  0.2091422E-01 -0.1517945E+01 -0.2065779E-02  0.1621764E-01 -0.2767153E-02 -0.2906073E-01
5904333.  0.2868281E-01 -0.1443684E+01 -0.2089155E-02 -0.6846308E-02 -0.2611422E-02 -0.3031953E-01
5871000.  0.3594497E-01 -0.1325643E+01 -0.1999175E-02 -0.2703112E-01 -0.2451364E-02 -0.3073052E-01
5837667.  0.4249128E-01 -0.1171344E+01 -0.1811992E-02 -0.4395992E-01 -0.2291177E-02 -0.3038499E-01
5804333.  0.4815283E-01 -0.9887024E+00 -0.1545137E-02 -0.5747325E-01 -0.2134560E-02 -0.2938126E-01
5771000.  0.5280175E-01 -0.7856203E+00 -0.1216517E-02 -0.6759014E-01 -0.1984695E-02 -0.2782292E-01
5771000.  0.5280175E-01 -0.7856624E+00 -0.1216517E-02 -0.6758989E-01 -0.1984695E-02 -0.2782292E-01
5701000.  0.5904840E-01 -0.3401259E+00 -0.3945151E-03 -0.8006252E-01 -0.1717519E-02 -0.2057309E-01
5701000.  0.5904840E-01 -0.2956336E+00 -0.3945151E-03 -0.7719645E-01 -0.1717519E-02 -0.3721670E-01
5667333.  0.6004338E-01 -0.8492050E-01  0.1436722E-04 -0.7736826E-01 -0.1532602E-02 -0.3287727E-01
5633667.  0.5996458E-01  0.1146792E+00  0.4215557E-03 -0.7654132E-01 -0.1368641E-02 -0.2926631E-01
5600000.  0.5883517E-01  0.3119511E+00  0.8205776E-03 -0.7423226E-01 -0.1222968E-02 -0.2589818E-01
5600000.  0.5883517E-01  0.3119511E+00  0.8205776E-03 -0.7423226E-01 -0.1222968E-02 -0.2589818E-01
5563518.  0.5645174E-01  0.5190355E+00  0.1234877E-02 -0.7022283E-01 -0.1084455E-02 -0.2252591E-01
5527037.  0.5291170E-01  0.7153378E+00  0.1622171E-02 -0.6483858E-01 -0.9644686E-03 -0.1942807E-01
5490556.  0.4828700E-01  0.8973284E+00  0.1975209E-02 -0.5829523E-01 -0.8614434E-03 -0.1660172E-01
5454074.  0.4266852E-01  0.1061939E+01  0.2288009E-02 -0.5081972E-01 -0.7738206E-03 -0.1404604E-01
5417593.  0.3616332E-01  0.1206732E+01  0.2555880E-02 -0.4264380E-01 -0.7000938E-03 -0.1174728E-01
5381111.  0.2889041E-01  0.1329730E+01  0.2775479E-02 -0.3399470E-01 -0.6388041E-03 -0.9700561E-02
5344630.  0.2097929E-01  0.1429541E+01  0.2944723E-02 -0.2509410E-01 -0.5885356E-03 -0.7896235E-02
5308148.  0.1256475E-01  0.1505389E+01  0.3062783E-02 -0.1614905E-01 -0.5479357E-03 -0.6321310E-02
5271667.  0.3785857E-02  0.1556864E+01  0.3129952E-02 -0.7351220E-02 -0.5157218E-03 -0.4965637E-02
5235185. -0.5218720E-02  0.1584216E+01  0.3147584E-02  0.1126625E-02 -0.4906744E-03 -0.3815595E-02
5198704. -0.1431212E-01  0.1588099E+01  0.3117951E-02  0.9134784E-02 -0.4716580E-03 -0.2856784E-02
5162222. -0.2336287E-01  0.1569438E+01  0.3044108E-02  0.1654724E-01 -0.4576235E-03 -0.2072962E-02
5125741. -0.3224551E-01  0.1529737E+01  0.2929789E-02  0.2325826E-01 -0.4476053E-03 -0.1451934E-02
5089259. -0.4084472E-01  0.1470650E+01  0.2779234E-02  0.2919085E-01 -0.4407169E-03 -0.9763977E-03
5052778. -0.4905427E-01  0.1394061E+01  0.2597079E-02  0.3428985E-01 -0.4361806E-03 -0.6282257E-03
5016296. -0.5678054E-01  0.1302139E+01  0.2388196E-02  0.3852034E-01 -0.4332983E-03 -0.3962875E-03
4979815. -0.6394157E-01  0.1197082E+01  0.2157609E-02  0.4187248E-01 -0.4314572E-03 -0.2613096E-03
4943333. -0.7046909E-01  0.1081198E+01  0.1910322E-02  0.4435309E-01 -0.4301492E-03 -0.2085620E-03
4906852. -0.7630756E-01  0.9568502E+00  0.1651285E-02  0.4598468E-01 -0.4289268E-03 -0.2284456E-03
4870370. -0.8141526E-01  0.8262849E+00  0.1385225E-02  0.4681173E-01 -0.4274408E-03 -0.2979493E-03
4833889. -0.8576284E-01  0.6917750E+00  0.1116627E-02  0.4688201E-01 -0.4254289E-03 -0.4116837E-03
4797407. -0.8933414E-01  0.5554466E+00  0.8496438E-03  0.4625729E-01 -0.4226594E-03 -0.5590498E-03
4760926. -0.9212425E-01  0.4192768E+00  0.5880509E-03  0.4501399E-01 -0.4190072E-03 -0.7184019E-03
4724444. -0.9413960E-01  0.2851062E+00  0.3351800E-03  0.4322058E-01 -0.4144039E-03 -0.8909622E-03
4687963. -0.9539634E-01  0.1545887E+00  0.9396697E-04  0.4095903E-01 -0.4088030E-03 -0.1063735E-02
4651482. -0.9591969E-01  0.2917071E-01 -0.1331589E-03  0.3831296E-01 -0.4022495E-03 -0.1223305E-02
4615000. -0.9574249E-01 -0.8990714E-01 -0.3442099E-03  0.3535545E-01 -0.3948103E-03 -0.1372279E-02
4578518. -0.9490414E-01 -0.2015978E+00 -0.5376356E-03  0.3217062E-01 -0.3865830E-03 -0.1496182E-02
4542037. -0.9344944E-01 -0.3050789E+00 -0.7123456E-03  0.2883111E-01 -0.3777326E-03 -0.1590790E-02
4505556. -0.9142718E-01 -0.3997436E+00 -0.8676428E-03  0.2540211E-01 -0.3684131E-03 -0.1658245E-02
4469074. -0.8888914E-01 -0.4851483E+00 -0.1003232E-02  0.2195688E-01 -0.3588315E-03 -0.1681016E-02
4432593. -0.8588921E-01 -0.5610870E+00 -0.1119167E-02  0.1854612E-01 -0.3492330E-03 -0.1665418E-02
4396111. -0.8248161E-01 -0.6275033E+00 -0.1215790E-02  0.1522028E-01 -0.3398380E-03 -0.1607449E-02
4359630. -0.7872094E-01 -0.6844693E+00 -0.1293740E-02  0.1203115E-01 -0.3309344E-03 -0.1493737E-02
4323148. -0.7466035E-01 -0.7322794E+00 -0.1353887E-02  0.9006354E-02 -0.3228195E-03 -0.1332195E-02
4286667. -0.7035152E-01 -0.7712792E+00 -0.1397263E-02  0.6179296E-02 -0.3157890E-03 -0.1112861E-02
4250185. -0.6584338E-01 -0.8019457E+00 -0.1425081E-02  0.3574072E-02 -0.3101994E-03 -0.8290090E-03
4213704. -0.6118219E-01 -0.8248782E+00 -0.1438635E-02  0.1199635E-02 -0.3064139E-03 -0.4816936E-03
4177222. -0.5641028E-01 -0.8406790E+00 -0.1439289E-02 -0.9300568E-03 -0.3048310E-03 -0.5775603E-04
4140741. -0.5156678E-01 -0.8500544E+00 -0.1428452E-02 -0.2815219E-02 -0.3059086E-03  0.4478717E-03
4104259. -0.4668608E-01 -0.8537411E+00 -0.1407497E-02 -0.4464350E-02 -0.3101273E-03  0.1041912E-02
4067778. -0.4179910E-01 -0.8524188E+00 -0.1377773E-02 -0.5880409E-02 -0.3180488E-03  0.1743560E-02
4031296. -0.3693204E-01 -0.8468622E+00 -0.1340554E-02 -0.7086109E-02 -0.3303161E-03  0.2561403E-02
3994815. -0.3210737E-01 -0.8377611E+00 -0.1296978E-02 -0.8104527E-02 -0.3476378E-03  0.3513209E-02
3958333. -0.2734340E-01 -0.8257212E+00 -0.1248054E-02 -0.8959273E-02 -0.3708591E-03  0.4625610E-02
3921852. -0.2265537E-01 -0.8113747E+00 -0.1194607E-02 -0.9691615E-02 -0.4009577E-03  0.5919881E-02
3885370. -0.1805487E-01 -0.7951682E+00 -0.1137218E-02 -0.1034287E-01 -0.4390674E-03  0.7429719E-02
3848889. -0.1355179E-01 -0.7774431E+00 -0.1076216E-02 -0.1096448E-01 -0.4865322E-03  0.9194510E-02
3812407. -0.9153863E-02 -0.7584090E+00 -0.1011580E-02 -0.1162263E-01 -0.5449370E-03  0.1125871E-01
3775926. -0.4868938E-02 -0.7379833E+00 -0.9428983E-03 -0.1239239E-01 -0.6161517E-03  0.1367965E-01
3739444. -0.7055029E-03 -0.7158602E+00 -0.8692644E-03 -0.1336947E-01 -0.7024095E-03  0.1652420E-01
3702963.  0.3324802E-02 -0.6913657E+00 -0.7891661E-03 -0.1467275E-01 -0.8063531E-03  0.1987240E-01
3666482.  0.7205253E-02 -0.6632752E+00 -0.7003300E-03 -0.1644882E-01 -0.9311362E-03  0.2382050E-01
3630000.  0.1091064E-01 -0.6298272E+00 -0.5995319E-03 -0.1888500E-01 -0.1080521E-02  0.2848484E-01
3630000.  0.1091064E-01 -0.6298272E+00 -0.5995319E-03 -0.1888500E-01 -0.1080521E-02  0.2848484E-01
3592500.  0.1449693E-01 -0.5870460E+00 -0.4787795E-03 -0.2232863E-01 -0.1264430E-02  0.3416922E-01
3555000.  0.1779681E-01 -0.5317080E+00 -0.3341653E-03 -0.2705614E-01 -0.1484879E-02  0.4093313E-01
3517500.  0.2072057E-01 -0.4581283E+00 -0.1569075E-03 -0.3350335E-01 -0.1748838E-02  0.4899192E-01
3480000.  0.2313868E-01 -0.3583442E+00  0.6472415E-04 -0.4224257E-01 -0.2064648E-02  0.5859729E-01
3480000.  0.2313868E-01  0.5320447E+00  0.1554576E-02  0.3948837E-01 -0.2064648E-02 -0.1518936E-01
3409422.  0.1778523E-01  0.4357717E+00  0.1165235E-02  0.3104330E-01 -0.1827547E-02 -0.2589246E-01
3338844.  0.1344812E-01  0.3490619E+00  0.8615553E-03  0.2401060E-01 -0.1520171E-02 -0.2862523E-01
3268266.  0.1000839E-01  0.2739517E+00  0.6284346E-03  0.1828230E-01 -0.1209117E-02 -0.2703711E-01
3197688.  0.7333656E-02  0.2109358E+00  0.4522227E-03  0.1370971E-01 -0.9284905E-03 -0.2342722E-01
3127109.  0.5292047E-02  0.1594960E+00  0.3210222E-03  0.1012777E-01 -0.6923681E-03 -0.1917231E-01
3056531.  0.3761174E-02  0.1185149E+00  0.2247820E-03  0.7371557E-02 -0.5032124E-03 -0.1503803E-01
2985953.  0.2632814E-02  0.8658042E-01  0.1552209E-03  0.5286703E-02 -0.3573266E-03 -0.1139934E-01
2915375.  0.1814998E-02  0.6220346E-01  0.1056808E-03  0.3735685E-02 -0.2482955E-03 -0.8393458E-02
2844797.  0.1232018E-02  0.4395579E-01  0.7091986E-04  0.2600517E-02 -0.1690085E-03 -0.6022458E-02
2774219.  0.8232517E-03  0.3055109E-01  0.4689288E-04  0.1783045E-02 -0.1127602E-03 -0.4219738E-02
2703641.  0.5413518E-03  0.2088321E-01  0.3053708E-04  0.1203790E-02 -0.7376506E-04 -0.2891069E-02
2633062.  0.3501685E-03  0.1403559E-01  0.1957555E-04  0.7999497E-03 -0.4731796E-04 -0.1938409E-02
2562484.  0.2226988E-03  0.9272407E-02  0.1234605E-04  0.5230128E-03 -0.2976033E-04 -0.1272451E-02
2491906.  0.1391720E-03  0.6018623E-02  0.7655832E-05  0.3362540E-03 -0.1834674E-04 -0.8179086E-03
2421328.  0.8540708E-04  0.3836367E-02  0.4664430E-05  0.2124531E-03 -0.1108150E-04 -0.5147454E-03
2350750.  0.5143034E-04  0.2399896E-02  0.2789987E-05  0.1318254E-03 -0.6553945E-05 -0.3170813E-03
2280172.  0.3036417E-04  0.1472310E-02  0.1636882E-05  0.8026607E-04 -0.3792778E-05 -0.1910851E-03
2209594.  0.1755928E-04  0.8850707E-03  0.9410569E-06  0.4791531E-04 -0.2145785E-05 -0.1125830E-03
2139016.  0.9935542E-05  0.5208520E-03  0.5295647E-06  0.2801494E-04 -0.1185630E-05 -0.6479600E-04
2068438.  0.5494089E-05  0.2997352E-03  0.2913364E-06  0.1602466E-04 -0.6390572E-06 -0.3639292E-04
1997859.  0.2965048E-05  0.1684655E-03  0.1564748E-06  0.8956110E-05 -0.3355626E-06 -0.1992342E-04
1927281.  0.1559385E-05  0.9235032E-04  0.8192404E-07  0.4883936E-05 -0.1713953E-06 -0.1061701E-04
1856703.  0.7978502E-06  0.4929868E-04  0.4173962E-07  0.2594439E-05 -0.8500854E-07 -0.5498498E-05
1786125.  0.3963769E-06  0.2558180E-04  0.2065476E-07  0.1340165E-05 -0.4086153E-07 -0.2762522E-05
1715547.  0.1908008E-06  0.1287814E-04  0.9905715E-08  0.6717854E-06 -0.1899286E-07 -0.1343665E-05
1644969.  0.8877203E-07  0.6275003E-05  0.4592872E-08  0.3260296E-06 -0.8515146E-08 -0.6312094E-06
1574391.  0.3980871E-07  0.2951897E-05  0.2053157E-08  0.1527858E-06 -0.3671727E-08 -0.2856127E-06
1503812.  0.1714765E-07  0.1337018E-05  0.8822964E-09  0.6891116E-07 -0.1517739E-08 -0.1240910E-06
1433234.  0.7057539E-08  0.5822348E-06  0.3637409E-09  0.2975639E-07 -0.5992333E-09 -0.5157927E-07
1362656.  0.2726521E-08  0.2465414E-06  0.1450774E-09  0.1206998E-07 -0.2251525E-09 -0.2041714E-07
1292078.  0.8604555E-09  0.1139720E-06  0.6164711E-10  0.3939128E-08 -0.8037287E-10 -0.7654240E-08
1221500. -0.2328069E-09  0.1029146E-06  0.4769759E-10 -0.1462685E-08 -0.2721663E-10 -0.2761387E-08
1221500. -0.2328069E-09  0.5183604E-09  0.1107446E-11  0.1220031E-08 -0.2721663E-10 -0.2660534E-08
1183328. -0.2076393E-09 -0.7347556E-08 -0.3197890E-11  0.3352185E-09 -0.1498594E-10 -0.1520530E-08
1145156. -0.1575748E-09 -0.8683648E-08 -0.3931645E-11 -0.3097182E-10 -0.8065396E-11 -0.8498809E-09
1106984. -0.1086327E-09 -0.7425678E-08 -0.3320383E-11 -0.1459020E-09 -0.4237440E-11 -0.4640456E-09
1068812. -0.6986577E-10 -0.5494482E-08 -0.2395519E-11 -0.1522110E-09 -0.2170147E-11 -0.2471895E-09
1030641. -0.4246004E-10 -0.3711790E-08 -0.1568912E-11 -0.1209468E-09 -0.1081632E-11 -0.1282698E-09
 992469. -0.2454817E-10 -0.2341447E-08 -0.9561759E-12 -0.8403979E-10 -0.5236604E-12 -0.6472697E-10
 954297. -0.1355131E-10 -0.1394309E-08 -0.5487450E-12 -0.5338839E-10 -0.2457552E-12 -0.3169714E-10
 916125. -0.7156939E-11 -0.7888344E-09 -0.2986451E-12 -0.3150953E-10 -0.1115926E-12 -0.1501212E-10
 877953.  0.0000000E+00  0.0000000E+00  0.0000000E+00  0.0000000E+00  0.0000000E+00  0.0000000E+00
 839781.  0.0000000E+00  0.0000000E+00  0.0000000E+00  0.0000000E+00  0.0000000E+00  0.0000000E+00
 801609.  0.0000000E+00  0.0000000E+00  0.0000000E+00  0.0000000E+00  0.0000000E+00  0.0000000E+00
 763438.  0.0000000E+00  0.0000000E+00  0.0000000E+00  0.0000000E+00  0.0000000E+00  0.0000000E+00
 725266.  0.0000000E+00  0.0000000E+00  0.0000000E+00  0.0000000E+00  0.0000000E+00  0.0000000E+00
 687094.  0.0000000E+00  0.0000000E+00  0.0000000E+00  0.0000000E+00  0.0000000E+00  0.0000000E+00
 648922.  0.0000000E+00  0.0000000E+00  0.0000000E+00  0.0000000E+00  0.0000000E+00  0.0000000E+00
 610750.  0.0000000E+00  0.0000000E+00  0.0000000E+00  0.0000000E+00  0.0000000E+00  0.0000000E+00
 572578.  0.0000000E+00  0.0000000E+00  0.0000000E+00  0.0000000E+00  0.0000000E+00  0.0000000E+00
 534406.  0.0000000E+00  0.0000000E+00  0.0000000E+00  0.0000000E+00  0.0000000E+00  0.0000000E+00
 496234.  0.0000000E+00  0.0000000E+00  0.0000000E+00  0.0000000E+00  0.0000000E+00  0.0000000E+00
 458062.  0.0000000E+00  0.0000000E+00  0.0000000E+00  0.0000000E+00  0.0000000E+00  0.0000000E+00
 419891.  0.0000000E+00  0.0000000E+00  0.0000000E+00  0.0000000E+00  0.0000000E+00  0.0000000E+00
 381719.  0.0000000E+00  0.0000000E+00  0.0000000E+00  0.0000000E+00  0.0000000E+00  0.0000000E+00
 343547.  0.0000000E+00  0.0000000E+00  0.0000000E+00  0.0000000E+00  0.0000000E+00  0.0000000E+00
 305375.  0.0000000E+00  0.0000000E+00  0.0000000E+00  0.0000000E+00  0.0000000E+00  0.0000000E+00
 267203.  0.0000000E+00  0.0000000E+00  0.0000000E+00  0.0000000E+00  0.0000000E+00  0.0000000E+00
 229031.  0.0000000E+00  0.0000000E+00  0.0000000E+00  0.0000000E+00  0.0000000E+00  0.0000000E+00
 190859.  0.0000000E+00  0.0000000E+00  0.0000000E+00  0.0000000E+00  0.0000000E+00  0.0000000E+00
 152688.  0.0000000E+00  0.0000000E+00  0.0000000E+00  0.0000000E+00  0.0000000E+00  0.0000000E+00
 114516.  0.0000000E+00  0.0000000E+00  0.0000000E+00  0.0000000E+00  0.0000000E+00  0.0000000E+00
  76344.  0.0000000E+00  0.0000000E+00  0.0000000E+00  0.0000000E+00  0.0000000E+00  0.0000000E+00
  38172.  0.0000000E+00  0.0000000E+00  0.0000000E+00  0.0000000E+00  0.0000000E+00  0.0000000E+00
      0.  0.0000000E+00  0.0000000E+00  0.0000000E+00  0.0000000E+00  0.0000000E+00  0.0000000E+00
