       5       31 S      347        126.01010         10.08490          6.36915        244.07330      185    7
6371000. -0.1601587E-01  0.1100596E+01  0.2790495E-02  0.1880636E-01 -0.9892776E-03  0.6185907E-01
6370000. -0.1618792E-01  0.1091622E+01  0.2787283E-02  0.2211251E-01 -0.9989613E-03  0.6152920E-01
6369000. -0.1635853E-01  0.1082215E+01  0.2783553E-02  0.2541237E-01 -0.1008593E-02  0.6119886E-01
6368000. -0.1652763E-01  0.1072374E+01  0.2779306E-02  0.2870524E-01 -0.1018173E-02  0.6086806E-01
6368000. -0.1652763E-01  0.1072374E+01  0.2779306E-02  0.2870524E-01 -0.1018173E-02  0.6086806E-01
6367000. -0.1669515E-01  0.1062103E+01  0.2774542E-02  0.3199045E-01 -0.1027701E-02  0.6053681E-01
6366000. -0.1686103E-01  0.1051401E+01  0.2769264E-02  0.3526728E-01 -0.1037177E-02  0.6020514E-01
6365000. -0.1702519E-01  0.1040271E+01  0.2763472E-02  0.3853505E-01 -0.1046601E-02  0.5987306E-01
6364000. -0.1718757E-01  0.1028714E+01  0.2757167E-02  0.4179307E-01 -0.1055972E-02  0.5954058E-01
6363000. -0.1734810E-01  0.1016732E+01  0.2750352E-02  0.4504065E-01 -0.1065292E-02  0.5920774E-01
6362000. -0.1750672E-01  0.1004326E+01  0.2743029E-02  0.4827710E-01 -0.1074559E-02  0.5887454E-01
6361000. -0.1766336E-01  0.9914988E+00  0.2735198E-02  0.5150174E-01 -0.1083774E-02  0.5854101E-01
6360000. -0.1781795E-01  0.9782518E+00  0.2726862E-02  0.5471389E-01 -0.1092936E-02  0.5820716E-01
6359000. -0.1797043E-01  0.9645872E+00  0.2718022E-02  0.5791288E-01 -0.1102046E-02  0.5787301E-01
6358000. -0.1812074E-01  0.9505072E+00  0.2708682E-02  0.6109802E-01 -0.1111104E-02  0.5753860E-01
6357000. -0.1826880E-01  0.9360142E+00  0.2698843E-02  0.6426864E-01 -0.1120109E-02  0.5720391E-01
6356000. -0.1841455E-01  0.9211105E+00  0.2688508E-02  0.6742408E-01 -0.1129061E-02  0.5686899E-01
6356000. -0.1841455E-01  0.8383191E+00  0.2688508E-02  0.4908197E-01 -0.1129061E-02  0.6087578E-01
6355000. -0.1854532E-01  0.8279183E+00  0.2680662E-02  0.5089065E-01 -0.1138583E-02  0.6045374E-01
6354000. -0.1867444E-01  0.8172865E+00  0.2672532E-02  0.5269156E-01 -0.1148039E-02  0.6003204E-01
6353000. -0.1880187E-01  0.8064249E+00  0.2664121E-02  0.5448446E-01 -0.1157429E-02  0.5961067E-01
6352000. -0.1892758E-01  0.7953348E+00  0.2655429E-02  0.5626912E-01 -0.1166752E-02  0.5918966E-01
6351000. -0.1905154E-01  0.7840174E+00  0.2646457E-02  0.5804532E-01 -0.1176010E-02  0.5876902E-01
6350000. -0.1917369E-01  0.7724739E+00  0.2637208E-02  0.5981280E-01 -0.1185201E-02  0.5834874E-01
6349000. -0.1929402E-01  0.7607059E+00  0.2627681E-02  0.6157134E-01 -0.1194327E-02  0.5792885E-01
6348000. -0.1941248E-01  0.7487145E+00  0.2617880E-02  0.6332073E-01 -0.1203386E-02  0.5750936E-01
6347000. -0.1952905E-01  0.7365012E+00  0.2607804E-02  0.6506070E-01 -0.1212380E-02  0.5709026E-01
6346600. -0.1957513E-01  0.7315540E+00  0.2603697E-02  0.6575402E-01 -0.1215959E-02  0.5692273E-01
6346600. -0.1957513E-01  0.9448497E+00  0.2603697E-02  0.5162595E-01 -0.1215959E-02  0.6374830E-01
6318800. -0.2306838E-01  0.6376843E+00  0.2316829E-02  0.7895789E-01 -0.1467918E-02  0.5184342E-01
6291000. -0.2499467E-01  0.2307615E+00  0.1923875E-02  0.9994899E-01 -0.1669293E-02  0.4055300E-01
6291000. -0.2499467E-01  0.2481513E+00  0.1923875E-02  0.1024705E+00 -0.1669293E-02  0.4055300E-01
6263000. -0.2501354E-01 -0.2492378E+00  0.1439255E-02  0.1165258E+00 -0.1823952E-02  0.2991166E-01
6235000. -0.2274935E-01 -0.7836654E+00  0.9137794E-03  0.1209517E+00 -0.1932914E-02  0.1975039E-01
6207000. -0.1813653E-01 -0.1310344E+01  0.3906358E-03  0.1154908E+00 -0.1998208E-02  0.1003636E-01
6179000. -0.1131064E-01 -0.1783190E+01 -0.8768147E-04  0.1007161E+00 -0.2021774E-02  0.7619835E-03
6151000. -0.2605461E-02 -0.2158734E+01 -0.4829614E-03  0.7799154E-01 -0.2005585E-02 -0.8047494E-02
6151000. -0.2605461E-02 -0.1779354E+01 -0.4829614E-03  0.6880248E-01 -0.2005585E-02 -0.7903346E-02
6128500.  0.3954476E-02 -0.1923675E+01 -0.6927779E-03  0.4968607E-01 -0.1971235E-02 -0.1145561E-01
6106000.  0.1089338E-01 -0.1993106E+01 -0.8321541E-03  0.2908080E-01 -0.1925337E-02 -0.1444336E-01
6083500.  0.1793967E-01 -0.1984221E+01 -0.8976340E-03  0.8007421E-02 -0.1869882E-02 -0.1686770E-01
6061000.  0.2481600E-01 -0.1897182E+01 -0.8893407E-03 -0.1253555E-01 -0.1806854E-02 -0.1873351E-01
6038500.  0.3125183E-01 -0.1735647E+01 -0.8108201E-03 -0.3161517E-01 -0.1738212E-02 -0.2004824E-01
6016000.  0.3699533E-01 -0.1506491E+01 -0.6687390E-03 -0.4840293E-01 -0.1665886E-02 -0.2082139E-01
5993500.  0.4182404E-01 -0.1219408E+01 -0.4724586E-03 -0.6220599E-01 -0.1591769E-02 -0.2106431E-01
5971000.  0.4555404E-01 -0.8864304E+00 -0.2335116E-03 -0.7249071E-01 -0.1517716E-02 -0.2078729E-01
5971000.  0.4555404E-01 -0.8128563E+00 -0.2335116E-03 -0.6988683E-01 -0.1517716E-02 -0.2675070E-01
5937667.  0.4844468E-01 -0.2894735E+00  0.1515383E-03 -0.7598885E-01 -0.1380297E-02 -0.2563523E-01
5904333.  0.4859159E-01  0.2292565E+00  0.5486895E-03 -0.7467888E-01 -0.1250761E-02 -0.2377638E-01
5871000.  0.4611823E-01  0.7066780E+00  0.9222062E-03 -0.6719597E-01 -0.1132387E-02 -0.2140626E-01
5837667.  0.4131903E-01  0.1114313E+01  0.1243714E-02 -0.5506411E-01 -0.1027307E-02 -0.1872474E-01
5804333.  0.3461398E-01  0.1432624E+01  0.1493099E-02 -0.3988889E-01 -0.9367162E-03 -0.1588891E-01
5771000.  0.2650266E-01  0.1650857E+01  0.1658489E-02 -0.2320082E-01 -0.8611163E-03 -0.1300965E-01
5771000.  0.2650266E-01  0.1650961E+01  0.1658489E-02 -0.2320096E-01 -0.8611163E-03 -0.1300965E-01
5701000.  0.6895829E-02  0.1841266E+01  0.1707659E-02  0.1457856E-01 -0.7614397E-03 -0.4873042E-02
5701000.  0.6895829E-02  0.1608455E+01  0.1707659E-02  0.1031076E-01 -0.7614397E-03 -0.6816728E-02
5667333. -0.1333030E-02  0.1509693E+01  0.1630528E-02  0.1858619E-01 -0.7253446E-03 -0.6992564E-02
5633667. -0.9092161E-02  0.1423621E+01  0.1512258E-02  0.2611960E-01 -0.6871382E-03 -0.7427358E-02
5600000. -0.1628503E-01  0.1290455E+01  0.1356180E-02  0.3274376E-01 -0.6472390E-03 -0.7653162E-02
5600000. -0.1628503E-01  0.1290455E+01  0.1356180E-02  0.3274376E-01 -0.6472390E-03 -0.7653162E-02
5563518. -0.2315042E-01  0.1100212E+01  0.1151445E-02  0.3850487E-01 -0.6030216E-03 -0.7771605E-02
5527037. -0.2881141E-01  0.8715173E+00  0.9183181E-03  0.4264092E-01 -0.5584129E-03 -0.7796448E-02
5490556. -0.3307758E-01  0.6148271E+00  0.6663803E-03  0.4506845E-01 -0.5138570E-03 -0.7756542E-02
5454074. -0.3581994E-01  0.3410911E+00  0.4054379E-03  0.4579105E-01 -0.4696759E-03 -0.7667844E-02
5417593. -0.3697225E-01  0.6127115E-01  0.1450642E-03  0.4489206E-01 -0.4261023E-03 -0.7546422E-02
5381111. -0.3652987E-01 -0.2142311E+00 -0.1058664E-03  0.4251975E-01 -0.3833109E-03 -0.7394158E-02
5344630. -0.3454536E-01 -0.4758832E+00 -0.3394548E-03  0.3887396E-01 -0.3414771E-03 -0.7213017E-02
5308148. -0.3112217E-01 -0.7154348E+00 -0.5490818E-03  0.3418994E-01 -0.3007550E-03 -0.7005080E-02
5271667. -0.2640752E-01 -0.9259871E+00 -0.7295207E-03  0.2872510E-01 -0.2613142E-03 -0.6765382E-02
5235185. -0.2058291E-01 -0.1102345E+01 -0.8770664E-03  0.2274348E-01 -0.2233350E-03 -0.6494628E-02
5198704. -0.1385542E-01 -0.1240926E+01 -0.9894961E-03  0.1650321E-01 -0.1869933E-03 -0.6193439E-02
5162222. -0.6447672E-02 -0.1339682E+01 -0.1066039E-02  0.1024699E-01 -0.1524694E-03 -0.5859517E-02
5125741.  0.1410226E-02 -0.1398294E+01 -0.1107240E-02  0.4193793E-02 -0.1199446E-03 -0.5496117E-02
5089259.  0.9491067E-02 -0.1417733E+01 -0.1114812E-02 -0.1470788E-02 -0.8957704E-04 -0.5106349E-02
5052778.  0.1757573E-01 -0.1400176E+01 -0.1091432E-02 -0.6594445E-02 -0.6150721E-04 -0.4694538E-02
5016296.  0.2546188E-01 -0.1348936E+01 -0.1040547E-02 -0.1106134E-01 -0.3584960E-04 -0.4264434E-02
4979815.  0.3296736E-01 -0.1268009E+01 -0.9661575E-03 -0.1479478E-01 -0.1269036E-04 -0.3823490E-02
4943333.  0.3993551E-01 -0.1162005E+01 -0.8725963E-03 -0.1775201E-01  0.7929069E-05 -0.3377695E-02
4906852.  0.4623658E-01 -0.1035910E+01 -0.7643617E-03 -0.1992205E-01  0.2598849E-04 -0.2930960E-02
4870370.  0.5177020E-01 -0.8947395E+00 -0.6459019E-03 -0.2132775E-01  0.4151724E-04 -0.2494945E-02
4833889.  0.5646427E-01 -0.7435566E+00 -0.5214934E-03 -0.2200931E-01  0.5458360E-04 -0.2070974E-02
4797407.  0.6027564E-01 -0.5871598E+00 -0.3951082E-03 -0.2202954E-01  0.6526473E-04 -0.1663590E-02
4760926.  0.6318707E-01 -0.4299672E+00 -0.2703074E-03 -0.2147085E-01  0.7369195E-04 -0.1284461E-02
4724444.  0.6520584E-01 -0.2759714E+00 -0.1501680E-03 -0.2041469E-01  0.8001966E-04 -0.9298862E-03
4687963.  0.6636029E-01 -0.1286237E+00 -0.3728004E-04 -0.1895569E-01  0.8439903E-04 -0.6055914E-03
4651482.  0.6669701E-01  0.9224294E-02  0.6633189E-04 -0.1718966E-01  0.8702556E-04 -0.3173172E-03
4615000.  0.6627711E-01  0.1353150E+00  0.1591573E-03 -0.1520191E-01  0.8808914E-04 -0.5957956E-04
4578518.  0.6517301E-01  0.2479694E+00  0.2401829E-03 -0.1308272E-01  0.8777883E-04  0.1616242E-03
4542037.  0.6346507E-01  0.3460999E+00  0.3088816E-03 -0.1090846E-01  0.8630652E-04  0.3475169E-03
4505556.  0.6123824E-01  0.4291497E+00  0.3651267E-03 -0.8744092E-02  0.8385298E-04  0.5038736E-03
4469074.  0.5857935E-01  0.4970100E+00  0.4091683E-03 -0.6654766E-02  0.8060912E-04  0.6234624E-03
4432593.  0.5557468E-01  0.5500384E+00  0.4415638E-03 -0.4682729E-02  0.7676546E-04  0.7149475E-03
4396111.  0.5230720E-01  0.5889063E+00  0.4630901E-03 -0.2864461E-02  0.7247012E-04  0.7804100E-03
4359630.  0.4885564E-01  0.6145499E+00  0.4747269E-03 -0.1232198E-02  0.6788730E-04  0.8161147E-03
4323148.  0.4529213E-01  0.6281840E+00  0.4775769E-03  0.2030983E-03  0.6316017E-04  0.8317584E-03
4286667.  0.4168197E-01  0.6311067E+00  0.4728001E-03  0.1430094E-02  0.5840299E-04  0.8261688E-03
4250185.  0.3808228E-01  0.6247340E+00  0.4616031E-03  0.2446275E-02  0.5373825E-04  0.8003312E-03
4213704.  0.3454226E-01  0.6105440E+00  0.4451692E-03  0.3260671E-02  0.4926397E-04  0.7599255E-03
4177222.  0.3110239E-01  0.5899556E+00  0.4246348E-03  0.3879893E-02  0.4506841E-04  0.7027691E-03
4140741.  0.2779542E-01  0.5643911E+00  0.4010796E-03  0.4319210E-02  0.4124286E-04  0.6314435E-03
4104259.  0.2464577E-01  0.5351866E+00  0.3754759E-03  0.4597780E-02  0.3785924E-04  0.5479724E-03
4067778.  0.2167098E-01  0.5035455E+00  0.3487054E-03  0.4730039E-02  0.3499982E-04  0.4481529E-03
4031296.  0.1888148E-01  0.4706198E+00  0.3215407E-03  0.4739146E-02  0.3275417E-04  0.3337832E-03
3994815.  0.1628187E-01  0.4373977E+00  0.2946268E-03  0.4645586E-02  0.3120926E-04  0.2024508E-03
3958333.  0.1387124E-01  0.4047238E+00  0.2685018E-03  0.4466809E-02  0.3048079E-04  0.4793930E-04
3921852.  0.1164434E-01  0.3733614E+00  0.2435896E-03  0.4225833E-02  0.3070944E-04 -0.1326810E-03
3885370.  0.9591794E-02  0.3438895E+00  0.2201893E-03  0.3941558E-02  0.3206625E-04 -0.3478006E-03
3848889.  0.7701526E-02  0.3167685E+00  0.1984947E-03  0.3633946E-02  0.3477867E-04 -0.6079430E-03
3812407.  0.5958959E-02  0.2923220E+00  0.1785729E-03  0.3325929E-02  0.3913737E-04 -0.9253047E-03
3775926.  0.4348405E-02  0.2706845E+00  0.1603623E-03  0.3040683E-02  0.4551961E-04 -0.1318134E-02
3739444.  0.2853703E-02  0.2518189E+00  0.1436508E-03  0.2807763E-02  0.5441918E-04 -0.1808583E-02
3702963.  0.1459742E-02  0.2354351E+00  0.1280355E-03  0.2665002E-02  0.6647225E-04 -0.2425131E-02
3666482.  0.1539625E-03  0.2208774E+00  0.1128654E-03  0.2662060E-02  0.8250351E-04 -0.3204975E-02
3630000. -0.1071208E-02  0.2070298E+00  0.9714866E-04  0.2869748E-02  0.1035766E-03 -0.4194634E-02
3630000. -0.1071208E-02  0.2070298E+00  0.9714866E-04  0.2869748E-02  0.1035766E-03 -0.4194634E-02
3592500. -0.2245536E-02  0.1915670E+00  0.7886467E-04  0.3409349E-02  0.1319281E-03 -0.5492136E-02
3555000. -0.3317744E-02  0.1716661E+00  0.5605666E-04  0.4439266E-02  0.1689411E-03 -0.7152386E-02
3517500. -0.4247948E-02  0.1422708E+00  0.2518239E-04  0.6198320E-02  0.2170291E-03 -0.9273142E-02
3480000. -0.4958668E-02  0.9546030E-01 -0.1902955E-04  0.9043230E-02  0.2792362E-03 -0.1197095E-01
3480000. -0.4958668E-02 -0.1919720E+00 -0.2118031E-03 -0.8686642E-02  0.2792362E-03  0.3841694E-02
3409422. -0.3190398E-02 -0.1304544E+00 -0.1330435E-03 -0.5711543E-02  0.2222507E-03  0.5818045E-02
3338844. -0.2004502E-02 -0.8620842E-01 -0.8182353E-04 -0.3668137E-02  0.1591412E-03  0.5349545E-02
3268266. -0.1230491E-02 -0.5547915E-01 -0.4927643E-04 -0.2302402E-02  0.1063693E-03  0.4134484E-02
3197688. -0.7382503E-03 -0.3480466E-01 -0.2905894E-04 -0.1412931E-02  0.6754028E-04  0.2903659E-02
3127109. -0.4329606E-03 -0.2129960E-01 -0.1677845E-04 -0.8479106E-03  0.4113054E-04  0.1911218E-02
3056531. -0.2482124E-03 -0.1272114E-01 -0.9483597E-05 -0.4976183E-03  0.2415816E-04  0.1197080E-02
2985953. -0.1390823E-03 -0.7416387E-02 -0.5245753E-05 -0.2855740E-03  0.1373251E-04  0.7195127E-03
2915375. -0.7615268E-04 -0.4220715E-02 -0.2838460E-05 -0.1602224E-03  0.7570832E-05  0.4170780E-03
2844797. -0.4072900E-04 -0.2344501E-02 -0.1501701E-05 -0.8785506E-04  0.4053167E-05  0.2338710E-03
2774219. -0.2126759E-04 -0.1270762E-02 -0.7763434E-06 -0.4706046E-04  0.2108606E-05  0.1270900E-03
2703641. -0.1083602E-04 -0.6718085E-03 -0.3919179E-06 -0.2461206E-04  0.1066229E-05  0.6699976E-04
2633062. -0.5383268E-05 -0.3462176E-03 -0.1930460E-06 -0.1255876E-04  0.5239781E-06  0.3428178E-04
2562484. -0.2605529E-05 -0.1738141E-03 -0.9269805E-07 -0.6247711E-05  0.2501670E-06  0.1702604E-04
2491906. -0.1227447E-05 -0.8493589E-04 -0.4334926E-07 -0.3027411E-05  0.1159662E-06  0.8205382E-05
2421328. -0.5622094E-06 -0.4036000E-04 -0.1971983E-07 -0.1427412E-05  0.5215038E-07  0.3835072E-05
2350750. -0.2500650E-06 -0.1862878E-04 -0.8715396E-08 -0.6541066E-06  0.2272796E-07  0.1736937E-05
2280172. -0.1078631E-06 -0.8341481E-05 -0.3736988E-08 -0.2909364E-06  0.9587485E-08  0.7615117E-06
2209594. -0.4504978E-07 -0.3618326E-05 -0.1552124E-08 -0.1254173E-06  0.3908995E-08  0.3227729E-06
2139016. -0.1818729E-07 -0.1518026E-05 -0.6233665E-09 -0.5231307E-07  0.1537883E-08  0.1320664E-06
2068438. -0.7083814E-08 -0.6148534E-06 -0.2416181E-09 -0.2107437E-07  0.5827215E-09  0.5207205E-07
1997859. -0.2656154E-08 -0.2399360E-06 -0.9018557E-10 -0.8182544E-08  0.2121996E-09  0.1974510E-07
1927281. -0.9565265E-09 -0.9000559E-07 -0.3233906E-10 -0.3055042E-08  0.7408637E-10  0.7184196E-08
1856703. -0.3299319E-09 -0.3237215E-07 -0.1111010E-10 -0.1093978E-08  0.2473160E-10  0.2501670E-08
1786125. -0.1086730E-09 -0.1113122E-07 -0.3645760E-11 -0.3746235E-09  0.7869532E-11  0.8312618E-09
1715547. -0.3406499E-10 -0.3647217E-08 -0.1138806E-11 -0.1222773E-09  0.2378563E-11  0.2626954E-09
1644969. -0.1012300E-10 -0.1134531E-08 -0.3373035E-12 -0.3790038E-10  0.6801916E-12  0.7865476E-10
1574391. -0.2839442E-11 -0.3336276E-09 -0.9431500E-13 -0.1110867E-10  0.1832020E-12  0.2221717E-10
1503812. -0.7483358E-12 -0.9225230E-10 -0.2475995E-13 -0.3065532E-11  0.4621109E-13  0.5894021E-11
1433234.  0.0000000E+00  0.0000000E+00  0.0000000E+00  0.0000000E+00  0.0000000E+00  0.0000000E+00
1362656.  0.0000000E+00  0.0000000E+00  0.0000000E+00  0.0000000E+00  0.0000000E+00  0.0000000E+00
1292078.  0.0000000E+00  0.0000000E+00  0.0000000E+00  0.0000000E+00  0.0000000E+00  0.0000000E+00
1221500.  0.0000000E+00  0.0000000E+00  0.0000000E+00  0.0000000E+00  0.0000000E+00  0.0000000E+00
1221500.  0.0000000E+00  0.0000000E+00  0.0000000E+00  0.0000000E+00  0.0000000E+00  0.0000000E+00
1183328.  0.0000000E+00  0.0000000E+00  0.0000000E+00  0.0000000E+00  0.0000000E+00  0.0000000E+00
1145156.  0.0000000E+00  0.0000000E+00  0.0000000E+00  0.0000000E+00  0.0000000E+00  0.0000000E+00
1106984.  0.0000000E+00  0.0000000E+00  0.0000000E+00  0.0000000E+00  0.0000000E+00  0.0000000E+00
1068812.  0.0000000E+00  0.0000000E+00  0.0000000E+00  0.0000000E+00  0.0000000E+00  0.0000000E+00
1030641.  0.0000000E+00  0.0000000E+00  0.0000000E+00  0.0000000E+00  0.0000000E+00  0.0000000E+00
 992469.  0.0000000E+00  0.0000000E+00  0.0000000E+00  0.0000000E+00  0.0000000E+00  0.0000000E+00
 954297.  0.0000000E+00  0.0000000E+00  0.0000000E+00  0.0000000E+00  0.0000000E+00  0.0000000E+00
 916125.  0.0000000E+00  0.0000000E+00  0.0000000E+00  0.0000000E+00  0.0000000E+00  0.0000000E+00
 877953.  0.0000000E+00  0.0000000E+00  0.0000000E+00  0.0000000E+00  0.0000000E+00  0.0000000E+00
 839781.  0.0000000E+00  0.0000000E+00  0.0000000E+00  0.0000000E+00  0.0000000E+00  0.0000000E+00
 801609.  0.0000000E+00  0.0000000E+00  0.0000000E+00  0.0000000E+00  0.0000000E+00  0.0000000E+00
 763438.  0.0000000E+00  0.0000000E+00  0.0000000E+00  0.0000000E+00  0.0000000E+00  0.0000000E+00
 725266.  0.0000000E+00  0.0000000E+00  0.0000000E+00  0.0000000E+00  0.0000000E+00  0.0000000E+00
 687094.  0.0000000E+00  0.0000000E+00  0.0000000E+00  0.0000000E+00  0.0000000E+00  0.0000000E+00
 648922.  0.0000000E+00  0.0000000E+00  0.0000000E+00  0.0000000E+00  0.0000000E+00  0.0000000E+00
 610750.  0.0000000E+00  0.0000000E+00  0.0000000E+00  0.0000000E+00  0.0000000E+00  0.0000000E+00
 572578.  0.0000000E+00  0.0000000E+00  0.0000000E+00  0.0000000E+00  0.0000000E+00  0.0000000E+00
 534406.  0.0000000E+00  0.0000000E+00  0.0000000E+00  0.0000000E+00  0.0000000E+00  0.0000000E+00
 496234.  0.0000000E+00  0.0000000E+00  0.0000000E+00  0.0000000E+00  0.0000000E+00  0.0000000E+00
 458062.  0.0000000E+00  0.0000000E+00  0.0000000E+00  0.0000000E+00  0.0000000E+00  0.0000000E+00
 419891.  0.0000000E+00  0.0000000E+00  0.0000000E+00  0.0000000E+00  0.0000000E+00  0.0000000E+00
 381719.  0.0000000E+00  0.0000000E+00  0.0000000E+00  0.0000000E+00  0.0000000E+00  0.0000000E+00
 343547.  0.0000000E+00  0.0000000E+00  0.0000000E+00  0.0000000E+00  0.0000000E+00  0.0000000E+00
 305375.  0.0000000E+00  0.0000000E+00  0.0000000E+00  0.0000000E+00  0.0000000E+00  0.0000000E+00
 267203.  0.0000000E+00  0.0000000E+00  0.0000000E+00  0.0000000E+00  0.0000000E+00  0.0000000E+00
 229031.  0.0000000E+00  0.0000000E+00  0.0000000E+00  0.0000000E+00  0.0000000E+00  0.0000000E+00
 190859.  0.0000000E+00  0.0000000E+00  0.0000000E+00  0.0000000E+00  0.0000000E+00  0.0000000E+00
 152688.  0.0000000E+00  0.0000000E+00  0.0000000E+00  0.0000000E+00  0.0000000E+00  0.0000000E+00
 114516.  0.0000000E+00  0.0000000E+00  0.0000000E+00  0.0000000E+00  0.0000000E+00  0.0000000E+00
  76344.  0.0000000E+00  0.0000000E+00  0.0000000E+00  0.0000000E+00  0.0000000E+00  0.0000000E+00
  38172.  0.0000000E+00  0.0000000E+00  0.0000000E+00  0.0000000E+00  0.0000000E+00  0.0000000E+00
      0.  0.0000000E+00  0.0000000E+00  0.0000000E+00  0.0000000E+00  0.0000000E+00  0.0000000E+00
