       1       22 S      118        236.29610          7.52919          5.81374        155.42650      185    7
6371000.  0.1303528E+00  0.7238026E+00  0.4152419E-02 -0.1262004E+00 -0.8493753E-02 -0.5045856E-01
6370000.  0.1302375E+00  0.7452226E+00  0.4172150E-02 -0.1252077E+00 -0.8485859E-02 -0.5012886E-01
6369000.  0.1301189E+00  0.7665803E+00  0.4191724E-02 -0.1242037E+00 -0.8478018E-02 -0.4979623E-01
6368000.  0.1299969E+00  0.7878748E+00  0.4211139E-02 -0.1231886E+00 -0.8470227E-02 -0.4946069E-01
6368000.  0.1299969E+00  0.7878748E+00  0.4211139E-02 -0.1231886E+00 -0.8470227E-02 -0.4946069E-01
6367000.  0.1298715E+00  0.8091049E+00  0.4230395E-02 -0.1221622E+00 -0.8462491E-02 -0.4912220E-01
6366000.  0.1297429E+00  0.8302698E+00  0.4249488E-02 -0.1211248E+00 -0.8454807E-02 -0.4878078E-01
6365000.  0.1296109E+00  0.8513683E+00  0.4268418E-02 -0.1200762E+00 -0.8447177E-02 -0.4843641E-01
6364000.  0.1294756E+00  0.8723995E+00  0.4287182E-02 -0.1190167E+00 -0.8439601E-02 -0.4808909E-01
6363000.  0.1293370E+00  0.8933624E+00  0.4305779E-02 -0.1179462E+00 -0.8432081E-02 -0.4773880E-01
6362000.  0.1291952E+00  0.9142559E+00  0.4324208E-02 -0.1168648E+00 -0.8424615E-02 -0.4738554E-01
6361000.  0.1290500E+00  0.9350792E+00  0.4342465E-02 -0.1157726E+00 -0.8417206E-02 -0.4702931E-01
6360000.  0.1289016E+00  0.9558311E+00  0.4360551E-02 -0.1146695E+00 -0.8409852E-02 -0.4667010E-01
6359000.  0.1287500E+00  0.9765107E+00  0.4378462E-02 -0.1135557E+00 -0.8402555E-02 -0.4630790E-01
6358000.  0.1285951E+00  0.9971170E+00  0.4396198E-02 -0.1124312E+00 -0.8395315E-02 -0.4594270E-01
6357000.  0.1284370E+00  0.1017649E+01  0.4413756E-02 -0.1112960E+00 -0.8388133E-02 -0.4557449E-01
6356000.  0.1282756E+00  0.1038106E+01  0.4431135E-02 -0.1101503E+00 -0.8381009E-02 -0.4520328E-01
6356000.  0.1282756E+00  0.8517539E+00  0.4431135E-02 -0.1156946E+00 -0.8381009E-02 -0.7311457E-01
6355000.  0.1281407E+00  0.8673975E+00  0.4449254E-02 -0.1151678E+00 -0.8369554E-02 -0.7284401E-01
6354000.  0.1280033E+00  0.8830078E+00  0.4467289E-02 -0.1146350E+00 -0.8358141E-02 -0.7257214E-01
6353000.  0.1278635E+00  0.8985843E+00  0.4485240E-02 -0.1140965E+00 -0.8346772E-02 -0.7229895E-01
6352000.  0.1277213E+00  0.9141266E+00  0.4503106E-02 -0.1135521E+00 -0.8335445E-02 -0.7202443E-01
6351000.  0.1275765E+00  0.9296341E+00  0.4520886E-02 -0.1130019E+00 -0.8324162E-02 -0.7174858E-01
6350000.  0.1274294E+00  0.9451063E+00  0.4538580E-02 -0.1124459E+00 -0.8312922E-02 -0.7147141E-01
6349000.  0.1272799E+00  0.9605427E+00  0.4556185E-02 -0.1118841E+00 -0.8301726E-02 -0.7119290E-01
6348000.  0.1271279E+00  0.9759429E+00  0.4573702E-02 -0.1113166E+00 -0.8290573E-02 -0.7091305E-01
6347000.  0.1269735E+00  0.9913063E+00  0.4591130E-02 -0.1107433E+00 -0.8279464E-02 -0.7063185E-01
6346600.  0.1269111E+00  0.9974412E+00  0.4598076E-02 -0.1105124E+00 -0.8275033E-02 -0.7051900E-01
6346600.  0.1269111E+00  0.1005424E+01  0.4598076E-02 -0.1144987E+00 -0.8275033E-02 -0.1147710E+00
6318800.  0.1217476E+00  0.1359629E+01  0.5083222E-02 -0.1073847E+00 -0.7787734E-02 -0.1085722E+00
6291000.  0.1150645E+00  0.1700791E+01  0.5531101E-02 -0.9743664E-01 -0.7327625E-02 -0.1023006E+00
6291000.  0.1150645E+00  0.1748523E+01  0.5531101E-02 -0.9690508E-01 -0.7327625E-02 -0.1023006E+00
6263000.  0.1066487E+00  0.2076738E+01  0.5926413E-02 -0.8251563E-01 -0.6893306E-02 -0.9530715E-01
6235000.  0.9685612E-01  0.2373827E+01  0.6252424E-02 -0.6541390E-01 -0.6490265E-02 -0.8805793E-01
6207000.  0.8583957E-01  0.2632544E+01  0.6497856E-02 -0.4590151E-01 -0.6119743E-02 -0.8050051E-01
6179000.  0.7378268E-01  0.2846168E+01  0.6652880E-02 -0.2433592E-01 -0.5783206E-02 -0.7258412E-01
6151000.  0.6089721E-01  0.3008658E+01  0.6709352E-02 -0.1125054E-02 -0.5482337E-02 -0.6426101E-01
6151000.  0.6089721E-01  0.2691260E+01  0.6709352E-02 -0.7906851E-02 -0.5482337E-02 -0.6763018E-01
6128500.  0.5127360E-01  0.2754716E+01  0.6715253E-02  0.4566859E-02 -0.5249246E-02 -0.6437735E-01
6106000.  0.4147032E-01  0.2793025E+01  0.6677178E-02  0.1697263E-01 -0.5027579E-02 -0.6116066E-01
6083500.  0.3157590E-01  0.2806376E+01  0.6595613E-02  0.2917546E-01 -0.4817207E-02 -0.5798142E-01
6061000.  0.2167783E-01  0.2795179E+01  0.6471495E-02  0.4104974E-01 -0.4617997E-02 -0.5483954E-01
6038500.  0.1186173E-01  0.2760073E+01  0.6306192E-02  0.5248121E-01 -0.4429820E-02 -0.5173201E-01
6016000.  0.2210594E-02  0.2701908E+01  0.6101452E-02  0.6336737E-01 -0.4252565E-02 -0.4865365E-01
5993500. -0.7195882E-02  0.2621696E+01  0.5859364E-02  0.7361747E-01 -0.4086140E-02 -0.4559726E-01
5971000. -0.1628190E-01  0.2520631E+01  0.5582316E-02  0.8315416E-01 -0.3930484E-02 -0.4255335E-01
5971000. -0.1628190E-01  0.2377771E+01  0.5582316E-02  0.7656341E-01 -0.3930484E-02 -0.4042192E-01
5937667. -0.2820978E-01  0.2178771E+01  0.5164580E-02  0.8268926E-01 -0.3724927E-02 -0.3822654E-01
5904333. -0.3905706E-01  0.1965788E+01  0.4721307E-02  0.8636943E-01 -0.3529767E-02 -0.3643860E-01
5871000. -0.4876796E-01  0.1745544E+01  0.4264528E-02  0.8790992E-01 -0.3342994E-02 -0.3501499E-01
5837667. -0.5732023E-01  0.1523775E+01  0.3804592E-02  0.8763044E-01 -0.3162816E-02 -0.3390998E-01
5804333. -0.6471904E-01  0.1305261E+01  0.3350168E-02  0.8584980E-01 -0.2987679E-02 -0.3307865E-01
5771000. -0.7099148E-01  0.1093869E+01  0.2908327E-02  0.8287520E-01 -0.2816279E-02 -0.3247595E-01
5771000. -0.7099148E-01  0.1093966E+01  0.2908327E-02  0.8287516E-01 -0.2816279E-02 -0.3247595E-01
5701000. -0.8081678E-01  0.6984369E+00  0.2042542E-02  0.7427435E-01 -0.2444188E-02 -0.3534947E-01
5701000. -0.8081678E-01  0.6378941E+00  0.2042542E-02  0.7813472E-01 -0.2444188E-02 -0.1257013E-01
5667333. -0.8368421E-01  0.4551530E+00  0.1643761E-02  0.7256298E-01 -0.2369056E-02 -0.1567877E-01
5633667. -0.8568943E-01  0.3069885E+00  0.1278141E-02  0.6572027E-01 -0.2280835E-02 -0.1754931E-01
5600000. -0.8694886E-01  0.1716794E+00  0.9482990E-03  0.5920026E-01 -0.2184397E-02 -0.1888206E-01
5600000. -0.8694886E-01  0.1716794E+00  0.9482990E-03  0.5920026E-01 -0.2184397E-02 -0.1888206E-01
5563518. -0.8754575E-01  0.3924669E-01  0.6287536E-03  0.5246656E-01 -0.2073365E-02 -0.1981954E-01
5527037. -0.8742579E-01 -0.7877085E-01  0.3467297E-03  0.4610094E-01 -0.1958228E-02 -0.2033136E-01
5490556. -0.8667025E-01 -0.1828299E+00  0.1000608E-03  0.4012091E-01 -0.1841193E-02 -0.2049289E-01
5454074. -0.8535756E-01 -0.2734686E+00 -0.1135158E-03  0.3454147E-01 -0.1724096E-02 -0.2036266E-01
5417593. -0.8356269E-01 -0.3513746E+00 -0.2962829E-03  0.2936198E-01 -0.1608410E-02 -0.2001098E-01
5381111. -0.8135653E-01 -0.4172257E+00 -0.4505537E-03  0.2458754E-01 -0.1495269E-02 -0.1947881E-01
5344630. -0.7880609E-01 -0.4717813E+00 -0.5786377E-03  0.2021519E-01 -0.1385596E-02 -0.1880827E-01
5308148. -0.7597354E-01 -0.5158628E+00 -0.6828081E-03  0.1623304E-01 -0.1280054E-02 -0.1803992E-01
5271667. -0.7291686E-01 -0.5502302E+00 -0.7652876E-03  0.1263862E-01 -0.1179146E-02 -0.1719438E-01
5235185. -0.6968906E-01 -0.5757444E+00 -0.8282549E-03  0.9413533E-02 -0.1083228E-02 -0.1630151E-01
5198704. -0.6633861E-01 -0.5932275E+00 -0.8737656E-03  0.6540442E-02 -0.9924987E-03 -0.1538458E-01
5162222. -0.6290919E-01 -0.6034313E+00 -0.9038176E-03  0.4010890E-02 -0.9070766E-03 -0.1444956E-01
5125741. -0.5944023E-01 -0.6072052E+00 -0.9203017E-03  0.1797361E-02 -0.8270036E-03 -0.1352033E-01
5089259. -0.5596620E-01 -0.6052848E+00 -0.9249711E-03 -0.1179750E-03 -0.7522104E-03 -0.1260507E-01
5052778. -0.5251789E-01 -0.5983764E+00 -0.9194905E-03 -0.1751657E-02 -0.6826121E-03 -0.1170832E-01
5016296. -0.4912157E-01 -0.5872071E+00 -0.9053958E-03 -0.3130398E-02 -0.6180621E-03 -0.1084247E-01
4979815. -0.4580001E-01 -0.5723985E+00 -0.8840949E-03 -0.4271634E-02 -0.5583786E-03 -0.1000922E-01
4943333. -0.4257211E-01 -0.5545639E+00 -0.8568887E-03 -0.5196902E-02 -0.5033644E-03 -0.9212303E-02
4906852. -0.3945367E-01 -0.5342824E+00 -0.8249439E-03 -0.5929970E-02 -0.4527936E-03 -0.8457762E-02
4870370. -0.3645715E-01 -0.5120330E+00 -0.7893173E-03 -0.6485530E-02 -0.4064308E-03 -0.7742043E-02
4833889. -0.3359254E-01 -0.4883161E+00 -0.7509642E-03 -0.6886583E-02 -0.3640460E-03 -0.7069552E-02
4797407. -0.3086683E-01 -0.4635530E+00 -0.7107072E-03 -0.7152435E-02 -0.3253829E-03 -0.6441210E-02
4760926. -0.2828515E-01 -0.4380970E+00 -0.6692870E-03 -0.7296091E-02 -0.2902042E-03 -0.5852796E-02
4724444. -0.2585026E-01 -0.4123132E+00 -0.6273429E-03 -0.7338151E-02 -0.2582722E-03 -0.5307204E-02
4687963. -0.2356332E-01 -0.3864828E+00 -0.5854156E-03 -0.7292513E-02 -0.2293465E-03 -0.4802359E-02
4651482. -0.2142384E-01 -0.3608519E+00 -0.5439721E-03 -0.7171675E-02 -0.2032028E-03 -0.4335494E-02
4615000. -0.1942993E-01 -0.3356538E+00 -0.5033959E-03 -0.6991330E-02 -0.1796203E-03 -0.3907425E-02
4578518. -0.1757866E-01 -0.3110542E+00 -0.4640000E-03 -0.6760979E-02 -0.1583858E-03 -0.3514831E-02
4542037. -0.1586622E-01 -0.2872091E+00 -0.4260412E-03 -0.6491787E-02 -0.1393026E-03 -0.3156234E-02
4505556. -0.1428784E-01 -0.2642423E+00 -0.3897078E-03 -0.6194526E-02 -0.1221754E-03 -0.2831161E-02
4469074. -0.1283824E-01 -0.2422293E+00 -0.3551424E-03 -0.5875147E-02 -0.1068233E-03 -0.2535712E-02
4432593. -0.1151179E-01 -0.2212519E+00 -0.3224481E-03 -0.5542805E-02 -0.9307908E-04 -0.2269716E-02
4396111. -0.1030235E-01 -0.2013507E+00 -0.2916766E-03 -0.5203940E-02 -0.8077666E-04 -0.2031482E-02
4359630. -0.9203783E-02 -0.1825427E+00 -0.2628563E-03 -0.4862506E-02 -0.6976676E-04 -0.1818184E-02
4323148. -0.8209704E-02 -0.1648455E+00 -0.2359821E-03 -0.4524746E-02 -0.5990643E-04 -0.1629746E-02
4286667. -0.7313835E-02 -0.1482456E+00 -0.2110243E-03 -0.4193809E-02 -0.5105884E-04 -0.1464174E-02
4250185. -0.6509910E-02 -0.1327203E+00 -0.1879352E-03 -0.3872444E-02 -0.4309751E-04 -0.1320029E-02
4213704. -0.5791885E-02 -0.1182433E+00 -0.1666508E-03 -0.3563998E-02 -0.3590100E-04 -0.1196944E-02
4177222. -0.5153852E-02 -0.1047666E+00 -0.1470928E-03 -0.3269413E-02 -0.2935256E-04 -0.1093425E-02
4140741. -0.4590247E-02 -0.9224489E-01 -0.1291791E-03 -0.2990189E-02 -0.2334215E-04 -0.1009091E-02
4104259. -0.4095720E-02 -0.8062433E-01 -0.1128166E-03 -0.2727394E-02 -0.1775964E-04 -0.9437916E-03
4067778. -0.3665317E-02 -0.6984233E-01 -0.9791447E-04 -0.2480207E-02 -0.1249897E-04 -0.8967138E-03
4031296. -0.3294375E-02 -0.5984249E-01 -0.8438207E-04 -0.2248854E-02 -0.7454125E-05 -0.8684885E-03
3994815. -0.2978609E-02 -0.5056334E-01 -0.7213147E-04 -0.2032277E-02 -0.2515934E-05 -0.8595230E-03
3958333. -0.2714055E-02 -0.4194356E-01 -0.6108426E-04 -0.1828105E-02  0.2426578E-05 -0.8701192E-03
3921852. -0.2497097E-02 -0.3393288E-01 -0.5117503E-04 -0.1634463E-02  0.7489431E-05 -0.9018634E-03
3885370. -0.2324378E-02 -0.2648344E-01 -0.4235302E-04 -0.1447529E-02  0.1279788E-04 -0.9560792E-03
3848889. -0.2192793E-02 -0.1956307E-01 -0.3459382E-04 -0.1262470E-02  0.1848507E-04 -0.1034600E-02
3812407. -0.2099356E-02 -0.1315782E-01 -0.2790240E-04 -0.1073291E-02  0.2469808E-04 -0.1140108E-02
3775926. -0.2041101E-02 -0.7280241E-02 -0.2232672E-04 -0.8711720E-03  0.3159825E-04 -0.1275152E-02
3739444. -0.2014879E-02 -0.1981905E-02 -0.1797110E-04 -0.6450191E-03  0.3936452E-04 -0.1443181E-02
3702963. -0.2017103E-02  0.2632339E-02 -0.1501351E-04 -0.3799735E-03  0.4819647E-04 -0.1648057E-02
3666482. -0.2043379E-02  0.6380732E-02 -0.1373282E-04 -0.5543549E-04  0.5831552E-04 -0.1893405E-02
3630000. -0.2087988E-02  0.8976547E-02 -0.1454273E-04  0.3554074E-03  0.6996623E-04 -0.2183640E-02
3630000. -0.2087988E-02  0.8976547E-02 -0.1454273E-04  0.3554074E-03  0.6996623E-04 -0.2183640E-02
3592500. -0.2144756E-02  0.9982218E-02 -0.1818115E-04  0.9065725E-03  0.8381979E-04 -0.2532440E-02
3555000. -0.2200841E-02  0.8602931E-02 -0.2557526E-04  0.1641998E-02  0.9988498E-04 -0.2935554E-02
3517500. -0.2239363E-02  0.3809521E-02 -0.3801547E-04  0.2635529E-02  0.1184870E-03 -0.3394382E-02
3480000. -0.2236099E-02 -0.5892325E-02 -0.5730441E-04  0.3988822E-02  0.1399481E-03 -0.3906113E-02
3480000. -0.2236099E-02 -0.7316861E-01 -0.1154432E-03 -0.3880493E-02  0.1399481E-03  0.3224557E-02
3409422. -0.1546545E-02 -0.5234267E-01 -0.7909332E-04 -0.2741266E-02  0.1062959E-03  0.2814580E-02
3338844. -0.1056374E-02 -0.3694588E-01 -0.5356120E-04 -0.1913132E-02  0.7802005E-04  0.2283766E-02
3268266. -0.7125470E-03 -0.2573377E-01 -0.3584389E-04 -0.1318994E-02  0.5565445E-04  0.1762110E-02
3197688. -0.4745498E-03 -0.1768787E-01 -0.2369903E-04 -0.8982298E-03  0.3872285E-04  0.1308453E-02
3127109. -0.3119800E-03 -0.1199645E-01 -0.1547641E-04 -0.6040834E-03  0.2634123E-04  0.9415890E-03
3056531. -0.2024118E-03 -0.8027489E-02 -0.9979221E-05 -0.4011188E-03  0.1754657E-04  0.6595295E-03
2985953. -0.1295584E-03 -0.5298619E-02 -0.6351008E-05 -0.2628968E-03  0.1145717E-04  0.4509119E-03
2915375. -0.8178076E-04 -0.3448911E-02 -0.3987715E-05 -0.1700126E-03  0.7337765E-05  0.3014577E-03
2844797. -0.5088658E-04 -0.2213040E-02 -0.2469077E-05 -0.1084392E-03  0.4611016E-05  0.1973093E-03
2774219. -0.3119663E-04 -0.1399290E-02 -0.1506764E-05 -0.6818699E-04  0.2843282E-05  0.1265220E-03
2703641. -0.1883319E-04 -0.8714290E-03 -0.9057368E-06 -0.4224744E-04  0.1720266E-05  0.7951403E-04
2633062. -0.1118872E-04 -0.5342253E-03 -0.5359472E-06 -0.2577672E-04  0.1020966E-05  0.4898048E-04
2562484. -0.6537105E-05 -0.3221997E-03 -0.3119632E-06 -0.1547783E-04  0.5941578E-06  0.2957073E-04
2491906. -0.3753233E-05 -0.1910434E-03 -0.1784856E-06 -0.9139690E-05  0.3388710E-06  0.1749163E-04
2421328. -0.2115806E-05 -0.1112786E-03 -0.1002879E-06 -0.5303294E-05  0.1892878E-06  0.1013273E-04
2350750. -0.1170019E-05 -0.6361979E-04 -0.5528778E-07 -0.3021149E-05  0.1034726E-06  0.5744901E-05
2280172. -0.6340309E-06 -0.3566642E-04 -0.2987392E-07 -0.1688059E-05  0.5530237E-07  0.3185422E-05
2209594. -0.3363073E-06 -0.1958638E-04 -0.1580300E-07 -0.9241115E-06  0.2886827E-07  0.1725765E-05
2139016. -0.1743913E-06 -0.1052361E-04 -0.8173727E-08 -0.4950670E-06  0.1470059E-07  0.9125630E-06
2068438. -0.8828193E-07 -0.5524900E-05 -0.4127866E-08 -0.2591984E-06  0.7292830E-08  0.4704071E-06
1997859. -0.4356135E-07 -0.2830059E-05 -0.2032243E-08 -0.1324304E-06  0.3519125E-08  0.2360474E-06
1927281. -0.2091582E-07 -0.1412150E-05 -0.9737059E-09 -0.6592142E-07  0.1648957E-08  0.1151201E-06
1856703. -0.9753350E-08 -0.6851522E-06 -0.4531480E-09 -0.3191182E-07  0.7488078E-09  0.5446721E-07
1786125. -0.4407613E-08 -0.3225738E-06 -0.2043972E-09 -0.1499249E-07  0.3288245E-09  0.2494916E-07
1715547. -0.1925632E-08 -0.1470316E-06 -0.8914125E-10 -0.6820131E-08  0.1392877E-09  0.1103818E-07
1644969. -0.8111048E-09 -0.6471544E-07 -0.3748559E-10 -0.2996259E-08  0.5675366E-10  0.4704392E-08
1574391. -0.3283718E-09 -0.2742510E-07 -0.1515266E-10 -0.1267504E-08  0.2217265E-10  0.1925558E-08
1503812. -0.1273115E-09 -0.1115346E-07 -0.5867403E-11 -0.5145182E-09  0.8275451E-11  0.7542930E-09
1433234. -0.4704743E-10 -0.4339915E-08 -0.2169104E-11 -0.1994994E-09  0.2938471E-11  0.2816560E-09
1362656. -0.1638129E-10 -0.1621092E-08 -0.7670046E-12 -0.7300664E-10  0.9881215E-12  0.9977299E-10
1292078. -0.4927744E-11 -0.6268795E-09 -0.2763007E-12 -0.2293692E-10  0.3133865E-12  0.3333505E-10
1221500.  0.4090006E-12 -0.4474232E-09 -0.1713028E-12  0.3025455E-11  0.9336745E-13  0.1055115E-10
1221500.  0.4090006E-12  0.1518791E-11 -0.1232505E-14 -0.2139660E-11  0.9336745E-13  0.1037396E-10
1183328.  0.3448844E-12  0.1618170E-10  0.5625981E-14 -0.4233862E-12  0.4743673E-13  0.5453510E-11
1145156.  0.2427869E-12  0.1660026E-10  0.6056246E-14  0.1614115E-12  0.2353411E-13  0.2801853E-11
1106984.  0.1542130E-12  0.1270187E-10  0.4602151E-14  0.2787299E-12  0.1138547E-13  0.1404348E-11
1068812.  0.0000000E+00  0.0000000E+00  0.0000000E+00  0.0000000E+00  0.0000000E+00  0.0000000E+00
1030641.  0.0000000E+00  0.0000000E+00  0.0000000E+00  0.0000000E+00  0.0000000E+00  0.0000000E+00
 992469.  0.0000000E+00  0.0000000E+00  0.0000000E+00  0.0000000E+00  0.0000000E+00  0.0000000E+00
 954297.  0.0000000E+00  0.0000000E+00  0.0000000E+00  0.0000000E+00  0.0000000E+00  0.0000000E+00
 916125.  0.0000000E+00  0.0000000E+00  0.0000000E+00  0.0000000E+00  0.0000000E+00  0.0000000E+00
 877953.  0.0000000E+00  0.0000000E+00  0.0000000E+00  0.0000000E+00  0.0000000E+00  0.0000000E+00
 839781.  0.0000000E+00  0.0000000E+00  0.0000000E+00  0.0000000E+00  0.0000000E+00  0.0000000E+00
 801609.  0.0000000E+00  0.0000000E+00  0.0000000E+00  0.0000000E+00  0.0000000E+00  0.0000000E+00
 763438.  0.0000000E+00  0.0000000E+00  0.0000000E+00  0.0000000E+00  0.0000000E+00  0.0000000E+00
 725266.  0.0000000E+00  0.0000000E+00  0.0000000E+00  0.0000000E+00  0.0000000E+00  0.0000000E+00
 687094.  0.0000000E+00  0.0000000E+00  0.0000000E+00  0.0000000E+00  0.0000000E+00  0.0000000E+00
 648922.  0.0000000E+00  0.0000000E+00  0.0000000E+00  0.0000000E+00  0.0000000E+00  0.0000000E+00
 610750.  0.0000000E+00  0.0000000E+00  0.0000000E+00  0.0000000E+00  0.0000000E+00  0.0000000E+00
 572578.  0.0000000E+00  0.0000000E+00  0.0000000E+00  0.0000000E+00  0.0000000E+00  0.0000000E+00
 534406.  0.0000000E+00  0.0000000E+00  0.0000000E+00  0.0000000E+00  0.0000000E+00  0.0000000E+00
 496234.  0.0000000E+00  0.0000000E+00  0.0000000E+00  0.0000000E+00  0.0000000E+00  0.0000000E+00
 458062.  0.0000000E+00  0.0000000E+00  0.0000000E+00  0.0000000E+00  0.0000000E+00  0.0000000E+00
 419891.  0.0000000E+00  0.0000000E+00  0.0000000E+00  0.0000000E+00  0.0000000E+00  0.0000000E+00
 381719.  0.0000000E+00  0.0000000E+00  0.0000000E+00  0.0000000E+00  0.0000000E+00  0.0000000E+00
 343547.  0.0000000E+00  0.0000000E+00  0.0000000E+00  0.0000000E+00  0.0000000E+00  0.0000000E+00
 305375.  0.0000000E+00  0.0000000E+00  0.0000000E+00  0.0000000E+00  0.0000000E+00  0.0000000E+00
 267203.  0.0000000E+00  0.0000000E+00  0.0000000E+00  0.0000000E+00  0.0000000E+00  0.0000000E+00
 229031.  0.0000000E+00  0.0000000E+00  0.0000000E+00  0.0000000E+00  0.0000000E+00  0.0000000E+00
 190859.  0.0000000E+00  0.0000000E+00  0.0000000E+00  0.0000000E+00  0.0000000E+00  0.0000000E+00
 152688.  0.0000000E+00  0.0000000E+00  0.0000000E+00  0.0000000E+00  0.0000000E+00  0.0000000E+00
 114516.  0.0000000E+00  0.0000000E+00  0.0000000E+00  0.0000000E+00  0.0000000E+00  0.0000000E+00
  76344.  0.0000000E+00  0.0000000E+00  0.0000000E+00  0.0000000E+00  0.0000000E+00  0.0000000E+00
  38172.  0.0000000E+00  0.0000000E+00  0.0000000E+00  0.0000000E+00  0.0000000E+00  0.0000000E+00
      0.  0.0000000E+00  0.0000000E+00  0.0000000E+00  0.0000000E+00  0.0000000E+00  0.0000000E+00
