      26        4 S      744        100.80250         88.24775         21.55739        113.09890      185    7
6371000.  0.2039453E-01 -0.2452200E-01 -0.1080738E-02 -0.2147527E-01 -0.1324369E-04 -0.3839310E-01
6370000.  0.2039720E-01 -0.9439610E-02 -0.1077162E-02 -0.2409691E-01 -0.7217510E-05 -0.3839168E-01
6369000.  0.2039750E-01  0.5654323E-02 -0.1073175E-02 -0.2670478E-01 -0.1191905E-05 -0.3838584E-01
6368000.  0.2039542E-01  0.2075803E-01 -0.1068779E-02 -0.2929790E-01  0.4832435E-05 -0.3837557E-01
6368000.  0.2039542E-01  0.2075803E-01 -0.1068779E-02 -0.2929790E-01  0.4832435E-05 -0.3837557E-01
6367000.  0.2039098E-01  0.3586973E-01 -0.1063978E-02 -0.3187526E-01  0.1085482E-04 -0.3836087E-01
6366000.  0.2038416E-01  0.5098766E-01 -0.1058774E-02 -0.3443587E-01  0.1687454E-04 -0.3834174E-01
6365000.  0.2037497E-01  0.6611001E-01 -0.1053169E-02 -0.3697877E-01  0.2289092E-04 -0.3831818E-01
6364000.  0.2036341E-01  0.8123502E-01 -0.1047166E-02 -0.3950296E-01  0.2890325E-04 -0.3829020E-01
6363000.  0.2034947E-01  0.9636089E-01 -0.1040769E-02 -0.4200750E-01  0.3491084E-04 -0.3825780E-01
6362000.  0.2033316E-01  0.1114858E+00 -0.1033980E-02 -0.4449141E-01  0.4091300E-04 -0.3822097E-01
6361000.  0.2031447E-01  0.1266080E+00 -0.1026803E-02 -0.4695375E-01  0.4690903E-04 -0.3817972E-01
6360000.  0.2029341E-01  0.1417257E+00 -0.1019242E-02 -0.4939358E-01  0.5289824E-04 -0.3813406E-01
6359000.  0.2026998E-01  0.1568371E+00 -0.1011299E-02 -0.5180996E-01  0.5887994E-04 -0.3808398E-01
6358000.  0.2024418E-01  0.1719403E+00 -0.1002979E-02 -0.5420197E-01  0.6485343E-04 -0.3802950E-01
6357000.  0.2021601E-01  0.1870337E+00 -0.9942850E-03 -0.5656870E-01  0.7081802E-04 -0.3797062E-01
6356000.  0.2018546E-01  0.2021153E+00 -0.9852218E-03 -0.5890924E-01  0.7677302E-04 -0.3790734E-01
6356000.  0.2018546E-01  0.1265769E+00 -0.9852218E-03 -0.4396932E-01  0.7677302E-04 -0.4229946E-01
6355000.  0.2016474E-01  0.1375267E+00 -0.9781977E-03 -0.4553067E-01  0.8340853E-04 -0.4224956E-01
6354000.  0.2014229E-01  0.1484717E+00 -0.9709296E-03 -0.4707737E-01  0.9003593E-04 -0.4219612E-01
6353000.  0.2011813E-01  0.1594109E+00 -0.9634197E-03 -0.4860901E-01  0.9665466E-04 -0.4213914E-01
6352000.  0.2009225E-01  0.1703433E+00 -0.9556708E-03 -0.5012520E-01  0.1032642E-03 -0.4207861E-01
6351000.  0.2006466E-01  0.1812681E+00 -0.9476852E-03 -0.5162555E-01  0.1098639E-03 -0.4201454E-01
6350000.  0.2003535E-01  0.1921842E+00 -0.9394652E-03 -0.5310968E-01  0.1164533E-03 -0.4194694E-01
6349000.  0.2000433E-01  0.2030908E+00 -0.9310137E-03 -0.5457719E-01  0.1230318E-03 -0.4187581E-01
6348000.  0.1997159E-01  0.2139868E+00 -0.9223332E-03 -0.5602772E-01  0.1295989E-03 -0.4180116E-01
6347000.  0.1993715E-01  0.2248713E+00 -0.9134263E-03 -0.5746090E-01  0.1361539E-03 -0.4172299E-01
6346600.  0.1992290E-01  0.2292217E+00 -0.9098008E-03 -0.5802922E-01  0.1387725E-03 -0.4169073E-01
6346600.  0.1992290E-01  0.1303278E+00 -0.9098008E-03 -0.4597163E-01  0.1387725E-03 -0.4863755E-01
6318800.  0.1887898E-01  0.3474600E+00 -0.6491151E-03 -0.7161561E-01  0.3458165E-03 -0.4588566E-01
6291000.  0.1690471E-01  0.5548844E+00 -0.3037909E-03 -0.8427972E-01  0.5360284E-03 -0.4094398E-01
6291000.  0.1690471E-01  0.5619270E+00 -0.3037909E-03 -0.8648773E-01  0.5360284E-03 -0.4094398E-01
6263000.  0.1400707E-01  0.7521133E+00  0.7673600E-04 -0.8401354E-01  0.7010903E-03 -0.3384844E-01
6235000.  0.1034223E-01  0.9092668E+00  0.4123212E-03 -0.6636680E-01  0.8309567E-03 -0.2498564E-01
6207000.  0.6077815E-02  0.1023462E+01  0.6424214E-03 -0.3672751E-01  0.9186959E-03 -0.1475087E-01
6179000.  0.1420814E-02  0.1086805E+01  0.7250894E-03 -0.2595849E-03  0.9593010E-03 -0.3621670E-02
6151000. -0.3392652E-02  0.1094034E+01  0.6439250E-03  0.3673564E-01  0.9500074E-03  0.7862912E-02
6151000. -0.3392652E-02  0.8839683E+00  0.6439250E-03  0.3281253E-01  0.9500074E-03  0.8050611E-02
6128500. -0.6441253E-02  0.8385788E+00  0.4870379E-03  0.5526411E-01  0.9082746E-03  0.1553121E-01
6106000. -0.9289203E-02  0.7707304E+00  0.2602295E-03  0.7208705E-01  0.8407864E-03  0.2260468E-01
6083500. -0.1186172E-01  0.6830847E+00 -0.1356855E-04  0.8166010E-01  0.7493048E-03  0.2909031E-01
6061000. -0.1409434E-01  0.5788065E+00 -0.3069093E-03  0.8306425E-01  0.6361975E-03  0.3482633E-01
6038500. -0.1593449E-01  0.4614307E+00 -0.5904491E-03  0.7614958E-01  0.5043655E-03  0.3967302E-01
6016000. -0.1734249E-01  0.3347078E+00 -0.8356745E-03  0.6152918E-01  0.3571598E-03  0.4351578E-01
5993500. -0.1829209E-01  0.2024636E+00 -0.1017485E-02  0.4050558E-01  0.1982878E-03  0.4626764E-01
5971000. -0.1877047E-01  0.6846549E-01 -0.1116414E-02  0.1494011E-01  0.3171437E-04  0.4786977E-01
5971000. -0.1877047E-01  0.6245113E-01 -0.1116414E-02  0.1536939E-01  0.3171437E-04  0.5032698E-01
5937667. -0.1861438E-01 -0.1191107E+00 -0.1098210E-02 -0.2215717E-01 -0.2340108E-03  0.5082424E-01
5904333. -0.1756162E-01 -0.2792190E+00 -0.8917409E-03 -0.5561388E-01 -0.4957871E-03  0.4884227E-01
5871000. -0.1573926E-01 -0.4126487E+00 -0.5322201E-03 -0.7998951E-01 -0.7411522E-03  0.4459771E-01
5837667. -0.1329525E-01 -0.5165564E+00 -0.7590019E-04 -0.9230085E-01 -0.9590325E-03  0.3839185E-01
5804333. -0.1038693E-01 -0.5901096E+00  0.4110253E-03 -0.9171654E-01 -0.1140098E-02  0.3058678E-01
5771000. -0.7171939E-02 -0.6340550E+00  0.8631738E-03 -0.7933509E-01 -0.1277008E-02  0.2158445E-01
5771000. -0.7171939E-02 -0.6340619E+00  0.8631738E-03 -0.7933221E-01 -0.1277008E-02  0.2158445E-01
5701000.  0.1646030E-03 -0.6822404E+00  0.1494452E-02 -0.3002871E-01 -0.1397252E-02 -0.5256881E-04
5701000.  0.1646030E-03 -0.5629668E+00  0.1494452E-02 -0.2344184E-01 -0.1397252E-02 -0.9896448E-04
5667333.  0.3025983E-02 -0.5225338E+00  0.1543201E-02  0.4358659E-02 -0.1371364E-02 -0.9598113E-02
5633667.  0.5708756E-02 -0.4922459E+00  0.1451645E-02  0.3008234E-01 -0.1296627E-02 -0.1861931E-01
5600000.  0.8198604E-02 -0.4474498E+00  0.1230979E-02  0.5265974E-01 -0.1175597E-02 -0.2706112E-01
5600000.  0.8198604E-02 -0.4474498E+00  0.1230979E-02  0.5265974E-01 -0.1175597E-02 -0.2706112E-01
5563518.  0.1058688E-01 -0.3843736E+00  0.8733472E-03  0.7100425E-01 -0.9967607E-03 -0.3519944E-01
5527037.  0.1257615E-01 -0.3085104E+00  0.4337019E-03  0.8106078E-01 -0.7750731E-03 -0.4198159E-01
5490556.  0.1410035E-01 -0.2223691E+00 -0.3731085E-04  0.8189940E-01 -0.5190656E-03 -0.4714898E-01
5454074.  0.1510833E-01 -0.1286713E+00 -0.4869716E-03  0.7372934E-01 -0.2385576E-03 -0.5050989E-01
5417593.  0.1556517E-01 -0.3038257E-01 -0.8669258E-03  0.5785353E-01  0.5570216E-04 -0.5194068E-01
5381111.  0.1545341E-01  0.6939798E-01 -0.1138909E-02  0.3643388E-01  0.3525110E-03 -0.5139608E-01
5344630.  0.1477379E-01  0.1674058E+00 -0.1278838E-02  0.1222191E-01  0.6405863E-03 -0.4890349E-01
5308148.  0.1354590E-01  0.2603323E+00 -0.1279235E-02 -0.1180685E-01  0.9090349E-03 -0.4456066E-01
5271667.  0.1180850E-01  0.3448282E+00 -0.1149411E-02 -0.3281949E-01  0.1147695E-02 -0.3853453E-01
5235185.  0.9618925E-02  0.4177466E+00 -0.9136744E-03 -0.4846032E-01  0.1347554E-02 -0.3104768E-01
5198704.  0.7051950E-02  0.4762080E+00 -0.6078169E-03 -0.5711625E-01  0.1500995E-02 -0.2237292E-01
5162222.  0.4197722E-02  0.5176842E+00 -0.2743096E-03 -0.5807722E-01  0.1602104E-02 -0.1282274E-01
5125741.  0.1159163E-02  0.5403723E+00  0.4306200E-04 -0.5160565E-01  0.1646820E-02 -0.2735179E-02
5089259. -0.1952625E-02  0.5430936E+00  0.3046611E-03 -0.3885352E-01  0.1633074E-02  0.7537531E-02
5052778. -0.5021617E-02  0.5254748E+00  0.4796053E-03 -0.2170518E-01  0.1560825E-02  0.1763971E-01
5016296. -0.7932779E-02  0.4881046E+00  0.5493604E-03 -0.2532747E-02  0.1432042E-02  0.2722649E-01
4979815. -0.1057642E-01  0.4323655E+00  0.5096391E-03  0.1610622E-01  0.1250622E-02  0.3597401E-01
4943333. -0.1285354E-01  0.3605102E+00  0.3706012E-03  0.3177456E-01  0.1022215E-02  0.4359018E-01
4906852. -0.1468003E-01  0.2755342E+00  0.1553334E-03  0.4244179E-01  0.7540587E-03  0.4982181E-01
4870370. -0.1599064E-01  0.1809402E+00 -0.1032006E-03  0.4671422E-01  0.4546688E-03  0.5446671E-01
4833889. -0.1674138E-01  0.8067268E-01 -0.3662484E-03  0.4399155E-01  0.1336106E-03  0.5737215E-01
4797407. -0.1691145E-01 -0.2120095E-01 -0.5940757E-03  0.3452123E-01 -0.1988743E-03  0.5844415E-01
4760926. -0.1650323E-01 -0.1206529E+00 -0.7506922E-03  0.1935976E-01 -0.5321473E-03  0.5764970E-01
4724444. -0.1554147E-01 -0.2139467E+00 -0.8082119E-03  0.2445663E-03 -0.8555744E-03  0.5501064E-01
4687963. -0.1407115E-01 -0.2977812E+00 -0.7501606E-03 -0.2060995E-01 -0.1158781E-02  0.5060875E-01
4651482. -0.1215450E-01 -0.3694506E+00 -0.5735218E-03 -0.4076510E-01 -0.1432047E-02  0.4457956E-01
4615000. -0.9867082E-02 -0.4269907E+00 -0.2892046E-03 -0.5783772E-01 -0.1666560E-02  0.3710479E-01
4578518. -0.7293876E-02 -0.4691156E+00  0.7897926E-04 -0.6974958E-01 -0.1854662E-02  0.2841117E-01
4542037. -0.4525082E-02 -0.4953090E+00  0.4967696E-03 -0.7496788E-01 -0.1990106E-02  0.1875970E-01
4505556. -0.1651601E-02 -0.5057521E+00  0.9231262E-03 -0.7266721E-01 -0.2068220E-02  0.8437099E-02
4469074.  0.1238116E-02 -0.5011134E+00  0.1314488E-02 -0.6280205E-01 -0.2086031E-02 -0.2250883E-02
4432593.  0.4060862E-02 -0.4826243E+00  0.1629330E-02 -0.4613395E-01 -0.2042348E-02 -0.1298903E-01
4396111.  0.6741691E-02 -0.4517780E+00  0.1832606E-02 -0.2412881E-01 -0.1937779E-02 -0.2346374E-01
4359630.  0.9214271E-02 -0.4102029E+00  0.1899318E-02  0.1188823E-02 -0.1774720E-02 -0.3336967E-01
4323148.  0.1142240E-01 -0.3596792E+00  0.1817185E-02  0.2744777E-01 -0.1557255E-02 -0.4241841E-01
4286667.  0.1331952E-01 -0.3018646E+00  0.1587920E-02  0.5217091E-01 -0.1291068E-02 -0.5034812E-01
4250185.  0.1486849E-01 -0.2383122E+00  0.1227105E-02  0.7302896E-01 -0.9832245E-03 -0.5692961E-01
4213704.  0.1604057E-01 -0.1704610E+00  0.7626921E-03  0.8807673E-01 -0.6420352E-03 -0.6196973E-01
4177222.  0.1681482E-01 -0.9955205E-01  0.2322005E-03  0.9592783E-01 -0.2767482E-03 -0.6532215E-01
4140741.  0.1717705E-01 -0.2673922E-01 -0.3208269E-03  0.9590383E-01  0.1026373E-03 -0.6688432E-01
4104259.  0.1711944E-01  0.4691170E-01 -0.8512053E-03  0.8808675E-01  0.4857126E-03 -0.6660293E-01
4067778.  0.1664027E-01  0.1203200E+00 -0.1316247E-02  0.7328214E-01  0.8618772E-03 -0.6447805E-01
4031296.  0.1574406E-01  0.1923737E+00 -0.1679905E-02  0.5296503E-01  0.1220701E-02 -0.6055415E-01
3994815.  0.1444208E-01  0.2618313E+00 -0.1916026E-02  0.2909605E-01  0.1552110E-02 -0.5492606E-01
3958333.  0.1275315E-01  0.3272678E+00 -0.2010630E-02  0.3925220E-02  0.1846749E-02 -0.4773505E-01
3921852.  0.1070464E-01  0.3871730E+00 -0.1962961E-02 -0.2021451E-01  0.2096144E-02 -0.3915922E-01
3885370.  0.8332923E-02  0.4398392E+00 -0.1785249E-02 -0.4115696E-01  0.2292980E-02 -0.2941432E-01
3848889.  0.5684703E-02  0.4834804E+00 -0.1501202E-02 -0.5709673E-01  0.2431245E-02 -0.1874649E-01
3812407.  0.2816425E-02  0.5163848E+00 -0.1143359E-02 -0.6676896E-01  0.2506416E-02 -0.7422181E-02
3775926. -0.2053144E-03  0.5368436E+00 -0.7497423E-03 -0.6954866E-01  0.2515539E-02  0.4273491E-02
3739444. -0.3305266E-02  0.5434750E+00 -0.3599105E-03 -0.6551520E-01  0.2457322E-02  0.1604861E-01
3702963. -0.6401004E-02  0.5352545E+00 -0.1103473E-04 -0.5542470E-01  0.2332156E-02  0.2760900E-01
3666482. -0.9405440E-02  0.5115333E+00  0.2657821E-03 -0.4061298E-01  0.2142094E-02  0.3866839E-01
3630000. -0.1222973E-01  0.4723637E+00  0.4484810E-03 -0.2287682E-01  0.1890794E-02  0.4895143E-01
3630000. -0.1222973E-01  0.4723637E+00  0.4484810E-03 -0.2287682E-01  0.1890794E-02  0.4895143E-01
3592500. -0.1485342E-01  0.4166140E+00  0.5267489E-03 -0.3756918E-02  0.1574124E-02  0.5844606E-01
3555000. -0.1710602E-01  0.3465688E+00  0.4954131E-03  0.1399009E-01  0.1205385E-02  0.6660457E-01
3517500. -0.1890936E-01  0.2643640E+00  0.3689304E-03  0.2824722E-01  0.7930963E-03  0.7321136E-01
3480000. -0.2019953E-01  0.1727021E+00  0.1731387E-03  0.3729720E-01  0.3469184E-03  0.7809447E-01
3480000. -0.2019953E-01  0.2958200E+00 -0.1884958E-03 -0.3663207E-01  0.3469184E-03  0.1425085E+00
3409422. -0.2051461E-01 -0.2373344E+00  0.2392515E-03 -0.3878471E-01 -0.1294102E-02  0.1466143E+00
3338844. -0.1523639E-01 -0.6916731E+00  0.6311217E-03 -0.3028250E-01 -0.2748421E-02  0.1096459E+00
3268266. -0.5901153E-02 -0.9553332E+00  0.8783083E-03 -0.1321927E-01 -0.3608090E-02  0.4170512E-01
3197688.  0.5011885E-02 -0.9725369E+00  0.9078843E-03  0.8175268E-02 -0.3623078E-02 -0.3950950E-01
3127109.  0.1475732E-01 -0.7508267E+00  0.7006432E-03  0.2863848E-01 -0.2759623E-02 -0.1135138E+00
3056531.  0.2099264E-01 -0.3530324E+00  0.2955521E-03  0.4314122E-01 -0.1202712E-02 -0.1621057E+00
2985953.  0.2229223E-01  0.1220854E+00 -0.2194256E-03  0.4803156E-01  0.6935911E-03 -0.1735197E+00
2915375.  0.1840948E-01  0.5646970E+00 -0.7273225E-03  0.4181768E-01  0.2492493E-02 -0.1448136E+00
2844797.  0.1026094E-01  0.8784028E+00 -0.1108194E-02  0.2545806E-01  0.3775762E-02 -0.8215153E-01
2774219. -0.3353566E-03  0.9994035E+00 -0.1265452E-02  0.2132128E-02  0.4236840E-02  0.8945573E-03
2703641. -0.1108893E-01  0.9071887E+00 -0.1147100E-02 -0.2343057E-01  0.3746429E-02  0.8650433E-01
2633062. -0.1973135E-01  0.6256258E+00 -0.7577601E-03 -0.4591047E-01  0.2378429E-02  0.1564675E+00
2562484. -0.2447220E-01  0.2153227E+00 -0.1594068E-03 -0.6044817E-01  0.3931972E-03  0.1959120E+00
2491906. -0.2433363E-01 -0.2404039E+00  0.5391916E-03 -0.6359104E-01 -0.1816611E-02  0.1961946E+00
2421328. -0.1930775E-01 -0.6526663E+00  0.1202067E-02 -0.5396461E-01 -0.3804851E-02  0.1564338E+00
2350750. -0.1032330E-01 -0.9438715E+00  0.1691063E-02 -0.3256107E-01 -0.5159279E-02  0.8350164E-01
2280172.  0.9587356E-03 -0.1061276E+01  0.1891703E-02 -0.2607357E-02 -0.5580573E-02 -0.9435944E-02
2209594.  0.1247139E-01 -0.9851665E+00  0.1735395E-02  0.3095431E-01 -0.4938684E-02 -0.1054763E+00
2139016.  0.2212354E-01 -0.7306668E+00  0.1214154E-02  0.6227681E-01 -0.3297155E-02 -0.1871100E+00
2068438.  0.2816720E-01 -0.3434186E+00  0.3853634E-03  0.8557045E-01 -0.9022902E-03 -0.2393396E+00
1997859.  0.2948801E-01  0.1096905E+00 -0.6342462E-03  0.9605810E-01  0.1859645E-02 -0.2522444E+00
1927281.  0.2577462E-01  0.5527301E+00 -0.1684381E-02  0.9077315E-01  0.4528396E-02 -0.2225801E+00
1856703.  0.1754657E-01  0.9137409E+00 -0.2584513E-02  0.6907958E-01  0.6647364E-02 -0.1541967E+00
1786125.  0.6044226E-02  0.1136240E+01 -0.3160895E-02  0.3283620E-01  0.7838790E-02 -0.5726472E-01
1715547. -0.6992250E-02  0.1187521E+01 -0.3273400E-02 -0.1381004E-01  0.7864796E-02  0.5349497E-01
1644969. -0.1961256E-01  0.1062624E+01 -0.2838137E-02 -0.6496897E-01  0.6664784E-02  0.1612318E+00
1574391. -0.2996400E-01  0.7836389E+00 -0.1842539E-02 -0.1137999E+00  0.4364408E-02  0.2496065E+00
1503812. -0.3656742E-01  0.3947619E+00 -0.3508305E-03 -0.1534347E+00  0.1256071E-02  0.3052073E+00
1433234. -0.3851907E-01 -0.4580794E-01  0.1500724E-02 -0.1778904E+00 -0.2244024E-02  0.3193533E+00
1362656. -0.3559249E-01 -0.4757471E+00  0.3518222E-02 -0.1828430E+00 -0.5654575E-02  0.2890182E+00
1292078. -0.2822816E-01 -0.8385397E+00  0.5471516E-02 -0.1661344E+00 -0.8492016E-02  0.2167238E+00
1221500. -0.1741984E-01 -0.1092070E+01  0.7119491E-02 -0.1279391E+00 -0.1032672E-01  0.1094175E+00
1221500. -0.1741984E-01 -0.4288427E+01 -0.3254228E-01 -0.7887435E-01 -0.1032672E-01  0.1169638E+00
1183328.  0.7852974E-02 -0.3849681E+01 -0.2384612E-01 -0.2741907E+01 -0.1096820E-01  0.9651795E-01
1145156.  0.2541029E-01 -0.1783489E+01 -0.1807509E-02 -0.4357461E+01 -0.1147649E-01  0.7266294E-01
1106984.  0.2746889E-01  0.1145639E+01  0.2471763E-01 -0.4171069E+01 -0.1183396E-01  0.4632463E-01
1068812.  0.1240524E-01  0.3713312E+01  0.4452770E-01 -0.2185789E+01 -0.1202847E-01  0.1841881E-01
1030641. -0.1387450E-01  0.4721107E+01  0.4883393E-01  0.8227741E+00 -0.1205343E-01 -0.1010903E-01
 992469. -0.3968459E-01  0.3514882E+01  0.3509669E-01  0.3618387E+01 -0.1190808E-01 -0.3825995E-01
 954297. -0.5196401E-01  0.3218418E+00  0.8311661E-02  0.5012489E+01 -0.1159781E-01 -0.6498463E-01
 916125. -0.4175615E-01 -0.3746561E+01 -0.2082409E-01  0.4360441E+01 -0.1113430E-01 -0.8924679E-01
 877953. -0.8591619E-02 -0.7055069E+01 -0.4015556E-01  0.1840654E+01 -0.1053515E-01 -0.1101168E+00
 839781.  0.3812280E-01 -0.8053892E+01 -0.4101707E-01 -0.1597984E+01 -0.9822973E-02 -0.1268823E+00
 801609.  0.8157656E-01 -0.5916680E+01 -0.2188707E-01 -0.4600183E+01 -0.9023752E-02 -0.1391310E+00
 763438.  0.1033120E+00 -0.9607978E+00  0.1073447E-01 -0.5935524E+01 -0.8164982E-02 -0.1467811E+00
 725266.  0.9036937E-01  0.5330585E+01  0.4461531E-01 -0.4986618E+01 -0.7273662E-02 -0.1500457E+00
 687094.  0.4122697E-01  0.1072390E+02  0.6636769E-01 -0.2001444E+01 -0.6374910E-02 -0.1493441E+00
 648922. -0.3179802E-01  0.1297096E+02  0.6656661E-01  0.1987088E+01 -0.5490951E-02 -0.1451976E+00
 610750. -0.1049234E+00  0.1061866E+02  0.4342858E-01  0.5543424E+01 -0.4640843E-02 -0.1381283E+00
 572578. -0.1496287E+00  0.3606636E+01  0.3648314E-02  0.7364289E+01 -0.3840647E-02 -0.1286100E+00
 534406. -0.1417326E+00 -0.6573273E+01 -0.3991706E-01  0.6761314E+01 -0.3103749E-02 -0.1170668E+00
 496234. -0.6986255E-01 -0.1723869E+02 -0.7282642E-01  0.3909442E+01 -0.2441035E-02 -0.1039190E+00
 458062.  0.5960811E-01 -0.2530360E+02 -0.8416615E-01 -0.2283826E+00 -0.1860738E-02 -0.8964062E-01
 419891.  0.2230161E+00 -0.2824299E+02 -0.7029808E-01 -0.4264999E+01 -0.1368000E-02 -0.7479861E-01
 381719.  0.3854063E+00 -0.2491755E+02 -0.3589882E-01 -0.6898470E+01 -0.9642447E-03 -0.6004853E-01
 343547.  0.5102781E+00 -0.1597690E+02  0.7996593E-02 -0.7371137E+01 -0.6468464E-03 -0.4608738E-01
 305375.  0.5701249E+00 -0.3696969E+01  0.4811933E-01 -0.5710668E+01 -0.4091061E-03 -0.3355682E-01
 267203.  0.5543309E+00  0.8709391E+01  0.7364301E-01 -0.2669652E+01 -0.2408617E-03 -0.2295637E-01
 229031.  0.4718774E+00  0.1808862E+02  0.7965663E-01  0.6003551E+00 -0.1296016E-03 -0.1455981E-01
 190859.  0.3479599E+00  0.2232567E+02  0.6821082E-01  0.3004349E+01 -0.6193939E-04 -0.8386704E-02
 152688.  0.2156144E+00  0.2098429E+02  0.4669579E-01  0.3909400E+01 -0.2505411E-04 -0.4238056E-02
 114516.  0.1050797E+00  0.1539486E+02  0.2434055E-01  0.3344958E+01 -0.7821460E-05 -0.1757626E-02
  76344.  0.3444373E-01  0.8162354E+01  0.8334389E-02  0.1928306E+01 -0.1527041E-05 -0.5123079E-03
  38172.  0.4570973E-02  0.2258381E+01  0.1133642E-02  0.5570515E+00 -0.9468781E-07 -0.6342561E-04
      0.  0.0000000E+00  0.0000000E+00  0.0000000E+00  0.0000000E+00  0.0000000E+00  0.0000000E+00
