       9       25 S      497        106.97480         14.67458          6.05680        246.22400      185    7
6371000. -0.9287194E-02  0.5969362E+00  0.2308350E-02  0.1159554E-01 -0.3725021E-03  0.2719853E-01
6370000. -0.9380365E-02  0.5901790E+00  0.2306183E-02  0.1601461E-01 -0.3767535E-03  0.2697148E-01
6369000. -0.9472446E-02  0.5830479E+00  0.2303323E-02  0.2042776E-01 -0.3809690E-03  0.2674311E-01
6368000. -0.9563377E-02  0.5755442E+00  0.2299771E-02  0.2483361E-01 -0.3851487E-03  0.2651343E-01
6368000. -0.9563377E-02  0.5755442E+00  0.2299771E-02  0.2483361E-01 -0.3851487E-03  0.2651343E-01
6367000. -0.9653102E-02  0.5676687E+00  0.2295528E-02  0.2923077E-01 -0.3892921E-03  0.2628247E-01
6366000. -0.9741561E-02  0.5594230E+00  0.2290595E-02  0.3361783E-01 -0.3933992E-03  0.2605025E-01
6365000. -0.9828698E-02  0.5508083E+00  0.2284975E-02  0.3799341E-01 -0.3974698E-03  0.2581679E-01
6364000. -0.9914454E-02  0.5418262E+00  0.2278669E-02  0.4235613E-01 -0.4015037E-03  0.2558210E-01
6363000. -0.9998770E-02  0.5324784E+00  0.2271679E-02  0.4670459E-01 -0.4055006E-03  0.2534621E-01
6362000. -0.1008159E-01  0.5227666E+00  0.2264008E-02  0.5103743E-01 -0.4094603E-03  0.2510913E-01
6361000. -0.1016286E-01  0.5126928E+00  0.2255658E-02  0.5535327E-01 -0.4133828E-03  0.2487090E-01
6360000. -0.1024252E-01  0.5022591E+00  0.2246632E-02  0.5965074E-01 -0.4172678E-03  0.2463153E-01
6359000. -0.1032051E-01  0.4914677E+00  0.2236933E-02  0.6392848E-01 -0.4211151E-03  0.2439105E-01
6358000. -0.1039678E-01  0.4803209E+00  0.2226565E-02  0.6818514E-01 -0.4249247E-03  0.2414946E-01
6357000. -0.1047128E-01  0.4688212E+00  0.2215530E-02  0.7241936E-01 -0.4286962E-03  0.2390680E-01
6356000. -0.1054394E-01  0.4569712E+00  0.2203832E-02  0.7662981E-01 -0.4324295E-03  0.2366309E-01
6356000. -0.1054394E-01  0.4257156E+00  0.2203832E-02  0.5131861E-01 -0.4324295E-03  0.2595733E-01
6355000. -0.1061012E-01  0.4175356E+00  0.2195568E-02  0.5397499E-01 -0.4364811E-03  0.2566900E-01
6354000. -0.1067500E-01  0.4091415E+00  0.2186889E-02  0.5661967E-01 -0.4404875E-03  0.2537997E-01
6353000. -0.1073855E-01  0.4005345E+00  0.2177795E-02  0.5925209E-01 -0.4444485E-03  0.2509026E-01
6352000. -0.1080073E-01  0.3917159E+00  0.2168289E-02  0.6187173E-01 -0.4483639E-03  0.2479989E-01
6351000. -0.1086150E-01  0.3826872E+00  0.2158373E-02  0.6447803E-01 -0.4522337E-03  0.2450887E-01
6350000. -0.1092085E-01  0.3734498E+00  0.2148048E-02  0.6707048E-01 -0.4560577E-03  0.2421722E-01
6349000. -0.1097873E-01  0.3640051E+00  0.2137318E-02  0.6964852E-01 -0.4598360E-03  0.2392495E-01
6348000. -0.1103511E-01  0.3543548E+00  0.2126185E-02  0.7221163E-01 -0.4635683E-03  0.2363209E-01
6347000. -0.1108996E-01  0.3445003E+00  0.2114650E-02  0.7475929E-01 -0.4672546E-03  0.2333864E-01
6346600. -0.1111146E-01  0.3405018E+00  0.2109925E-02  0.7577390E-01 -0.4687162E-03  0.2322110E-01
6346600. -0.1111146E-01  0.4723884E+00  0.2109925E-02  0.5546970E-01 -0.4687162E-03  0.2709550E-01
6318800. -0.1265184E-01  0.2146655E+00  0.1762681E-02  0.1020015E+00 -0.5685390E-03  0.1862620E-01
6291000. -0.1284154E-01 -0.1410783E+00  0.1238219E-02  0.1358900E+00 -0.6311001E-03  0.1004141E-01
6291000. -0.1284154E-01 -0.1371498E+00  0.1238219E-02  0.1399610E+00 -0.6311001E-03  0.1004141E-01
6263000. -0.1130642E-01 -0.5672593E+00  0.5767924E-03  0.1577861E+00 -0.6563473E-03  0.1464341E-02
6235000. -0.7847064E-02 -0.1002915E+01 -0.1191561E-03  0.1555367E+00 -0.6442351E-03 -0.6932190E-02
6207000. -0.2571436E-02 -0.1383766E+01 -0.7615662E-03  0.1337259E+00 -0.5959351E-03 -0.1497261E-01
6179000.  0.4151617E-02 -0.1652790E+01 -0.1270279E-02  0.9539647E-01 -0.5134410E-03 -0.2245738E-01
6151000.  0.1172430E-01 -0.1764050E+01 -0.1583397E-02  0.4572541E-01 -0.3996833E-03 -0.2915992E-01
6151000.  0.1172430E-01 -0.1509083E+01 -0.1583397E-02  0.3854250E-01 -0.3996833E-03 -0.2980857E-01
6128500.  0.1698768E-01 -0.1456177E+01 -0.1653283E-02  0.1014904E-02 -0.2894425E-03 -0.3251139E-01
6106000.  0.2190136E-01 -0.1311726E+01 -0.1592078E-02 -0.3523472E-01 -0.1708384E-03 -0.3454277E-01
6083500.  0.2615304E-01 -0.1083001E+01 -0.1409030E-02 -0.6757332E-01 -0.4625551E-04 -0.3589762E-01
6061000.  0.2946672E-01 -0.7831433E+00 -0.1122079E-02 -0.9373838E-01  0.8192941E-04 -0.3658524E-01
6038500.  0.3162175E-01 -0.4301771E+00 -0.7562788E-03 -0.1119855E+00  0.2113943E-03 -0.3662694E-01
6016000.  0.3246785E-01 -0.4567277E-01 -0.3417673E-03 -0.1211919E+00  0.3399116E-03 -0.3605472E-01
5993500.  0.3193493E-01  0.3467853E+00  0.8853475E-04 -0.1209108E+00  0.4653839E-03 -0.3491000E-01
5971000.  0.3003733E-01  0.7232342E+00  0.5013405E-03 -0.1113781E+00  0.5858711E-03 -0.3323984E-01
5971000.  0.3003733E-01  0.6632793E+00  0.5013405E-03 -0.1025798E+00  0.5858711E-03 -0.3717198E-01
5937667.  0.2541015E-01  0.1085176E+01  0.9714079E-03 -0.7514644E-01  0.7751117E-03 -0.3506208E-01
5904333.  0.1892484E-01  0.1368399E+01  0.1272142E-02 -0.3881305E-01  0.9519101E-03 -0.3246047E-01
5871000.  0.1136844E-01  0.1493163E+01  0.1372128E-02  0.6514185E-03  0.1114370E-02 -0.2962044E-01
5837667.  0.3576340E-02  0.1460179E+01  0.1269054E-02  0.3801490E-01  0.1261782E-02 -0.2673502E-01
5804333. -0.3666776E-02  0.1287434E+01  0.9853053E-03  0.6913219E-01  0.1394280E-02 -0.2393466E-01
5771000. -0.9704975E-02  0.1005561E+01  0.5614610E-03  0.9123082E-01  0.1512517E-02 -0.2129302E-01
5771000. -0.9704975E-02  0.1005594E+01  0.5614610E-03  0.9122821E-01  0.1512517E-02 -0.2129302E-01
5701000. -0.1677451E-01  0.2459043E+00 -0.5873953E-03  0.1100810E+00  0.1719966E-02 -0.1650103E-01
5701000. -0.1677451E-01  0.1857367E+00 -0.5873953E-03  0.9084326E-01  0.1719966E-02 -0.1177290E-01
5667333. -0.1687733E-01 -0.1387114E+00 -0.1041403E-02  0.8102319E-01  0.1776548E-02 -0.9634253E-02
5633667. -0.1536717E-01 -0.4280750E+00 -0.1442612E-02  0.7022209E-01  0.1821534E-02 -0.7382745E-02
5600000. -0.1243022E-01 -0.6742834E+00 -0.1773925E-02  0.5438954E-01  0.1854646E-02 -0.5154282E-02
5600000. -0.1243022E-01 -0.6742834E+00 -0.1773925E-02  0.5438954E-01  0.1854646E-02 -0.5154282E-02
5563518. -0.7966994E-02 -0.8709667E+00 -0.2026168E-02  0.3315219E-01  0.1877298E-02 -0.2763274E-02
5527037. -0.2625283E-02 -0.9791297E+00 -0.2149139E-02  0.9581475E-02  0.1886374E-02 -0.4152853E-03
5490556.  0.3061254E-02 -0.9907905E+00 -0.2135403E-02 -0.1425141E-01  0.1882170E-02  0.1871736E-02
5454074.  0.8537800E-02 -0.9065397E+00 -0.1989260E-02 -0.3634548E-01  0.1865098E-02  0.4074757E-02
5417593.  0.1327644E-01 -0.7352101E+00 -0.1725863E-02 -0.5494247E-01  0.1835714E-02  0.6167145E-02
5381111.  0.1682137E-01 -0.4927464E+00 -0.1369384E-02 -0.6865911E-01  0.1794740E-02  0.8117551E-02
5344630.  0.1882454E-01 -0.2006772E+00 -0.9506549E-03 -0.7657856E-01  0.1743081E-02  0.9894334E-02
5308148.  0.1907251E-01  0.1159501E+00 -0.5042326E-03 -0.7830391E-01  0.1681813E-02  0.1146806E-01
5271667.  0.1750049E-01  0.4305902E+00 -0.6553781E-04 -0.7394383E-01  0.1612190E-02  0.1280883E-01
5235185.  0.1419424E-01  0.7175453E+00  0.3320890E-03 -0.6409093E-01  0.1535607E-02  0.1389552E-01
5198704.  0.9379921E-02  0.9538485E+00  0.6598401E-03 -0.4973326E-01  0.1453566E-02  0.1471356E-01
5162222.  0.3403147E-02  0.1120862E+01  0.8954794E-03 -0.3214902E-01  0.1367633E-02  0.1525401E-01
5125741. -0.3299480E-02  0.1205830E+01  0.1024667E-02 -0.1280651E-01  0.1279397E-02  0.1551985E-01
5089259. -0.1023704E-01  0.1202329E+01  0.1041683E-02  0.6779095E-02  0.1190397E-02  0.1552273E-01
5052778. -0.1690003E-01  0.1110605E+01  0.9493632E-03  0.2514952E-01  0.1102089E-02  0.1528300E-01
5016296. -0.2280019E-01  0.9374510E+00  0.7584591E-03  0.4101424E-01  0.1015784E-02  0.1482713E-01
4979815. -0.2750389E-01  0.6952538E+00  0.4864472E-03  0.5333106E-01  0.9326279E-03  0.1419072E-01
4943333. -0.3066291E-01  0.4010500E+00  0.1558838E-03  0.6136771E-01  0.8535389E-03  0.1341195E-01
4906852. -0.3203625E-01  0.7514895E-01 -0.2074203E-03  0.6473354E-01  0.7792282E-03  0.1252966E-01
4870370. -0.3150490E-01 -0.2604873E+00 -0.5764405E-03  0.6338100E-01  0.7101552E-03  0.1158884E-01
4833889. -0.2907699E-01 -0.5836655E+00 -0.9247983E-03  0.5759249E-01  0.6465506E-03  0.1062602E-01
4797407. -0.2488424E-01 -0.8735825E+00 -0.1228607E-02  0.4793255E-01  0.5884369E-03  0.9676564E-02
4760926. -0.1917111E-01 -0.1111991E+01 -0.1467851E-02  0.3519236E-01  0.5356379E-03  0.8774944E-02
4724444. -0.1227555E-01 -0.1284464E+01 -0.1627573E-02  0.2032278E-01  0.4878089E-03  0.7943551E-02
4687963. -0.4606442E-02 -0.1380970E+01 -0.1698504E-02  0.4356869E-02  0.4444939E-03  0.7201456E-02
4651482.  0.3384349E-02 -0.1396397E+01 -0.1677374E-02 -0.1166099E-01  0.4051414E-03  0.6560944E-02
4615000.  0.1123033E-01 -0.1330712E+01 -0.1566747E-02 -0.2674556E-01  0.3691515E-03  0.6026864E-02
4578518.  0.1847798E-01 -0.1188571E+01 -0.1374524E-02 -0.4002673E-01  0.3359181E-03  0.5597419E-02
4542037.  0.2471320E-01 -0.9789872E+00 -0.1113155E-02 -0.5079661E-01  0.3048592E-03  0.5266574E-02
4505556.  0.2958449E-01 -0.7145095E+00 -0.7985735E-03 -0.5854415E-01  0.2754319E-03  0.5025170E-02
4469074.  0.3281991E-01 -0.4102777E+00 -0.4490479E-03 -0.6296594E-01  0.2471727E-03  0.4855732E-02
4432593.  0.3423942E-01 -0.8316420E-01 -0.8399510E-04 -0.6397346E-01  0.2197065E-03  0.4746519E-02
4396111.  0.3376188E-01  0.2494115E+00  0.2772854E-03 -0.6167901E-01  0.1927287E-03  0.4681603E-02
4359630.  0.3140542E-01  0.5703475E+00  0.6166162E-03 -0.5637217E-01  0.1660443E-03  0.4642110E-02
4323148.  0.2728246E-01  0.8638995E+00  0.9179598E-03 -0.4849122E-01  0.1395321E-03  0.4619659E-02
4286667.  0.2159054E-01  0.1116306E+01  0.1168082E-02 -0.3858255E-01  0.1131304E-03  0.4601820E-02
4250185.  0.1459810E-01  0.1316482E+01  0.1357124E-02 -0.2726205E-01  0.8683667E-04  0.4581226E-02
4213704.  0.6628973E-02  0.1456446E+01  0.1478837E-02 -0.1517523E-01  0.6067108E-04  0.4557331E-02
4177222. -0.1957208E-02  0.1531402E+01  0.1530666E-02 -0.2955914E-02  0.3464912E-04  0.4531555E-02
4140741. -0.1078201E-01  0.1539913E+01  0.1513577E-02  0.8802082E-02  0.8764165E-05  0.4511369E-02
4104259. -0.1946900E-01  0.1483700E+01  0.1431741E-02  0.1957882E-01 -0.1705046E-04  0.4509598E-02
4067778. -0.2765849E-01  0.1367199E+01  0.1292054E-02  0.2894515E-01 -0.4295685E-04  0.4547352E-02
4031296. -0.3502468E-01  0.1197405E+01  0.1103572E-02  0.3657557E-01 -0.6924396E-04  0.4646417E-02
3994815. -0.4128657E-01  0.9831505E+00  0.8769049E-03  0.4225802E-01 -0.9634637E-04  0.4839242E-02
3958333. -0.4621833E-01  0.7345524E+00  0.6235334E-03  0.4589212E-01 -0.1249319E-03  0.5171376E-02
3921852. -0.4965433E-01  0.4626188E+00  0.3552522E-03  0.4747630E-01 -0.1559153E-03  0.5685568E-02
3885370. -0.5149306E-01  0.1784854E+00  0.8355371E-04  0.4710580E-01 -0.1905171E-03  0.6447450E-02
3848889. -0.5169599E-01 -0.1069465E+00 -0.1808106E-03  0.4495047E-01 -0.2303782E-03  0.7536387E-02
3812407. -0.5028519E-01 -0.3835298E+00 -0.4282525E-03  0.4123437E-01 -0.2776204E-03  0.9043339E-02
3775926. -0.4733813E-01 -0.6421315E+00 -0.6505754E-03  0.3622599E-01 -0.3349930E-03  0.1109917E-01
3739444. -0.4298052E-01 -0.8749931E+00 -0.8411965E-03  0.3020675E-01 -0.4060754E-03  0.1386001E-01
3702963. -0.3737876E-01 -0.1075797E+01 -0.9951191E-03  0.2345594E-01 -0.4954492E-03  0.1752847E-01
3666482. -0.3073101E-01 -0.1239648E+01 -0.1108935E-02  0.1623974E-01 -0.6090749E-03  0.2238226E-01
3630000. -0.2325892E-01 -0.1363206E+01 -0.1180642E-02  0.8780535E-02 -0.7547035E-03  0.2877229E-01
3630000. -0.2325892E-01 -0.1363206E+01 -0.1180642E-02  0.8780535E-02 -0.7547035E-03  0.2877229E-01
3592500. -0.1496937E-01 -0.1445873E+01 -0.1209559E-02  0.1045772E-02 -0.9483845E-03  0.3744338E-01
3555000. -0.6328788E-02 -0.1482349E+01 -0.1193056E-02 -0.6639914E-02 -0.1200998E-02  0.4892887E-01
3517500.  0.2389168E-02 -0.1472090E+01 -0.1131555E-02 -0.1424711E-01 -0.1531702E-02  0.6415696E-01
3480000.  0.1090789E-01 -0.1414537E+01 -0.1025362E-02 -0.2184677E-01 -0.1966048E-02  0.8438922E-01
3480000.  0.1090789E-01 -0.1324842E-01  0.1196260E-02  0.1775839E-01 -0.1966048E-02  0.4960516E-01
3409422.  0.1059103E-01  0.6491667E-01  0.9971889E-03  0.1791550E-01 -0.2227949E-02  0.2466756E-02
3338844.  0.9586048E-02  0.1116625E+00  0.8042007E-03  0.1675089E-01 -0.2106008E-02 -0.2144552E-01
3268266.  0.8213197E-02  0.1324137E+00  0.6290164E-03  0.1478162E-01 -0.1805598E-02 -0.3096835E-01
3197688.  0.6722847E-02  0.1340503E+00  0.4780555E-03  0.1244122E-01 -0.1450414E-02 -0.3215290E-01
3127109.  0.5288634E-02  0.1233343E+00  0.3535237E-03  0.1005461E-01 -0.1109029E-02 -0.2900553E-01
3056531.  0.4014544E-02  0.1059854E+00  0.2546459E-03  0.7837488E-02 -0.8142935E-03 -0.2405514E-01
2985953.  0.2948844E-02  0.8630651E-01  0.1787948E-03  0.5910776E-02 -0.5771345E-03 -0.1879156E-01
2915375.  0.2100161E-02  0.6717526E-01  0.1224315E-03  0.4322308E-02 -0.3961423E-03 -0.1400202E-01
2844797.  0.1452256E-02  0.5024766E-01  0.8178667E-04  0.3069451E-02 -0.2638796E-03 -0.1002317E-01
2774219.  0.9759678E-03  0.3625245E-01  0.5330602E-04  0.2119054E-02 -0.1708068E-03 -0.6923060E-02
2703641.  0.6378057E-03  0.2528918E-01  0.3389665E-04  0.1423174E-02 -0.1075177E-03 -0.4626490E-02
2633062.  0.4054476E-03  0.1708508E-01  0.2102516E-04  0.9302011E-03 -0.6583936E-04 -0.2996388E-02
2562484.  0.2507320E-03  0.1119047E-01  0.1271704E-04  0.5917894E-03 -0.3922401E-04 -0.1882682E-02
2491906.  0.1508159E-03  0.7110339E-02  0.7497025E-05  0.3664298E-03 -0.2272951E-04 -0.1148160E-02
2421328.  0.8820599E-04  0.4383830E-02  0.4305118E-05  0.2207629E-03 -0.1280614E-04 -0.6797106E-03
2350750.  0.5013409E-04  0.2622508E-02  0.2406301E-05  0.1293521E-03 -0.7010802E-05 -0.3905314E-03
2280172.  0.2767224E-04  0.1521752E-02  0.1307964E-05  0.7366371E-04 -0.3726388E-05 -0.2176693E-03
2209594.  0.1481988E-04  0.8560397E-03  0.6906677E-06  0.4073879E-04 -0.1921085E-05 -0.1176090E-03
2139016.  0.7692465E-05  0.4664705E-03  0.3538705E-06  0.2185745E-04 -0.9594614E-06 -0.6154309E-04
2068438.  0.3865036E-05  0.2459758E-03  0.1756790E-06  0.1136338E-04 -0.4635834E-06 -0.3115345E-04
1997859.  0.1876974E-05  0.1253574E-03  0.8437306E-07  0.5716346E-05 -0.2163448E-06 -0.1523381E-04
1927281.  0.8795149E-06  0.6165279E-04  0.3913125E-07  0.2778003E-05 -0.9734057E-07 -0.7184218E-05
1856703.  0.3968692E-06  0.2920988E-04  0.1748991E-07  0.1301765E-05 -0.4213600E-07 -0.3261232E-05
1786125.  0.1720639E-06  0.1330413E-04  0.7516017E-08  0.5869275E-06 -0.1750592E-07 -0.1421850E-05
1715547.  0.7149048E-07  0.5811477E-05  0.3097264E-08  0.2539902E-06 -0.6961508E-08 -0.5938677E-06
1644969.  0.2838163E-07  0.2427928E-05  0.1220270E-08  0.1051971E-06 -0.2641536E-08 -0.2369289E-06
1574391.  0.1072936E-07  0.9670869E-06  0.4580798E-09  0.4156479E-07 -0.9530181E-09 -0.8998613E-07
1503812.  0.3846392E-08  0.3660101E-06  0.1632376E-09  0.1560429E-07 -0.3255966E-09 -0.3240801E-07
1433234.  0.1298456E-08  0.1314421E-06  0.5510701E-10  0.5527108E-08 -0.1048961E-09 -0.1101446E-07
1362656.  0.3979221E-09  0.4609618E-07  0.1804423E-10  0.1776172E-08 -0.3181385E-10 -0.3505256E-08
1292078.  0.5749911E-10  0.2228942E-07  0.7775360E-11  0.2452244E-09 -0.9289991E-11 -0.1024634E-08
1221500. -0.2487647E-09  0.4248956E-07  0.1272696E-10 -0.1363774E-08 -0.2838862E-11 -0.3185130E-09
1221500. -0.2487647E-09  0.5339548E-08  0.2203685E-11  0.1308980E-08 -0.2838862E-11 -0.2107472E-09
1183328. -0.2328422E-09 -0.7992594E-08 -0.2360441E-11  0.3502477E-09 -0.1716342E-11 -0.1586465E-09
1145156. -0.1742628E-09 -0.1046130E-07 -0.3141977E-11 -0.2451902E-10 -0.9475991E-12 -0.9975751E-10
1106984. -0.1154234E-09 -0.8837629E-08 -0.2591832E-11 -0.1312472E-09 -0.4885017E-12 -0.5647640E-10
1068812. -0.7013950E-10 -0.6262622E-08 -0.1778516E-11 -0.1304017E-09 -0.2377048E-12 -0.2963750E-10
1030641. -0.3973391E-10 -0.3981598E-08 -0.1090933E-11 -0.9721843E-10 -0.1097820E-12 -0.1461503E-10
 992469. -0.2114497E-10 -0.2331525E-08 -0.6148827E-12 -0.6268157E-10 -0.4824102E-13 -0.6818007E-11
 954297. -0.1060765E-10 -0.1272642E-08 -0.3224292E-12 -0.3655979E-10 -0.2018312E-13 -0.3018241E-11
 916125. -0.5021751E-11 -0.6511112E-09 -0.1581904E-12 -0.1965455E-10 -0.8034627E-14 -0.1269129E-11
 877953. -0.2242188E-11 -0.3128847E-09 -0.7276500E-13 -0.9821308E-11 -0.3038150E-14 -0.5065529E-12
 839781. -0.9425465E-12 -0.1412060E-09 -0.3137496E-13 -0.4576739E-11 -0.1088419E-14 -0.1915699E-12
 801609. -0.3719940E-12 -0.5975295E-10 -0.1265896E-13 -0.1989739E-11 -0.3681542E-15 -0.6845198E-13
 763438. -0.1373266E-12 -0.2364076E-10 -0.4764834E-14 -0.8057244E-12 -0.1170662E-15 -0.2302258E-13
 725266. -0.4719330E-13 -0.8709463E-11 -0.1665963E-14 -0.3029152E-12 -0.3480828E-16 -0.7252449E-14
 687094. -0.1501056E-13 -0.2972335E-11 -0.5381266E-15 -0.1052431E-12 -0.9616689E-17 -0.2127433E-14
 648922. -0.4387722E-14 -0.9336104E-12 -0.1594970E-15 -0.3358637E-13 -0.2449689E-17 -0.5768697E-15
 610750. -0.1168684E-14 -0.2677528E-12 -0.4301750E-16 -0.9770067E-14 -0.5701134E-18 -0.1433437E-15
 572578. -0.2807183E-15 -0.6943277E-13 -0.1045030E-16 -0.2565992E-14 -0.1198816E-18 -0.3229751E-16
 534406. -0.6004362E-16 -0.1608615E-13 -0.2258199E-17 -0.6013209E-15 -0.2247106E-19 -0.6513848E-17
 496234. -0.1125948E-16 -0.3280646E-14 -0.4273857E-18 -0.1239000E-15 -0.3693168E-20 -0.1157443E-17
 458062. -0.1815489E-17 -0.5781361E-15 -0.6948496E-19 -0.2203693E-16 -0.5213252E-21 -0.1776840E-18
 419891. -0.2457154E-18 -0.8599311E-16 -0.9470738E-20 -0.3303278E-17 -0.6164536E-22 -0.2284934E-19
 381719.  0.0000000E+00  0.0000000E+00  0.0000000E+00  0.0000000E+00  0.0000000E+00  0.0000000E+00
 343547.  0.0000000E+00  0.0000000E+00  0.0000000E+00  0.0000000E+00  0.0000000E+00  0.0000000E+00
 305375.  0.0000000E+00  0.0000000E+00  0.0000000E+00  0.0000000E+00  0.0000000E+00  0.0000000E+00
 267203.  0.0000000E+00  0.0000000E+00  0.0000000E+00  0.0000000E+00  0.0000000E+00  0.0000000E+00
 229031.  0.0000000E+00  0.0000000E+00  0.0000000E+00  0.0000000E+00  0.0000000E+00  0.0000000E+00
 190859.  0.0000000E+00  0.0000000E+00  0.0000000E+00  0.0000000E+00  0.0000000E+00  0.0000000E+00
 152688.  0.0000000E+00  0.0000000E+00  0.0000000E+00  0.0000000E+00  0.0000000E+00  0.0000000E+00
 114516.  0.0000000E+00  0.0000000E+00  0.0000000E+00  0.0000000E+00  0.0000000E+00  0.0000000E+00
  76344.  0.0000000E+00  0.0000000E+00  0.0000000E+00  0.0000000E+00  0.0000000E+00  0.0000000E+00
  38172.  0.0000000E+00  0.0000000E+00  0.0000000E+00  0.0000000E+00  0.0000000E+00  0.0000000E+00
      0.  0.0000000E+00  0.0000000E+00  0.0000000E+00  0.0000000E+00  0.0000000E+00  0.0000000E+00
