       8       17 S      455        147.31390         15.52764         14.83996         89.15282      185    7
6371000. -0.4883296E-08 -0.1096542E-05 -0.9147814E-08 -0.4264518E-08  0.1613857E-08 -0.1984067E-07
6370000. -0.4711067E-08 -0.1097927E-05 -0.9146410E-08 -0.1362437E-07  0.1616938E-08 -0.1942349E-07
6369000. -0.4538651E-08 -0.1098943E-05 -0.9143537E-08 -0.2298510E-07  0.1619954E-08 -0.1900668E-07
6368000. -0.4366104E-08 -0.1099588E-05 -0.9139195E-08 -0.3234513E-07  0.1622905E-08 -0.1859024E-07
6368000. -0.4366104E-08 -0.1099588E-05 -0.9139195E-08 -0.3234513E-07  0.1622905E-08 -0.1859024E-07
6367000. -0.4193485E-08 -0.1099863E-05 -0.9133383E-08 -0.4170289E-07  0.1625790E-08 -0.1817419E-07
6366000. -0.4020852E-08 -0.1099768E-05 -0.9126103E-08 -0.5105682E-07  0.1628610E-08 -0.1775857E-07
6365000. -0.3848262E-08 -0.1099303E-05 -0.9117356E-08 -0.6040533E-07  0.1631365E-08 -0.1734339E-07
6364000. -0.3675775E-08 -0.1098467E-05 -0.9107141E-08 -0.6974687E-07  0.1634055E-08 -0.1692868E-07
6363000. -0.3503448E-08 -0.1097262E-05 -0.9095461E-08 -0.7907984E-07  0.1636679E-08 -0.1651444E-07
6362000. -0.3331339E-08 -0.1095686E-05 -0.9082317E-08 -0.8840269E-07  0.1639239E-08 -0.1610070E-07
6361000. -0.3159507E-08 -0.1093741E-05 -0.9067709E-08 -0.9771387E-07  0.1641734E-08 -0.1568749E-07
6360000. -0.2988009E-08 -0.1091426E-05 -0.9051643E-08 -0.1070118E-06  0.1644164E-08 -0.1527483E-07
6359000. -0.2816903E-08 -0.1088743E-05 -0.9034117E-08 -0.1162949E-06  0.1646529E-08 -0.1486273E-07
6358000. -0.2646247E-08 -0.1085691E-05 -0.9015136E-08 -0.1255616E-06  0.1648830E-08 -0.1445122E-07
6357000. -0.2476100E-08 -0.1082271E-05 -0.8994702E-08 -0.1348103E-06  0.1651066E-08 -0.1404031E-07
6356000. -0.2306517E-08 -0.1078485E-05 -0.8972817E-08 -0.1440396E-06  0.1653237E-08 -0.1363003E-07
6356000. -0.2306517E-08 -0.9443138E-06 -0.8972817E-08 -0.8959047E-07  0.1653237E-08 -0.1312816E-07
6355000. -0.2158465E-08 -0.9421303E-06 -0.8958293E-08 -0.9547391E-07  0.1655258E-08 -0.1261698E-07
6354000. -0.2010773E-08 -0.9397207E-06 -0.8942846E-08 -0.1013488E-06  0.1657198E-08 -0.1210628E-07
6353000. -0.1863477E-08 -0.9370852E-06 -0.8926478E-08 -0.1072144E-06  0.1659058E-08 -0.1159608E-07
6352000. -0.1716613E-08 -0.9342242E-06 -0.8909190E-08 -0.1130702E-06  0.1660838E-08 -0.1108638E-07
6351000. -0.1570215E-08 -0.9311379E-06 -0.8890983E-08 -0.1189155E-06  0.1662538E-08 -0.1057722E-07
6350000. -0.1424320E-08 -0.9278266E-06 -0.8871860E-08 -0.1247497E-06  0.1664159E-08 -0.1006859E-07
6349000. -0.1278961E-08 -0.9242908E-06 -0.8851821E-08 -0.1305720E-06  0.1665699E-08 -0.9560527E-08
6348000. -0.1134176E-08 -0.9205307E-06 -0.8830871E-08 -0.1363820E-06  0.1667160E-08 -0.9053037E-08
6347000. -0.9899978E-09 -0.9165469E-06 -0.8809010E-08 -0.1421788E-06  0.1668541E-08 -0.8546137E-08
6346600. -0.9325046E-09 -0.9148908E-06 -0.8800010E-08 -0.1444938E-06  0.1669071E-08 -0.8343545E-08
6346600. -0.9325046E-09 -0.1070883E-05 -0.8800010E-08 -0.1001194E-06  0.1669071E-08 -0.8018395E-08
6318800.  0.3487294E-08 -0.9328797E-06 -0.8111314E-08 -0.2139659E-06  0.1671369E-08  0.6886330E-08
6291000.  0.7023516E-08 -0.6678522E-06 -0.6951636E-08 -0.3148349E-06  0.1609779E-08  0.2123864E-07
6291000.  0.7023516E-08 -0.6934280E-06 -0.6951636E-08 -0.3256164E-06  0.1609779E-08  0.2123864E-07
6263000.  0.9241525E-08 -0.2983829E-06 -0.5324541E-08 -0.4107629E-06  0.1486547E-08  0.3471030E-07
6235000.  0.9514681E-08  0.1861418E-06 -0.3380677E-08 -0.4689565E-06  0.1305915E-08  0.4734002E-07
6207000.  0.7527712E-08  0.7234590E-06 -0.1247778E-08 -0.4963096E-06  0.1071835E-08  0.5901519E-07
6179000.  0.3140439E-08  0.1271022E-05  0.9339136E-09 -0.4910501E-06  0.7887379E-09  0.6962796E-07
6151000. -0.3592711E-08  0.1783342E-05  0.3021258E-08 -0.4536398E-06  0.4615380E-09  0.7906548E-07
6151000. -0.3592711E-08  0.1513882E-05  0.3021258E-08 -0.3975748E-06  0.4615380E-09  0.7926425E-07
6128500. -0.9445195E-08  0.1791848E-05  0.4346419E-08 -0.3507139E-06  0.1735001E-09  0.8369419E-07
6106000. -0.1617980E-07  0.2011405E-05  0.5484514E-08 -0.2920353E-06 -0.1284655E-09  0.8714819E-07
6083500. -0.2357003E-07  0.2161545E-05  0.6398229E-08 -0.2240967E-06 -0.4408815E-09  0.8961072E-07
6061000. -0.3135540E-07  0.2234073E-05  0.7059789E-08 -0.1497257E-06 -0.7602366E-09  0.9107829E-07
6038500. -0.3925189E-07  0.2223898E-05  0.7451719E-08 -0.7190593E-07 -0.1083027E-08  0.9155850E-07
6016000. -0.4696320E-07  0.2129175E-05  0.7567177E-08  0.6344655E-08 -0.1405796E-08  0.9107007E-07
5993500. -0.5419229E-07  0.1951305E-05  0.7409865E-08  0.8208937E-07 -0.1725173E-08  0.8964326E-07
5971000. -0.6065268E-07  0.1694858E-05  0.6993559E-08  0.1525781E-06 -0.2037909E-08  0.8731681E-07
5971000. -0.6065268E-07  0.1610221E-05  0.6993559E-08  0.1437207E-06 -0.2037909E-08  0.9525675E-07
5937667. -0.6785002E-07  0.1124306E-05  0.6031140E-08  0.2203225E-06 -0.2522243E-08  0.8957402E-07
5904333. -0.7227833E-07  0.5584430E-06  0.4730203E-08  0.2728387E-06 -0.2972283E-08  0.8220591E-07
5871000. -0.7362585E-07 -0.4651407E-07  0.3219232E-08  0.3006988E-06 -0.3380200E-08  0.7354300E-07
5837667. -0.7179258E-07 -0.6511214E-06  0.1624547E-08  0.3051823E-06 -0.3740261E-08  0.6397664E-07
5804333. -0.6687536E-07 -0.1219820E-05  0.6192673E-10  0.2889609E-06 -0.4048734E-08  0.5387903E-07
5771000. -0.5914350E-07 -0.1722649E-05 -0.1369334E-08  0.2556429E-06 -0.4303733E-08  0.4359249E-07
5771000. -0.5914350E-07 -0.1722688E-05 -0.1369334E-08  0.2556366E-06 -0.4303733E-08  0.4359249E-07
5701000. -0.3495614E-07 -0.2611398E-05 -0.3675133E-08  0.1551207E-06 -0.4645609E-08  0.1855031E-07
5701000. -0.3495614E-07 -0.2213376E-05 -0.3675133E-08  0.1299158E-06 -0.4645609E-08  0.2840319E-07
5667333. -0.2296253E-07 -0.2327598E-05 -0.4219429E-08  0.7758769E-07 -0.4778020E-08  0.2209560E-07
5633667. -0.1032793E-07 -0.2447683E-05 -0.4502817E-08  0.2956961E-07 -0.4881327E-08  0.1705317E-07
5600000.  0.2725437E-08 -0.2475396E-05 -0.4529671E-08 -0.1936170E-07 -0.4958521E-08  0.1221585E-07
5600000.  0.2725437E-08 -0.2475396E-05 -0.4529671E-08 -0.1936170E-07 -0.4958521E-08  0.1221585E-07
5563518.  0.1673613E-07 -0.2400128E-05 -0.4270231E-08 -0.7077099E-07 -0.5014378E-08  0.7360735E-08
5527037.  0.3001122E-07 -0.2219690E-05 -0.3727025E-08 -0.1180824E-06 -0.5043622E-08  0.2925198E-08
5490556.  0.4197195E-07 -0.1942867E-05 -0.2929973E-08 -0.1590967E-06 -0.5048706E-08 -0.1077718E-08
5454074.  0.5210189E-07 -0.1582646E-05 -0.1920499E-08 -0.1920034E-06 -0.5032094E-08 -0.4653546E-08
5417593.  0.5996966E-07 -0.1155857E-05 -0.7491230E-09 -0.2154740E-06 -0.4996214E-08 -0.7811390E-08
5381111.  0.6524837E-07 -0.6816533E-06  0.5275276E-09 -0.2286619E-06 -0.4943369E-08 -0.1058469E-07
5344630.  0.6772583E-07 -0.1810839E-06  0.1849305E-08 -0.2312375E-06 -0.4875661E-08 -0.1300852E-07
5308148.  0.6731337E-07  0.3241107E-06  0.3155801E-08 -0.2233784E-06 -0.4794988E-08 -0.1512031E-07
5271667.  0.6404643E-07  0.8124230E-06  0.4388743E-08 -0.2056995E-06 -0.4702992E-08 -0.1697219E-07
5235185.  0.5808056E-07  0.1263485E-05  0.5494782E-08 -0.1792491E-06 -0.4601036E-08 -0.1860422E-07
5198704.  0.4968318E-07  0.1658893E-05  0.6427448E-08 -0.1454059E-06 -0.4490273E-08 -0.2005669E-07
5162222.  0.3921915E-07  0.1982858E-05  0.7148998E-08 -0.1057954E-06 -0.4371587E-08 -0.2137716E-07
5125741.  0.2713545E-07  0.2222939E-05  0.7631538E-08 -0.6224462E-07 -0.4245656E-08 -0.2259211E-07
5089259.  0.1393885E-07  0.2370270E-05  0.7857936E-08 -0.1664673E-07 -0.4112999E-08 -0.2373001E-07
5052778.  0.1775849E-09  0.2419801E-05  0.7821931E-08  0.2909015E-07 -0.3973995E-08 -0.2481256E-07
5016296. -0.1358453E-07  0.2370590E-05  0.7528010E-08  0.7314087E-07 -0.3828918E-08 -0.2585174E-07
4979815. -0.2678750E-07  0.2225412E-05  0.6990746E-08  0.1138225E-06 -0.3678004E-08 -0.2685243E-07
4943333. -0.3889933E-07  0.1990727E-05  0.6233727E-08  0.1496641E-06 -0.3521468E-08 -0.2781390E-07
4906852. -0.4943338E-07  0.1676291E-05  0.5288310E-08  0.1794538E-06 -0.3359550E-08 -0.2873142E-07
4870370. -0.5796781E-07  0.1294504E-05  0.4191914E-08  0.2022572E-06 -0.3192542E-08 -0.2958769E-07
4833889. -0.6415787E-07  0.8601284E-06  0.2986510E-08  0.2174641E-06 -0.3020836E-08 -0.3037250E-07
4797407. -0.6774868E-07  0.3894078E-06  0.1716517E-08  0.2247793E-06 -0.2844872E-08 -0.3106917E-07
4760926. -0.6858101E-07 -0.1004053E-06  0.4273479E-09  0.2242005E-06 -0.2665243E-08 -0.3165079E-07
4724444. -0.6659563E-07 -0.5918516E-06 -0.8366274E-09  0.2160421E-06 -0.2482632E-08 -0.3210722E-07
4687963. -0.6183271E-07 -0.1067760E-05 -0.2033434E-08  0.2008645E-06 -0.2297817E-08 -0.3241847E-07
4651482. -0.5442825E-07 -0.1511908E-05 -0.3125060E-08  0.1794545E-06 -0.2111684E-08 -0.3256590E-07
4615000. -0.4460655E-07 -0.1909660E-05 -0.4078582E-08  0.1527937E-06 -0.1925183E-08 -0.3254403E-07
4578518. -0.3267132E-07 -0.2248140E-05 -0.4867012E-08  0.1219862E-06 -0.1739320E-08 -0.3234116E-07
4542037. -0.1899364E-07 -0.2516855E-05 -0.5469996E-08  0.8823477E-07 -0.1555152E-08 -0.3195446E-07
4505556. -0.3996361E-08 -0.2707938E-05 -0.5874244E-08  0.5277823E-07 -0.1373715E-08 -0.3138782E-07
4469074.  0.1185968E-07 -0.2816001E-05 -0.6073515E-08  0.1684175E-07 -0.1196024E-08 -0.3064601E-07
4432593.  0.2809010E-07 -0.2838698E-05 -0.6068488E-08 -0.1838594E-07 -0.1023062E-08 -0.2973949E-07
4396111.  0.4420660E-07 -0.2776303E-05 -0.5866391E-08 -0.5181566E-07 -0.8557223E-09 -0.2868422E-07
4359630.  0.5972770E-07 -0.2631584E-05 -0.5480385E-08 -0.8247153E-07 -0.6947980E-09 -0.2750359E-07
4323148.  0.7419726E-07 -0.2409963E-05 -0.4928787E-08 -0.1095232E-06 -0.5409558E-09 -0.2621243E-07
4286667.  0.8719439E-07 -0.2118813E-05 -0.4234253E-08 -0.1323040E-06 -0.3947568E-09 -0.2484122E-07
4250185.  0.9834716E-07 -0.1767339E-05 -0.3422700E-08 -0.1503201E-06 -0.2565629E-09 -0.2341838E-07
4213704.  0.1073398E-06 -0.1366308E-05 -0.2522448E-08 -0.1632540E-06 -0.1266282E-09 -0.2196250E-07
4177222.  0.1139220E-06 -0.9273883E-06 -0.1563036E-08 -0.1709649E-06 -0.5029266E-11 -0.2051126E-07
4140741.  0.1179120E-06 -0.4630367E-06 -0.5744345E-09 -0.1734751E-06  0.1083209E-09 -0.1908434E-07
4104259.  0.1192004E-06  0.1408627E-07  0.4140636E-09 -0.1709603E-06  0.2136049E-09 -0.1769826E-07
4067778.  0.1177504E-06  0.4913585E-06  0.1374460E-08 -0.1637308E-06  0.3111628E-09 -0.1639005E-07
4031296.  0.1135961E-06  0.9566703E-06  0.2280964E-08 -0.1522065E-06  0.4014517E-09 -0.1515755E-07
3994815.  0.1068391E-06  0.1398599E-05  0.3110356E-08 -0.1368968E-06  0.4849116E-09 -0.1400927E-07
3958333.  0.9764361E-07  0.1806670E-05  0.3842627E-08 -0.1183768E-06  0.5620891E-09 -0.1296130E-07
3921852.  0.8623078E-07  0.2171745E-05  0.4461087E-08 -0.9725535E-07  0.6334882E-09 -0.1198777E-07
3885370.  0.7286946E-07  0.2485893E-05  0.4952652E-08 -0.7415422E-07  0.6994961E-09 -0.1107522E-07
3848889.  0.5787146E-07  0.2742595E-05  0.5307730E-08 -0.4968772E-07  0.7603890E-09 -0.1019374E-07
3812407.  0.4157955E-07  0.2936947E-05  0.5520180E-08 -0.2442695E-07  0.8161852E-09 -0.9284681E-08
3775926.  0.2436312E-07  0.3065161E-05  0.5586972E-08  0.1103409E-08  0.8665513E-09 -0.8284659E-08
3739444.  0.6607096E-08  0.3124992E-05  0.5507887E-08  0.2645724E-07  0.9107080E-09 -0.7096588E-08
3702963. -0.1129250E-07  0.3115345E-05  0.5284998E-08  0.5128046E-07  0.9472246E-09 -0.5592625E-08
3666482. -0.2893663E-07  0.3035786E-05  0.4922124E-08  0.7531795E-07  0.9738406E-09 -0.3607274E-08
3630000. -0.4592691E-07  0.2886944E-05  0.4424195E-08  0.9843512E-07  0.9872206E-09 -0.9296033E-09
3630000. -0.4592691E-07  0.2886944E-05  0.4424195E-08  0.9843512E-07  0.9872206E-09 -0.9296033E-09
3592500. -0.6229410E-07  0.2662458E-05  0.3777258E-08  0.1212291E-06  0.9821839E-09  0.2842294E-08
3555000. -0.7712900E-07  0.2366438E-05  0.2998740E-08  0.1431814E-06  0.9509833E-09  0.8033065E-08
3517500. -0.9001270E-07  0.1999468E-05  0.2092771E-08  0.1646019E-06  0.8838755E-09  0.1513841E-07
3480000. -0.1005263E-06  0.1560894E-05  0.1061128E-08  0.1859810E-06  0.7677234E-09  0.2482282E-07
3480000. -0.1005263E-06  0.4551569E-06 -0.3199089E-08 -0.1781276E-06  0.7677234E-09  0.3453901E-06
3409422. -0.1045801E-06  0.3041242E-06 -0.1139826E-08 -0.1932815E-06 -0.3872140E-08  0.4850593E-06
3338844. -0.1079003E-06  0.3252786E-06  0.1081432E-08 -0.2079629E-06 -0.9856858E-08  0.5915622E-06
3268266. -0.1124846E-06  0.5356619E-06  0.3480353E-08 -0.2260720E-06 -0.1693040E-07  0.6849584E-06
3197688. -0.1205623E-06  0.9617139E-06  0.6120513E-08 -0.2524102E-06 -0.2505865E-07  0.7853926E-06
3127109. -0.1347585E-06  0.1650523E-05  0.9125681E-08 -0.2931395E-06 -0.3443638E-07  0.9142739E-06
3056531. -0.1584010E-06  0.2685009E-05  0.1269893E-07 -0.3566182E-06 -0.4551060E-07  0.1096202E-05
2985953. -0.1960352E-06  0.4206641E-05  0.1715446E-07 -0.4548299E-06 -0.5903220E-07  0.1361982E-05
2915375. -0.2542550E-06  0.6451307E-05  0.2296961E-07 -0.6057529E-06 -0.7614776E-07  0.1753202E-05
2844797. -0.3430486E-06  0.9808571E-05  0.3087130E-07 -0.8373071E-06 -0.9855548E-07  0.2329321E-05
2774219. -0.4780099E-06  0.1492256E-04  0.4197986E-07 -0.1194028E-05 -0.1287598E-06  0.3178721E-05
2703641. -0.6840373E-06  0.2286694E-04  0.5805085E-07 -0.1748533E-05 -0.1704816E-06  0.4436314E-05
2633062. -0.1001648E-05  0.3545453E-04  0.8188699E-07 -0.2621551E-05 -0.2293197E-06  0.6312040E-05
2562484. -0.1497923E-05  0.5579353E-04  0.1180478E-06 -0.4017505E-05 -0.3138158E-06  0.9137635E-05
2491906. -0.2285970E-05  0.8930903E-04  0.1741018E-06 -0.6289376E-05 -0.4372057E-06  0.1344507E-04
2421328. -0.3560022E-05  0.1456500E-03  0.2628665E-06 -0.1005861E-04 -0.6203035E-06  0.2009910E-04
2350750. -0.5660194E-05  0.2423259E-03  0.4065042E-06 -0.1644190E-04 -0.8963376E-06  0.3052537E-04
2280172. -0.9194409E-05  0.4117921E-03  0.6441694E-06 -0.2749005E-04 -0.1319162E-05  0.4710817E-04
2209594. -0.1527314E-04  0.7155719E-03  0.1046615E-05 -0.4705604E-04 -0.1977395E-05  0.7389324E-04
2139016. -0.2597195E-04  0.1273083E-02  0.1744746E-05 -0.8255521E-04 -0.3019127E-05  0.1178474E-03
2068438. -0.4526572E-04  0.2321999E-02  0.2986874E-05 -0.1486267E-03 -0.4695667E-05  0.1911435E-03
1997859. -0.8096624E-04  0.4348154E-02  0.5256610E-05 -0.2749641E-03 -0.7440159E-05  0.3153603E-03
1927281. -0.1488490E-03  0.8372934E-02  0.9522288E-05 -0.5235390E-03 -0.1201024E-04  0.5292500E-03
1856703. -0.2817225E-03  0.1660990E-01  0.1778163E-04 -0.1027724E-02 -0.1975053E-04  0.9032394E-03
1786125. -0.5499773E-03  0.3401332E-01  0.3428823E-04 -0.2084063E-02 -0.3307742E-04  0.1566383E-02
1715547. -0.1109772E-02  0.7206269E-01  0.6841122E-04 -0.4375415E-02 -0.5637534E-04  0.2755750E-02
1644969. -0.2320232E-02  0.1583679E+00  0.1415520E-03 -0.9534474E-02 -0.9763079E-04  0.4902948E-02
1574391. -0.5039923E-02  0.3620640E+00  0.3045509E-03 -0.2162678E-01 -0.1712907E-03  0.8768590E-02
1503812. -0.1140970E-01  0.8640037E+00  0.6834235E-03 -0.5123174E-01 -0.3027226E-03  0.1557596E-01
1433234. -0.2701680E-01  0.2160255E+01  0.1605202E-02 -0.1272246E+00 -0.5327737E-03  0.2677532E-01
1362656. -0.6719124E-01  0.5684243E+01  0.3962472E-02 -0.3326553E+00 -0.9107909E-03  0.4162675E-01
1292078. -0.1763645E+00  0.1582129E+02  0.1032951E-01 -0.9204910E+00 -0.1417829E-02  0.4453738E-01
1221500. -0.4913510E+00  0.4686145E+02  0.2859658E-01 -0.2711689E+01 -0.1557993E-02 -0.5303566E-01
1221500. -0.4913510E+00  0.8532144E+01  0.6010473E-02  0.2594098E+01 -0.1557993E-02  0.1598196E+00
1183328. -0.4920931E+00 -0.6515359E+01 -0.4891303E-02  0.1167120E+01 -0.1947663E-02 -0.4954367E-02
1145156. -0.4301134E+00 -0.1308587E+02 -0.9178285E-02  0.3451031E+00 -0.1709449E-02 -0.6262323E-01
1106984. -0.3452611E+00 -0.1462379E+02 -0.9809546E-02 -0.8285162E-01 -0.1293822E-02 -0.7103043E-01
1068812. -0.2601871E+00 -0.1347387E+02 -0.8668289E-02 -0.2674067E+00 -0.8956518E-03 -0.6022104E-01
1030641. -0.1861088E+00 -0.1114953E+02 -0.6881382E-02 -0.3124306E+00 -0.5811657E-03 -0.4464711E-01
 992469. -0.1270881E+00 -0.8558064E+01 -0.5064709E-02 -0.2862945E+00 -0.3577099E-03 -0.3040819E-01
 954297. -0.8310062E-01 -0.6185577E+01 -0.3506962E-02 -0.2313243E+00 -0.2101426E-03 -0.1943159E-01
 916125. -0.5209763E-01 -0.4242110E+01 -0.2301449E-02 -0.1715511E+00 -0.1181866E-03 -0.1177247E-01
 877953. -0.3131755E-01 -0.2771025E+01 -0.1436572E-02 -0.1188541E+00 -0.6370433E-04 -0.6796416E-02
 839781. -0.1803717E-01 -0.1726784E+01 -0.8540840E-03 -0.7758439E-01 -0.3290201E-04 -0.3747276E-02
 801609. -0.9937739E-02 -0.1026621E+01 -0.4835713E-03 -0.4790789E-01 -0.1626246E-04 -0.1973996E-02
 763438. -0.5226106E-02 -0.5817056E+00 -0.2604077E-03 -0.2802018E-01 -0.7675993E-05 -0.9925356E-03
 725266. -0.2615447E-02 -0.3134963E+00 -0.1330703E-03 -0.1551467E-01 -0.3449546E-05 -0.4753054E-03
 687094. -0.1241050E-02 -0.1602257E+00 -0.6432090E-04 -0.8116965E-02 -0.1470279E-05 -0.2161319E-03
 648922. -0.5558126E-03 -0.7736185E-01 -0.2928499E-04 -0.3999953E-02 -0.5914858E-06 -0.9292326E-04
 610750. -0.2336375E-03 -0.3511449E-01 -0.1249283E-04 -0.1848496E-02 -0.2232710E-06 -0.3757538E-04
 572578. -0.9155387E-04 -0.1489186E-01 -0.4960641E-05 -0.7965026E-03 -0.7850602E-07 -0.1419639E-04
 534406. -0.3316703E-04 -0.5856034E-02 -0.1818550E-05 -0.3176683E-03 -0.2548450E-07 -0.4969973E-05
 496234. -0.1099392E-04 -0.2115051E-02 -0.6092606E-06 -0.1161836E-03 -0.7553819E-08 -0.1595760E-05
 458062. -0.3291664E-05 -0.6932800E-03 -0.1841701E-06 -0.3851090E-04 -0.2016479E-08 -0.4639184E-06
 419891. -0.8758067E-06 -0.2031282E-03 -0.4942265E-07 -0.1139600E-04 -0.4764173E-09 -0.1201339E-06
 381719. -0.2027348E-06 -0.5215765E-04 -0.1152799E-07 -0.2951989E-05 -0.9739622E-10 -0.2712941E-07
 343547. -0.3970823E-07 -0.1143518E-04 -0.2273167E-08 -0.6522244E-06 -0.1672460E-10 -0.5195661E-08
 305375. -0.6336331E-08 -0.2066178E-05 -0.3648798E-09 -0.1186480E-06 -0.2316961E-11 -0.8124927E-09
 267203. -0.7813585E-09 -0.2927366E-06 -0.4521539E-10 -0.1690387E-07 -0.2448199E-12 -0.9812017E-10
 229031.  0.0000000E+00  0.0000000E+00  0.0000000E+00  0.0000000E+00  0.0000000E+00  0.0000000E+00
 190859.  0.0000000E+00  0.0000000E+00  0.0000000E+00  0.0000000E+00  0.0000000E+00  0.0000000E+00
 152688.  0.0000000E+00  0.0000000E+00  0.0000000E+00  0.0000000E+00  0.0000000E+00  0.0000000E+00
 114516.  0.0000000E+00  0.0000000E+00  0.0000000E+00  0.0000000E+00  0.0000000E+00  0.0000000E+00
  76344.  0.0000000E+00  0.0000000E+00  0.0000000E+00  0.0000000E+00  0.0000000E+00  0.0000000E+00
  38172.  0.0000000E+00  0.0000000E+00  0.0000000E+00  0.0000000E+00  0.0000000E+00  0.0000000E+00
      0.  0.0000000E+00  0.0000000E+00  0.0000000E+00  0.0000000E+00  0.0000000E+00  0.0000000E+00
