       0       20 S       19        347.63589          5.61706          4.00739        240.94521      185    7
6371000.  0.2407104E+00 -0.1576267E+01 -0.8393010E-02 -0.2491034E+00 -0.9881575E-02 -0.2464104E+00
6370000.  0.2409561E+00 -0.1554715E+01 -0.8353869E-02 -0.2496137E+00 -0.9842999E-02 -0.2451170E+00
6369000.  0.2411984E+00 -0.1533125E+01 -0.8314651E-02 -0.2501164E+00 -0.9804627E-02 -0.2438238E+00
6368000.  0.2414374E+00 -0.1511495E+01 -0.8275353E-02 -0.2506115E+00 -0.9766458E-02 -0.2425306E+00
6368000.  0.2414374E+00 -0.1511495E+01 -0.8275353E-02 -0.2506115E+00 -0.9766458E-02 -0.2425306E+00
6367000.  0.2416729E+00 -0.1489828E+01 -0.8235979E-02 -0.2510990E+00 -0.9728491E-02 -0.2412375E+00
6366000.  0.2419051E+00 -0.1468123E+01 -0.8196528E-02 -0.2515789E+00 -0.9690727E-02 -0.2399445E+00
6365000.  0.2421338E+00 -0.1446381E+01 -0.8157003E-02 -0.2520511E+00 -0.9653167E-02 -0.2386515E+00
6364000.  0.2423591E+00 -0.1424603E+01 -0.8117404E-02 -0.2525156E+00 -0.9615810E-02 -0.2373586E+00
6363000.  0.2425810E+00 -0.1402788E+01 -0.8077733E-02 -0.2529725E+00 -0.9578655E-02 -0.2360657E+00
6362000.  0.2427995E+00 -0.1380938E+01 -0.8037990E-02 -0.2534218E+00 -0.9541703E-02 -0.2347728E+00
6361000.  0.2430145E+00 -0.1359053E+01 -0.7998179E-02 -0.2538633E+00 -0.9504954E-02 -0.2334800E+00
6360000.  0.2432261E+00 -0.1337133E+01 -0.7958298E-02 -0.2542971E+00 -0.9468408E-02 -0.2321871E+00
6359000.  0.2434343E+00 -0.1315179E+01 -0.7918349E-02 -0.2547232E+00 -0.9432065E-02 -0.2308943E+00
6358000.  0.2436390E+00 -0.1293192E+01 -0.7878335E-02 -0.2551416E+00 -0.9395925E-02 -0.2296014E+00
6357000.  0.2438402E+00 -0.1271171E+01 -0.7838255E-02 -0.2555522E+00 -0.9359988E-02 -0.2283085E+00
6356000.  0.2440380E+00 -0.1249117E+01 -0.7798112E-02 -0.2559551E+00 -0.9324254E-02 -0.2270155E+00
6356000.  0.2440380E+00 -0.1145862E+01 -0.7798112E-02 -0.2545579E+00 -0.9324254E-02 -0.2801154E+00
6355000.  0.2442166E+00 -0.1129092E+01 -0.7758167E-02 -0.2544234E+00 -0.9280397E-02 -0.2787199E+00
6354000.  0.2443925E+00 -0.1112318E+01 -0.7718242E-02 -0.2542855E+00 -0.9236758E-02 -0.2773263E+00
6353000.  0.2445657E+00 -0.1095541E+01 -0.7678340E-02 -0.2541443E+00 -0.9193338E-02 -0.2759348E+00
6352000.  0.2447364E+00 -0.1078762E+01 -0.7638461E-02 -0.2539996E+00 -0.9150135E-02 -0.2745452E+00
6351000.  0.2449044E+00 -0.1061980E+01 -0.7598605E-02 -0.2538516E+00 -0.9107152E-02 -0.2731575E+00
6350000.  0.2450698E+00 -0.1045196E+01 -0.7558771E-02 -0.2537002E+00 -0.9064386E-02 -0.2717717E+00
6349000.  0.2452325E+00 -0.1028410E+01 -0.7518962E-02 -0.2535454E+00 -0.9021836E-02 -0.2703879E+00
6348000.  0.2453926E+00 -0.1011622E+01 -0.7479178E-02 -0.2533873E+00 -0.8979504E-02 -0.2690060E+00
6347000.  0.2455501E+00 -0.9948324E+00 -0.7439419E-02 -0.2532258E+00 -0.8937390E-02 -0.2676260E+00
6346600.  0.2456123E+00 -0.9881161E+00 -0.7423522E-02 -0.2531602E+00 -0.8920603E-02 -0.2670745E+00
6346600.  0.2456123E+00 -0.1289507E+01 -0.7423522E-02 -0.2534358E+00 -0.8920603E-02 -0.3527159E+00
6318800.  0.2503887E+00 -0.9009000E+00 -0.6348296E-02 -0.2392966E+00 -0.7464336E-02 -0.3152079E+00
6291000.  0.2534861E+00 -0.5203058E+00 -0.5336049E-02 -0.2245533E+00 -0.6166098E-02 -0.2802256E+00
6291000.  0.2534861E+00 -0.5532271E+00 -0.5336049E-02 -0.2229636E+00 -0.6166098E-02 -0.2802256E+00
6263000.  0.2550740E+00 -0.1712602E+00 -0.4389540E-02 -0.2076036E+00 -0.5007177E-02 -0.2474860E+00
6235000.  0.2550097E+00  0.1982179E+00 -0.3512728E-02 -0.1912347E+00 -0.3988167E-02 -0.2165016E+00
6207000.  0.2533541E+00  0.5523870E+00 -0.2710193E-02 -0.1737922E+00 -0.3102070E-02 -0.1869476E+00
6179000.  0.2501810E+00  0.8883067E+00 -0.1986776E-02 -0.1552231E+00 -0.2343301E-02 -0.1585062E+00
6151000.  0.2455772E+00  0.1202901E+01 -0.1347518E-02 -0.1354878E+00 -0.1707648E-02 -0.1308697E+00
6151000.  0.2455772E+00  0.8819407E+00 -0.1347518E-02 -0.1504705E+00 -0.1707648E-02 -0.1444563E+00
6128500.  0.2421290E+00  0.1068153E+01 -0.8406284E-03 -0.1365593E+00 -0.1226380E-02 -0.1282365E+00
6106000.  0.2380519E+00  0.1238007E+01 -0.3831393E-03 -0.1224995E+00 -0.8009109E-03 -0.1128403E+00
6083500.  0.2334043E+00  0.1391146E+01  0.2447434E-04 -0.1083185E+00 -0.4285077E-03 -0.9816867E-01
6061000.  0.2282460E+00  0.1527250E+01  0.3818274E-03 -0.9403973E-01 -0.1067771E-03 -0.8412791E-01
6038500.  0.2226375E+00  0.1646048E+01  0.6886067E-03 -0.7968019E-01  0.1663356E-03 -0.7061903E-01
6016000.  0.2166404E+00  0.1747274E+01  0.9445478E-03 -0.6525109E-01  0.3925316E-03 -0.5754230E-01
5993500.  0.2103172E+00  0.1830680E+01  0.1149419E-02 -0.5075929E-01  0.5731679E-03 -0.4480127E-01
5971000.  0.2037313E+00  0.1896043E+01  0.1303000E-02 -0.3620385E-01  0.7092460E-03 -0.3229100E-01
5971000.  0.2037313E+00  0.1720001E+01  0.1303000E-02 -0.5601020E-01  0.7092460E-03 -0.5896114E-01
5937667.  0.1946030E+00  0.1764953E+01  0.1563017E-02 -0.4356773E-01  0.9834858E-03 -0.4609897E-01
5904333.  0.1853060E+00  0.1784885E+01  0.1760824E-02 -0.3222994E-01  0.1193905E-02 -0.3454097E-01
5871000.  0.1759640E+00  0.1782708E+01  0.1902208E-02 -0.2199944E-01  0.1346980E-02 -0.2415978E-01
5837667.  0.1666852E+00  0.1761191E+01  0.1992909E-02 -0.1284912E-01  0.1448541E-02 -0.1482722E-01
5804333.  0.1575636E+00  0.1722926E+01  0.2038457E-02 -0.4728805E-02  0.1503730E-02 -0.6411319E-02
5771000.  0.1486811E+00  0.1670275E+01  0.2044078E-02  0.2425276E-02  0.1517008E-02  0.1214967E-02
5771000.  0.1486811E+00  0.1670326E+01  0.2044078E-02  0.2419914E-02  0.1517008E-02  0.1214967E-02
5701000.  0.1306601E+00  0.1593748E+01  0.1876679E-02  0.2795034E-01  0.1378226E-02  0.2405342E-01
5701000.  0.1306601E+00  0.1343717E+01  0.1876679E-02 -0.8391070E-02  0.1378226E-02 -0.1277496E-01
5667333.  0.1237789E+00  0.1272391E+01  0.1932367E-02 -0.1115342E-01  0.1426234E-02 -0.5939093E-02
5633667.  0.1171084E+00  0.1255611E+01  0.1979893E-02 -0.6278232E-02  0.1445575E-02 -0.1613369E-02
5600000.  0.1105310E+00  0.1231914E+01  0.2001201E-02 -0.2026913E-02  0.1444398E-02  0.1951065E-02
5600000.  0.1105310E+00  0.1231914E+01  0.2001201E-02 -0.2026913E-02  0.1444398E-02  0.1951065E-02
5563518.  0.1035654E+00  0.1200012E+01  0.2001344E-02  0.1863457E-02  0.1424088E-02  0.5018785E-02
5527037.  0.9679817E-01  0.1162866E+01  0.1981093E-02  0.5108566E-02  0.1388228E-02  0.7401731E-02
5490556.  0.9025621E-01  0.1121495E+01  0.1943944E-02  0.7775053E-02  0.1340431E-02  0.9202694E-02
5454074.  0.8396097E-01  0.1076793E+01  0.1893049E-02  0.9920062E-02  0.1283790E-02  0.1050520E-01
5417593.  0.7792904E-01  0.1029717E+01  0.1831191E-02  0.1161554E-01  0.1220889E-02  0.1140328E-01
5381111.  0.7217167E-01  0.9809507E+00  0.1760791E-02  0.1291041E-01  0.1153849E-02  0.1195988E-01
5344630.  0.6669693E-01  0.9311698E+00  0.1684005E-02  0.1385575E-01  0.1084456E-02  0.1223635E-01
5308148.  0.6150847E-01  0.8809888E+00  0.1602674E-02  0.1450418E-01  0.1014137E-02  0.1229018E-01
5271667.  0.5660761E-01  0.8308380E+00  0.1518405E-02  0.1488887E-01  0.9440590E-03  0.1215913E-01
5235185.  0.5199256E-01  0.7811931E+00  0.1432580E-02  0.1505400E-01  0.8751572E-03  0.1188590E-01
5198704.  0.4765953E-01  0.7324219E+00  0.1346349E-02  0.1503607E-01  0.8081400E-03  0.1150553E-01
5162222.  0.4360262E-01  0.6847599E+00  0.1260693E-02  0.1485700E-01  0.7435612E-03  0.1103780E-01
5125741.  0.3981477E-01  0.6385237E+00  0.1176438E-02  0.1455281E-01  0.6818381E-03  0.1051312E-01
5089259.  0.3628706E-01  0.5938839E+00  0.1094226E-02  0.1414581E-01  0.6232365E-03  0.9949059E-02
5052778.  0.3301018E-01  0.5509772E+00  0.1014599E-02  0.1365419E-01  0.5679489E-03  0.9358860E-02
5016296.  0.2997356E-01  0.5099505E+00  0.9379687E-03  0.1310147E-01  0.5160725E-03  0.8759248E-02
4979815.  0.2716641E-01  0.4708632E+00  0.8646476E-03  0.1250127E-01  0.4676369E-03  0.8158750E-02
4943333.  0.2457732E-01  0.4337713E+00  0.7948630E-03  0.1186828E-01  0.4226216E-03  0.7565829E-02
4906852.  0.2219487E-01  0.3987153E+00  0.7287615E-03  0.1121713E-01  0.3809583E-03  0.6989191E-02
4870370.  0.2000732E-01  0.3656705E+00  0.6664238E-03  0.1055449E-01  0.3425448E-03  0.6430979E-02
4833889.  0.1800327E-01  0.3346439E+00  0.6078875E-03  0.9891856E-02  0.3072620E-03  0.5896978E-02
4797407.  0.1617111E-01  0.3056011E+00  0.5531233E-03  0.9237119E-02  0.2749580E-03  0.5390297E-02
4760926.  0.1449979E-01  0.2784804E+00  0.5020804E-03  0.8593593E-02  0.2454795E-03  0.4910664E-02
4724444.  0.1297830E-01  0.2532434E+00  0.4546701E-03  0.7968851E-02  0.2186618E-03  0.4460998E-02
4687963.  0.1159613E-01  0.2298176E+00  0.4107766E-03  0.7365996E-02  0.1943335E-03  0.4041234E-02
4651482.  0.1034310E-01  0.2081255E+00  0.3702681E-03  0.6787105E-02  0.1723256E-03  0.3650565E-02
4615000.  0.9209445E-02  0.1880992E+00  0.3329949E-03  0.6236005E-02  0.1524688E-03  0.3289654E-02
4578518.  0.8185909E-02  0.1696489E+00  0.2987970E-03  0.5712988E-02  0.1345972E-03  0.2956921E-02
4542037.  0.7263729E-02  0.1526947E+00  0.2675117E-03  0.5219359E-02  0.1185532E-03  0.2651461E-02
4505556.  0.6434537E-02  0.1371545E+00  0.2389653E-03  0.4756263E-02  0.1041810E-03  0.2372679E-02
4469074.  0.5690488E-02  0.1229347E+00  0.2129859E-03  0.4322451E-02  0.9133422E-04  0.2118286E-02
4432593.  0.5024284E-02  0.1099587E+00  0.1894058E-03  0.3918571E-02  0.7987626E-04  0.1887601E-02
4396111.  0.4429005E-02  0.9814125E-01  0.1680531E-03  0.3544025E-02  0.6967419E-04  0.1679191E-02
4359630.  0.3898298E-02  0.8739754E-01  0.1487657E-03  0.3197244E-02  0.6060702E-04  0.1491092E-02
4323148.  0.3426199E-02  0.7765356E-01  0.1313844E-03  0.2877996E-02  0.5256035E-04  0.1322488E-02
4286667.  0.3007232E-02  0.6883082E-01  0.1157562E-03  0.2584794E-02  0.4542738E-04  0.1171743E-02
4250185.  0.2636316E-02  0.6085540E-01  0.1017356E-03  0.2316199E-02  0.3910985E-04  0.1037437E-02
4213704.  0.2308811E-02  0.5366037E-01  0.8918496E-04  0.2071293E-02  0.3351668E-04  0.9185967E-03
4177222.  0.2020429E-02  0.4717647E-01  0.7797283E-04  0.1848279E-02  0.2856307E-04  0.8137888E-03
4140741.  0.1767293E-02  0.4134259E-01  0.6797853E-04  0.1645855E-02  0.2417199E-04  0.7220320E-03
4104259.  0.1545835E-02  0.3610003E-01  0.5908701E-04  0.1462734E-02  0.2027087E-04  0.6424293E-03
4067778.  0.1352848E-02  0.3139159E-01  0.5119363E-04  0.1297053E-02  0.1679374E-04  0.5738324E-03
4031296.  0.1185407E-02  0.2716759E-01  0.4420170E-04  0.1147608E-02  0.1367929E-04  0.5156251E-03
3994815.  0.1040885E-02  0.2338014E-01  0.3802267E-04  0.1012892E-02  0.1087012E-04  0.4670982E-03
3958333.  0.9169054E-03  0.1998431E-01  0.3257714E-04  0.8911056E-03  0.8312993E-05  0.4274776E-03
3921852.  0.8113435E-03  0.1694233E-01  0.2779523E-04  0.7809039E-03  0.5958132E-05  0.3964122E-03
3885370.  0.7222715E-03  0.1421831E-01  0.2361533E-04  0.6804744E-03  0.3757759E-05  0.3734156E-03
3848889.  0.6479620E-03  0.1178250E-01  0.1998711E-04  0.5879551E-03  0.1666970E-05  0.3581213E-03
3812407.  0.5868316E-03  0.9610968E-02  0.1687038E-04  0.5014306E-03 -0.3579806E-06  0.3503633E-03
3775926.  0.5374251E-03  0.7685814E-02  0.1423778E-04  0.4184570E-03 -0.2359358E-05  0.3498718E-03
3739444.  0.4983597E-03  0.5997968E-02  0.1207638E-04  0.3363533E-03 -0.4378517E-05  0.3565497E-03
3702963.  0.4682806E-03  0.4548500E-02  0.1039019E-04  0.2518753E-03 -0.6456270E-05  0.3703288E-03
3666482.  0.4457893E-03  0.3351423E-02  0.9204395E-05  0.1608134E-03 -0.8632709E-05  0.3909915E-03
3630000.  0.4293586E-03  0.2438485E-02  0.8570662E-05  0.5808534E-04 -0.1094697E-04  0.4184086E-03
3630000.  0.4293586E-03  0.2438485E-02  0.8570662E-05  0.5808534E-04 -0.1094697E-04  0.4184086E-03
3592500.  0.4169212E-03  0.1853955E-02  0.8584530E-05 -0.6673890E-04 -0.1350893E-04  0.4531787E-03
3555000.  0.4066503E-03  0.1721401E-02  0.9412708E-05 -0.2203963E-03 -0.1629356E-04  0.4939168E-03
3517500.  0.3954985E-03  0.2181528E-02  0.1125976E-04 -0.4153276E-03 -0.1933279E-04  0.5394229E-03
3480000.  0.3794088E-03  0.3440138E-02  0.1441533E-04 -0.6682107E-03 -0.2264894E-04  0.5875675E-03
3480000.  0.3794088E-03  0.1223510E-01  0.2014059E-04  0.6574311E-03 -0.2264894E-04 -0.6223249E-03
3409422.  0.2641790E-03  0.8746329E-02  0.1396504E-04  0.4674206E-03 -0.1654508E-04 -0.4829452E-03
3338844.  0.1821827E-03  0.6191800E-02  0.9593399E-05  0.3292641E-03 -0.1186837E-04 -0.3651765E-03
3268266.  0.1244037E-03  0.4340260E-02  0.6527506E-05  0.2297595E-03 -0.8370454E-05 -0.2700057E-03
3197688.  0.8409310E-04  0.3011884E-02  0.4397819E-05  0.1587772E-03 -0.5809032E-05 -0.1956737E-03
3127109.  0.5625401E-04  0.2068616E-02  0.2932899E-05  0.1086341E-03 -0.3969064E-05 -0.1392102E-03
3056531.  0.3722798E-04  0.1405802E-02  0.1935413E-05  0.7356593E-04 -0.2670826E-05 -0.9733241E-04
2985953.  0.2436357E-04  0.9449952E-03  0.1263255E-05  0.4929073E-04 -0.1770256E-05 -0.6692606E-04
2915375.  0.1576108E-04  0.6281133E-03  0.8151908E-06  0.3266336E-04 -0.1155736E-05 -0.4527588E-04
2844797.  0.1007404E-04  0.4126409E-03  0.5198423E-06  0.2139819E-04 -0.7431209E-06 -0.3014120E-04
2774219.  0.6358789E-05  0.2678152E-03  0.3274175E-06  0.1385187E-04 -0.4704753E-06 -0.1974649E-04
2703641.  0.3961474E-05  0.1716358E-03  0.2035652E-06  0.8855785E-05 -0.2931878E-06 -0.1272930E-04
2633062.  0.2434356E-05  0.1085541E-03  0.1248548E-06  0.5588333E-05 -0.1797619E-06 -0.8072230E-05
2562484.  0.1474596E-05  0.6771582E-04  0.7549531E-07  0.3478639E-05 -0.1083861E-06 -0.5033908E-05
2491906.  0.8798435E-06  0.4163359E-04  0.4497019E-07  0.2134550E-05 -0.6422518E-07 -0.3085550E-05
2421328.  0.5166959E-06  0.2521075E-04  0.2636759E-07  0.1290166E-05 -0.3737546E-07 -0.1857901E-05
2350750.  0.2983888E-06  0.1502320E-04  0.1520461E-07  0.7674873E-06 -0.2134368E-07 -0.1098184E-05
2280172.  0.1692903E-06  0.8802047E-05  0.8614295E-08  0.4489407E-06 -0.1194977E-07 -0.6367151E-06
2209594.  0.9425968E-07  0.5065481E-05  0.4790096E-08  0.2579681E-06 -0.6552624E-08 -0.3617713E-06
2139016.  0.5144702E-07  0.2860220E-05  0.2611212E-08  0.1454540E-06 -0.3515115E-08 -0.2012292E-06
2068438.  0.2749023E-07  0.1582692E-05  0.1393655E-08  0.8037870E-07 -0.1842371E-08 -0.1094470E-06
1997859.  0.1436018E-07  0.8570906E-06  0.7272120E-09  0.4347361E-07 -0.9421122E-09 -0.5812910E-07
1927281.  0.7321982E-08  0.4535782E-06  0.3704090E-09  0.2297940E-07 -0.4692753E-09 -0.3010368E-07
1856703.  0.3637630E-08  0.2341797E-06  0.1838437E-09  0.1185100E-07 -0.2272831E-09 -0.1517565E-07
1786125.  0.1757431E-08  0.1177365E-06  0.8873766E-10  0.5952079E-08 -0.1068171E-09 -0.7432855E-08
1715547.  0.8238655E-09  0.5752108E-07  0.4156191E-10  0.2905222E-08 -0.4860115E-10 -0.3529616E-08
1644969.  0.3738579E-09  0.2724206E-07  0.1884088E-10  0.1374996E-08 -0.2134957E-10 -0.1621383E-08
1574391.  0.1638351E-09  0.1246702E-07  0.8239689E-11  0.6296478E-09 -0.9018458E-11 -0.7193195E-09
1503812.  0.0000000E+00  0.0000000E+00  0.0000000E+00  0.0000000E+00  0.0000000E+00  0.0000000E+00
1433234.  0.0000000E+00  0.0000000E+00  0.0000000E+00  0.0000000E+00  0.0000000E+00  0.0000000E+00
1362656.  0.0000000E+00  0.0000000E+00  0.0000000E+00  0.0000000E+00  0.0000000E+00  0.0000000E+00
1292078.  0.0000000E+00  0.0000000E+00  0.0000000E+00  0.0000000E+00  0.0000000E+00  0.0000000E+00
1221500.  0.0000000E+00  0.0000000E+00  0.0000000E+00  0.0000000E+00  0.0000000E+00  0.0000000E+00
1221500.  0.0000000E+00  0.0000000E+00  0.0000000E+00  0.0000000E+00  0.0000000E+00  0.0000000E+00
1183328.  0.0000000E+00  0.0000000E+00  0.0000000E+00  0.0000000E+00  0.0000000E+00  0.0000000E+00
1145156.  0.0000000E+00  0.0000000E+00  0.0000000E+00  0.0000000E+00  0.0000000E+00  0.0000000E+00
1106984.  0.0000000E+00  0.0000000E+00  0.0000000E+00  0.0000000E+00  0.0000000E+00  0.0000000E+00
1068812.  0.0000000E+00  0.0000000E+00  0.0000000E+00  0.0000000E+00  0.0000000E+00  0.0000000E+00
1030641.  0.0000000E+00  0.0000000E+00  0.0000000E+00  0.0000000E+00  0.0000000E+00  0.0000000E+00
 992469.  0.0000000E+00  0.0000000E+00  0.0000000E+00  0.0000000E+00  0.0000000E+00  0.0000000E+00
 954297.  0.0000000E+00  0.0000000E+00  0.0000000E+00  0.0000000E+00  0.0000000E+00  0.0000000E+00
 916125.  0.0000000E+00  0.0000000E+00  0.0000000E+00  0.0000000E+00  0.0000000E+00  0.0000000E+00
 877953.  0.0000000E+00  0.0000000E+00  0.0000000E+00  0.0000000E+00  0.0000000E+00  0.0000000E+00
 839781.  0.0000000E+00  0.0000000E+00  0.0000000E+00  0.0000000E+00  0.0000000E+00  0.0000000E+00
 801609.  0.0000000E+00  0.0000000E+00  0.0000000E+00  0.0000000E+00  0.0000000E+00  0.0000000E+00
 763438.  0.0000000E+00  0.0000000E+00  0.0000000E+00  0.0000000E+00  0.0000000E+00  0.0000000E+00
 725266.  0.0000000E+00  0.0000000E+00  0.0000000E+00  0.0000000E+00  0.0000000E+00  0.0000000E+00
 687094.  0.0000000E+00  0.0000000E+00  0.0000000E+00  0.0000000E+00  0.0000000E+00  0.0000000E+00
 648922.  0.0000000E+00  0.0000000E+00  0.0000000E+00  0.0000000E+00  0.0000000E+00  0.0000000E+00
 610750.  0.0000000E+00  0.0000000E+00  0.0000000E+00  0.0000000E+00  0.0000000E+00  0.0000000E+00
 572578.  0.0000000E+00  0.0000000E+00  0.0000000E+00  0.0000000E+00  0.0000000E+00  0.0000000E+00
 534406.  0.0000000E+00  0.0000000E+00  0.0000000E+00  0.0000000E+00  0.0000000E+00  0.0000000E+00
 496234.  0.0000000E+00  0.0000000E+00  0.0000000E+00  0.0000000E+00  0.0000000E+00  0.0000000E+00
 458062.  0.0000000E+00  0.0000000E+00  0.0000000E+00  0.0000000E+00  0.0000000E+00  0.0000000E+00
 419891.  0.0000000E+00  0.0000000E+00  0.0000000E+00  0.0000000E+00  0.0000000E+00  0.0000000E+00
 381719.  0.0000000E+00  0.0000000E+00  0.0000000E+00  0.0000000E+00  0.0000000E+00  0.0000000E+00
 343547.  0.0000000E+00  0.0000000E+00  0.0000000E+00  0.0000000E+00  0.0000000E+00  0.0000000E+00
 305375.  0.0000000E+00  0.0000000E+00  0.0000000E+00  0.0000000E+00  0.0000000E+00  0.0000000E+00
 267203.  0.0000000E+00  0.0000000E+00  0.0000000E+00  0.0000000E+00  0.0000000E+00  0.0000000E+00
 229031.  0.0000000E+00  0.0000000E+00  0.0000000E+00  0.0000000E+00  0.0000000E+00  0.0000000E+00
 190859.  0.0000000E+00  0.0000000E+00  0.0000000E+00  0.0000000E+00  0.0000000E+00  0.0000000E+00
 152688.  0.0000000E+00  0.0000000E+00  0.0000000E+00  0.0000000E+00  0.0000000E+00  0.0000000E+00
 114516.  0.0000000E+00  0.0000000E+00  0.0000000E+00  0.0000000E+00  0.0000000E+00  0.0000000E+00
  76344.  0.0000000E+00  0.0000000E+00  0.0000000E+00  0.0000000E+00  0.0000000E+00  0.0000000E+00
  38172.  0.0000000E+00  0.0000000E+00  0.0000000E+00  0.0000000E+00  0.0000000E+00  0.0000000E+00
      0.  0.0000000E+00  0.0000000E+00  0.0000000E+00  0.0000000E+00  0.0000000E+00  0.0000000E+00
