       7       27 S      428        119.83480         12.14707          7.55085        256.77051      185    7
6371000.  0.6111016E-01  0.1910096E+00  0.8045264E-03 -0.6030563E-01 -0.7622513E-03 -0.9389643E-01
6370000.  0.6107745E-01  0.2256818E+00  0.8139033E-03 -0.5916959E-01 -0.7475113E-03 -0.9391957E-01
6369000.  0.6103931E-01  0.2602523E+00  0.8230997E-03 -0.5800849E-01 -0.7327682E-03 -0.9393632E-01
6368000.  0.6099576E-01  0.2947161E+00  0.8321121E-03 -0.5682259E-01 -0.7180229E-03 -0.9394668E-01
6368000.  0.6099576E-01  0.2947161E+00  0.8321121E-03 -0.5682259E-01 -0.7180229E-03 -0.9394668E-01
6367000.  0.6094680E-01  0.3290688E+00  0.8409364E-03 -0.5561217E-01 -0.7032765E-03 -0.9395063E-01
6366000.  0.6089246E-01  0.3633054E+00  0.8495687E-03 -0.5437751E-01 -0.6885300E-03 -0.9394817E-01
6365000.  0.6083276E-01  0.3974214E+00  0.8580054E-03 -0.5311890E-01 -0.6737844E-03 -0.9393929E-01
6364000.  0.6076771E-01  0.4314121E+00  0.8662427E-03 -0.5183664E-01 -0.6590407E-03 -0.9392399E-01
6363000.  0.6069734E-01  0.4652731E+00  0.8742769E-03 -0.5053104E-01 -0.6442999E-03 -0.9390226E-01
6362000.  0.6062166E-01  0.4989996E+00  0.8821043E-03 -0.4920240E-01 -0.6295631E-03 -0.9387410E-01
6361000.  0.6054069E-01  0.5325871E+00  0.8897214E-03 -0.4785105E-01 -0.6148310E-03 -0.9383950E-01
6360000.  0.6045447E-01  0.5660313E+00  0.8971247E-03 -0.4647731E-01 -0.6001050E-03 -0.9379847E-01
6359000.  0.6036301E-01  0.5993276E+00  0.9043106E-03 -0.4508149E-01 -0.5853859E-03 -0.9375100E-01
6358000.  0.6026634E-01  0.6324716E+00  0.9112757E-03 -0.4366396E-01 -0.5706748E-03 -0.9369708E-01
6357000.  0.6016447E-01  0.6654589E+00  0.9180165E-03 -0.4222504E-01 -0.5559727E-03 -0.9363671E-01
6356000.  0.6005745E-01  0.6982851E+00  0.9245300E-03 -0.4076508E-01 -0.5412805E-03 -0.9356989E-01
6356000.  0.6005745E-01  0.5063546E+00  0.9245300E-03 -0.4810149E-01 -0.5412805E-03 -0.1066377E+00
6355000.  0.5997605E-01  0.5307902E+00  0.9320089E-03 -0.4719341E-01 -0.5245432E-03 -0.1066290E+00
6354000.  0.5989083E-01  0.5551319E+00  0.9393443E-03 -0.4627141E-01 -0.5078075E-03 -0.1066162E+00
6353000.  0.5980178E-01  0.5793770E+00  0.9465339E-03 -0.4533562E-01 -0.4910741E-03 -0.1065993E+00
6352000.  0.5970895E-01  0.6035233E+00  0.9535754E-03 -0.4438620E-01 -0.4743438E-03 -0.1065782E+00
6351000.  0.5961233E-01  0.6275683E+00  0.9604669E-03 -0.4342329E-01 -0.4576170E-03 -0.1065530E+00
6350000.  0.5951195E-01  0.6515096E+00  0.9672063E-03 -0.4244703E-01 -0.4408946E-03 -0.1065236E+00
6349000.  0.5940781E-01  0.6753447E+00  0.9737913E-03 -0.4145758E-01 -0.4241771E-03 -0.1064901E+00
6348000.  0.5929995E-01  0.6990713E+00  0.9802200E-03 -0.4045510E-01 -0.4074652E-03 -0.1064525E+00
6347000.  0.5918837E-01  0.7226871E+00  0.9864904E-03 -0.3943973E-01 -0.3907595E-03 -0.1064107E+00
6346600.  0.5914269E-01  0.7321019E+00  0.9889537E-03 -0.3903002E-01 -0.3840791E-03 -0.1063928E+00
6346600.  0.5914269E-01  0.5697420E+00  0.9889537E-03 -0.4531515E-01 -0.3840791E-03 -0.1270150E+00
6318800.  0.5559771E-01  0.1043936E+01  0.1137812E-02 -0.2175822E-01  0.1695904E-03 -0.1264404E+00
6291000.  0.5015184E-01  0.1436131E+01  0.1170434E-02  0.7556058E-02  0.7165891E-03 -0.1239545E+00
6291000.  0.5015184E-01  0.1461420E+01  0.1170434E-02  0.9517539E-02  0.7165891E-03 -0.1239545E+00
6263000.  0.4305626E-01  0.1746785E+01  0.1054364E-02  0.4353886E-01  0.1251671E-02 -0.1192148E+00
6235000.  0.3499035E-01  0.1901232E+01  0.7882230E-03  0.7722500E-01  0.1761629E-02 -0.1125398E+00
6207000.  0.2654343E-01  0.1920528E+01  0.3811790E-03  0.1070918E+00  0.2238250E-02 -0.1040733E+00
6179000.  0.1829547E-01  0.1813126E+01 -0.1427766E-03  0.1299349E+00  0.2674082E-02 -0.9401564E-01
6151000.  0.1076261E-01  0.1599409E+01 -0.7467800E-03  0.1431511E+00  0.3062660E-02 -0.8261377E-01
6151000.  0.1076261E-01  0.1241476E+01 -0.7467800E-03  0.1243759E+00  0.3062660E-02 -0.8320922E-01
6128500.  0.6762875E-02  0.1019574E+01 -0.1190007E-02  0.1257019E+00  0.3344337E-02 -0.7625137E-01
6106000.  0.3580838E-02  0.7809091E+00 -0.1628115E-02  0.1214911E+00  0.3600895E-02 -0.6899790E-01
6083500.  0.1249028E-02  0.5405436E+00 -0.2041869E-02  0.1119713E+00  0.3831438E-02 -0.6153241E-01
6061000. -0.2523098E-03  0.3128991E+00 -0.2413325E-02  0.9764076E-01  0.4035363E-02 -0.5393784E-01
6038500. -0.9916562E-03  0.1110287E+00 -0.2726725E-02  0.7923369E-01  0.4212359E-02 -0.4629622E-01
6016000. -0.1080168E-02 -0.5404781E-01 -0.2969254E-02  0.5767170E-01  0.4362404E-02 -0.3868874E-01
5993500. -0.6636024E-03 -0.1738211E+00 -0.3131599E-02  0.3400788E-01  0.4485761E-02 -0.3119562E-01
5971000.  0.8718706E-04 -0.2426375E+00 -0.3208313E-02  0.9368660E-02  0.4582974E-02 -0.2389598E-01
5971000.  0.8718706E-04 -0.3020445E+00 -0.3208313E-02  0.7949170E-02  0.4582974E-02 -0.2390739E-01
5937667.  0.1758511E-02 -0.3194513E+00 -0.3166696E-02 -0.2306966E-01  0.4678824E-02 -0.1284973E-01
5904333.  0.3263996E-02 -0.2417892E+00 -0.2976905E-02 -0.4838662E-01  0.4718799E-02 -0.2573563E-02
5871000.  0.4161518E-02 -0.9122008E-01 -0.2672719E-02 -0.6665397E-01  0.4707362E-02  0.6782122E-02
5837667.  0.4137361E-02  0.1059943E+00 -0.2292574E-02 -0.7741430E-01  0.4649636E-02  0.1510434E-01
5804333.  0.3018389E-02  0.3228539E+00 -0.1875267E-02 -0.8095518E-01  0.4551260E-02  0.2230805E-01
5771000.  0.7688451E-03  0.5342748E+00 -0.1456581E-02 -0.7812484E-01  0.4418252E-02  0.2833775E-01
5771000.  0.7688451E-03  0.5342257E+00 -0.1456581E-02 -0.7812237E-01  0.4418252E-02  0.2833775E-01
5701000. -0.7568718E-02  0.9565215E+00 -0.6711259E-03 -0.6172324E-01  0.4052298E-02  0.3751888E-01
5701000. -0.7568718E-02  0.7662662E+00 -0.6711259E-03 -0.4718786E-01  0.4052298E-02  0.3965223E-01
5667333. -0.1173269E-01  0.8086033E+00 -0.4602337E-03 -0.3325838E-01  0.3837976E-02  0.4123188E-01
5633667. -0.1610751E-01  0.8429086E+00 -0.3142756E-03 -0.2213882E-01  0.3618034E-02  0.4192591E-01
5600000. -0.2055346E-01  0.8313702E+00 -0.2270466E-03 -0.1086311E-01  0.3395818E-02  0.4208286E-01
5600000. -0.2055346E-01  0.8313702E+00 -0.2270466E-03 -0.1086311E-01  0.3395818E-02  0.4208286E-01
5563518. -0.2515502E-01  0.7670640E+00 -0.1987087E-03  0.8139645E-03  0.3155729E-02  0.4168089E-01
5527037. -0.2924231E-01  0.6526638E+00 -0.2340060E-03  0.1125845E-01  0.2919441E-02  0.4077214E-01
5490556. -0.3254634E-01  0.4948112E+00 -0.3242158E-03  0.1991278E-01  0.2689599E-02  0.3944402E-01
5454074. -0.3484333E-01  0.3026114E+00 -0.4578501E-03  0.2636931E-01  0.2468347E-02  0.3778321E-01
5417593. -0.3596748E-01  0.8711942E-01 -0.6215259E-03  0.3037952E-01  0.2257385E-02  0.3586490E-01
5381111. -0.3581941E-01 -0.1397011E+00 -0.8009319E-03  0.3186129E-01  0.2057950E-02  0.3376746E-01
5344630. -0.3436962E-01 -0.3655073E+00 -0.9817134E-03  0.3088534E-01  0.1870878E-02  0.3155933E-01
5308148. -0.3165827E-01 -0.5784006E+00 -0.1150338E-02  0.2765799E-01  0.1696620E-02  0.2929952E-01
5271667. -0.2779119E-01 -0.7675109E+00 -0.1294774E-02  0.2250023E-01  0.1535316E-02  0.2704550E-01
5235185. -0.2293173E-01 -0.9235969E+00 -0.1405102E-02  0.1581602E-01  0.1386792E-02  0.2484023E-01
5198704. -0.1729101E-01 -0.1039402E+01 -0.1473865E-02  0.8063314E-02  0.1250675E-02  0.2271939E-01
5162222. -0.1111495E-01 -0.1109888E+01 -0.1496332E-02 -0.2734481E-03  0.1126379E-02  0.2071424E-01
5125741. -0.4671824E-02 -0.1132521E+01 -0.1470535E-02 -0.8716244E-02  0.1013192E-02  0.1884284E-01
5089259.  0.1763025E-02 -0.1107086E+01 -0.1397165E-02 -0.1681759E-01  0.9103033E-03  0.1711787E-01
5052778.  0.7918758E-02 -0.1035617E+01 -0.1279354E-02 -0.2417829E-01  0.8168596E-03  0.1554549E-01
5016296.  0.1354305E-01 -0.9222430E+00 -0.1122313E-02 -0.3046985E-01  0.7319781E-03  0.1412601E-01
4979815.  0.1841144E-01 -0.7727325E+00 -0.9329314E-03 -0.3544009E-01  0.6548017E-03  0.1285373E-01
4943333.  0.2233708E-01 -0.5942011E+00 -0.7192871E-03 -0.3892171E-01  0.5845082E-03  0.1171984E-01
4906852.  0.2517631E-01 -0.3946936E+00 -0.4901892E-03 -0.4083287E-01  0.5203358E-03  0.1071414E-01
4870370.  0.2683331E-01 -0.1826923E+00 -0.2546614E-03 -0.4117135E-01  0.4615939E-03  0.9819984E-02
4833889.  0.2726115E-01  0.3319929E-01 -0.2154783E-04 -0.4000954E-01  0.4076834E-03  0.9025290E-02
4797407.  0.2646143E-01  0.2447303E+00  0.2009330E-03 -0.3748243E-01  0.3580699E-03  0.8315763E-02
4760926.  0.2448145E-01  0.4442462E+00  0.4054602E-03 -0.3377529E-01  0.3123203E-03  0.7673928E-02
4724444.  0.2140951E-01  0.6250786E+00  0.5859103E-03 -0.2911040E-01  0.2700749E-03  0.7089684E-02
4687963.  0.1736931E-01  0.7816390E+00  0.7374826E-03 -0.2373254E-01  0.2310410E-03  0.6550480E-02
4651482.  0.1251276E-01  0.9096160E+00  0.8568257E-03 -0.1789602E-01  0.1949937E-03  0.6045149E-02
4615000.  0.7012326E-02  0.1006102E+01  0.9420385E-03 -0.1185159E-01  0.1617576E-03  0.5567200E-02
4578518.  0.1053790E-02  0.1069458E+01  0.9926131E-03 -0.5835759E-02  0.1311967E-03  0.5109787E-02
4542037. -0.5171513E-02  0.1099399E+01  0.1009339E-02 -0.6290098E-04  0.1032077E-03  0.4668675E-02
4505556. -0.1147458E-01  0.1096859E+01  0.9941504E-03  0.5283688E-02  0.7770431E-04  0.4241472E-02
4469074. -0.1767458E-01  0.1063740E+01  0.9499271E-03  0.1005593E-01  0.5460556E-04  0.3828599E-02
4432593. -0.2360394E-01  0.1002938E+01  0.8803033E-03  0.1414032E-01  0.3383313E-04  0.3429031E-02
4396111. -0.2911436E-01  0.9179903E+00  0.7894430E-03  0.1746356E-01  0.1530667E-04  0.3044869E-02
4359630. -0.3407852E-01  0.8129016E+00  0.6818289E-03  0.1998937E-01 -0.1079397E-05  0.2681968E-02
4323148. -0.3839380E-01  0.6920443E+00  0.5620543E-03  0.2171163E-01 -0.1544525E-04  0.2339385E-02
4286667. -0.4198238E-01  0.5598542E+00  0.4346621E-03  0.2265824E-01 -0.2792337E-04  0.2024239E-02
4250185. -0.4479210E-01  0.4207012E+00  0.3039460E-03  0.2288142E-01 -0.3869150E-04  0.1742267E-02
4213704. -0.4679510E-01  0.2787794E+00  0.1738671E-03  0.2245029E-01 -0.4794015E-04  0.1494590E-02
4177222. -0.4798676E-01  0.1379040E+00  0.4791529E-04  0.2145442E-01 -0.5589435E-04  0.1291546E-02
4140741. -0.4838295E-01  0.1479840E-02 -0.7093935E-04  0.1998843E-01 -0.6282366E-04  0.1136806E-02
4104259. -0.4801773E-01 -0.1276052E+00 -0.1802873E-03  0.1815017E-01 -0.6901168E-04  0.1034505E-02
4067778. -0.4694015E-01 -0.2469900E+00 -0.2782947E-03  0.1604506E-01 -0.7480192E-04  0.9994806E-03
4031296. -0.4521102E-01 -0.3549117E+00 -0.3637046E-03  0.1376375E-01 -0.8059033E-04  0.1034349E-02
3994815. -0.4289990E-01 -0.4501241E+00 -0.4357532E-03  0.1139372E-01 -0.8680126E-04  0.1150265E-02
3958333. -0.4008176E-01 -0.5318988E+00 -0.4941793E-03  0.9016813E-02 -0.9395843E-04  0.1367106E-02
3921852. -0.3683452E-01 -0.6000246E+00 -0.5391156E-03  0.6691474E-02 -0.1026686E-03  0.1695389E-02
3885370. -0.3323591E-01 -0.6546454E+00 -0.5710112E-03  0.4469320E-02 -0.1136354E-03  0.2160226E-02
3848889. -0.2936223E-01 -0.6962451E+00 -0.5905653E-03  0.2384827E-02 -0.1277275E-03  0.2792022E-02
3812407. -0.2528573E-01 -0.7255773E+00 -0.5986095E-03  0.4502214E-03 -0.1459919E-03  0.3624474E-02
3775926. -0.2107459E-01 -0.7434550E+00 -0.5960119E-03 -0.1333761E-02 -0.1697204E-03  0.4710448E-02
3739444. -0.1679164E-01 -0.7507651E+00 -0.5835776E-03 -0.2991596E-02 -0.2005408E-03  0.6112863E-02
3702963. -0.1249534E-01 -0.7482566E+00 -0.5619024E-03 -0.4571044E-02 -0.2404863E-03  0.7914251E-02
3666482. -0.8240502E-02 -0.7363207E+00 -0.5312497E-03 -0.6141595E-02 -0.2921528E-03  0.1022777E-01
3630000. -0.4080757E-02 -0.7149439E+00 -0.4913827E-03 -0.7809872E-02 -0.3588670E-03  0.1319685E-01
3630000. -0.4080757E-02 -0.7149439E+00 -0.4913827E-03 -0.7809872E-02 -0.3588670E-03  0.1319685E-01
3592500.  0.3683333E-04 -0.6822254E+00 -0.4397923E-03 -0.9778570E-02 -0.4476310E-03  0.1713355E-01
3555000.  0.3925037E-02 -0.6365249E+00 -0.3753477E-03 -0.1221966E-01 -0.5628522E-03  0.2223902E-01
3517500.  0.7497153E-02 -0.5739907E+00 -0.2944370E-03 -0.1543137E-01 -0.7124313E-03  0.2887758E-01
3480000.  0.1063660E-01 -0.4881692E+00 -0.1913832E-03 -0.1982329E-01 -0.9067492E-03  0.3753348E-01
3480000.  0.1063660E-01  0.2558059E+00  0.6361288E-03  0.1829719E-01 -0.9067492E-03  0.3614560E-02
3409422.  0.8020063E-02  0.2156128E+00  0.4570527E-03  0.1412714E-01 -0.8547119E-03 -0.1075584E-01
3338844.  0.5867577E-02  0.1731196E+00  0.3208058E-03  0.1058162E-01 -0.7048495E-03 -0.1515058E-01
3268266.  0.4173778E-02  0.1334281E+00  0.2201221E-03  0.7706160E-02 -0.5366517E-03 -0.1470139E-01
3197688.  0.2890921E-02  0.9920962E-01  0.1477194E-03  0.5465259E-02 -0.3862063E-03 -0.1228999E-01
3127109.  0.1951842E-02  0.7140941E-01  0.9698287E-04  0.3779010E-02 -0.2659367E-03 -0.9423612E-02
3056531.  0.1285544E-02  0.4987650E-01  0.6230322E-04  0.2549806E-02 -0.1764490E-03 -0.6804451E-02
2985953.  0.8263735E-03  0.3386132E-01  0.3916448E-04  0.1679730E-02 -0.1132903E-03 -0.4689065E-02
2915375.  0.5186021E-03  0.2237105E-01  0.2408791E-04  0.1080736E-02 -0.7057615E-04 -0.3107272E-02
2844797.  0.3177613E-03  0.1439392E-01  0.1449236E-04  0.6792223E-03 -0.4273045E-04 -0.1989041E-02
2774219.  0.1900840E-03  0.9023678E-02  0.8526551E-05  0.4169722E-03 -0.2516870E-04 -0.1233381E-02
2703641.  0.1109867E-03  0.5513018E-02  0.4903602E-05  0.2499928E-03 -0.1442940E-04 -0.7421409E-03
2633062.  0.6322896E-04  0.3282378E-02  0.2755046E-05  0.1463297E-03 -0.8053032E-05 -0.4337470E-03
2562484.  0.3512936E-04  0.1904138E-02  0.1511266E-05  0.8358596E-04 -0.4374607E-05 -0.2463537E-03
2491906.  0.1902192E-04  0.1075843E-02  0.8087579E-06  0.4656623E-04 -0.2312152E-05 -0.1359832E-03
2421328.  0.1003076E-04  0.5916976E-03  0.4218728E-06  0.2528319E-04 -0.1188312E-05 -0.7293098E-04
2350750.  0.5146506E-05  0.3165482E-03  0.2142869E-06  0.1336732E-04 -0.5933844E-06 -0.3798565E-04
2280172.  0.2566438E-05  0.1645829E-03  0.1058685E-06  0.6875016E-05 -0.2876100E-06 -0.1919930E-04
2209594.  0.1242399E-05  0.8307619E-04  0.5080873E-07  0.3435722E-05 -0.1351521E-06 -0.9407813E-05
2139016.  0.5830449E-06  0.4066115E-04  0.2365282E-07  0.1666111E-05 -0.6148871E-07 -0.4463886E-05
2068438.  0.2648326E-06  0.1926970E-04  0.1066343E-07  0.7828539E-06 -0.2704170E-07 -0.2048067E-05
1997859.  0.1162231E-06  0.8827692E-05  0.4647116E-08  0.3558004E-06 -0.1147488E-07 -0.9071118E-06
1927281.  0.4918173E-07  0.3902074E-05  0.1953730E-08  0.1561189E-06 -0.4688732E-08 -0.3871210E-06
1856703.  0.2002242E-07  0.1660709E-05  0.7905610E-09  0.6599043E-07 -0.1840507E-08 -0.1588363E-06
1786125.  0.7821994E-08  0.6788783E-06  0.3070929E-09  0.2680500E-07 -0.6922230E-09 -0.6250122E-07
1715547.  0.2923793E-08  0.2658260E-06  0.1141814E-09  0.1043399E-07 -0.2487009E-09 -0.2351953E-07
1644969.  0.1042252E-08  0.9939188E-07  0.4050146E-10  0.3879817E-08 -0.8506466E-10 -0.8436460E-08
1574391.  0.3529916E-09  0.3535886E-07  0.1365383E-10  0.1373196E-08 -0.2759122E-10 -0.2873901E-08
1503812.  0.1130965E-09  0.1191933E-07  0.4355780E-11  0.4606968E-09 -0.8448893E-11 -0.9257762E-09
1433234.  0.3411115E-10  0.3789421E-08  0.1308475E-11  0.1458185E-09 -0.2430099E-11 -0.2806381E-09
1362656.  0.9630087E-11  0.1129980E-08  0.3680027E-12  0.4330584E-10 -0.6526086E-12 -0.7960316E-10
1292078.  0.2528934E-11  0.3139000E-09  0.9622050E-13  0.1199582E-10 -0.1624471E-12 -0.2099766E-10
1221500.  0.0000000E+00  0.0000000E+00  0.0000000E+00  0.0000000E+00  0.0000000E+00  0.0000000E+00
1221500.  0.0000000E+00  0.0000000E+00  0.0000000E+00  0.0000000E+00  0.0000000E+00  0.0000000E+00
1183328.  0.0000000E+00  0.0000000E+00  0.0000000E+00  0.0000000E+00  0.0000000E+00  0.0000000E+00
1145156.  0.0000000E+00  0.0000000E+00  0.0000000E+00  0.0000000E+00  0.0000000E+00  0.0000000E+00
1106984.  0.0000000E+00  0.0000000E+00  0.0000000E+00  0.0000000E+00  0.0000000E+00  0.0000000E+00
1068812.  0.0000000E+00  0.0000000E+00  0.0000000E+00  0.0000000E+00  0.0000000E+00  0.0000000E+00
1030641.  0.0000000E+00  0.0000000E+00  0.0000000E+00  0.0000000E+00  0.0000000E+00  0.0000000E+00
 992469.  0.0000000E+00  0.0000000E+00  0.0000000E+00  0.0000000E+00  0.0000000E+00  0.0000000E+00
 954297.  0.0000000E+00  0.0000000E+00  0.0000000E+00  0.0000000E+00  0.0000000E+00  0.0000000E+00
 916125.  0.0000000E+00  0.0000000E+00  0.0000000E+00  0.0000000E+00  0.0000000E+00  0.0000000E+00
 877953.  0.0000000E+00  0.0000000E+00  0.0000000E+00  0.0000000E+00  0.0000000E+00  0.0000000E+00
 839781.  0.0000000E+00  0.0000000E+00  0.0000000E+00  0.0000000E+00  0.0000000E+00  0.0000000E+00
 801609.  0.0000000E+00  0.0000000E+00  0.0000000E+00  0.0000000E+00  0.0000000E+00  0.0000000E+00
 763438.  0.0000000E+00  0.0000000E+00  0.0000000E+00  0.0000000E+00  0.0000000E+00  0.0000000E+00
 725266.  0.0000000E+00  0.0000000E+00  0.0000000E+00  0.0000000E+00  0.0000000E+00  0.0000000E+00
 687094.  0.0000000E+00  0.0000000E+00  0.0000000E+00  0.0000000E+00  0.0000000E+00  0.0000000E+00
 648922.  0.0000000E+00  0.0000000E+00  0.0000000E+00  0.0000000E+00  0.0000000E+00  0.0000000E+00
 610750.  0.0000000E+00  0.0000000E+00  0.0000000E+00  0.0000000E+00  0.0000000E+00  0.0000000E+00
 572578.  0.0000000E+00  0.0000000E+00  0.0000000E+00  0.0000000E+00  0.0000000E+00  0.0000000E+00
 534406.  0.0000000E+00  0.0000000E+00  0.0000000E+00  0.0000000E+00  0.0000000E+00  0.0000000E+00
 496234.  0.0000000E+00  0.0000000E+00  0.0000000E+00  0.0000000E+00  0.0000000E+00  0.0000000E+00
 458062.  0.0000000E+00  0.0000000E+00  0.0000000E+00  0.0000000E+00  0.0000000E+00  0.0000000E+00
 419891.  0.0000000E+00  0.0000000E+00  0.0000000E+00  0.0000000E+00  0.0000000E+00  0.0000000E+00
 381719.  0.0000000E+00  0.0000000E+00  0.0000000E+00  0.0000000E+00  0.0000000E+00  0.0000000E+00
 343547.  0.0000000E+00  0.0000000E+00  0.0000000E+00  0.0000000E+00  0.0000000E+00  0.0000000E+00
 305375.  0.0000000E+00  0.0000000E+00  0.0000000E+00  0.0000000E+00  0.0000000E+00  0.0000000E+00
 267203.  0.0000000E+00  0.0000000E+00  0.0000000E+00  0.0000000E+00  0.0000000E+00  0.0000000E+00
 229031.  0.0000000E+00  0.0000000E+00  0.0000000E+00  0.0000000E+00  0.0000000E+00  0.0000000E+00
 190859.  0.0000000E+00  0.0000000E+00  0.0000000E+00  0.0000000E+00  0.0000000E+00  0.0000000E+00
 152688.  0.0000000E+00  0.0000000E+00  0.0000000E+00  0.0000000E+00  0.0000000E+00  0.0000000E+00
 114516.  0.0000000E+00  0.0000000E+00  0.0000000E+00  0.0000000E+00  0.0000000E+00  0.0000000E+00
  76344.  0.0000000E+00  0.0000000E+00  0.0000000E+00  0.0000000E+00  0.0000000E+00  0.0000000E+00
  38172.  0.0000000E+00  0.0000000E+00  0.0000000E+00  0.0000000E+00  0.0000000E+00  0.0000000E+00
      0.  0.0000000E+00  0.0000000E+00  0.0000000E+00  0.0000000E+00  0.0000000E+00  0.0000000E+00
