       1       41 S      137        145.76401          6.61743          5.14166        146.98241      185    7
6371000.  0.8121755E-01  0.2778444E+00  0.5047872E-03 -0.8071277E-01 -0.2532313E-02 -0.4680014E-01
6370000.  0.8117102E-01  0.3150560E+00  0.5174383E-03 -0.8048484E-01 -0.2525010E-02 -0.4625590E-01
6369000.  0.8111865E-01  0.3522196E+00  0.5300523E-03 -0.8024015E-01 -0.2517793E-02 -0.4570873E-01
6368000.  0.8106045E-01  0.3893305E+00  0.5426266E-03 -0.7997870E-01 -0.2510661E-02 -0.4515861E-01
6368000.  0.8106045E-01  0.3893305E+00  0.5426266E-03 -0.7997870E-01 -0.2510661E-02 -0.4515861E-01
6367000.  0.8099643E-01  0.4263839E+00  0.5551585E-03 -0.7970055E-01 -0.2503617E-02 -0.4460552E-01
6366000.  0.8092660E-01  0.4633752E+00  0.5676455E-03 -0.7940572E-01 -0.2496659E-02 -0.4404945E-01
6365000.  0.8085097E-01  0.5002996E+00  0.5800849E-03 -0.7909424E-01 -0.2489789E-02 -0.4349035E-01
6364000.  0.8076955E-01  0.5371523E+00  0.5924741E-03 -0.7876614E-01 -0.2483007E-02 -0.4292822E-01
6363000.  0.8068235E-01  0.5739287E+00  0.6048105E-03 -0.7842149E-01 -0.2476313E-02 -0.4236303E-01
6362000.  0.8058939E-01  0.6106240E+00  0.6170915E-03 -0.7806028E-01 -0.2469708E-02 -0.4179476E-01
6361000.  0.8049067E-01  0.6472334E+00  0.6293145E-03 -0.7768261E-01 -0.2463193E-02 -0.4122338E-01
6360000.  0.8038621E-01  0.6837524E+00  0.6414769E-03 -0.7728848E-01 -0.2456767E-02 -0.4064888E-01
6359000.  0.8027603E-01  0.7201762E+00  0.6535763E-03 -0.7687795E-01 -0.2450432E-02 -0.4007122E-01
6358000.  0.8016014E-01  0.7565002E+00  0.6656098E-03 -0.7645109E-01 -0.2444188E-02 -0.3949038E-01
6357000.  0.8003855E-01  0.7927197E+00  0.6775751E-03 -0.7600792E-01 -0.2438035E-02 -0.3890635E-01
6356000.  0.7991129E-01  0.8288300E+00  0.6894696E-03 -0.7554854E-01 -0.2431975E-02 -0.3831910E-01
6356000.  0.7991129E-01  0.6309369E+00  0.6894696E-03 -0.7707876E-01 -0.2431975E-02 -0.5570687E-01
6355000.  0.7981009E-01  0.6585582E+00  0.7015541E-03 -0.7690082E-01 -0.2423271E-02 -0.5519561E-01
6354000.  0.7970456E-01  0.6861376E+00  0.7136100E-03 -0.7671467E-01 -0.2414647E-02 -0.5468423E-01
6353000.  0.7959470E-01  0.7136728E+00  0.7256361E-03 -0.7652031E-01 -0.2406104E-02 -0.5417271E-01
6352000.  0.7948052E-01  0.7411615E+00  0.7376311E-03 -0.7631774E-01 -0.2397642E-02 -0.5366103E-01
6351000.  0.7936203E-01  0.7686017E+00  0.7495935E-03 -0.7610700E-01 -0.2389259E-02 -0.5314917E-01
6350000.  0.7923924E-01  0.7959909E+00  0.7615223E-03 -0.7588810E-01 -0.2380957E-02 -0.5263713E-01
6349000.  0.7911216E-01  0.8233271E+00  0.7734161E-03 -0.7566105E-01 -0.2372735E-02 -0.5212487E-01
6348000.  0.7898078E-01  0.8506080E+00  0.7852736E-03 -0.7542587E-01 -0.2364594E-02 -0.5161238E-01
6347000.  0.7884514E-01  0.8778313E+00  0.7970936E-03 -0.7518259E-01 -0.2356533E-02 -0.5109965E-01
6346600.  0.7878968E-01  0.8887041E+00  0.8018107E-03 -0.7508300E-01 -0.2353331E-02 -0.5089448E-01
6346600.  0.7878968E-01  0.7781550E+00  0.8018107E-03 -0.7612408E-01 -0.2353331E-02 -0.7836729E-01
6318800.  0.7400189E-01  0.1414054E+01  0.1129074E-02 -0.7331523E-01 -0.2037414E-02 -0.6669804E-01
6291000.  0.6648814E-01  0.2023177E+01  0.1436835E-02 -0.6721024E-01 -0.1769132E-02 -0.5648943E-01
6291000.  0.6648814E-01  0.2069520E+01  0.1436835E-02 -0.6725789E-01 -0.1769132E-02 -0.5648943E-01
6263000.  0.5611746E-01  0.2637143E+01  0.1710262E-02 -0.5662723E-01 -0.1542372E-02 -0.4686528E-01
6235000.  0.4344055E-01  0.3114573E+01  0.1930152E-02 -0.4297903E-01 -0.1355928E-02 -0.3810623E-01
6207000.  0.2890983E-01  0.3476926E+01  0.2084462E-02 -0.2689206E-01 -0.1206455E-02 -0.3001006E-01
6179000.  0.1307798E-01  0.3703672E+01  0.2163982E-02 -0.9069689E-02 -0.1091428E-02 -0.2240423E-01
6151000. -0.3423763E-02  0.3779762E+01  0.2162810E-02  0.9688285E-02 -0.1009025E-02 -0.1514035E-01
6151000. -0.3423763E-02  0.3352803E+01  0.2162810E-02  0.9213363E-02 -0.1009025E-02 -0.1495092E-01
6128500. -0.1517125E-01  0.3290533E+01  0.2115277E-02  0.1760376E-01 -0.9595779E-03 -0.1310228E-01
6106000. -0.2659920E-01  0.3172553E+01  0.2039311E-02  0.2528311E-01 -0.9161176E-03 -0.1156098E-01
6083500. -0.3751909E-01  0.3003686E+01  0.1937744E-02  0.3207524E-01 -0.8775516E-03 -0.1033148E-01
6061000. -0.4776117E-01  0.2789736E+01  0.1813974E-02  0.3783520E-01 -0.8427675E-03 -0.9420848E-02
6038500. -0.5717774E-01  0.2537338E+01  0.1671857E-02  0.4244932E-01 -0.8106190E-03 -0.8841502E-02
6016000. -0.6564570E-01  0.2253761E+01  0.1515594E-02  0.4583474E-01 -0.7799051E-03 -0.8612081E-02
5993500. -0.7306843E-01  0.1946711E+01  0.1349627E-02  0.4793778E-01 -0.7493478E-03 -0.8757839E-02
5971000. -0.7937711E-01  0.1624183E+01  0.1178541E-02  0.4873119E-01 -0.7175604E-03 -0.9315899E-02
5971000. -0.7937711E-01  0.1543792E+01  0.1178541E-02  0.5283170E-01 -0.7175604E-03  0.1075234E-02
5937667. -0.8613584E-01  0.1044446E+01  0.9068673E-03  0.5062257E-01 -0.7193745E-03 -0.4139330E-03
5904333. -0.9037268E-01  0.5827790E+00  0.6523838E-03  0.4636787E-01 -0.7129587E-03 -0.2059377E-02
5871000. -0.9232693E-01  0.1739927E+00  0.4241258E-03  0.4070004E-01 -0.6976465E-03 -0.3808567E-02
5837667. -0.9230248E-01 -0.1724421E+00  0.2279964E-03  0.3417007E-01 -0.6729609E-03 -0.5642518E-02
5804333. -0.9063969E-01 -0.4518098E+00  0.6727970E-04  0.2722735E-01 -0.6384201E-03 -0.7582133E-02
5771000. -0.8769362E-01 -0.6630918E+00 -0.5679850E-04  0.2021413E-01 -0.5933335E-03 -0.9688098E-02
5771000. -0.8769362E-01 -0.6630967E+00 -0.5679850E-04  0.2021662E-01 -0.5933335E-03 -0.9688098E-02
5701000. -0.7871205E-01 -0.9148083E+00 -0.1657411E-03 -0.6635469E-03 -0.4301095E-03 -0.2080577E-01
5701000. -0.7871205E-01 -0.7631283E+00 -0.1657411E-03  0.1788553E-01 -0.4301095E-03  0.1380325E-02
5667333. -0.7448912E-01 -0.8361322E+00 -0.2571048E-03  0.1605071E-01 -0.4254884E-03 -0.2694865E-02
5633667. -0.6986737E-01 -0.9100640E+00 -0.3290178E-03  0.1097721E-01 -0.4054537E-03 -0.4667012E-02
5600000. -0.6493828E-01 -0.9498292E+00 -0.3754944E-03  0.6834605E-02 -0.3774635E-03 -0.5818184E-02
5600000. -0.6493828E-01 -0.9498292E+00 -0.3754944E-03  0.6834605E-02 -0.3774635E-03 -0.5818184E-02
5563518. -0.5944943E-01 -0.9626024E+00 -0.4040613E-03  0.3291365E-02 -0.3422525E-03 -0.6384335E-02
5527037. -0.5396149E-01 -0.9506392E+00 -0.4147487E-03  0.5657353E-03 -0.3052440E-03 -0.6479065E-02
5490556. -0.4859840E-01 -0.9199061E+00 -0.4118424E-03 -0.1477107E-02 -0.2686338E-03 -0.6267677E-02
5454074. -0.4345270E-01 -0.8754478E+00 -0.3989167E-03 -0.2952665E-02 -0.2338300E-03 -0.5864858E-02
5417593. -0.3859045E-01 -0.8215912E+00 -0.3788983E-03 -0.3971113E-02 -0.2016552E-03 -0.5361841E-02
5381111. -0.3405501E-01 -0.7617730E+00 -0.3541451E-03 -0.4619398E-02 -0.1725115E-03 -0.4813182E-02
5344630. -0.2987237E-01 -0.6988357E+00 -0.3265550E-03 -0.4974659E-02 -0.1465446E-03 -0.4258265E-02
5308148. -0.2605338E-01 -0.6350418E+00 -0.2976012E-03 -0.5105166E-02 -0.1237025E-03 -0.3724638E-02
5271667. -0.2259811E-01 -0.5720831E+00 -0.2684212E-03 -0.5062050E-02 -0.1038251E-03 -0.3224616E-02
5235185. -0.1949759E-01 -0.5112988E+00 -0.2398684E-03 -0.4893272E-02 -0.8668967E-04 -0.2768196E-02
5198704. -0.1673663E-01 -0.4536287E+00 -0.2125477E-03 -0.4637146E-02 -0.7203018E-04 -0.2359899E-02
5162222. -0.1429544E-01 -0.3996723E+00 -0.1868783E-03 -0.4320736E-02 -0.5957719E-04 -0.1997234E-02
5125741. -0.1215155E-01 -0.3498632E+00 -0.1631281E-03 -0.3970947E-02 -0.4906833E-04 -0.1680832E-02
5089259. -0.1028048E-01 -0.3043728E+00 -0.1414307E-03 -0.3605954E-02 -0.4024638E-04 -0.1407114E-02
5052778. -0.8657493E-02 -0.2632311E+00 -0.1218353E-03 -0.3239118E-02 -0.3288105E-04 -0.1171573E-02
5016296. -0.7257727E-02 -0.2263682E+00 -0.1043158E-03 -0.2882283E-02 -0.2676189E-04 -0.9711740E-03
4979815. -0.6057245E-02 -0.1936031E+00 -0.8879434E-04 -0.2542313E-02 -0.2170055E-04 -0.8013956E-03
4943333. -0.5033161E-02 -0.1647045E+00 -0.7515850E-04 -0.2224328E-02 -0.1753317E-04 -0.6583574E-03
4906852. -0.4164137E-02 -0.1394038E+00 -0.6327150E-04 -0.1931921E-02 -0.1411569E-04 -0.5388975E-03
4870370. -0.3430400E-02 -0.1173937E+00 -0.5298343E-04 -0.1665867E-02 -0.1132413E-04 -0.4391609E-03
4833889. -0.2814000E-02 -0.9837690E-01 -0.4414152E-04 -0.1426966E-02 -0.9053606E-05 -0.3565389E-03
4797407. -0.2298640E-02 -0.8204568E-01 -0.3659036E-04 -0.1214745E-02 -0.7213103E-05 -0.2884920E-03
4760926. -0.1869840E-02 -0.6810042E-01 -0.3018208E-04 -0.1027617E-02 -0.5726949E-05 -0.2324352E-03
4724444. -0.1514714E-02 -0.5626405E-01 -0.2477621E-04 -0.8643164E-03 -0.4531579E-05 -0.1866380E-03
4687963. -0.1221971E-02 -0.4627188E-01 -0.2024192E-04 -0.7228806E-03 -0.3573308E-05 -0.1493441E-03
4651482. -0.9817499E-03 -0.3788103E-01 -0.1646002E-04 -0.6011954E-03 -0.2808017E-05 -0.1190216E-03
4615000. -0.7855100E-03 -0.3087323E-01 -0.1332271E-04 -0.4973739E-03 -0.2199052E-05 -0.9455322E-04
4578518. -0.6259192E-03 -0.2504935E-01 -0.1073384E-04 -0.4093008E-03 -0.1716118E-05 -0.7483363E-04
4542037. -0.4967137E-03 -0.2023440E-01 -0.8608830E-05 -0.3350833E-03 -0.1334633E-05 -0.5900215E-04
4505556. -0.3925640E-03 -0.1627348E-01 -0.6873289E-05 -0.2729731E-03 -0.1034286E-05 -0.4637881E-04
4469074. -0.3089780E-03 -0.1303011E-01 -0.5462897E-05 -0.2212364E-03 -0.7986565E-06 -0.3630251E-04
4432593. -0.2421931E-03 -0.1038792E-01 -0.4322568E-05 -0.1784320E-03 -0.6145484E-06 -0.2831706E-04
4396111. -0.1890602E-03 -0.8245491E-02 -0.3404953E-05 -0.1432214E-03 -0.4711501E-06 -0.2201585E-04
4359630. -0.1469756E-03 -0.6516301E-02 -0.2670194E-05 -0.1143896E-03 -0.3598952E-06 -0.1704245E-04
4323148. -0.1137851E-03 -0.5127467E-02 -0.2084672E-05 -0.9093226E-04 -0.2739116E-06 -0.1314945E-04
4286667. -0.8772367E-04 -0.4017079E-02 -0.1620290E-05 -0.7194228E-04 -0.2076833E-06 -0.1010808E-04
4250185. -0.6734847E-04 -0.3133371E-02 -0.1253732E-05 -0.5664379E-04 -0.1568746E-06 -0.7737924E-05
4213704. -0.5148905E-04 -0.2433457E-02 -0.9657717E-06 -0.4439300E-04 -0.1180428E-06 -0.5903970E-05
4177222. -0.3919792E-04 -0.1881532E-02 -0.7405980E-06 -0.3462596E-04 -0.8846975E-07 -0.4486231E-05
4140741. -0.2971486E-04 -0.1448372E-02 -0.5653699E-06 -0.2688061E-04 -0.6604175E-07 -0.3395864E-05
4104259. -0.2243023E-04 -0.1109975E-02 -0.4296310E-06 -0.2077256E-04 -0.4908891E-07 -0.2562621E-05
4067778. -0.1685985E-04 -0.8467704E-03 -0.3249785E-06 -0.1597553E-04 -0.3632087E-07 -0.1925854E-05
4031296. -0.1261954E-04 -0.6430143E-03 -0.2446704E-06 -0.1222981E-04 -0.2673956E-07 -0.1443271E-05
3994815. -0.9406852E-05 -0.4859798E-03 -0.1833244E-06 -0.9320437E-05 -0.1956493E-07 -0.1079899E-05
3958333. -0.6984446E-05 -0.3654535E-03 -0.1366748E-06 -0.7070248E-05 -0.1420056E-07 -0.8070044E-06
3921852. -0.5167405E-05 -0.2733588E-03 -0.1013611E-06 -0.5340625E-05 -0.1018766E-07 -0.6049757E-06
3885370. -0.3812021E-05 -0.2032406E-03 -0.7473780E-07 -0.4017671E-05 -0.7168623E-08 -0.4574163E-06
3848889. -0.2807635E-05 -0.1500291E-03 -0.5474691E-07 -0.3011037E-05 -0.4868786E-08 -0.3521572E-06
3812407. -0.2069240E-05 -0.1097410E-03 -0.3978732E-07 -0.2249575E-05 -0.3070830E-08 -0.2808795E-06
3775926. -0.1532179E-05 -0.7925830E-04 -0.2862655E-07 -0.1675834E-05 -0.1599636E-08 -0.2371963E-06
3739444. -0.1147480E-05 -0.5616866E-04 -0.2032401E-07 -0.1244448E-05 -0.3089745E-09 -0.2173770E-06
3702963. -0.8783652E-06 -0.3862326E-04 -0.1417371E-07 -0.9185038E-06  0.9318464E-09 -0.2196007E-06
3666482. -0.6972464E-06 -0.2523965E-04 -0.9665178E-08 -0.6660113E-06  0.2246913E-08 -0.2433721E-06
3630000. -0.5832226E-06 -0.1506190E-04 -0.6462204E-08 -0.4575150E-06  0.3762227E-08 -0.2897873E-06
3630000. -0.5832226E-06 -0.1506190E-04 -0.6462204E-08 -0.4575150E-06  0.3762227E-08 -0.2897873E-06
3592500. -0.5184847E-06 -0.7386142E-05 -0.4360937E-08 -0.2553314E-06  0.5669757E-08 -0.3627966E-06
3555000. -0.4907874E-06 -0.2532931E-05 -0.3516700E-08 -0.2178441E-07  0.8086313E-08 -0.4628465E-06
3517500. -0.4816089E-06 -0.1320051E-05 -0.4289907E-08  0.3075159E-06  0.1116900E-07 -0.5884073E-06
3480000. -0.4640367E-06 -0.5894351E-05 -0.7522770E-08  0.8357616E-06  0.1504495E-07 -0.7296275E-06
3480000. -0.4640367E-06 -0.3031039E-04 -0.1251800E-07 -0.8264069E-06  0.1504495E-07  0.7501338E-06
3409422. -0.2226493E-06 -0.1497674E-04 -0.5961996E-08 -0.4048438E-06  0.8342517E-08  0.4692654E-06
3338844. -0.1045332E-06 -0.7238203E-05 -0.2780267E-08 -0.1941392E-06  0.4350825E-08  0.2658243E-06
3268266. -0.4800503E-07 -0.3420754E-05 -0.1268889E-08 -0.9110018E-07  0.2161388E-08  0.1407177E-06
3197688. -0.2155345E-07 -0.1580285E-05 -0.5664657E-09 -0.4181313E-07  0.1030131E-08  0.7069033E-07
3127109. -0.9455819E-08 -0.7132934E-06 -0.2472114E-09 -0.1876117E-07  0.4730363E-09  0.3398512E-07
3056531. -0.4051031E-08 -0.3144052E-06 -0.1053950E-09 -0.8224397E-08  0.2098279E-09  0.1571394E-07
2985953. -0.1693535E-08 -0.1352420E-06 -0.4386204E-10 -0.3519940E-08  0.9004223E-10  0.7008492E-08
2915375. -0.6902874E-09 -0.5672941E-07 -0.1780337E-10 -0.1469635E-08  0.3740939E-10  0.3020342E-08
2844797. -0.2740829E-09 -0.2318481E-07 -0.7041130E-11 -0.5980674E-09  0.1505114E-10  0.1258884E-08
2774219. -0.1059160E-09 -0.9222045E-08 -0.2710215E-11 -0.2370200E-09  0.5862321E-11  0.5077498E-09
2703641. -0.3982878E-10 -0.3562628E-08 -0.1013159E-11 -0.9146973E-10  0.2206042E-11  0.1984770E-09
2633062.  0.0000000E+00  0.0000000E+00  0.0000000E+00  0.0000000E+00  0.0000000E+00  0.0000000E+00
2562484.  0.0000000E+00  0.0000000E+00  0.0000000E+00  0.0000000E+00  0.0000000E+00  0.0000000E+00
2491906.  0.0000000E+00  0.0000000E+00  0.0000000E+00  0.0000000E+00  0.0000000E+00  0.0000000E+00
2421328.  0.0000000E+00  0.0000000E+00  0.0000000E+00  0.0000000E+00  0.0000000E+00  0.0000000E+00
2350750.  0.0000000E+00  0.0000000E+00  0.0000000E+00  0.0000000E+00  0.0000000E+00  0.0000000E+00
2280172.  0.0000000E+00  0.0000000E+00  0.0000000E+00  0.0000000E+00  0.0000000E+00  0.0000000E+00
2209594.  0.0000000E+00  0.0000000E+00  0.0000000E+00  0.0000000E+00  0.0000000E+00  0.0000000E+00
2139016.  0.0000000E+00  0.0000000E+00  0.0000000E+00  0.0000000E+00  0.0000000E+00  0.0000000E+00
2068438.  0.0000000E+00  0.0000000E+00  0.0000000E+00  0.0000000E+00  0.0000000E+00  0.0000000E+00
1997859.  0.0000000E+00  0.0000000E+00  0.0000000E+00  0.0000000E+00  0.0000000E+00  0.0000000E+00
1927281.  0.0000000E+00  0.0000000E+00  0.0000000E+00  0.0000000E+00  0.0000000E+00  0.0000000E+00
1856703.  0.0000000E+00  0.0000000E+00  0.0000000E+00  0.0000000E+00  0.0000000E+00  0.0000000E+00
1786125.  0.0000000E+00  0.0000000E+00  0.0000000E+00  0.0000000E+00  0.0000000E+00  0.0000000E+00
1715547.  0.0000000E+00  0.0000000E+00  0.0000000E+00  0.0000000E+00  0.0000000E+00  0.0000000E+00
1644969.  0.0000000E+00  0.0000000E+00  0.0000000E+00  0.0000000E+00  0.0000000E+00  0.0000000E+00
1574391.  0.0000000E+00  0.0000000E+00  0.0000000E+00  0.0000000E+00  0.0000000E+00  0.0000000E+00
1503812.  0.0000000E+00  0.0000000E+00  0.0000000E+00  0.0000000E+00  0.0000000E+00  0.0000000E+00
1433234.  0.0000000E+00  0.0000000E+00  0.0000000E+00  0.0000000E+00  0.0000000E+00  0.0000000E+00
1362656.  0.0000000E+00  0.0000000E+00  0.0000000E+00  0.0000000E+00  0.0000000E+00  0.0000000E+00
1292078.  0.0000000E+00  0.0000000E+00  0.0000000E+00  0.0000000E+00  0.0000000E+00  0.0000000E+00
1221500.  0.0000000E+00  0.0000000E+00  0.0000000E+00  0.0000000E+00  0.0000000E+00  0.0000000E+00
1221500.  0.0000000E+00  0.0000000E+00  0.0000000E+00  0.0000000E+00  0.0000000E+00  0.0000000E+00
1183328.  0.0000000E+00  0.0000000E+00  0.0000000E+00  0.0000000E+00  0.0000000E+00  0.0000000E+00
1145156.  0.0000000E+00  0.0000000E+00  0.0000000E+00  0.0000000E+00  0.0000000E+00  0.0000000E+00
1106984.  0.0000000E+00  0.0000000E+00  0.0000000E+00  0.0000000E+00  0.0000000E+00  0.0000000E+00
1068812.  0.0000000E+00  0.0000000E+00  0.0000000E+00  0.0000000E+00  0.0000000E+00  0.0000000E+00
1030641.  0.0000000E+00  0.0000000E+00  0.0000000E+00  0.0000000E+00  0.0000000E+00  0.0000000E+00
 992469.  0.0000000E+00  0.0000000E+00  0.0000000E+00  0.0000000E+00  0.0000000E+00  0.0000000E+00
 954297.  0.0000000E+00  0.0000000E+00  0.0000000E+00  0.0000000E+00  0.0000000E+00  0.0000000E+00
 916125.  0.0000000E+00  0.0000000E+00  0.0000000E+00  0.0000000E+00  0.0000000E+00  0.0000000E+00
 877953.  0.0000000E+00  0.0000000E+00  0.0000000E+00  0.0000000E+00  0.0000000E+00  0.0000000E+00
 839781.  0.0000000E+00  0.0000000E+00  0.0000000E+00  0.0000000E+00  0.0000000E+00  0.0000000E+00
 801609.  0.0000000E+00  0.0000000E+00  0.0000000E+00  0.0000000E+00  0.0000000E+00  0.0000000E+00
 763438.  0.0000000E+00  0.0000000E+00  0.0000000E+00  0.0000000E+00  0.0000000E+00  0.0000000E+00
 725266.  0.0000000E+00  0.0000000E+00  0.0000000E+00  0.0000000E+00  0.0000000E+00  0.0000000E+00
 687094.  0.0000000E+00  0.0000000E+00  0.0000000E+00  0.0000000E+00  0.0000000E+00  0.0000000E+00
 648922.  0.0000000E+00  0.0000000E+00  0.0000000E+00  0.0000000E+00  0.0000000E+00  0.0000000E+00
 610750.  0.0000000E+00  0.0000000E+00  0.0000000E+00  0.0000000E+00  0.0000000E+00  0.0000000E+00
 572578.  0.0000000E+00  0.0000000E+00  0.0000000E+00  0.0000000E+00  0.0000000E+00  0.0000000E+00
 534406.  0.0000000E+00  0.0000000E+00  0.0000000E+00  0.0000000E+00  0.0000000E+00  0.0000000E+00
 496234.  0.0000000E+00  0.0000000E+00  0.0000000E+00  0.0000000E+00  0.0000000E+00  0.0000000E+00
 458062.  0.0000000E+00  0.0000000E+00  0.0000000E+00  0.0000000E+00  0.0000000E+00  0.0000000E+00
 419891.  0.0000000E+00  0.0000000E+00  0.0000000E+00  0.0000000E+00  0.0000000E+00  0.0000000E+00
 381719.  0.0000000E+00  0.0000000E+00  0.0000000E+00  0.0000000E+00  0.0000000E+00  0.0000000E+00
 343547.  0.0000000E+00  0.0000000E+00  0.0000000E+00  0.0000000E+00  0.0000000E+00  0.0000000E+00
 305375.  0.0000000E+00  0.0000000E+00  0.0000000E+00  0.0000000E+00  0.0000000E+00  0.0000000E+00
 267203.  0.0000000E+00  0.0000000E+00  0.0000000E+00  0.0000000E+00  0.0000000E+00  0.0000000E+00
 229031.  0.0000000E+00  0.0000000E+00  0.0000000E+00  0.0000000E+00  0.0000000E+00  0.0000000E+00
 190859.  0.0000000E+00  0.0000000E+00  0.0000000E+00  0.0000000E+00  0.0000000E+00  0.0000000E+00
 152688.  0.0000000E+00  0.0000000E+00  0.0000000E+00  0.0000000E+00  0.0000000E+00  0.0000000E+00
 114516.  0.0000000E+00  0.0000000E+00  0.0000000E+00  0.0000000E+00  0.0000000E+00  0.0000000E+00
  76344.  0.0000000E+00  0.0000000E+00  0.0000000E+00  0.0000000E+00  0.0000000E+00  0.0000000E+00
  38172.  0.0000000E+00  0.0000000E+00  0.0000000E+00  0.0000000E+00  0.0000000E+00  0.0000000E+00
      0.  0.0000000E+00  0.0000000E+00  0.0000000E+00  0.0000000E+00  0.0000000E+00  0.0000000E+00
