      18        3 S      668        144.39290         79.20884         14.25962        864.24353      185    7
6371000.  0.5381196E-01 -0.3093619E-01  0.2410384E-02 -0.5140157E-01 -0.1198773E-04 -0.1014288E+00
6370000.  0.5381529E-01 -0.1152452E-01  0.2418231E-02 -0.4857660E-01  0.3933897E-05 -0.1014436E+00
6369000.  0.5381557E-01  0.7890196E-02  0.2425633E-02 -0.4573477E-01  0.1985741E-04 -0.1014528E+00
6368000.  0.5381281E-01  0.2730682E-01  0.2432587E-02 -0.4287661E-01  0.3578192E-04 -0.1014563E+00
6368000.  0.5381281E-01  0.2730682E-01  0.2432587E-02 -0.4287661E-01  0.3578192E-04 -0.1014563E+00
6367000.  0.5380700E-01  0.4672425E-01  0.2439092E-02 -0.4000263E-01  0.5170652E-04 -0.1014540E+00
6366000.  0.5379814E-01  0.6614136E-01  0.2445144E-02 -0.3711336E-01  0.6763032E-04 -0.1014461E+00
6365000.  0.5378624E-01  0.8555704E-01  0.2450742E-02 -0.3420933E-01  0.8355244E-04 -0.1014325E+00
6364000.  0.5377129E-01  0.1049702E+00  0.2455883E-02 -0.3129107E-01  0.9947197E-04 -0.1014132E+00
6363000.  0.5375329E-01  0.1243797E+00  0.2460564E-02 -0.2835911E-01  0.1153880E-03 -0.1013882E+00
6362000.  0.5373224E-01  0.1437844E+00  0.2464785E-02 -0.2541398E-01  0.1312997E-03 -0.1013575E+00
6361000.  0.5370815E-01  0.1631832E+00  0.2468541E-02 -0.2245624E-01  0.1472061E-03 -0.1013212E+00
6360000.  0.5368101E-01  0.1825750E+00  0.2471833E-02 -0.1948642E-01  0.1631064E-03 -0.1012791E+00
6359000.  0.5365084E-01  0.2019587E+00  0.2474658E-02 -0.1650506E-01  0.1789996E-03 -0.1012313E+00
6358000.  0.5361762E-01  0.2213332E+00  0.2477014E-02 -0.1351273E-01  0.1948849E-03 -0.1011779E+00
6357000.  0.5358135E-01  0.2406974E+00  0.2478899E-02 -0.1050996E-01  0.2107613E-03 -0.1011187E+00
6356000.  0.5354206E-01  0.2600501E+00  0.2480313E-02 -0.7497313E-02  0.2266280E-03 -0.1010539E+00
6356000.  0.5354206E-01  0.1628556E+00  0.2480313E-02 -0.2481421E-01  0.2266280E-03 -0.1127040E+00
6355000.  0.5351539E-01  0.1769326E+00  0.2484049E-02 -0.2278551E-01  0.2443147E-03 -0.1126582E+00
6354000.  0.5348651E-01  0.1910043E+00  0.2487465E-02 -0.2074880E-01  0.2619938E-03 -0.1126079E+00
6353000.  0.5345543E-01  0.2050700E+00  0.2490561E-02 -0.1870434E-01  0.2796646E-03 -0.1125529E+00
6352000.  0.5342214E-01  0.2191292E+00  0.2493337E-02 -0.1665238E-01  0.2973264E-03 -0.1124934E+00
6351000.  0.5338664E-01  0.2331811E+00  0.2495789E-02 -0.1459318E-01  0.3149785E-03 -0.1124293E+00
6350000.  0.5334894E-01  0.2472253E+00  0.2497917E-02 -0.1252698E-01  0.3326203E-03 -0.1123606E+00
6349000.  0.5330903E-01  0.2612612E+00  0.2499721E-02 -0.1045405E-01  0.3502508E-03 -0.1122873E+00
6348000.  0.5326692E-01  0.2752881E+00  0.2501199E-02 -0.8374650E-02  0.3678695E-03 -0.1122094E+00
6347000.  0.5322261E-01  0.2893056E+00  0.2502349E-02 -0.6289029E-02  0.3854756E-03 -0.1121269E+00
6346600.  0.5320427E-01  0.2949097E+00  0.2502718E-02 -0.5453097E-02  0.3925144E-03 -0.1120926E+00
6346600.  0.5320427E-01  0.1673490E+00  0.2502718E-02 -0.2021576E-01  0.3925144E-03 -0.1306442E+00
6318800.  0.5186028E-01  0.4483873E+00  0.2488973E-02  0.2698570E-01  0.9570175E-03 -0.1275985E+00
6291000.  0.4929845E-01  0.7244276E+00  0.2265748E-02  0.7518937E-01  0.1501770E-02 -0.1215971E+00
6291000.  0.4929845E-01  0.7342058E+00  0.2265748E-02  0.7957492E-01  0.1501770E-02 -0.1215971E+00
6263000.  0.4547320E-01  0.1003934E+01  0.1810065E-02  0.1269410E+00  0.2017273E-02 -0.1125086E+00
6235000.  0.4050207E-01  0.1254555E+01  0.1160218E-02  0.1673207E+00  0.2486562E-02 -0.1005967E+00
6207000.  0.3448343E-01  0.1479578E+01  0.3545774E-03  0.1973277E+00  0.2897685E-02 -0.8608225E-01
6179000.  0.2754315E-01  0.1673008E+01 -0.5551432E-03  0.2143174E+00  0.3239821E-02 -0.6925713E-01
6151000.  0.1983220E-01  0.1829449E+01 -0.1507622E-02  0.2165898E+00  0.3503582E-02 -0.5048043E-01
6151000.  0.1983220E-01  0.1469923E+01 -0.1507622E-02  0.1875445E+00  0.3503582E-02 -0.5157766E-01
6128500.  0.1455100E-01  0.1517571E+01 -0.2153799E-02  0.1771483E+00  0.3662880E-02 -0.3853708E-01
6106000.  0.9136905E-02  0.1545226E+01 -0.2750377E-02  0.1595523E+00  0.3775190E-02 -0.2499643E-01
6083500.  0.3659878E-02  0.1553299E+01 -0.3273125E-02  0.1354810E+00  0.3839055E-02 -0.1113141E-01
6061000. -0.1811975E-02  0.1542418E+01 -0.3700842E-02  0.1059193E+00  0.3853640E-02  0.2881419E-02
6038500. -0.7213134E-02  0.1513417E+01 -0.4016202E-02  0.7206707E-01  0.3818735E-02  0.1686724E-01
6016000. -0.1248131E-01  0.1467281E+01 -0.4206412E-02  0.3528105E-01  0.3734737E-02  0.3065473E-01
5993500. -0.1755792E-01  0.1405134E+01 -0.4263656E-02 -0.2986089E-02  0.3602641E-02  0.4407837E-01
5971000. -0.2238861E-01  0.1328226E+01 -0.4185327E-02 -0.4124798E-01  0.3424015E-02  0.5697977E-01
5971000. -0.2238861E-01  0.1201339E+01 -0.4185327E-02 -0.3456409E-01  0.3424015E-02  0.5991063E-01
5937667. -0.2826264E-01  0.1041746E+01 -0.3875952E-02 -0.8245203E-01  0.3064655E-02  0.7713848E-01
5904333. -0.3327018E-01  0.8709573E+00 -0.3337845E-02 -0.1215973E+00  0.2620440E-02  0.9229650E-01
5871000. -0.3736590E-01  0.6940398E+00 -0.2622060E-02 -0.1501619E+00  0.2102888E-02  0.1051438E+00
5837667. -0.4052968E-01  0.5153905E+00 -0.1786439E-02 -0.1673563E+00  0.1524544E-02  0.1155129E+00
5804333. -0.4276264E-01  0.3387782E+00 -0.8904561E-03 -0.1733166E+00  0.8986468E-03  0.1233027E+00
5771000. -0.4408389E-01  0.1673890E+00  0.9095463E-05 -0.1689330E+00  0.2388577E-03  0.1284744E+00
5771000. -0.4408389E-01  0.1673957E+00  0.9095463E-05 -0.1689259E+00  0.2388577E-03  0.1284744E+00
5701000. -0.4403550E-01 -0.1750738E+00  0.1773521E-02 -0.1459335E+00 -0.1183739E-02  0.1285762E+00
5701000. -0.4403550E-01 -0.1392537E+00  0.1773521E-02 -0.1045931E+00 -0.1183739E-02  0.1409882E+00
5667333. -0.4295060E-01 -0.2703452E+00  0.2246527E-02 -0.7637140E-01 -0.1920302E-02  0.1374748E+00
5633667. -0.4117317E-01 -0.4025422E+00  0.2595947E-02 -0.5624643E-01 -0.2633409E-02  0.1320687E+00
5600000. -0.3871232E-01 -0.5270372E+00  0.2837713E-02 -0.3506605E-01 -0.3312005E-02  0.1243885E+00
5600000. -0.3871232E-01 -0.5270372E+00  0.2837713E-02 -0.3506605E-01 -0.3312005E-02  0.1243885E+00
5563518. -0.3533324E-01 -0.6511552E+00  0.2972600E-02 -0.1216122E-01 -0.3994778E-02  0.1136843E+00
5527037. -0.3128005E-01 -0.7622117E+00  0.2979517E-02  0.9424966E-02 -0.4609623E-02  0.1007093E+00
5490556. -0.2663260E-01 -0.8584301E+00  0.2869363E-02  0.2855529E-01 -0.5144280E-02  0.8572276E-01
5454074. -0.2148043E-01 -0.9382304E+00  0.2658964E-02  0.4430216E-01 -0.5588070E-02  0.6901787E-01
5417593. -0.1592107E-01 -0.1000537E+01  0.2369755E-02  0.5599561E-01 -0.5932017E-02  0.5090889E-01
5381111. -0.1005730E-01 -0.1044357E+01  0.2026168E-02  0.6325246E-01 -0.6169058E-02  0.3173324E-01
5344630. -0.3997214E-02 -0.1069112E+01  0.1654018E-02  0.6598599E-01 -0.6294075E-02  0.1184274E-01
5308148.  0.2149792E-02 -0.1074633E+01  0.1278728E-02  0.6440160E-01 -0.6303998E-02 -0.8406843E-02
5271667.  0.8272939E-02 -0.1060871E+01  0.9238504E-03  0.5895730E-01 -0.6197801E-02 -0.2865573E-01
5235185.  0.1426336E-01 -0.1028339E+01  0.6095850E-03  0.5034527E-01 -0.5976496E-02 -0.4855092E-01
5198704.  0.2001547E-01 -0.9778197E+00  0.3516858E-03  0.3942611E-01 -0.5643113E-02 -0.6774900E-01
5162222.  0.2542900E-01 -0.9102392E+00  0.1606343E-03  0.2716328E-01 -0.5202555E-02 -0.8592746E-01
5125741.  0.3041014E-01 -0.8271108E+00  0.4119804E-04  0.1458575E-01 -0.4661582E-02 -0.1027769E+00
5089259.  0.3487465E-01 -0.7300256E+00 -0.7721438E-05  0.2694815E-02 -0.4028582E-02 -0.1180208E+00
5052778.  0.3874746E-01 -0.6208243E+00  0.7248268E-05 -0.7583125E-02 -0.3313505E-02 -0.1314114E+00
5016296.  0.4196545E-01 -0.5016406E+00  0.7450608E-04 -0.1544826E-01 -0.2527569E-02 -0.1427294E+00
4979815.  0.4447753E-01 -0.3746718E+00  0.1783691E-03 -0.2028293E-01 -0.1683216E-02 -0.1517963E+00
4943333.  0.4624590E-01 -0.2422615E+00  0.3002138E-03 -0.2167799E-01 -0.7937130E-03 -0.1584695E+00
4906852.  0.4724621E-01 -0.1068241E+00  0.4197101E-03 -0.1945452E-01  0.1268544E-03 -0.1626413E+00
4870370.  0.4746803E-01  0.2925384E-01  0.5162187E-03 -0.1367841E-01  0.1064029E-02 -0.1642540E+00
4833889.  0.4691451E-01  0.1635989E+00  0.5701239E-03 -0.4641979E-02  0.2003007E-02 -0.1632787E+00
4797407.  0.4560203E-01  0.2939610E+00  0.5641105E-03  0.7148088E-02  0.2929040E-02 -0.1597300E+00
4760926.  0.4355977E-01  0.4181620E+00  0.4843313E-03  0.2099430E-01  0.3827496E-02 -0.1536677E+00
4724444.  0.4082848E-01  0.5342990E+00  0.3213182E-03  0.3607105E-01  0.4684259E-02 -0.1451771E+00
4687963.  0.3745960E-01  0.6406055E+00  0.7065869E-04  0.5144787E-01  0.5485724E-02 -0.1343860E+00
4651482.  0.3351388E-01  0.7355488E+00 -0.2665845E-03  0.6615113E-01  0.6219190E-02 -0.1214551E+00
4615000.  0.2905978E-01  0.8179525E+00 -0.6838290E-03  0.7923079E-01  0.6872935E-02 -0.1065684E+00
4578518.  0.2417224E-01  0.8867858E+00 -0.1169145E-02  0.8978379E-01  0.7436349E-02 -0.8994351E-01
4542037.  0.1893125E-01  0.9413733E+00 -0.1705740E-02  0.9702899E-01  0.7900138E-02 -0.7181837E-01
4505556.  0.1341933E-01  0.9813607E+00 -0.2272828E-02  0.1003433E+00  0.8256448E-02 -0.5244769E-01
4469074.  0.7720811E-02  0.1006490E+01 -0.2846523E-02  0.9927390E-01  0.8498932E-02 -0.3210578E-01
4432593.  0.1920665E-02  0.1016966E+01 -0.3400947E-02  0.9359968E-01  0.8622825E-02 -0.1107674E-01
4396111. -0.3898499E-02  0.1013132E+01 -0.3909644E-02  0.8331406E-01  0.8625027E-02  0.1034948E-01
4359630. -0.9655524E-02  0.9954312E+00 -0.4346680E-02  0.6863069E-01  0.8504109E-02  0.3187659E-01
4323148. -0.1527367E-01  0.9647148E+00 -0.4688062E-02  0.4999060E-01  0.8260332E-02  0.5321016E-01
4286667. -0.2068045E-01  0.9218019E+00 -0.4912829E-02  0.2802256E-01  0.7895652E-02  0.7406020E-01
4250185. -0.2580896E-01  0.8676544E+00 -0.5004141E-02  0.3521780E-02  0.7413625E-02  0.9414605E-01
4213704. -0.3059790E-01  0.8034294E+00 -0.4950088E-02 -0.2258745E-01  0.6819443E-02  0.1131941E+00
4177222. -0.3499284E-01  0.7301849E+00 -0.4744315E-02 -0.4929493E-01  0.6119744E-02  0.1309530E+00
4140741. -0.3894528E-01  0.6491227E+00 -0.4386405E-02 -0.7555342E-01  0.5322644E-02  0.1471825E+00
4104259. -0.4241417E-01  0.5614423E+00 -0.3881869E-02 -0.1003332E+00  0.4437493E-02  0.1616649E+00
4067778. -0.4536454E-01  0.4682396E+00 -0.3242090E-02 -0.1226384E+00  0.3474894E-02  0.1742120E+00
4031296. -0.4776833E-01  0.3707030E+00 -0.2483745E-02 -0.1416057E+00  0.2446382E-02  0.1846499E+00
3994815. -0.4960377E-01  0.2699231E+00 -0.1628161E-02 -0.1564963E+00  0.1364515E-02  0.1928373E+00
3958333. -0.5085531E-01  0.1669235E+00 -0.7004148E-03 -0.1667229E+00  0.2424342E-03  0.1986687E+00
3921852. -0.5151317E-01  0.6273417E-01  0.2716348E-03 -0.1719366E+00 -0.9060331E-03  0.2020520E+00
3885370. -0.5157327E-01 -0.4170294E-01  0.1258744E-02 -0.1719602E+00 -0.2066770E-02  0.2029378E+00
3848889. -0.5103688E-01 -0.1454617E+00  0.2231146E-02 -0.1668373E+00 -0.3225344E-02  0.2013055E+00
3812407. -0.4991027E-01 -0.2476974E+00  0.3160119E-02 -0.1568416E+00 -0.4367383E-02  0.1971554E+00
3775926. -0.4820476E-01 -0.3475277E+00  0.4018854E-02 -0.1424017E+00 -0.5478519E-02  0.1905320E+00
3739444. -0.4593636E-01 -0.4441608E+00  0.4783661E-02 -0.1241462E+00 -0.6544820E-02  0.1814974E+00
3702963. -0.4312564E-01 -0.5368280E+00  0.5434807E-02 -0.1028437E+00 -0.7552660E-02  0.1701415E+00
3666482. -0.3979777E-01 -0.6246580E+00  0.5957225E-02 -0.7933462E-01 -0.8489131E-02  0.1565924E+00
3630000. -0.3598237E-01 -0.7069607E+00  0.6340961E-02 -0.5456021E-01 -0.9342083E-02  0.1409869E+00
3630000. -0.3598237E-01 -0.7069607E+00  0.6340961E-02 -0.5456021E-01 -0.9342083E-02  0.1409869E+00
3592500. -0.3158828E-01 -0.7849010E+00  0.6586092E-02 -0.2875964E-01 -0.1011988E-01  0.1229839E+00
3555000. -0.2675733E-01 -0.8552778E+00  0.6680817E-02 -0.3617917E-02 -0.1078635E-01  0.1031935E+00
3517500. -0.2153609E-01 -0.9173859E+00  0.6631825E-02  0.1992659E-01 -0.1133161E-01  0.8183533E-01
3480000. -0.1597575E-01 -0.9703596E+00  0.6450983E-02  0.4105769E-01 -0.1174713E-01  0.5915251E-01
3480000. -0.1597575E-01 -0.1681519E+01  0.2750192E-02 -0.3433217E-01 -0.1174713E-01  0.1100974E+00
3409422.  0.3289962E-02 -0.1757399E+01  0.2940356E-02  0.6175546E-03 -0.1220850E-01 -0.2834413E-01
3338844.  0.2211762E-01 -0.1605729E+01  0.2731319E-02  0.3697096E-01 -0.1111957E-01 -0.1666934E+00
3268266.  0.3814216E-01 -0.1258561E+01  0.2132871E-02  0.7018603E-01 -0.8581557E-02 -0.2871782E+00
3197688.  0.4947054E-01 -0.7677830E+00  0.1203104E-02  0.9616513E-01 -0.4878521E-02 -0.3748618E+00
3127109.  0.5485796E-01 -0.1971684E+00  0.4100148E-04  0.1116810E+00 -0.4367816E-03 -0.4191975E+00
3056531.  0.5379453E-01  0.3856426E+00 -0.1224931E-02  0.1146799E+00  0.4229216E-02 -0.4149574E+00
2985953.  0.4650631E-01  0.9166106E+00 -0.2450833E-02  0.1044514E+00  0.8578379E-02 -0.3625168E+00
2915375.  0.3387991E-01  0.1341409E+01 -0.3492609E-02  0.8166011E-01  0.1210345E-01 -0.2675194E+00
2844797.  0.1732827E-01  0.1619934E+01 -0.4220739E-02  0.4824653E-01  0.1438518E-01 -0.1400343E+00
2774219. -0.1383225E-02  0.1728948E+01 -0.4533353E-02  0.7220510E-02  0.1513486E-01  0.6671420E-02
2703641. -0.2032986E-01  0.1662915E+01 -0.4366545E-02 -0.3762867E-01  0.1422179E-01  0.1575903E+00
2633062. -0.3762059E-01  0.1433137E+01 -0.3701102E-02 -0.8208031E-01  0.1168403E-01  0.2975078E+00
2562484. -0.5157217E-01  0.1065477E+01 -0.2565296E-02 -0.1218483E+00  0.7722694E-02  0.4124525E+00
2491906. -0.6085424E-01  0.5970283E+00 -0.1033532E-02 -0.1529435E+00  0.2680679E-02  0.4909668E+00
2421328. -0.6459107E-01  0.7211277E-01  0.7787590E-03 -0.1720005E+00 -0.2990633E-02  0.5250591E+00
2350750. -0.6241812E-01 -0.4620126E+00  0.2723596E-02 -0.1765466E+00 -0.8773498E-02  0.5108101E+00
2280172. -0.5449121E-01 -0.9593412E+00  0.4631476E-02 -0.1651954E+00 -0.1413049E-01  0.4485892E+00
2209594. -0.4145117E-01 -0.1378887E+01  0.6324111E-02 -0.1377565E+00 -0.1855144E-01  0.3428886E+00
2139016. -0.2435053E-01 -0.1687764E+01  0.7627846E-02 -0.9525444E-01 -0.2159658E-01  0.2018181E+00
2068438. -0.4550371E-02 -0.1863432E+01  0.8386834E-02 -0.3985838E-01 -0.2293249E-01  0.3631811E-01
1997859.  0.1640205E-01 -0.1894901E+01  0.8474920E-02  0.2526816E-01 -0.2235814E-01 -0.1408269E+00
1927281.  0.3690277E-01 -0.1783045E+01  0.7805580E-02  0.9617677E-01 -0.1981938E-01 -0.3160722E+00
1856703.  0.5542109E-01 -0.1539867E+01  0.6339104E-02  0.1684109E+00 -0.1541111E-01 -0.4762351E+00
1786125.  0.7061424E-01 -0.1187032E+01  0.4086638E-02  0.2372973E+00 -0.9367452E-02 -0.6095178E+00
1715547.  0.8142303E-01 -0.7536694E+00  0.1110872E-02  0.2982538E+00 -0.2041432E-02 -0.7063903E+00
1644969.  0.8714046E-01 -0.2737691E+00 -0.2476634E-02  0.3470877E+00  0.6124113E-02 -0.7602544E+00
1574391.  0.8744983E-01  0.2166759E+00 -0.6521264E-02  0.3802589E+00  0.1463152E-01 -0.7678578E+00
1503812.  0.8243089E-01  0.6825434E+00 -0.1083390E-01  0.3950974E+00  0.2296650E-01 -0.7294265E+00
1433234.  0.7253551E-01  0.1092229E+01 -0.1520119E-01  0.3899539E+00  0.3063567E-01 -0.6485347E+00
1362656.  0.5853489E-01  0.1419999E+01 -0.1939777E-01  0.3642786E+00  0.3720250E-01 -0.5317188E+00
1292078.  0.4144431E-01  0.1647781E+01 -0.2319817E-01  0.3186019E+00  0.4231651E-01 -0.3878947E+00
1221500.  0.2243084E-01  0.1766424E+01 -0.2638835E-01  0.2544373E+00  0.4573588E-01 -0.2276303E+00
1221500.  0.2243084E-01  0.1576496E+01 -0.2635510E-01 -0.2544537E+00  0.4573588E-01 -0.2373474E+00
1183328.  0.1243366E-01  0.1754420E+01 -0.2495218E-01 -0.1968151E+00  0.4689652E-01 -0.1501527E+00
1145156.  0.1522108E-02  0.1875058E+01 -0.2417832E-01 -0.4890257E-01  0.4753748E-01 -0.6411509E-01
1106984. -0.9846555E-02  0.1901559E+01 -0.2447614E-01  0.1536305E+00  0.4766992E-01  0.1937030E-01
1068812. -0.2102394E-01  0.1808239E+01 -0.2603181E-01  0.3623394E+00  0.4731309E-01  0.9899233E-01
1030641. -0.3125786E-01  0.1587107E+01 -0.2872732E-01  0.5259100E+00  0.4649384E-01  0.1735464E+00
 992469. -0.3981190E-01  0.1251435E+01 -0.3215536E-01  0.6007308E+00  0.4524576E-01  0.2419652E+00
 954297. -0.4609256E-01  0.8355742E+00 -0.3569342E-01  0.5599178E+00  0.4360847E-01  0.3033241E+00
 916125. -0.4976640E-01  0.3908945E+00 -0.3862356E-01  0.3990905E+00  0.4162664E-01  0.3568615E+00
 877953. -0.5084039E-01 -0.2184781E-01 -0.4027348E-01  0.1376918E+00  0.3934899E-01  0.4019892E+00
 839781. -0.4968971E-01 -0.3422206E+00 -0.4015144E-01 -0.1843808E+00  0.3682722E-01  0.4382954E+00
 801609. -0.4702441E-01 -0.5205719E+00 -0.3804846E-01 -0.5141312E+00  0.3411497E-01  0.4655482E+00
 763438. -0.4379630E-01 -0.5272378E+00 -0.3408803E-01 -0.7953848E+00  0.3126681E-01  0.4836958E+00
 725266. -0.4105787E-01 -0.3589247E+00 -0.2871269E-01 -0.9794174E+00  0.2833684E-01  0.4928646E+00
 687094. -0.3979582E-01 -0.4098308E-01 -0.2261152E-01 -0.1034084E+01  0.2537814E-01  0.4933514E+00
 648922. -0.4076371E-01  0.3749390E+00 -0.1660004E-01 -0.9499694E+00  0.2244141E-01  0.4856198E+00
 610750. -0.4434315E-01  0.8178142E+00 -0.1147641E-01 -0.7422082E+00  0.1957412E-01  0.4702873E+00
 572578. -0.5045745E-01  0.1207639E+01 -0.7880324E-02 -0.4477386E+00  0.1681961E-01  0.4481141E+00
 534406. -0.5855446E-01  0.1467848E+01 -0.6180908E-02 -0.1185276E+00  0.1421625E-01  0.4199874E+00
 496234. -0.6766497E-01  0.1537765E+01 -0.6414289E-02  0.1879583E+00  0.1179679E-01  0.3869017E+00
 458062. -0.7653086E-01  0.1383099E+01 -0.8282068E-02  0.4192479E+00  0.9587738E-02  0.3499362E+00
 419891. -0.8378544E-01  0.1002727E+01 -0.1121063E-01  0.5373744E+00  0.7609003E-02  0.3102330E+00
 381719. -0.8816115E-01  0.4305153E+00 -0.1446042E-01  0.5256574E+00  0.5873383E-02  0.2689635E+00
 343547. -0.8869028E-01 -0.2681259E+00 -0.1726356E-01  0.3915028E+00  0.4386766E-02  0.2273098E+00
 305375. -0.8487159E-01 -0.1004747E+01 -0.1896576E-01  0.1647587E+00  0.3147970E-02  0.1864296E+00
 267203. -0.7677285E-01 -0.1680136E+01 -0.1914541E-01 -0.1080073E+00  0.2149004E-02  0.1474334E+00
 229031. -0.6505295E-01 -0.2198620E+01 -0.1768847E-01 -0.3723373E+00  0.1375432E-02  0.1113568E+00
 190859. -0.5089778E-01 -0.2482198E+01 -0.1480563E-01 -0.5759984E+00  0.8068956E-03  0.7913920E-01
 152688. -0.3587734E-01 -0.2482472E+01 -0.1098929E-01 -0.6786970E+00  0.4177486E-03  0.5160609E-01
 114516. -0.2174116E-01 -0.2188372E+01 -0.6917882E-02 -0.6594868E+00  0.1777596E-03  0.2945026E-01
  76344. -0.1018707E-01 -0.1628565E+01 -0.3327363E-02 -0.5204978E+00  0.5299307E-04  0.1322373E-01
  38172. -0.2628490E-02 -0.8681594E+00 -0.8717548E-03 -0.2864577E+00  0.6648445E-05  0.3326310E-02
      0.  0.0000000E+00  0.0000000E+00  0.0000000E+00  0.0000000E+00  0.0000000E+00  0.0000000E+00
