       4        4 S      273        438.97729         20.26436          4.89378        285.80389      185    7
6371000. -0.7380214E-01  0.4681899E+00  0.5210752E-01  0.1259097E+00 -0.4770770E-03  0.1415590E+00
6370000. -0.7387539E-01  0.4650972E+00  0.5208726E-01  0.1322577E+00 -0.4992831E-03  0.1413909E+00
6369000. -0.7394814E-01  0.4619868E+00  0.5206601E-01  0.1386041E+00 -0.5214628E-03  0.1412219E+00
6368000. -0.7402042E-01  0.4588588E+00  0.5204375E-01  0.1449486E+00 -0.5436158E-03  0.1410521E+00
6368000. -0.7402042E-01  0.4588588E+00  0.5204375E-01  0.1449486E+00 -0.5436158E-03  0.1410521E+00
6367000. -0.7409219E-01  0.4557132E+00  0.5202051E-01  0.1512912E+00 -0.5657421E-03  0.1408814E+00
6366000. -0.7416347E-01  0.4525501E+00  0.5199626E-01  0.1576317E+00 -0.5878416E-03  0.1407099E+00
6365000. -0.7423425E-01  0.4493694E+00  0.5197102E-01  0.1639700E+00 -0.6099141E-03  0.1405375E+00
6364000. -0.7430454E-01  0.4461712E+00  0.5194479E-01  0.1703060E+00 -0.6319594E-03  0.1403642E+00
6363000. -0.7437432E-01  0.4429555E+00  0.5191756E-01  0.1766395E+00 -0.6539775E-03  0.1401901E+00
6362000. -0.7444359E-01  0.4397222E+00  0.5188934E-01  0.1829704E+00 -0.6759682E-03  0.1400150E+00
6361000. -0.7451236E-01  0.4364715E+00  0.5186012E-01  0.1892987E+00 -0.6979313E-03  0.1398392E+00
6360000. -0.7458061E-01  0.4332033E+00  0.5182991E-01  0.1956241E+00 -0.7198668E-03  0.1396624E+00
6359000. -0.7464835E-01  0.4299177E+00  0.5179871E-01  0.2019466E+00 -0.7417744E-03  0.1394848E+00
6358000. -0.7471557E-01  0.4266146E+00  0.5176651E-01  0.2082660E+00 -0.7636542E-03  0.1393064E+00
6357000. -0.7478227E-01  0.4232941E+00  0.5173333E-01  0.2145822E+00 -0.7855058E-03  0.1391270E+00
6356000. -0.7484845E-01  0.4199562E+00  0.5169915E-01  0.2208951E+00 -0.8073292E-03  0.1389468E+00
6356000. -0.7484845E-01  0.3781089E+00  0.5169915E-01  0.1836137E+00 -0.8073292E-03  0.1552330E+00
6355000. -0.7490762E-01  0.3757487E+00  0.5167001E-01  0.1877375E+00 -0.8316779E-03  0.1550172E+00
6354000. -0.7496641E-01  0.3733773E+00  0.5164022E-01  0.1918593E+00 -0.8559925E-03  0.1548007E+00
6353000. -0.7502482E-01  0.3709949E+00  0.5160978E-01  0.1959792E+00 -0.8802732E-03  0.1545835E+00
6352000. -0.7508287E-01  0.3686014E+00  0.5157870E-01  0.2000972E+00 -0.9045198E-03  0.1543657E+00
6351000. -0.7514054E-01  0.3661970E+00  0.5154697E-01  0.2042131E+00 -0.9287320E-03  0.1541472E+00
6350000. -0.7519782E-01  0.3637815E+00  0.5151459E-01  0.2083269E+00 -0.9529100E-03  0.1539280E+00
6349000. -0.7525473E-01  0.3613549E+00  0.5148157E-01  0.2124385E+00 -0.9770535E-03  0.1537082E+00
6348000. -0.7531126E-01  0.3589174E+00  0.5144790E-01  0.2165480E+00 -0.1001162E-02  0.1534877E+00
6347000. -0.7536741E-01  0.3564689E+00  0.5141359E-01  0.2206552E+00 -0.1025237E-02  0.1532666E+00
6346600. -0.7538976E-01  0.3554864E+00  0.5139968E-01  0.2222975E+00 -0.1034857E-02  0.1531779E+00
6346600. -0.7538976E-01  0.4413957E+00  0.5139968E-01  0.1914293E+00 -0.1034857E-02  0.1794652E+00
6318800. -0.7721040E-01  0.3918094E+00  0.5037723E-01  0.2768947E+00 -0.1803627E-02  0.1728333E+00
6291000. -0.7879788E-01  0.3345215E+00  0.4898639E-01  0.3601710E+00 -0.2542622E-02  0.1658173E+00
6291000. -0.7879788E-01  0.3507839E+00  0.4898639E-01  0.3703472E+00 -0.2542622E-02  0.1658173E+00
6263000. -0.8019441E-01  0.2833942E+00  0.4717083E-01  0.4552920E+00 -0.3255511E-02  0.1585316E+00
6235000. -0.8127694E-01  0.2079117E+00  0.4499001E-01  0.5364450E+00 -0.3935501E-02  0.1508456E+00
6207000. -0.8201031E-01  0.1245306E+00  0.4246210E-01  0.6131425E+00 -0.4580828E-02  0.1427571E+00
6179000. -0.8236035E-01  0.3352391E-01  0.3960804E-01  0.6847591E+00 -0.5189719E-02  0.1342638E+00
6151000. -0.8229433E-01 -0.6474504E-01  0.3645149E-01  0.7507039E+00 -0.5760391E-02  0.1253652E+00
6151000. -0.8229433E-01  0.2083086E-01  0.3645149E-01  0.6720210E+00 -0.5760391E-02  0.1299181E+00
6128500. -0.8226372E-01 -0.3842399E-01  0.3401066E-01  0.7096065E+00 -0.6208936E-02  0.1240749E+00
6106000. -0.8202080E-01 -0.9937724E-01  0.3144396E-01  0.7432888E+00 -0.6636607E-02  0.1180987E+00
6083500. -0.8155996E-01 -0.1617976E+00  0.2876530E-01  0.7729941E+00 -0.7042951E-02  0.1119990E+00
6061000. -0.8087644E-01 -0.2254497E+00  0.2598885E-01  0.7986639E+00 -0.7427553E-02  0.1057870E+00
6038500. -0.7996630E-01 -0.2900973E+00  0.2312893E-01  0.8202658E+00 -0.7790031E-02  0.9947219E-01
6016000. -0.7882646E-01 -0.3554941E+00  0.2019991E-01  0.8377868E+00 -0.8130040E-02  0.9306388E-01
5993500. -0.7745472E-01 -0.4213923E+00  0.1721623E-01  0.8512272E+00 -0.8447268E-02  0.8657311E-01
5971000. -0.7584973E-01 -0.4875494E+00  0.1419225E-01  0.8606140E+00 -0.8741440E-02  0.8000849E-01
5971000. -0.7584973E-01 -0.4261405E+00  0.1419225E-01  0.7763871E+00 -0.8741440E-02  0.8993786E-01
5937667. -0.7343185E-01 -0.4974824E+00  0.1017134E-01  0.7595754E+00 -0.9190463E-02  0.8170932E-01
5904333. -0.7065101E-01 -0.5648044E+00  0.6254405E-02  0.7367657E+00 -0.9596517E-02  0.7351538E-01
5871000. -0.6752909E-01 -0.6278579E+00  0.2470530E-02  0.7089057E+00 -0.9959869E-02  0.6539641E-01
5837667. -0.6408884E-01 -0.6864638E+00 -0.1156284E-02  0.6768672E+00 -0.1028102E-01  0.5738867E-01
5804333. -0.6035375E-01 -0.7405051E+00 -0.4606409E-02  0.6414506E+00 -0.1056064E-01  0.4952345E-01
5771000. -0.5634815E-01 -0.7899000E+00 -0.7863884E-02  0.6033786E+00 -0.1079954E-01  0.4183088E-01
5771000. -0.5634815E-01 -0.7899129E+00 -0.7863884E-02  0.6033607E+00 -0.1079954E-01  0.4183088E-01
5701000. -0.4686304E-01 -0.9346005E+00 -0.1422785E-01  0.5522733E+00 -0.1115550E-01  0.2298586E-01
5701000. -0.4686304E-01 -0.7818322E+00 -0.1422785E-01  0.4429697E+00 -0.1115550E-01  0.3619486E-01
5667333. -0.4271215E-01 -0.7950588E+00 -0.1642165E-01  0.3929406E+00 -0.1132787E-01  0.2923390E-01
5633667. -0.3839820E-01 -0.8402308E+00 -0.1842841E-01  0.3681990E+00 -0.1146580E-01  0.2300506E-01
5600000. -0.3384279E-01 -0.8828190E+00 -0.2030593E-01  0.3417695E+00 -0.1157096E-01  0.1680167E-01
5600000. -0.3384279E-01 -0.8828190E+00 -0.2030593E-01  0.3417695E+00 -0.1157096E-01  0.1680167E-01
5563518. -0.2866320E-01 -0.9257029E+00 -0.2217698E-01  0.3114621E+00 -0.1164812E-01  0.1016041E-01
5527037. -0.2324811E-01 -0.9650899E+00 -0.2387008E-01  0.2796716E+00 -0.1168749E-01  0.3603029E-02
5490556. -0.1761805E-01 -0.1000745E+01 -0.2537741E-01  0.2466084E+00 -0.1168956E-01 -0.2860402E-02
5454074. -0.1179501E-01 -0.1032413E+01 -0.2669228E-01  0.2124790E+00 -0.1165493E-01 -0.9219593E-02
5417593. -0.5802337E-02 -0.1060028E+01 -0.2780925E-01  0.1775355E+00 -0.1158419E-01 -0.1546939E-01
5381111.  0.3365084E-03 -0.1083377E+01 -0.2872431E-01  0.1419813E+00 -0.1147799E-01 -0.2160356E-01
5344630.  0.6596329E-02 -0.1102334E+01 -0.2943454E-01  0.1060385E+00 -0.1133701E-01 -0.2761671E-01
5308148.  0.1295222E-01 -0.1116850E+01 -0.2993838E-01  0.6992684E-01 -0.1116195E-01 -0.3350542E-01
5271667.  0.1937788E-01 -0.1126744E+01 -0.3023542E-01  0.3384257E-01 -0.1095353E-01 -0.3926785E-01
5235185.  0.2584712E-01 -0.1132014E+01 -0.3032641E-01 -0.2005429E-02 -0.1071248E-01 -0.4490123E-01
5198704.  0.3233309E-01 -0.1132631E+01 -0.3021328E-01 -0.3742214E-01 -0.1043956E-01 -0.5040421E-01
5162222.  0.3880908E-01 -0.1128465E+01 -0.2989900E-01 -0.7222803E-01 -0.1013547E-01 -0.5578202E-01
5125741.  0.4524760E-01 -0.1119616E+01 -0.2938762E-01 -0.1062390E+00 -0.9800974E-02 -0.6103006E-01
5089259.  0.5162219E-01 -0.1106064E+01 -0.2868414E-01 -0.1392911E+00 -0.9436774E-02 -0.6615342E-01
5052778.  0.5790548E-01 -0.1087798E+01 -0.2779456E-01 -0.1712209E+00 -0.9043586E-02 -0.7115863E-01
5016296.  0.6407113E-01 -0.1064934E+01 -0.2672567E-01 -0.2018857E+00 -0.8622069E-02 -0.7604484E-01
4979815.  0.7009259E-01 -0.1037495E+01 -0.2548519E-01 -0.2311423E+00 -0.8172902E-02 -0.8082177E-01
4943333.  0.7594420E-01 -0.1005577E+01 -0.2408147E-01 -0.2588650E+00 -0.7696664E-02 -0.8549581E-01
4906852.  0.8160043E-01 -0.9693223E+00 -0.2252371E-01 -0.2849436E+00 -0.7193970E-02 -0.9006894E-01
4870370.  0.8703689E-01 -0.9287850E+00 -0.2082156E-01 -0.3092615E+00 -0.6665315E-02 -0.9455987E-01
4833889.  0.9222928E-01 -0.8841548E+00 -0.1898546E-01 -0.3317345E+00 -0.6111193E-02 -0.9896953E-01
4797407.  0.9715492E-01 -0.8355873E+00 -0.1702608E-01 -0.3522864E+00 -0.5532021E-02 -0.1033070E+00
4760926.  0.1017913E+00 -0.7832022E+00 -0.1495479E-01 -0.3708283E+00 -0.4928174E-02 -0.1075949E+00
4724444.  0.1061175E+00 -0.7272314E+00 -0.1278312E-01 -0.3873224E+00 -0.4299903E-02 -0.1118328E+00
4687963.  0.1101132E+00 -0.6678523E+00 -0.1052305E-01 -0.4017146E+00 -0.3647488E-02 -0.1160382E+00
4651482.  0.1137596E+00 -0.6052548E+00 -0.8186704E-02 -0.4139613E+00 -0.2971031E-02 -0.1202312E+00
4615000.  0.1170391E+00 -0.5396844E+00 -0.5786315E-02 -0.4240572E+00 -0.2270577E-02 -0.1244153E+00
4578518.  0.1199350E+00 -0.4713444E+00 -0.3334347E-02 -0.4319730E+00 -0.1546128E-02 -0.1286161E+00
4542037.  0.1224322E+00 -0.4004813E+00 -0.8433632E-03 -0.4377116E+00 -0.7975569E-03 -0.1328486E+00
4505556.  0.1245170E+00 -0.3273461E+00  0.1674306E-02 -0.4412936E+00 -0.2464661E-04 -0.1371217E+00
4469074.  0.1261771E+00 -0.2521677E+00  0.4206357E-02 -0.4427138E+00  0.7729640E-03 -0.1414722E+00
4432593.  0.1274015E+00 -0.1752217E+00  0.6740393E-02 -0.4420204E+00  0.1595698E-02 -0.1459052E+00
4396111.  0.1281809E+00 -0.9676083E-01  0.9264575E-02 -0.4392515E+00  0.2444121E-02 -0.1504428E+00
4359630.  0.1285073E+00 -0.1705037E-01  0.1176694E-01 -0.4344346E+00  0.3318899E-02 -0.1551218E+00
4323148.  0.1283743E+00  0.6364416E-01  0.1423612E-01 -0.4276481E+00  0.4220906E-02 -0.1599472E+00
4286667.  0.1277771E+00  0.1450517E+00  0.1666086E-01 -0.4189441E+00  0.5151019E-02 -0.1649537E+00
4250185.  0.1267122E+00  0.2269039E+00  0.1903048E-01 -0.4083881E+00  0.6110422E-02 -0.1701715E+00
4213704.  0.1251781E+00  0.3089377E+00  0.2133452E-01 -0.3960739E+00  0.7100313E-02 -0.1756160E+00
4177222.  0.1231744E+00  0.3908802E+00  0.2356323E-01 -0.3820683E+00  0.8122160E-02 -0.1813304E+00
4140741.  0.1207024E+00  0.4724671E+00  0.2570706E-01 -0.3664684E+00  0.9177535E-02 -0.1873391E+00
4104259.  0.1177647E+00  0.5534567E+00  0.2775732E-01 -0.3493765E+00  0.1026824E-01 -0.1936693E+00
4067778.  0.1143658E+00  0.6335559E+00  0.2970555E-01 -0.3308721E+00  0.1139622E-01 -0.2003736E+00
4031296.  0.1105112E+00  0.7125488E+00  0.3154412E-01 -0.3110759E+00  0.1256375E-01 -0.2074738E+00
3994815.  0.1062081E+00  0.7901905E+00  0.3326585E-01 -0.2900938E+00  0.1377312E-01 -0.2150098E+00
3958333.  0.1014648E+00  0.8662062E+00  0.3486429E-01 -0.2680193E+00  0.1502707E-01 -0.2230402E+00
3921852.  0.9629151E-01  0.9404145E+00  0.3633347E-01 -0.2449828E+00  0.1632845E-01 -0.2315925E+00
3885370.  0.9069888E-01  0.1012573E+01  0.3766827E-01 -0.2210866E+00  0.1768046E-01 -0.2407232E+00
3848889.  0.8469965E-01  0.1082453E+01  0.3886402E-01 -0.1964445E+00  0.1908651E-01 -0.2504882E+00
3812407.  0.7830697E-01  0.1149902E+01  0.3991684E-01 -0.1711774E+00  0.2055043E-01 -0.2609328E+00
3775926.  0.7153583E-01  0.1214671E+01  0.4082341E-01 -0.1453908E+00  0.2207624E-01 -0.2721283E+00
3739444.  0.6440166E-01  0.1276610E+01  0.4158114E-01 -0.1192020E+00  0.2366850E-01 -0.2841355E+00
3702963.  0.5692142E-01  0.1335583E+01  0.4218801E-01 -0.9272584E-01  0.2533193E-01 -0.2970179E+00
3666482.  0.4911258E-01  0.1391355E+01  0.4264270E-01 -0.6606393E-01  0.2707185E-01 -0.3108633E+00
3630000.  0.4099349E-01  0.1443859E+01  0.4294446E-01 -0.3932909E-01  0.2889403E-01 -0.3257451E+00
3630000.  0.4099349E-01  0.1443859E+01  0.4294446E-01 -0.3932909E-01  0.2889403E-01 -0.3257451E+00
3592500.  0.3234494E-01  0.1494211E+01  0.4309512E-01 -0.1187790E-01  0.3085926E-01 -0.3422218E+00
3555000.  0.2341111E-01  0.1540782E+01  0.4308457E-01  0.1543197E-01  0.3292524E-01 -0.3599980E+00
3517500.  0.1421438E-01  0.1583525E+01  0.4291394E-01  0.4249531E-01  0.3509996E-01 -0.3791850E+00
3480000.  0.4777716E-02  0.1622288E+01  0.4258499E-01  0.6921555E-01  0.3739206E-01 -0.3999104E+00
3480000.  0.4777716E-02  0.7230533E+00 -0.2132618E-01  0.4817804E-01  0.3739206E-01 -0.4151460E+00
3409422. -0.2946025E-02  0.6706995E+00 -0.2178926E-01  0.3548042E-01  0.4157595E-01 -0.3407873E+00
3338844. -0.1006953E-01  0.6148852E+00 -0.2211367E-01  0.2315561E-01  0.4495634E-01 -0.2701578E+00
3268266. -0.1656097E-01  0.5567726E+00 -0.2230399E-01  0.1129020E-01  0.4757687E-01 -0.2036666E+00
3197688. -0.2240075E-01  0.4973976E+00 -0.2236582E-01 -0.3316885E-04  0.4948526E-01 -0.1416348E+00
3127109. -0.2758005E-01  0.4376562E+00 -0.2230549E-01 -0.1075131E-01  0.5073231E-01 -0.8430150E-01
3056531. -0.3209913E-01  0.3783398E+00 -0.2213003E-01 -0.2081438E-01  0.5137103E-01 -0.3183284E-01
2985953. -0.3596665E-01  0.3201301E+00 -0.2184690E-01 -0.3018104E-01  0.5145591E-01  0.1567728E-01
2915375. -0.3919819E-01  0.2636122E+00 -0.2146403E-01 -0.3881744E-01  0.5104212E-01  0.5819681E-01
2844797. -0.4181537E-01  0.2092896E+00 -0.2098963E-01 -0.4670377E-01  0.5018485E-01  0.9575092E-01
2774219. -0.4384489E-01  0.1575829E+00 -0.2043208E-01 -0.5382902E-01  0.4893872E-01  0.1284165E+00
2703641. -0.4531775E-01  0.1088450E+00 -0.1979984E-01 -0.6018544E-01  0.4735725E-01  0.1563162E+00
2633062. -0.4626852E-01  0.6336703E-01 -0.1910142E-01 -0.6577622E-01  0.4549235E-01  0.1796125E+00
2562484. -0.4673463E-01  0.2138212E-01 -0.1834526E-01 -0.7061598E-01  0.4339400E-01  0.1985027E+00
2491906. -0.4675585E-01 -0.1692425E-01 -0.1753958E-01 -0.7471928E-01  0.4110975E-01  0.2132150E+00
2421328. -0.4637377E-01 -0.5140924E-01 -0.1669242E-01 -0.7810862E-01  0.3868451E-01  0.2240012E+00
2350750. -0.4563136E-01 -0.8195959E-01 -0.1581150E-01 -0.8081990E-01  0.3616027E-01  0.2311334E+00
2280172. -0.4457271E-01 -0.1084901E+00 -0.1490413E-01 -0.8289208E-01  0.3357594E-01  0.2349005E+00
2209594. -0.4324276E-01 -0.1309292E+00 -0.1397713E-01 -0.8437330E-01  0.3096713E-01  0.2356015E+00
2139016. -0.4168721E-01 -0.1492073E+00 -0.1303672E-01 -0.8532171E-01  0.2836614E-01  0.2335431E+00
2068438. -0.3995260E-01 -0.1632383E+00 -0.1208844E-01 -0.8580964E-01  0.2580180E-01  0.2290345E+00
1997859. -0.3808659E-01 -0.1729009E+00 -0.1113688E-01 -0.8592637E-01  0.2329951E-01  0.2223849E+00
1927281. -0.3613861E-01 -0.1780010E+00 -0.1018562E-01 -0.8578029E-01  0.2088138E-01  0.2138988E+00
1856703. -0.3416075E-01 -0.1782327E+00 -0.9236787E-02 -0.8551325E-01  0.1856606E-01  0.2038719E+00
1786125. -0.3220945E-01 -0.1731025E+00 -0.8290751E-02 -0.8531120E-01  0.1636903E-01  0.1925876E+00
1715547. -0.3034812E-01 -0.1618288E+00 -0.7345482E-02 -0.8542320E-01  0.1430274E-01  0.1803123E+00
1644969. -0.2865113E-01 -0.1431767E+00 -0.6395682E-02 -0.8619861E-01  0.1237679E-01  0.1672888E+00
1574391. -0.2721021E-01 -0.1151945E+00 -0.5431395E-02 -0.8813787E-01  0.1059825E-01  0.1537302E+00
1503812. -0.2614453E-01 -0.7478516E-01 -0.4435903E-02 -0.9197960E-01  0.8972050E-02  0.1398078E+00
1433234. -0.2561708E-01 -0.1699165E-01 -0.3382378E-02 -0.9884817E-01  0.7501557E-02  0.1256356E+00
1362656. -0.2586136E-01  0.6623574E-01 -0.2228273E-02 -0.1105037E+00  0.6189269E-02  0.1112416E+00
1292078. -0.2722657E-01  0.1882032E+00 -0.9061190E-03 -0.1297847E+00  0.5038058E-02  0.9652326E-01
1221500. -0.3025535E-01  0.3714021E+00  0.6924153E-03 -0.1614070E+00  0.4053014E-02  0.8116597E-01
1221500. -0.3025535E-01  0.1966136E+00 -0.5201538E-03  0.1550904E+00  0.4053014E-02  0.9427271E-01
1183328. -0.3122370E-01  0.1269680E+00 -0.1395285E-02  0.1368781E+00  0.3518671E-02  0.8423428E-01
1145156. -0.3178195E-01  0.5987231E-01 -0.2158914E-02  0.1179347E+00  0.3041989E-02  0.7501753E-01
1106984. -0.3194800E-01 -0.3805707E-02 -0.2807804E-02  0.9864070E-01  0.2618184E-02  0.6657623E-01
1068812. -0.3174474E-01 -0.6328391E-01 -0.3340970E-02  0.7936556E-01  0.2242742E-02  0.5886653E-01
1030641. -0.3119944E-01 -0.1178759E+00 -0.3759576E-02  0.6046069E-01  0.1911418E-02  0.5184485E-01
 992469. -0.3034314E-01 -0.1670056E+00 -0.4066850E-02  0.4225075E-01  0.1620202E-02  0.4546874E-01
 954297. -0.2921004E-01 -0.2102049E+00 -0.4267846E-02  0.2503103E-01  0.1365355E-02  0.3969800E-01
 916125. -0.2783677E-01 -0.2471258E+00 -0.4369293E-02  0.9060740E-02  0.1143371E-02  0.3449239E-01
 877953. -0.2626169E-01 -0.2775402E+00 -0.4379348E-02 -0.5443056E-02  0.9509785E-03  0.2981399E-01
 839781. -0.2452417E-01 -0.3013404E+00 -0.4307351E-02 -0.1830307E-01  0.7851300E-03  0.2562576E-01
 801609. -0.2266387E-01 -0.3185387E+00 -0.4163558E-02 -0.2939067E-01  0.6429970E-03  0.2189180E-01
 763438. -0.2072007E-01 -0.3292613E+00 -0.3958879E-02 -0.3861880E-01  0.5219639E-03  0.1857798E-01
 725266. -0.1873080E-01 -0.3337471E+00 -0.3704576E-02 -0.4595074E-01  0.4196069E-03  0.1565113E-01
 687094. -0.1673251E-01 -0.3323346E+00 -0.3412026E-02 -0.5139006E-01  0.3337068E-03  0.1307946E-01
 648922. -0.1475930E-01 -0.3254587E+00 -0.3092447E-02 -0.5498505E-01  0.2622255E-03  0.1083321E-01
 610750. -0.1284238E-01 -0.3136374E+00 -0.2756643E-02 -0.5682364E-01  0.2033002E-03  0.8883461E-02
 572578. -0.1100964E-01 -0.2974605E+00 -0.2414784E-02 -0.5702959E-01  0.1552372E-03  0.7202958E-02
 534406. -0.9285273E-02 -0.2775780E+00 -0.2076202E-02 -0.5575833E-01  0.1165007E-03  0.5766012E-02
 496234. -0.7689403E-02 -0.2546862E+00 -0.1749212E-02 -0.5319243E-01  0.8570516E-04  0.4548305E-02
 458062. -0.6237892E-02 -0.2295145E+00 -0.1440968E-02 -0.4953630E-01  0.6160638E-04  0.3526902E-02
 419891. -0.4942197E-02 -0.2028113E+00 -0.1157357E-02 -0.4501046E-01  0.4309346E-04  0.2680417E-02
 381719. -0.3809175E-02 -0.1753275E+00 -0.9028862E-03 -0.3984570E-01  0.2917848E-04  0.1988679E-02
 343547. -0.2841302E-02 -0.1478065E+00 -0.6806885E-03 -0.3427684E-01  0.1899148E-04  0.1432980E-02
 305375. -0.2036628E-02 -0.1209685E+00 -0.4924797E-03 -0.2853883E-01  0.1177049E-04  0.9957836E-03
 267203. -0.1388995E-02 -0.9549612E-01 -0.3385897E-03 -0.2285799E-01  0.6855030E-05  0.6607539E-03
 229031. -0.8882902E-03 -0.7202436E-01 -0.2180245E-03 -0.1744945E-01  0.3679200E-05  0.4126192E-03
 190859. -0.5207746E-03 -0.5112728E-01 -0.1285527E-03 -0.1251004E-01  0.1765711E-05  0.2370681E-03
 152688. -0.2694780E-03 -0.3330993E-01 -0.6682808E-04 -0.8215024E-02  0.7203688E-06  0.1206591E-03
 114516. -0.1146225E-03 -0.1899647E-01 -0.2852657E-04 -0.4713276E-02  0.2272213E-06  0.5066630E-04
  76344. -0.3416115E-04 -0.8525765E-02 -0.8523251E-05 -0.2124333E-02  0.4478389E-07  0.1496231E-04
  38172. -0.4285152E-05 -0.2143892E-02 -0.1070744E-05 -0.5355190E-03  0.2795296E-08  0.1866693E-05
      0.  0.0000000E+00  0.0000000E+00  0.0000000E+00  0.0000000E+00  0.0000000E+00  0.0000000E+00
