       7       34 S      435        103.73740         11.18492          7.21704        255.48680      185    7
6371000.  0.5329829E-01 -0.2152504E+00 -0.3707224E-03 -0.5366901E-01 -0.3487713E-03 -0.8830111E-01
6370000.  0.5332885E-01 -0.1741092E+00 -0.3622433E-03 -0.5436702E-01 -0.3349223E-03 -0.8816192E-01
6369000.  0.5335294E-01 -0.1328494E+00 -0.3536569E-03 -0.5503603E-01 -0.3210957E-03 -0.8801601E-01
6368000.  0.5337055E-01 -0.9147879E-01 -0.3449678E-03 -0.5567580E-01 -0.3072924E-03 -0.8786341E-01
6368000.  0.5337055E-01 -0.9147879E-01 -0.3449678E-03 -0.5567580E-01 -0.3072924E-03 -0.8786341E-01
6367000.  0.5338165E-01 -0.5000543E-01 -0.3361805E-03 -0.5628614E-01 -0.2935137E-03 -0.8770411E-01
6366000.  0.5338624E-01 -0.8437225E-02 -0.3272998E-03 -0.5686682E-01 -0.2797605E-03 -0.8753811E-01
6365000.  0.5338430E-01  0.3321782E-01 -0.3183303E-03 -0.5741765E-01 -0.2660339E-03 -0.8736542E-01
6364000.  0.5337581E-01  0.7495166E-01 -0.3092767E-03 -0.5793845E-01 -0.2523349E-03 -0.8718605E-01
6363000.  0.5336076E-01  0.1167562E+00 -0.3001437E-03 -0.5842904E-01 -0.2386646E-03 -0.8700000E-01
6362000.  0.5333915E-01  0.1586234E+00 -0.2909361E-03 -0.5888927E-01 -0.2250240E-03 -0.8680728E-01
6361000.  0.5331096E-01  0.2005451E+00 -0.2816586E-03 -0.5931896E-01 -0.2114142E-03 -0.8660790E-01
6360000.  0.5327619E-01  0.2425131E+00 -0.2723162E-03 -0.5971799E-01 -0.1978362E-03 -0.8640186E-01
6359000.  0.5323483E-01  0.2845192E+00 -0.2629134E-03 -0.6008623E-01 -0.1842910E-03 -0.8618916E-01
6358000.  0.5318687E-01  0.3265552E+00 -0.2534553E-03 -0.6042355E-01 -0.1707798E-03 -0.8596983E-01
6357000.  0.5313232E-01  0.3686129E+00 -0.2439467E-03 -0.6072985E-01 -0.1573035E-03 -0.8574386E-01
6356000.  0.5307116E-01  0.4106840E+00 -0.2343925E-03 -0.6100503E-01 -0.1438632E-03 -0.8551127E-01
6356000.  0.5307116E-01  0.2341077E+00 -0.2343925E-03 -0.5800280E-01 -0.1438632E-03 -0.9705894E-01
6355000.  0.5303198E-01  0.2651280E+00 -0.2252767E-03 -0.5814741E-01 -0.1286446E-03 -0.9685583E-01
6354000.  0.5298793E-01  0.2961567E+00 -0.2161397E-03 -0.5827316E-01 -0.1134582E-03 -0.9664888E-01
6353000.  0.5293901E-01  0.3271891E+00 -0.2069844E-03 -0.5838002E-01 -0.9830458E-04 -0.9643807E-01
6352000.  0.5288522E-01  0.3582208E+00 -0.1978139E-03 -0.5846796E-01 -0.8318434E-04 -0.9622342E-01
6351000.  0.5282655E-01  0.3892472E+00 -0.1886310E-03 -0.5853697E-01 -0.6809808E-04 -0.9600493E-01
6350000.  0.5276302E-01  0.4202637E+00 -0.1794388E-03 -0.5858704E-01 -0.5304643E-04 -0.9578261E-01
6349000.  0.5269463E-01  0.4512659E+00 -0.1702403E-03 -0.5861816E-01 -0.3802997E-04 -0.9555646E-01
6348000.  0.5262136E-01  0.4822491E+00 -0.1610383E-03 -0.5863032E-01 -0.2304931E-04 -0.9532648E-01
6347000.  0.5254324E-01  0.5132087E+00 -0.1518359E-03 -0.5862353E-01 -0.8105045E-05 -0.9509270E-01
6346600.  0.5251063E-01  0.5255850E+00 -0.1481555E-03 -0.5861551E-01 -0.2137664E-05 -0.9499811E-01
6346600.  0.5251063E-01  0.2709033E+00 -0.1481555E-03 -0.5674618E-01 -0.2137664E-05 -0.1133078E+00
6318800.  0.4989523E-01  0.9231160E+00  0.9007043E-04 -0.5070991E-01  0.4802729E-03 -0.1075756E+00
6291000.  0.4454174E-01  0.1515547E+01  0.2800744E-03 -0.3487302E-01  0.9346877E-03 -0.1004762E+00
6291000.  0.4454174E-01  0.1537359E+01  0.2800744E-03 -0.3454221E-01  0.9346877E-03 -0.1004762E+00
6263000.  0.3667081E-01  0.2018893E+01  0.3796987E-03 -0.9667714E-02  0.1357491E-02 -0.9169501E-01
6235000.  0.2705371E-01  0.2325225E+01  0.3578442E-03  0.2010190E-01  0.1738714E-02 -0.8158036E-01
6207000.  0.1653394E-01  0.2426629E+01  0.2018396E-03  0.5066083E-01  0.2072902E-02 -0.7033044E-01
6179000.  0.6033949E-02  0.2317369E+01 -0.8226588E-04  0.7768875E-01  0.2355636E-02 -0.5821550E-01
6151000. -0.3554107E-02  0.2016931E+01 -0.4699939E-03  0.9721221E-01  0.2583816E-02 -0.4556230E-01
6151000. -0.3554107E-02  0.1581237E+01 -0.4699939E-03  0.8587345E-01  0.2583816E-02 -0.4536567E-01
6128500. -0.8570381E-02  0.1250836E+01 -0.7865891E-03  0.9248213E-01  0.2731725E-02 -0.3841605E-01
6106000. -0.1234248E-01  0.8809263E+00 -0.1116388E-02  0.9330285E-01  0.2855336E-02 -0.3161672E-01
6083500. -0.1477712E-01  0.4978274E+00 -0.1438690E-02  0.8825789E-01  0.2955294E-02 -0.2503126E-01
6061000. -0.1587432E-01  0.1277611E+00 -0.1733246E-02  0.7767767E-01  0.3032459E-02 -0.1871874E-01
6038500. -0.1572392E-01 -0.2048962E+00 -0.1981644E-02  0.6226275E-01  0.3087896E-02 -0.1273524E-01
6016000. -0.1449623E-01 -0.4791994E+00 -0.2168510E-02  0.4302009E-01  0.3122862E-02 -0.7134773E-02
5993500. -0.1242760E-01 -0.6788715E+00 -0.2282447E-02  0.2118200E-01  0.3138803E-02 -0.1970044E-02
5971000. -0.9802238E-02 -0.7932054E+00 -0.2316677E-02 -0.1885069E-02  0.3137352E-02  0.2705864E-02
5971000. -0.9802238E-02 -0.8106277E+00 -0.2316677E-02 -0.7974930E-03  0.3137352E-02  0.3989060E-02
5937667. -0.5440078E-02 -0.8287546E+00 -0.2238031E-02 -0.2849402E-01  0.3096631E-02  0.1141099E-01
5904333. -0.1396430E-02 -0.6944365E+00 -0.2028693E-02 -0.5039086E-01  0.3019693E-02  0.1783118E-01
5871000.  0.1629853E-02 -0.4473509E+00 -0.1723659E-02 -0.6491522E-01  0.2911810E-02  0.2323909E-01
5837667.  0.3169918E-02 -0.1343405E+00 -0.1363083E-02 -0.7163718E-01  0.2778299E-02  0.2762724E-01
5804333.  0.3003184E-02  0.1975270E+00 -0.9867862E-03 -0.7107151E-01  0.2624491E-02  0.3099753E-01
5771000.  0.1143874E-02  0.5063273E+00 -0.6300324E-03 -0.6441150E-01  0.2455683E-02  0.3336774E-01
5771000.  0.1143874E-02  0.5062957E+00 -0.6300324E-03 -0.6440946E-01  0.2455683E-02  0.3336774E-01
5701000. -0.7543365E-02  0.1022238E+01 -0.3741558E-04 -0.4086557E-01  0.2073346E-02  0.3567301E-01
5701000. -0.7543365E-02  0.8442572E+00 -0.3741558E-04 -0.3056836E-01  0.2073346E-02  0.3779921E-01
5667333. -0.1209976E-01  0.8748555E+00  0.8651132E-04 -0.1697497E-01  0.1877584E-02  0.3613302E-01
5633667. -0.1674118E-01  0.8738028E+00  0.1471566E-03 -0.6191501E-02  0.1692199E-02  0.3401725E-01
5600000. -0.2121080E-01  0.8064575E+00  0.1527888E-03  0.3913992E-02  0.1518279E-02  0.3178112E-01
5600000. -0.2121080E-01  0.8064575E+00  0.1527888E-03  0.3913992E-02  0.1518279E-02  0.3178112E-01
5563518. -0.2545490E-01  0.6648399E+00  0.1023656E-03  0.1339259E-01  0.1343527E-02  0.2923910E-01
5527037. -0.2871117E-01  0.4638480E+00  0.3389262E-05  0.2079484E-01  0.1183536E-02  0.2663705E-01
5490556. -0.3068392E-01  0.2194393E+00 -0.1311060E-03  0.2575479E-01  0.1038475E-02  0.2403443E-01
5454074. -0.3117646E-01 -0.4995849E-01 -0.2865859E-03  0.2811306E-01  0.9081785E-03  0.2148709E-01
5417593. -0.3010133E-01 -0.3248796E+00 -0.4481615E-03  0.2790735E-01  0.7922120E-03  0.1903724E-01
5381111. -0.2748151E-01 -0.5864155E+00 -0.6016996E-03  0.2535319E-01  0.6898898E-03  0.1672685E-01
5344630. -0.2344414E-01 -0.8173804E+00 -0.7347122E-03  0.2080937E-01  0.6003235E-03  0.1458687E-01
5308148. -0.1820657E-01 -0.1003460E+01 -0.8370943E-03  0.1473684E-01  0.5224710E-03  0.1263790E-01
5271667. -0.1205895E-01 -0.1133815E+01 -0.9015669E-03  0.7659698E-02  0.4551919E-03  0.1089638E-01
5235185. -0.5341292E-02 -0.1201735E+01 -0.9239345E-03  0.1198811E-03  0.3972760E-03  0.9367063E-02
5198704.  0.1579222E-02 -0.1204630E+01 -0.9030582E-03 -0.7360597E-02  0.3475151E-03  0.8047748E-02
5162222.  0.8332558E-02 -0.1143831E+01 -0.8406573E-03 -0.1431006E-01  0.3047241E-03  0.6930411E-02
5125741.  0.1456666E-01 -0.1024456E+01 -0.7409478E-03 -0.2033431E-01  0.2677835E-03  0.6002148E-02
5089259.  0.1996822E-01 -0.8545394E+00 -0.6101246E-03 -0.2513460E-01  0.2356597E-03  0.5244146E-02
5052778.  0.2427627E-01 -0.6444514E+00 -0.4558191E-03 -0.2851309E-01  0.2074427E-03  0.4634405E-02
5016296.  0.2729467E-01 -0.4061290E+00 -0.2864810E-03 -0.3037642E-01  0.1823398E-03  0.4152509E-02
4979815.  0.2889760E-01 -0.1522100E+00 -0.1108266E-03 -0.3072917E-01  0.1596903E-03  0.3773580E-02
4943333.  0.2903209E-01  0.1047118E+00  0.6272558E-04 -0.2966196E-01  0.1389701E-03  0.3475220E-02
4906852.  0.2771547E-01  0.3527501E+00  0.2264674E-03 -0.2733625E-01  0.1197720E-03  0.3238622E-02
4870370.  0.2502957E-01  0.5813144E+00  0.3737978E-03 -0.2396775E-01  0.1018063E-03  0.3041464E-02
4833889.  0.2111231E-01  0.7815596E+00  0.4994403E-03 -0.1980590E-01  0.8489096E-04  0.2870021E-02
4797407.  0.1614610E-01  0.9466811E+00  0.5996135E-03 -0.1511559E-01  0.6891289E-04  0.2711652E-02
4760926.  0.1034688E-01  0.1071968E+01  0.6720511E-03 -0.1016285E-01  0.5383609E-04  0.2553946E-02
4724444.  0.3950360E-02  0.1155025E+01  0.7159789E-03 -0.5196806E-02  0.3967378E-04  0.2391332E-02
4687963. -0.2799265E-02  0.1195454E+01  0.7319693E-03 -0.4396604E-03  0.2646832E-04  0.2219288E-02
4651482. -0.9661458E-02  0.1194745E+01  0.7217732E-03  0.3921552E-02  0.1428059E-04  0.2035678E-02
4615000. -0.1640925E-01  0.1156072E+01  0.6880966E-03  0.7740619E-02  0.3178797E-05  0.1840057E-02
4578518. -0.2283707E-01  0.1083804E+01  0.6343561E-03  0.1091582E-01 -0.6775037E-05  0.1635338E-02
4542037. -0.2876733E-01  0.9833037E+00  0.5644333E-03  0.1338644E-01 -0.1553715E-04  0.1424090E-02
4505556. -0.3405545E-01  0.8605317E+00  0.4824396E-03  0.1513198E-01 -0.2307375E-04  0.1208297E-02
4469074. -0.3859153E-01  0.7216218E+00  0.3924871E-03  0.1617071E-01 -0.2938388E-04  0.9965405E-03
4432593. -0.4230065E-01  0.5727425E+00  0.2985175E-03  0.1654511E-01 -0.3449354E-04  0.7889901E-03
4396111. -0.4514280E-01  0.4197050E+00  0.2041452E-03  0.1632406E-01 -0.3843498E-04  0.5900143E-03
4359630. -0.4710940E-01  0.2677853E+00  0.1125356E-03  0.1559612E-01 -0.4128549E-04  0.4082948E-03
4323148. -0.4822051E-01  0.1215927E+00  0.2632874E-04  0.1445214E-01 -0.4313551E-04  0.2405013E-03
4286667. -0.4852021E-01 -0.1504562E-01 -0.5237611E-04  0.1299393E-01 -0.4407904E-04  0.9299352E-04
4250185. -0.4807213E-01 -0.1391654E+00 -0.1220732E-03  0.1132079E-01 -0.4424670E-04 -0.3083368E-04
4213704. -0.4695447E-01 -0.2486352E+00 -0.1817849E-03  0.9521686E-02 -0.4376403E-04 -0.1338524E-03
4177222. -0.4525521E-01 -0.3421369E+00 -0.2310475E-03  0.7684252E-02 -0.4276638E-04 -0.2100075E-03
4140741. -0.4306780E-01 -0.4191218E+00 -0.2698520E-03  0.5879666E-02 -0.4140794E-04 -0.2606082E-03
4104259. -0.4048664E-01 -0.4797081E+00 -0.2985546E-03  0.4164965E-02 -0.3982623E-04 -0.2871786E-03
4067778. -0.3760416E-01 -0.5245463E+00 -0.3178256E-03  0.2592553E-02 -0.3818073E-04 -0.2825481E-03
4031296. -0.3450722E-01 -0.5548133E+00 -0.3285719E-03  0.1191027E-02 -0.3664223E-04 -0.2503374E-03
3994815. -0.3127531E-01 -0.5719789E+00 -0.3318316E-03 -0.1905320E-04 -0.3537063E-04 -0.1879928E-03
3958333. -0.2797854E-01 -0.5777426E+00 -0.3287480E-03 -0.1023986E-02 -0.3456450E-04 -0.8713193E-04
3921852. -0.2467697E-01 -0.5740017E+00 -0.3204849E-03 -0.1829604E-02 -0.3444682E-04  0.5317460E-04
3885370. -0.2141949E-01 -0.5626261E+00 -0.3081606E-03 -0.2444167E-02 -0.3526871E-04  0.2432643E-03
3848889. -0.1824466E-01 -0.5454671E+00 -0.2928264E-03 -0.2885087E-02 -0.3735327E-04  0.4962475E-03
3812407. -0.1518035E-01 -0.5242667E+00 -0.2753968E-03 -0.3180802E-02 -0.4109868E-04  0.8266848E-03
3775926. -0.1224548E-01 -0.5005121E+00 -0.2566183E-03 -0.3362341E-02 -0.4701818E-04  0.1260480E-02
3739444. -0.9450831E-02 -0.4754432E+00 -0.2370271E-03 -0.3472670E-02 -0.5579144E-04  0.1829342E-02
3702963. -0.6801448E-02 -0.4498934E+00 -0.2168811E-03 -0.3566146E-02 -0.6830786E-04  0.2576715E-02
3666482. -0.4298995E-02 -0.4241168E+00 -0.1960936E-03 -0.3709754E-02 -0.8575842E-04  0.3564393E-02
3630000. -0.1945543E-02 -0.3976760E+00 -0.1741247E-03 -0.3996506E-02 -0.1097397E-03  0.4873167E-02
3630000. -0.1945543E-02 -0.3976760E+00 -0.1741247E-03 -0.3996506E-02 -0.1097397E-03  0.4873167E-02
3592500.  0.3101175E-03 -0.3681651E+00 -0.1490844E-03 -0.4573570E-02 -0.1434514E-03  0.6669607E-02
3555000.  0.2377436E-02 -0.3329334E+00 -0.1193458E-03 -0.5632147E-02 -0.1894640E-03  0.9084146E-02
3517500.  0.4206716E-02 -0.2860004E+00 -0.8127969E-04 -0.7461310E-02 -0.2520290E-03  0.1233605E-01
3480000.  0.5702002E-02 -0.2173409E+00 -0.2916683E-04 -0.1049232E-01 -0.3369003E-03  0.1672027E-01
3480000.  0.5702002E-02  0.2124907E+00  0.2453024E-03  0.9985549E-02 -0.3369003E-03 -0.1462777E-02
3409422.  0.3713401E-02  0.1490353E+00  0.1541723E-03  0.6649104E-02 -0.2848663E-03 -0.6668227E-02
3338844.  0.2344566E-02  0.1005028E+00  0.9436323E-04  0.4292999E-02 -0.2070744E-03 -0.6903742E-02
3268266.  0.1437012E-02  0.6538317E-01  0.5627368E-04  0.2691313E-02 -0.1377676E-03 -0.5491954E-02
3197688.  0.8557896E-03  0.4113220E-01  0.3270747E-04  0.1639839E-02 -0.8611676E-04 -0.3855815E-02
3127109.  0.4955073E-03  0.2506431E-01  0.1853043E-04  0.9717708E-03 -0.5125009E-04 -0.2501683E-02
3056531.  0.2790479E-03  0.1481159E-01  0.1023348E-04  0.5603298E-03 -0.2925480E-04 -0.1531345E-02
2985953.  0.1528695E-03  0.8494791E-02  0.5507987E-05  0.3144323E-03 -0.1608808E-04 -0.8940328E-03
2915375.  0.8146390E-04  0.4730524E-02  0.2888505E-05  0.1717199E-03 -0.8546182E-05 -0.5009153E-03
2844797.  0.4222093E-04  0.2558324E-02  0.1475330E-05  0.9125528E-04 -0.4392243E-05 -0.2703372E-03
2774219.  0.2127432E-04  0.1343626E-02  0.7335218E-06  0.4717416E-04 -0.2185828E-05 -0.1408415E-03
2703641.  0.1041672E-04  0.6851344E-03  0.3547828E-06  0.2371142E-04 -0.1053669E-05 -0.7092096E-04
2633062.  0.4952991E-05  0.3390475E-03  0.1668009E-06  0.1158111E-04 -0.4919469E-06 -0.3453676E-04
2562484.  0.2285225E-05  0.1627356E-03  0.7616215E-07  0.5492438E-05 -0.2223833E-06 -0.1626665E-04
2491906.  0.1022118E-05  0.7570115E-04  0.3373886E-07  0.2527009E-05 -0.9726770E-07 -0.7407875E-05
2421328.  0.4426967E-06  0.3409669E-04  0.1448311E-07  0.1126726E-05 -0.4112727E-07 -0.3259886E-05
2350750.  0.1854373E-06  0.1485341E-04  0.6016680E-08  0.4862665E-06 -0.1679190E-07 -0.1384964E-05
2280172.  0.7501534E-07  0.6249989E-05  0.2415273E-08  0.2028502E-06 -0.6611427E-08 -0.5674206E-06
2209594.  0.2925904E-07  0.2536422E-05  0.9353261E-09  0.8166616E-07 -0.2506311E-08 -0.2238696E-06
2139016.  0.1098329E-07  0.9910868E-06  0.3487650E-09  0.3167430E-07 -0.9131351E-09 -0.8491666E-07
2068438.  0.3959804E-08  0.3721426E-06  0.1249585E-09  0.1181157E-07 -0.3190814E-09 -0.3090772E-07
1997859.  0.1367959E-08  0.1339853E-06  0.4291759E-10  0.4225389E-08 -0.1066877E-09 -0.1077105E-07
1927281.  0.4516637E-09  0.4614158E-07  0.1409332E-10  0.1446457E-08 -0.3404399E-10 -0.3585029E-08
1856703.  0.1421101E-09  0.1515643E-07  0.4411767E-11  0.4724867E-09 -0.1033663E-10 -0.1136396E-08
1786125.  0.4246894E-10  0.4733671E-08  0.1312176E-11  0.1468028E-09 -0.2976225E-11 -0.3419534E-09
1715547.  0.1200991E-10  0.1400690E-08  0.3694244E-12  0.4322903E-10 -0.8095501E-12 -0.9732268E-10
1644969.  0.3200439E-11  0.3910692E-09  0.9803101E-13  0.1201574E-10 -0.2071194E-12 -0.2608983E-10
1574391.  0.8002005E-12  0.1024949E-09  0.2439034E-13  0.3139459E-11 -0.4957264E-13 -0.6559843E-11
1503812.  0.0000000E+00  0.0000000E+00  0.0000000E+00  0.0000000E+00  0.0000000E+00  0.0000000E+00
1433234.  0.0000000E+00  0.0000000E+00  0.0000000E+00  0.0000000E+00  0.0000000E+00  0.0000000E+00
1362656.  0.0000000E+00  0.0000000E+00  0.0000000E+00  0.0000000E+00  0.0000000E+00  0.0000000E+00
1292078.  0.0000000E+00  0.0000000E+00  0.0000000E+00  0.0000000E+00  0.0000000E+00  0.0000000E+00
1221500.  0.0000000E+00  0.0000000E+00  0.0000000E+00  0.0000000E+00  0.0000000E+00  0.0000000E+00
1221500.  0.0000000E+00  0.0000000E+00  0.0000000E+00  0.0000000E+00  0.0000000E+00  0.0000000E+00
1183328.  0.0000000E+00  0.0000000E+00  0.0000000E+00  0.0000000E+00  0.0000000E+00  0.0000000E+00
1145156.  0.0000000E+00  0.0000000E+00  0.0000000E+00  0.0000000E+00  0.0000000E+00  0.0000000E+00
1106984.  0.0000000E+00  0.0000000E+00  0.0000000E+00  0.0000000E+00  0.0000000E+00  0.0000000E+00
1068812.  0.0000000E+00  0.0000000E+00  0.0000000E+00  0.0000000E+00  0.0000000E+00  0.0000000E+00
1030641.  0.0000000E+00  0.0000000E+00  0.0000000E+00  0.0000000E+00  0.0000000E+00  0.0000000E+00
 992469.  0.0000000E+00  0.0000000E+00  0.0000000E+00  0.0000000E+00  0.0000000E+00  0.0000000E+00
 954297.  0.0000000E+00  0.0000000E+00  0.0000000E+00  0.0000000E+00  0.0000000E+00  0.0000000E+00
 916125.  0.0000000E+00  0.0000000E+00  0.0000000E+00  0.0000000E+00  0.0000000E+00  0.0000000E+00
 877953.  0.0000000E+00  0.0000000E+00  0.0000000E+00  0.0000000E+00  0.0000000E+00  0.0000000E+00
 839781.  0.0000000E+00  0.0000000E+00  0.0000000E+00  0.0000000E+00  0.0000000E+00  0.0000000E+00
 801609.  0.0000000E+00  0.0000000E+00  0.0000000E+00  0.0000000E+00  0.0000000E+00  0.0000000E+00
 763438.  0.0000000E+00  0.0000000E+00  0.0000000E+00  0.0000000E+00  0.0000000E+00  0.0000000E+00
 725266.  0.0000000E+00  0.0000000E+00  0.0000000E+00  0.0000000E+00  0.0000000E+00  0.0000000E+00
 687094.  0.0000000E+00  0.0000000E+00  0.0000000E+00  0.0000000E+00  0.0000000E+00  0.0000000E+00
 648922.  0.0000000E+00  0.0000000E+00  0.0000000E+00  0.0000000E+00  0.0000000E+00  0.0000000E+00
 610750.  0.0000000E+00  0.0000000E+00  0.0000000E+00  0.0000000E+00  0.0000000E+00  0.0000000E+00
 572578.  0.0000000E+00  0.0000000E+00  0.0000000E+00  0.0000000E+00  0.0000000E+00  0.0000000E+00
 534406.  0.0000000E+00  0.0000000E+00  0.0000000E+00  0.0000000E+00  0.0000000E+00  0.0000000E+00
 496234.  0.0000000E+00  0.0000000E+00  0.0000000E+00  0.0000000E+00  0.0000000E+00  0.0000000E+00
 458062.  0.0000000E+00  0.0000000E+00  0.0000000E+00  0.0000000E+00  0.0000000E+00  0.0000000E+00
 419891.  0.0000000E+00  0.0000000E+00  0.0000000E+00  0.0000000E+00  0.0000000E+00  0.0000000E+00
 381719.  0.0000000E+00  0.0000000E+00  0.0000000E+00  0.0000000E+00  0.0000000E+00  0.0000000E+00
 343547.  0.0000000E+00  0.0000000E+00  0.0000000E+00  0.0000000E+00  0.0000000E+00  0.0000000E+00
 305375.  0.0000000E+00  0.0000000E+00  0.0000000E+00  0.0000000E+00  0.0000000E+00  0.0000000E+00
 267203.  0.0000000E+00  0.0000000E+00  0.0000000E+00  0.0000000E+00  0.0000000E+00  0.0000000E+00
 229031.  0.0000000E+00  0.0000000E+00  0.0000000E+00  0.0000000E+00  0.0000000E+00  0.0000000E+00
 190859.  0.0000000E+00  0.0000000E+00  0.0000000E+00  0.0000000E+00  0.0000000E+00  0.0000000E+00
 152688.  0.0000000E+00  0.0000000E+00  0.0000000E+00  0.0000000E+00  0.0000000E+00  0.0000000E+00
 114516.  0.0000000E+00  0.0000000E+00  0.0000000E+00  0.0000000E+00  0.0000000E+00  0.0000000E+00
  76344.  0.0000000E+00  0.0000000E+00  0.0000000E+00  0.0000000E+00  0.0000000E+00  0.0000000E+00
  38172.  0.0000000E+00  0.0000000E+00  0.0000000E+00  0.0000000E+00  0.0000000E+00  0.0000000E+00
      0.  0.0000000E+00  0.0000000E+00  0.0000000E+00  0.0000000E+00  0.0000000E+00  0.0000000E+00
