      15        9 S      626        128.57220         32.77305          4.07319        248.91080      185    7
6371000. -0.2674547E-01  0.2625200E+00  0.6826834E-02  0.3357230E-01 -0.2197157E-03  0.5263286E-01
6370000. -0.2678571E-01  0.2501273E+00  0.6820781E-02  0.4354911E-01 -0.2279690E-03  0.5253075E-01
6369000. -0.2682398E-01  0.2376149E+00  0.6813164E-02  0.5351457E-01 -0.2362061E-03  0.5242518E-01
6368000. -0.2686029E-01  0.2249838E+00  0.6803983E-02  0.6346640E-01 -0.2444263E-03  0.5231615E-01
6368000. -0.2686029E-01  0.2249838E+00  0.6803983E-02  0.6346640E-01 -0.2444263E-03  0.5231615E-01
6367000. -0.2689460E-01  0.2122351E+00  0.6793241E-02  0.7340229E-01 -0.2526291E-03  0.5220365E-01
6366000. -0.2692691E-01  0.1993696E+00  0.6780941E-02  0.8331992E-01 -0.2608140E-03  0.5208771E-01
6365000. -0.2695719E-01  0.1863885E+00  0.6767086E-02  0.9321699E-01 -0.2689804E-03  0.5196832E-01
6364000. -0.2698542E-01  0.1732928E+00  0.6751679E-02  0.1030912E+00 -0.2771278E-03  0.5184549E-01
6363000. -0.2701158E-01  0.1600837E+00  0.6734724E-02  0.1129403E+00 -0.2852557E-03  0.5171924E-01
6362000. -0.2703566E-01  0.1467622E+00  0.6716226E-02  0.1227620E+00 -0.2933635E-03  0.5158957E-01
6361000. -0.2705765E-01  0.1333296E+00  0.6696188E-02  0.1325540E+00 -0.3014507E-03  0.5145648E-01
6360000. -0.2707751E-01  0.1197869E+00  0.6674616E-02  0.1423140E+00 -0.3095166E-03  0.5131999E-01
6359000. -0.2709525E-01  0.1061356E+00  0.6651515E-02  0.1520397E+00 -0.3175610E-03  0.5118011E-01
6358000. -0.2711083E-01  0.9237675E-01  0.6626890E-02  0.1617289E+00 -0.3255831E-03  0.5103683E-01
6357000. -0.2712424E-01  0.7851172E-01  0.6600746E-02  0.1713794E+00 -0.3335824E-03  0.5089018E-01
6356000. -0.2713547E-01  0.6454182E-01  0.6573092E-02  0.1809889E+00 -0.3415585E-03  0.5074016E-01
6356000. -0.2713547E-01  0.9881869E-01  0.6573092E-02  0.1226379E+00 -0.3415585E-03  0.5664453E-01
6355000. -0.2715019E-01  0.8880874E-01  0.6553342E-02  0.1290148E+00 -0.3504370E-03  0.5648475E-01
6354000. -0.2716334E-01  0.7873039E-01  0.6532592E-02  0.1353710E+00 -0.3592902E-03  0.5632231E-01
6353000. -0.2717490E-01  0.6858432E-01  0.6510847E-02  0.1417054E+00 -0.3681176E-03  0.5615719E-01
6352000. -0.2718487E-01  0.5837122E-01  0.6488109E-02  0.1480170E+00 -0.3769190E-03  0.5598941E-01
6351000. -0.2719323E-01  0.4809180E-01  0.6464382E-02  0.1543048E+00 -0.3856938E-03  0.5581898E-01
6350000. -0.2719996E-01  0.3774676E-01  0.6439670E-02  0.1605679E+00 -0.3944417E-03  0.5564591E-01
6349000. -0.2720507E-01  0.2733685E-01  0.6413977E-02  0.1668054E+00 -0.4031622E-03  0.5547019E-01
6348000. -0.2720854E-01  0.1686279E-01  0.6387308E-02  0.1730161E+00 -0.4118549E-03  0.5529185E-01
6347000. -0.2721036E-01  0.6325345E-02  0.6359665E-02  0.1791991E+00 -0.4205194E-03  0.5511088E-01
6346600. -0.2721063E-01  0.2092790E-02  0.6348337E-02  0.1816644E+00 -0.4239772E-03  0.5503776E-01
6346600. -0.2721063E-01  0.1191949E+00  0.6348337E-02  0.1335930E+00 -0.4239772E-03  0.6452571E-01
6318800. -0.2723859E-01 -0.1131572E+00  0.5488051E-02  0.2574371E+00 -0.6939338E-03  0.5893884E-01
6291000. -0.2617264E-01 -0.3800467E+00  0.4138217E-02  0.3562360E+00 -0.9360753E-03  0.5179684E-01
6291000. -0.2617264E-01 -0.3822353E+00  0.4138217E-02  0.3675779E+00 -0.9360753E-03  0.5179684E-01
6263000. -0.2384718E-01 -0.6779155E+00  0.2361131E-02  0.4343134E+00 -0.1145194E-02  0.4313840E-01
6235000. -0.2021258E-01 -0.9744124E+00  0.3843074E-03  0.4577572E+00 -0.1313391E-02  0.3320957E-01
6207000. -0.1531366E-01 -0.1249475E+01 -0.1595772E-02  0.4358179E+00 -0.1435579E-02  0.2224379E-01
6179000. -0.9294492E-02 -0.1480513E+01 -0.3383204E-02  0.3708420E+00 -0.1507797E-02  0.1051922E-01
6151000. -0.2395534E-02 -0.1646601E+01 -0.4801757E-02  0.2693618E+00 -0.1527398E-02 -0.1643278E-02
6151000. -0.2395534E-02 -0.1362590E+01 -0.4801757E-02  0.2363846E+00 -0.1527398E-02 -0.1510744E-02
6128500.  0.2499911E-02 -0.1402654E+01 -0.5479490E-02  0.1458105E+00 -0.1508794E-02 -0.8996202E-02
6106000.  0.7459824E-02 -0.1398823E+01 -0.5823486E-02  0.4830501E-01 -0.1464127E-02 -0.1625169E-01
6083500.  0.1232739E-01 -0.1350407E+01 -0.5819096E-02 -0.5054944E-01 -0.1394402E-02 -0.2316968E-01
6061000.  0.1694683E-01 -0.1258680E+01 -0.5471363E-02 -0.1452366E+00 -0.1300987E-02 -0.2965174E-01
6038500.  0.2117028E-01 -0.1126830E+01 -0.4804250E-02 -0.2306042E+00 -0.1185582E-02 -0.3560938E-01
6016000.  0.2486425E-01 -0.9597724E+00 -0.3858874E-02 -0.3021314E+00 -0.1050179E-02 -0.4096503E-01
5993500.  0.2791531E-01 -0.7639144E+00 -0.2690871E-02 -0.3561501E+00 -0.8970221E-03 -0.4565319E-01
5971000.  0.3023486E-01 -0.5468423E+00 -0.1367061E-02 -0.3900182E+00 -0.7285688E-03 -0.4961965E-01
5971000.  0.3023486E-01 -0.5009239E+00 -0.1367061E-02 -0.3507659E+00 -0.7285688E-03 -0.5357765E-01
5937667.  0.3201481E-01 -0.1801659E+00  0.4861429E-03 -0.3509984E+00 -0.4355829E-03 -0.5812262E-01
5904333.  0.3214717E-01  0.1252221E+00  0.2241209E-02 -0.3142795E+00 -0.1234339E-03 -0.6090979E-01
5871000.  0.3076603E-01  0.3954884E+00  0.3723511E-02 -0.2482049E+00  0.1988620E-03 -0.6202204E-01
5837667.  0.2809596E-01  0.6159275E+00  0.4803554E-02 -0.1621569E+00  0.5228439E-03 -0.6157566E-01
5804333.  0.2442399E-01  0.7773668E+00  0.5402886E-02 -0.6608895E-01  0.8407166E-03 -0.5970711E-01
5771000.  0.2007105E-01  0.8761047E+00  0.5494311E-02  0.3048868E-01  0.1145406E-02 -0.5656499E-01
5771000.  0.2007105E-01  0.8761397E+00  0.5494311E-02  0.3048716E-01  0.1145406E-02 -0.5656499E-01
5701000.  0.9882520E-02  0.9364652E+00  0.4108114E-02  0.2142596E+00  0.1708171E-02 -0.4501646E-01
5701000.  0.9882520E-02  0.7924103E+00  0.4108114E-02  0.1680232E+00  0.1708171E-02 -0.4780199E-01
5667333.  0.5883332E-02  0.7224594E+00  0.3110337E-02  0.2089055E+00  0.1947142E-02 -0.4261028E-01
5633667.  0.2238827E-02  0.6543540E+00  0.1902209E-02  0.2470622E+00  0.2157610E-02 -0.3692110E-01
5600000. -0.9792631E-03  0.5593665E+00  0.5301821E-03  0.2691022E+00  0.2336017E-02 -0.3049104E-01
5600000. -0.9792631E-03  0.5593665E+00  0.5301821E-03  0.2691022E+00  0.2336017E-02 -0.3049104E-01
5563518. -0.3836298E-02  0.4358435E+00 -0.1032645E-02  0.2732865E+00  0.2489042E-02 -0.2285043E-01
5527037. -0.5951292E-02  0.3021633E+00 -0.2560391E-02  0.2569827E+00  0.2596654E-02 -0.1465727E-01
5490556. -0.7299541E-02  0.1699270E+00 -0.3939242E-02  0.2216412E+00  0.2656152E-02 -0.6072198E-02
5454074. -0.7920951E-02  0.5000480E-01 -0.5067664E-02  0.1700801E+00  0.2665760E-02  0.2740149E-02
5417593. -0.7913950E-02 -0.4815875E-01 -0.5863658E-02  0.1062785E+00  0.2624661E-02  0.1161075E-01
5381111. -0.7424844E-02 -0.1173926E+00 -0.6270441E-02  0.3497179E-01  0.2532993E-02  0.2037407E-01
5344630. -0.6633716E-02 -0.1531295E+00 -0.6259744E-02 -0.3865565E-01  0.2391849E-02  0.2886571E-01
5308148. -0.5738497E-02 -0.1537172E+00 -0.5833277E-02 -0.1093901E+00  0.2203233E-02  0.3692769E-01
5271667. -0.4938045E-02 -0.1205018E+00 -0.5021907E-02 -0.1723260E+00  0.1970046E-02  0.4441068E-01
5235185. -0.4415353E-02 -0.5759481E-01 -0.3882736E-02 -0.2232412E+00  0.1695995E-02  0.5117620E-01
5198704. -0.4322772E-02  0.2845132E-01 -0.2494567E-02 -0.2588432E+00  0.1385568E-02  0.5709903E-01
5162222. -0.4769267E-02  0.1291541E+00 -0.9518746E-03 -0.2769386E+00  0.1043890E-02  0.6207154E-01
5125741. -0.5811398E-02  0.2348217E+00  0.6418565E-03 -0.2766431E+00  0.6766925E-03  0.6600242E-01
5089259. -0.7448471E-02  0.3352304E+00  0.2181820E-02 -0.2583022E+00  0.2901287E-03  0.6882214E-01
5052778. -0.9621323E-02  0.4203718E+00  0.3568474E-02 -0.2234678E+00 -0.1092690E-03  0.7048245E-01
5016296. -0.1221626E-01  0.4812481E+00  0.4714585E-02 -0.1747935E+00 -0.5147961E-03  0.7095666E-01
4979815. -0.1507206E-01  0.5104413E+00  0.5550471E-02 -0.1157638E+00 -0.9196208E-03  0.7024261E-01
4943333. -0.1799130E-01  0.5027050E+00  0.6028387E-02 -0.5047869E-01 -0.1317008E-02  0.6836005E-01
4906852. -0.2075332E-01  0.4553315E+00  0.6125080E-02  0.1663955E-01 -0.1700350E-02  0.6534988E-01
4870370. -0.2313003E-01  0.3683398E+00  0.5842784E-02  0.8116509E-01 -0.2063390E-02  0.6127728E-01
4833889. -0.2490120E-01  0.2445396E+00  0.5208491E-02  0.1389317E+00 -0.2400244E-02  0.5622225E-01
4797407. -0.2587041E-01  0.8932829E-01  0.4271536E-02  0.1863210E+00 -0.2705577E-02  0.5028275E-01
4760926. -0.2587888E-01 -0.8956452E-01  0.3100062E-02  0.2204457E+00 -0.2974635E-02  0.4357515E-01
4724444. -0.2481742E-01 -0.2826702E+00  0.1775987E-02  0.2393682E+00 -0.3203377E-02  0.3622005E-01
4687963. -0.2263500E-01 -0.4792405E+00  0.3896145E-03  0.2421465E+00 -0.3388460E-02  0.2835115E-01
4651482. -0.1934407E-01 -0.6679656E+00 -0.9664492E-03  0.2288899E+00 -0.3527344E-02  0.2010706E-01
4615000. -0.1502141E-01 -0.8377549E+00 -0.2203246E-02  0.2007469E+00 -0.3618277E-02  0.1162457E-01
4578518. -0.9805768E-02 -0.9782361E+00 -0.3240939E-02  0.1597600E+00 -0.3660287E-02  0.3043390E-02
4542037. -0.3891343E-02 -0.1080564E+01 -0.4013735E-02  0.1087622E+00 -0.3653201E-02 -0.5502055E-02
4505556.  0.2483076E-02 -0.1137948E+01 -0.4473880E-02  0.5116015E-01 -0.3597588E-02 -0.1388497E-01
4469074.  0.9046180E-02 -0.1145888E+01 -0.4594177E-02 -0.9296391E-02 -0.3494723E-02 -0.2198619E-01
4432593.  0.1550848E-01 -0.1102771E+01 -0.4369393E-02 -0.6872469E-01 -0.3346544E-02 -0.2969545E-01
4396111.  0.2157997E-01 -0.1009737E+01 -0.3816245E-02 -0.1233788E+00 -0.3155573E-02 -0.3691606E-01
4359630.  0.2698420E-01 -0.8706548E+00 -0.2972091E-02 -0.1698433E+00 -0.2924861E-02 -0.4356451E-01
4323148.  0.3147548E-01 -0.6921052E+00 -0.1892250E-02 -0.2052671E+00 -0.2657894E-02 -0.4956520E-01
4286667.  0.3485157E-01 -0.4827919E+00 -0.6465602E-03 -0.2274848E+00 -0.2358570E-02 -0.5486067E-01
4250185.  0.3696568E-01 -0.2531679E+00  0.6851570E-03 -0.2351516E+00 -0.2031043E-02 -0.5940488E-01
4213704.  0.3773442E-01 -0.1489824E-01  0.2017793E-02 -0.2278162E+00 -0.1679754E-02 -0.6315880E-01
4177222.  0.3714291E-01  0.2199014E+00  0.3266288E-02 -0.2058934E+00 -0.1309272E-02 -0.6610209E-01
4140741.  0.3524570E-01  0.4392136E+00  0.4350314E-02 -0.1706639E+00 -0.9243092E-03 -0.6821792E-01
4104259.  0.3216384E-01  0.6318787E+00  0.5199235E-02 -0.1241620E+00 -0.5296125E-03 -0.6949817E-01
4067778.  0.2807899E-01  0.7880881E+00  0.5755783E-02 -0.6904037E-01 -0.1299731E-03 -0.6994889E-01
4031296.  0.2322301E-01  0.9000636E+00  0.5979407E-02 -0.8426877E-02  0.2698891E-03 -0.6957303E-01
3994815.  0.1786622E-01  0.9623568E+00  0.5848303E-02  0.5427635E-01  0.6652468E-03 -0.6838230E-01
3958333.  0.1230229E-01  0.9721254E+00  0.5360492E-02  0.1155792E+00  0.1051508E-02 -0.6639495E-01
3921852.  0.6833420E-02  0.9294544E+00  0.4533774E-02  0.1721123E+00  0.1424134E-02 -0.6362629E-01
3885370.  0.1752899E-02  0.8371185E+00  0.3404412E-02  0.2207931E+00  0.1778726E-02 -0.6009596E-01
3848889. -0.2668960E-02  0.7005703E+00  0.2025228E-02  0.2589913E+00  0.2110961E-02 -0.5582435E-01
3812407. -0.6200708E-02  0.5276596E+00  0.4622300E-03  0.2846965E+00  0.2416669E-02 -0.5083087E-01
3775926. -0.8660899E-02  0.3280865E+00 -0.1208717E-02  0.2965458E+00  0.2691752E-02 -0.4513390E-01
3739444. -0.9928457E-02  0.1130410E+00 -0.2906316E-02  0.2939592E+00  0.2932249E-02 -0.3875100E-01
3702963. -0.9948939E-02 -0.1054510E+00 -0.4548008E-02  0.2771235E+00  0.3134265E-02 -0.3169812E-01
3666482. -0.8737508E-02 -0.3152200E+00 -0.6054431E-02  0.2469239E+00  0.3294002E-02 -0.2398534E-01
3630000. -0.6378253E-02 -0.5044413E+00 -0.7353412E-02  0.2049757E+00  0.3407713E-02 -0.1562233E-01
3630000. -0.6378253E-02 -0.5044413E+00 -0.7353412E-02  0.2049757E+00  0.3407713E-02 -0.1562233E-01
3592500. -0.2914168E-02 -0.6662197E+00 -0.8407961E-02  0.1518829E+00  0.3472716E-02 -0.6351126E-02
3555000.  0.1379870E-02 -0.7849662E+00 -0.9127111E-02  0.9152412E-01  0.3481132E-02  0.3606588E-02
3517500.  0.6226757E-02 -0.8530110E+00 -0.9477429E-02  0.2711068E-01  0.3428891E-02  0.1426180E-01
3480000.  0.1131211E-01 -0.8654101E+00 -0.9444892E-02 -0.3800081E-01  0.3311831E-02  0.2563559E-01
3480000.  0.1131211E-01 -0.1980404E+00  0.2631105E-03  0.2022354E-01  0.3311831E-02 -0.1043745E-01
3409422.  0.1265201E-01 -0.4276656E-01  0.1756547E-04  0.2360933E-01  0.3559411E-02 -0.3196641E-01
3338844.  0.1227576E-01  0.1082733E+00 -0.2484979E-03  0.2390018E-01  0.3968783E-02 -0.3966115E-01
3268266.  0.1033874E-01  0.2363141E+00 -0.5006258E-03  0.2113192E-01  0.4390180E-02 -0.3441360E-01
3197688.  0.7174269E-02  0.3282028E+00 -0.7068393E-03  0.1570329E-01  0.4691751E-02 -0.1850085E-01
3127109.  0.3226586E-02  0.3770848E+00 -0.8411906E-03  0.8287258E-02  0.4772542E-02  0.4856220E-02
3056531. -0.1018124E-02  0.3821715E+00 -0.8862098E-03 -0.2763666E-03  0.4570235E-02  0.3198499E-01
2985953. -0.5094685E-02  0.3478122E+00 -0.8341406E-03 -0.9092612E-02  0.4063477E-02  0.5923788E-01
2915375. -0.8608310E-02  0.2821277E+00 -0.6869717E-03 -0.1731258E-01  0.3269293E-02  0.8339184E-01
2844797. -0.1126798E-01  0.1954701E+00 -0.4554466E-03 -0.2421632E-01  0.2236654E-02  0.1019408E+00
2774219. -0.1290265E-01  0.9890852E-01 -0.1572926E-03 -0.2927018E-01  0.1037490E-02  0.1132637E+00
2703641. -0.1346172E-01  0.2920129E-02  0.1850356E-03 -0.3215737E-01 -0.2434790E-03  0.1166706E+00
2633062. -0.1300251E-01 -0.8362024E-01  0.5468149E-03 -0.3278291E-01 -0.1518828E-02  0.1123417E+00
2562484. -0.1166870E-01 -0.1540871E+00  0.9034097E-03 -0.3125585E-01 -0.2707264E-02  0.1011853E+00
2491906. -0.9663258E-02 -0.2044097E+00  0.1232386E-02 -0.2785500E-01 -0.3740762E-02  0.8464244E-01
2421328. -0.7220156E-02 -0.2330448E+00  0.1515125E-02 -0.2298324E-01 -0.4569181E-02  0.6446785E-01
2350750. -0.4577583E-02 -0.2407063E+00  0.1737924E-02 -0.1711603E-01 -0.5162560E-02  0.4251549E-01
2280172. -0.1955403E-02 -0.2299027E+00  0.1892516E-02 -0.1075200E-01 -0.5511132E-02  0.2054858E-01
2209594.  0.4617494E-03 -0.2043902E+00  0.1976078E-02 -0.4367645E-02 -0.5623447E-02  0.8994684E-04
2139016.  0.2535080E-02 -0.1685946E+00  0.1990764E-02  0.1619228E-02 -0.5523106E-02 -0.1767910E-01
2068438.  0.4176063E-02 -0.1270811E+00  0.1942911E-02  0.6875925E-02 -0.5244641E-02 -0.3197024E-01
1997859.  0.5345338E-02 -0.8409256E-01  0.1841989E-02  0.1116954E-01 -0.4829096E-02 -0.4239299E-01
1927281.  0.6047205E-02 -0.4323165E-01  0.1699485E-02  0.1437013E-01 -0.4319796E-02 -0.4892061E-01
1856703.  0.6321254E-02 -0.7234006E-02  0.1527766E-02  0.1644652E-01 -0.3758602E-02 -0.5182916E-01
1786125.  0.6232196E-02  0.2210211E-01  0.1339056E-02  0.1745265E-01 -0.3183005E-02 -0.5161807E-01
1715547.  0.5859495E-02  0.4390020E-01  0.1144596E-02  0.1750944E-01 -0.2624120E-02 -0.4892570E-01
1644969.  0.5287701E-02  0.5809409E-01  0.9540051E-03  0.1678493E-01 -0.2105598E-02 -0.4444779E-01
1574391.  0.4598380E-02  0.6525640E-01  0.7748775E-03  0.1547336E-01 -0.1643397E-02 -0.3886737E-01
1503812.  0.3864137E-02  0.6639518E-01  0.6125957E-03  0.1377676E-01 -0.1246233E-02 -0.3279978E-01
1433234.  0.3145038E-02  0.6273470E-01  0.4703330E-03  0.1189117E-01 -0.9165723E-03 -0.2675672E-01
1362656.  0.2487389E-02  0.5549075E-01  0.3491583E-03  0.9998732E-02 -0.6518675E-03 -0.2112721E-01
1292078.  0.1925192E-02  0.4562656E-01  0.2481954E-03  0.8270420E-02 -0.4459585E-03 -0.1617606E-01
1221500.  0.1484596E-02  0.3353008E-01  0.1646572E-03  0.6885597E-02 -0.2903940E-03 -0.1205490E-01
1221500.  0.1484596E-02 -0.8051953E-01 -0.1169349E-03 -0.8353136E-02 -0.2903940E-03 -0.1269804E-01
1183328.  0.1889457E-02 -0.5140040E-01 -0.4835002E-04 -0.1406240E-01 -0.2224214E-03 -0.1007582E-01
1145156.  0.2068018E-02 -0.6101995E-02  0.4507487E-04 -0.1654128E-01 -0.1687214E-03 -0.7921422E-02
1106984.  0.1946104E-02  0.4739856E-01  0.1428729E-03 -0.1554352E-01 -0.1267036E-03 -0.6165424E-02
1068812.  0.1502364E-02  0.9974861E-01  0.2252806E-03 -0.1153390E-01 -0.9416645E-04 -0.4747336E-02
1030641.  0.7710264E-03  0.1420536E+00  0.2770660E-03 -0.5523158E-02 -0.6924815E-04 -0.3614176E-02
 992469. -0.1660023E-03  0.1675107E+00  0.2900473E-03  0.1196105E-02 -0.5038287E-04 -0.2719324E-02
 954297. -0.1195181E-02  0.1725121E+00  0.2638974E-03  0.7340333E-02 -0.3626874E-04 -0.2021814E-02
 916125. -0.2192173E-02  0.1570627E+00  0.2053009E-03  0.1188926E-01 -0.2583365E-04 -0.1485630E-02
 877953. -0.3042897E-02  0.1244755E+00  0.1258256E-03  0.1425166E-01 -0.1820748E-04 -0.1079297E-02
 839781. -0.3660919E-02  0.8048005E-01  0.3913243E-04  0.1431967E-01 -0.1269560E-04 -0.7756987E-03
 801609. -0.3998322E-02  0.3198333E-01 -0.4181061E-04  0.1241594E-01 -0.8753193E-05 -0.5519035E-03
 763438. -0.4048807E-02 -0.1424027E-01 -0.1069427E-03  0.9162255E-02 -0.5961061E-05 -0.3888930E-03
 725266. -0.3843378E-02 -0.5267102E-01 -0.1504034E-03  0.5307827E-02 -0.4002576E-05 -0.2713451E-03
 687094. -0.3440425E-02 -0.7977214E-01 -0.1707789E-03  0.1564248E-02 -0.2642685E-05 -0.1873245E-03
 648922. -0.2912785E-02 -0.9426254E-01 -0.1704735E-03 -0.1523081E-02 -0.1709421E-05 -0.1276193E-03
 610750. -0.2334579E-02 -0.9693193E-01 -0.1544744E-03 -0.3643340E-02 -0.1078346E-05 -0.8549858E-04
 572578. -0.1770237E-02 -0.9011677E-01 -0.1288980E-03 -0.4726767E-02 -0.6596330E-06 -0.5603828E-04
 534406. -0.1267301E-02 -0.7699544E-01 -0.9965739E-04 -0.4900385E-02 -0.3886540E-06 -0.3568884E-04
 496234. -0.8535525E-03 -0.6087355E-01 -0.7149715E-04 -0.4413521E-02 -0.2188582E-06 -0.2190738E-04
 458062. -0.5380898E-03 -0.4460174E-01 -0.4750670E-04 -0.3556325E-02 -0.1167112E-06 -0.1284409E-04
 419891. -0.3152620E-03 -0.3021501E-01 -0.2909215E-04 -0.2591123E-02 -0.5829766E-07 -0.7112168E-05
 381719. -0.1700050E-03 -0.1881474E-01 -0.1628556E-04 -0.1708920E-02 -0.2691188E-07 -0.3672554E-05
 343547. -0.8327010E-04 -0.1066519E-01 -0.8233498E-05 -0.1014529E-02 -0.1128656E-07 -0.1739903E-05
 305375. -0.3637448E-04 -0.5423317E-02 -0.3694257E-05 -0.5356483E-03 -0.4205368E-08 -0.7409218E-06
 267203. -0.1380597E-04 -0.2420589E-02 -0.1434113E-05 -0.2465151E-03 -0.1349651E-08 -0.2757786E-06
 229031. -0.4380989E-05 -0.9175616E-03 -0.4636993E-06 -0.9580151E-04 -0.3568569E-09 -0.8617490E-07
 190859. -0.1094551E-05 -0.2804398E-03 -0.1176432E-06 -0.2987186E-04 -0.7259733E-10 -0.2127367E-07
 152688. -0.1946511E-06 -0.6329939E-04 -0.2117848E-07 -0.6849153E-05 -0.1013409E-10 -0.3746937E-08
 114516. -0.2038450E-07 -0.8941628E-05 -0.2238611E-08 -0.9790082E-06 -0.7836889E-12 -0.3891311E-09
  76344. -0.8212368E-09 -0.5447637E-06 -0.9077924E-10 -0.6013918E-07 -0.2078920E-13 -0.1556153E-10
  38172. -0.3269890E-11 -0.4359029E-08 -0.3628537E-12 -0.4835573E-09 -0.4099833E-16 -0.6150543E-13
      0.  0.0000000E+00  0.0000000E+00  0.0000000E+00  0.0000000E+00  0.0000000E+00  0.0000000E+00
