       0       24 S       23        306.41531          5.33225          3.75079        211.37131      185    7
6371000.  0.2336374E+00 -0.1743847E+01 -0.6609499E-02 -0.2402469E+00 -0.8152284E-02 -0.2367783E+00
6370000.  0.2339089E+00 -0.1716129E+01 -0.6571760E-02 -0.2406113E+00 -0.8115235E-02 -0.2352894E+00
6369000.  0.2341761E+00 -0.1688368E+01 -0.6533966E-02 -0.2409670E+00 -0.8078421E-02 -0.2338014E+00
6368000.  0.2344389E+00 -0.1660562E+01 -0.6496116E-02 -0.2413141E+00 -0.8041839E-02 -0.2323143E+00
6368000.  0.2344389E+00 -0.1660562E+01 -0.6496116E-02 -0.2413141E+00 -0.8041839E-02 -0.2323143E+00
6367000.  0.2346974E+00 -0.1632714E+01 -0.6458212E-02 -0.2416525E+00 -0.8005491E-02 -0.2308281E+00
6366000.  0.2349515E+00 -0.1604824E+01 -0.6420256E-02 -0.2419823E+00 -0.7969378E-02 -0.2293427E+00
6365000.  0.2352012E+00 -0.1576893E+01 -0.6382249E-02 -0.2423033E+00 -0.7933496E-02 -0.2278582E+00
6364000.  0.2354465E+00 -0.1548922E+01 -0.6344192E-02 -0.2426157E+00 -0.7897847E-02 -0.2263745E+00
6363000.  0.2356874E+00 -0.1520910E+01 -0.6306087E-02 -0.2429193E+00 -0.7862432E-02 -0.2248916E+00
6362000.  0.2359239E+00 -0.1492860E+01 -0.6267935E-02 -0.2432142E+00 -0.7827249E-02 -0.2234095E+00
6361000.  0.2361560E+00 -0.1464772E+01 -0.6229737E-02 -0.2435004E+00 -0.7792299E-02 -0.2219282E+00
6360000.  0.2363838E+00 -0.1436647E+01 -0.6191495E-02 -0.2437778E+00 -0.7757581E-02 -0.2204476E+00
6359000.  0.2366070E+00 -0.1408485E+01 -0.6153210E-02 -0.2440466E+00 -0.7723095E-02 -0.2189677E+00
6358000.  0.2368259E+00 -0.1380287E+01 -0.6114883E-02 -0.2443065E+00 -0.7688842E-02 -0.2174886E+00
6357000.  0.2370403E+00 -0.1352054E+01 -0.6076517E-02 -0.2445576E+00 -0.7654821E-02 -0.2160102E+00
6356000.  0.2372503E+00 -0.1323787E+01 -0.6038112E-02 -0.2448000E+00 -0.7621031E-02 -0.2145324E+00
6356000.  0.2372503E+00 -0.1223885E+01 -0.6038112E-02 -0.2444284E+00 -0.7621031E-02 -0.2661553E+00
6355000.  0.2374408E+00 -0.1202236E+01 -0.5999769E-02 -0.2441479E+00 -0.7579380E-02 -0.2645678E+00
6354000.  0.2376278E+00 -0.1180594E+01 -0.5961469E-02 -0.2438641E+00 -0.7537977E-02 -0.2629836E+00
6353000.  0.2378114E+00 -0.1158959E+01 -0.5923214E-02 -0.2435769E+00 -0.7496823E-02 -0.2614027E+00
6352000.  0.2379916E+00 -0.1137330E+01 -0.5885005E-02 -0.2432864E+00 -0.7455917E-02 -0.2598251E+00
6351000.  0.2381684E+00 -0.1115709E+01 -0.5846841E-02 -0.2429925E+00 -0.7415258E-02 -0.2582508E+00
6350000.  0.2383418E+00 -0.1094095E+01 -0.5808724E-02 -0.2426953E+00 -0.7374846E-02 -0.2566798E+00
6349000.  0.2385119E+00 -0.1072489E+01 -0.5770654E-02 -0.2423948E+00 -0.7334680E-02 -0.2551120E+00
6348000.  0.2386785E+00 -0.1050892E+01 -0.5732631E-02 -0.2420909E+00 -0.7294761E-02 -0.2535474E+00
6347000.  0.2388418E+00 -0.1029302E+01 -0.5694656E-02 -0.2417837E+00 -0.7255086E-02 -0.2519860E+00
6346600.  0.2389061E+00 -0.1020669E+01 -0.5679479E-02 -0.2416599E+00 -0.7239285E-02 -0.2513623E+00
6346600.  0.2389061E+00 -0.1361612E+01 -0.5679479E-02 -0.2429158E+00 -0.7239285E-02 -0.3346654E+00
6318800.  0.2437396E+00 -0.8569757E+00 -0.4658508E-02 -0.2250382E+00 -0.5871593E-02 -0.2928846E+00
6291000.  0.2464141E+00 -0.3723960E+00 -0.3715710E-02 -0.2070593E+00 -0.4677792E-02 -0.2548703E+00
6291000.  0.2464141E+00 -0.4019413E+00 -0.3715710E-02 -0.2051459E+00 -0.4677792E-02 -0.2548703E+00
6263000.  0.2471263E+00  0.7379470E-01 -0.2854210E-02 -0.1867995E+00 -0.3635163E-02 -0.2200742E+00
6235000.  0.2458032E+00  0.5236947E+00 -0.2074732E-02 -0.1678006E+00 -0.2739581E-02 -0.1878702E+00
6207000.  0.2425660E+00  0.9442386E+00 -0.1380389E-02 -0.1480399E+00 -0.1980736E-02 -0.1577694E+00
6179000.  0.2375519E+00  0.1331706E+01 -0.7747402E-03 -0.1274239E+00 -0.1350423E-02 -0.1293026E+00
6151000.  0.2309148E+00  0.1682166E+01 -0.2617216E-03 -0.1058750E+00 -0.8424542E-03 -0.1020193E+00
6151000.  0.2309148E+00  0.1303778E+01 -0.2617216E-03 -0.1224590E+00 -0.8424542E-03 -0.1147948E+00
6128500.  0.2259416E+00  0.1508692E+01  0.1454596E-03 -0.1081481E+00 -0.4645012E-03 -0.9943262E-01
6106000.  0.2202865E+00  0.1689951E+01  0.5022779E-03 -0.9393974E-01 -0.1388903E-03 -0.8512853E-01
6083500.  0.2140331E+00  0.1847469E+01  0.8091105E-03 -0.7984151E-01  0.1378594E-03 -0.7173883E-01
6061000.  0.2072656E+00  0.1981185E+01  0.1066352E-02 -0.6585547E-01  0.3687365E-03 -0.5912753E-01
6038500.  0.2000678E+00  0.2091068E+01  0.1274390E-02 -0.5197537E-01  0.5562453E-03 -0.4715560E-01
6016000.  0.1925242E+00  0.2177071E+01  0.1433577E-02 -0.3818750E-01  0.7023982E-03 -0.3568464E-01
5993500.  0.1847191E+00  0.2239125E+01  0.1544205E-02 -0.2447197E-01  0.8087271E-03 -0.2457968E-01
5971000.  0.1767373E+00  0.2277148E+01  0.1606481E-02 -0.1079922E-01  0.8762738E-03 -0.1369797E-01
5971000.  0.1767373E+00  0.2080839E+01  0.1606481E-02 -0.3019558E-01  0.8762738E-03 -0.3683437E-01
5937667.  0.1658269E+00  0.2084635E+01  0.1736048E-02 -0.1955507E-01  0.1040832E-02 -0.2631687E-01
5904333.  0.1549724E+00  0.2060145E+01  0.1813371E-02 -0.1021340E-01  0.1154069E-02 -0.1718332E-01
5871000.  0.1443107E+00  0.2011732E+01  0.1845062E-02 -0.2097875E-02  0.1222734E-02 -0.9250238E-02
5837667.  0.1339561E+00  0.1943366E+01  0.1837293E-02  0.4888001E-02  0.1252646E-02 -0.2339585E-02
5804333.  0.1240034E+00  0.1858590E+01  0.1795684E-02  0.1085738E-01  0.1248690E-02  0.3724643E-02
5771000.  0.1145306E+00  0.1760482E+01  0.1725242E-02  0.1593100E-01  0.1214854E-02  0.9110561E-02
5771000.  0.1145306E+00  0.1760547E+01  0.1725242E-02  0.1592642E-01  0.1214854E-02  0.9110561E-02
5701000.  0.9605113E-01  0.1585752E+01  0.1441642E-02  0.3568107E-01  0.1022777E-02  0.2600471E-01
5701000.  0.9605113E-01  0.1344660E+01  0.1441642E-02  0.5815514E-02  0.1022777E-02 -0.1068648E-02
5667333.  0.8925325E-01  0.1240627E+01  0.1423134E-02  0.2430147E-02  0.1015778E-02  0.3266480E-02
5633667.  0.8283219E-01  0.1193128E+01  0.1404219E-02  0.5165627E-02  0.9918762E-03  0.5603972E-02
5600000.  0.7666089E-01  0.1141192E+01  0.1370530E-02  0.7393369E-02  0.9574001E-03  0.7362464E-02
5600000.  0.7666089E-01  0.1141192E+01  0.1370530E-02  0.7393369E-02  0.9574001E-03  0.7362464E-02
5563518.  0.7029523E-01  0.1081729E+01  0.1322666E-02  0.9236082E-02  0.9112015E-03  0.8684934E-02
5527037.  0.6427652E-01  0.1020260E+01  0.1265688E-02  0.1059045E-01  0.8588437E-03  0.9532038E-02
5490556.  0.5861297E-01  0.9578371E+00  0.1202173E-02  0.1152983E-01  0.8027623E-03  0.9999171E-02
5454074.  0.5330737E-01  0.8953247E+00  0.1134321E-02  0.1211585E-01  0.7449129E-03  0.1016188E-01
5417593.  0.4835805E-01  0.8335659E+00  0.1063962E-02  0.1241615E-01  0.6868172E-03  0.1009657E-01
5381111.  0.4375871E-01  0.7731206E+00  0.9925829E-03  0.1247833E-01  0.6296209E-03  0.9854857E-02
5344630.  0.3950063E-01  0.7144933E+00  0.9214237E-03  0.1234802E-01  0.5742040E-03  0.9483259E-02
5308148.  0.3557192E-01  0.6580928E+00  0.8514521E-03  0.1206860E-01  0.5211841E-03  0.9022484E-02
5271667.  0.3195931E-01  0.6041589E+00  0.7834422E-03  0.1166839E-01  0.4709962E-03  0.8498821E-02
5235185.  0.2864779E-01  0.5529327E+00  0.7179897E-03  0.1118007E-01  0.4239213E-03  0.7939039E-02
5198704.  0.2562156E-01  0.5045546E+00  0.6555216E-03  0.1062964E-01  0.3801039E-03  0.7363811E-02
5162222.  0.2286405E-01  0.4590569E+00  0.5963462E-03  0.1003265E-01  0.3395988E-03  0.6783894E-02
5125741.  0.2035868E-01  0.4165134E+00  0.5406696E-03  0.9411319E-02  0.3023910E-03  0.6214646E-02
5089259.  0.1808847E-01  0.3768897E+00  0.4885861E-03  0.8778752E-02  0.2683915E-03  0.5663741E-02
5052778.  0.1603700E-01  0.3401268E+00  0.4401357E-03  0.8144821E-02  0.2374840E-03  0.5136012E-02
5016296.  0.1418791E-01  0.3061670E+00  0.3952885E-03  0.7521265E-02  0.2095159E-03  0.4637504E-02
4979815.  0.1252557E-01  0.2748998E+00  0.3539688E-03  0.6913991E-02  0.1843148E-03  0.4169948E-02
4943333.  0.1103478E-01  0.2462138E+00  0.3160652E-03  0.6328807E-02  0.1616986E-03  0.3734795E-02
4906852.  0.9701164E-02  0.2199915E+00  0.2814363E-03  0.5771036E-02  0.1414776E-03  0.3333492E-02
4870370.  0.8510975E-02  0.1960838E+00  0.2499194E-03  0.5241826E-02  0.1234611E-03  0.2964468E-02
4833889.  0.7451387E-02  0.1743649E+00  0.2213444E-03  0.4744307E-02  0.1074656E-03  0.2627753E-02
4797407.  0.6510205E-02  0.1546920E+00  0.1955229E-03  0.4279739E-02  0.9330740E-04  0.2322275E-02
4760926.  0.5676198E-02  0.1369169E+00  0.1722704E-03  0.3847296E-02  0.8081533E-04  0.2045660E-02
4724444.  0.4938826E-02  0.1209096E+00  0.1513992E-03  0.3447853E-02  0.6982647E-04  0.1796914E-02
4687963.  0.4288404E-02  0.1065311E+00  0.1327233E-03  0.3080424E-02  0.6018713E-04  0.1574007E-02
4651482.  0.3715971E-02  0.9364830E-01  0.1160634E-03  0.2743619E-02  0.5175563E-04  0.1374756E-02
4615000.  0.3213299E-02  0.8213985E-01  0.1012452E-03  0.2436760E-02  0.4440055E-04  0.1197669E-02
4578518.  0.2772887E-02  0.7188252E-01  0.8810304E-04  0.2157909E-02  0.3800121E-04  0.1040592E-02
4542037.  0.2387907E-02  0.6276511E-01  0.7648145E-04  0.1905585E-02  0.3244856E-04  0.9017507E-03
4505556.  0.2052121E-02  0.5468224E-01  0.6623198E-04  0.1678333E-02  0.2764223E-04  0.7796119E-03
4469074.  0.1759897E-02  0.4753119E-01  0.5721705E-04  0.1473994E-02  0.2349214E-04  0.6722251E-03
4432593.  0.1506174E-02  0.4122271E-01  0.4931021E-04  0.1291156E-02  0.1991798E-04  0.5782815E-03
4396111.  0.1286363E-02  0.3567024E-01  0.4239250E-04  0.1128115E-02  0.1684652E-04  0.4963574E-03
4359630.  0.1096380E-02  0.3079367E-01  0.3635653E-04  0.9829925E-03  0.1421344E-04  0.4249885E-03
4323148.  0.9325516E-03  0.2652218E-01  0.3110330E-04  0.8544283E-03  0.1196119E-04  0.3631457E-03
4286667.  0.7916153E-03  0.2278865E-01  0.2654281E-04  0.7408147E-03  0.1003863E-04  0.3096678E-03
4250185.  0.6706606E-03  0.1953235E-01  0.2259358E-04  0.6406712E-03  0.8400772E-05  0.2635409E-03
4213704.  0.5671179E-03  0.1669934E-01  0.1918222E-04  0.5527717E-03  0.7007969E-05  0.2239516E-03
4177222.  0.4787053E-03  0.1423897E-01  0.1624231E-04  0.4757616E-03  0.5825189E-05  0.1900417E-03
4140741.  0.4034232E-03  0.1210696E-01  0.1371500E-04  0.4085174E-03  0.4822007E-05  0.1611317E-03
4104259.  0.3395038E-03  0.1026307E-01  0.1154714E-04  0.3500119E-03  0.3971452E-05  0.1366210E-03
4067778.  0.2854083E-03  0.8670637E-02  0.9691938E-05  0.2991757E-03  0.3250150E-05  0.1159071E-03
4031296.  0.2397866E-03  0.7297879E-02  0.8107836E-05  0.2551743E-03  0.2637634E-05  0.9855143E-04
3994815.  0.2014670E-03  0.6115952E-02  0.6758108E-05  0.2171879E-03  0.2115885E-05  0.8413967E-04
3958333.  0.1694307E-03  0.5098986E-02  0.5610606E-05  0.1844123E-03  0.1669177E-05  0.7228300E-04
3921852.  0.1427995E-03  0.4224875E-02  0.4637418E-05  0.1562086E-03  0.1283711E-05  0.6270994E-04
3885370.  0.1208123E-03  0.3473596E-02  0.3814201E-05  0.1319141E-03  0.9471556E-06  0.5515478E-04
3848889.  0.1028174E-03  0.2828033E-02  0.3120393E-05  0.1109223E-03  0.6486250E-06  0.4940222E-04
3812407.  0.8825120E-04  0.2273594E-02  0.2538637E-05  0.9267584E-04  0.3782397E-06  0.4529615E-04
3775926.  0.7662923E-04  0.1798005E-02  0.2054931E-05  0.7658226E-04  0.1270232E-06  0.4268824E-04
3739444.  0.6752793E-04  0.1391728E-02  0.1658596E-05  0.6205679E-04 -0.1133053E-06  0.4147727E-04
3702963.  0.6057152E-04  0.1048037E-02  0.1342445E-05  0.4846359E-04 -0.3505081E-06  0.4158486E-04
3666482.  0.5541321E-04  0.7634383E-03  0.1103247E-05  0.3504408E-04 -0.5918955E-06  0.4292690E-04
3630000.  0.5171462E-04  0.5386614E-03  0.9424475E-06  0.2091426E-04 -0.8443598E-06  0.4543921E-04
3630000.  0.5171462E-04  0.5386614E-03  0.9424475E-06  0.2091426E-04 -0.8443598E-06  0.4543921E-04
3592500.  0.4905866E-04  0.3763389E-03  0.8664992E-06  0.4444938E-05 -0.1122168E-05  0.4913348E-04
3555000.  0.4712003E-04  0.2981579E-03  0.8971076E-06 -0.1560300E-04 -0.1424669E-05  0.5379635E-04
3517500.  0.4533427E-04  0.3298323E-03  0.1061446E-05 -0.4142139E-04 -0.1756863E-05  0.5916550E-04
3480000.  0.4294142E-04  0.5130493E-03  0.1401930E-05 -0.7604831E-04 -0.2121674E-05  0.6478214E-04
3480000.  0.4294142E-04  0.1691374E-02  0.1890029E-05  0.7512644E-04 -0.2121674E-05 -0.7215329E-04
3409422.  0.2760152E-04  0.1115311E-02  0.1210203E-05  0.4930369E-04 -0.1439384E-05 -0.5182755E-04
3338844.  0.1753979E-04  0.7270689E-03  0.7663257E-06  0.3200126E-04 -0.9560273E-06 -0.3618053E-04
3268266.  0.1101591E-04  0.4684676E-03  0.4797216E-06  0.2053705E-04 -0.6225842E-06 -0.2463876E-04
3197688.  0.6835533E-05  0.2982552E-03  0.2967742E-06  0.1302727E-04 -0.3979073E-06 -0.1640788E-04
3127109.  0.4189008E-05  0.1875678E-03  0.1813612E-06  0.8164994E-05 -0.2497385E-06 -0.1070221E-04
3056531.  0.2534297E-05  0.1164758E-03  0.1094350E-06  0.5054499E-05 -0.1539800E-06 -0.6844553E-05
2985953.  0.1512877E-05  0.7138964E-04  0.6516976E-07  0.3089046E-05 -0.9327691E-07 -0.4294872E-05
2915375.  0.8906865E-06  0.4316728E-04  0.3828087E-07  0.1862864E-05 -0.5551347E-07 -0.2645106E-05
2844797.  0.5168615E-06  0.2573765E-04  0.2216719E-07  0.1107937E-05 -0.3245322E-07 -0.1599104E-05
2774219.  0.2954484E-06  0.1512269E-04  0.1264612E-07  0.6494877E-06 -0.1863020E-07 -0.9489044E-06
2703641.  0.1662463E-06  0.8751062E-05  0.7102668E-08  0.3750304E-06 -0.1049764E-07 -0.5525636E-06
2633062.  0.9201517E-07  0.4983795E-05  0.3924399E-08  0.2131531E-06 -0.5802876E-08 -0.3156390E-06
2562484.  0.5005631E-07  0.2791284E-05  0.2131394E-08  0.1191569E-06 -0.3144847E-08 -0.1767817E-06
2491906.  0.2674003E-07  0.1536123E-05  0.1136843E-08  0.6546031E-07 -0.1669668E-08 -0.9701725E-07
2421328.  0.1401354E-07  0.8299058E-06  0.5949225E-09  0.3530740E-07 -0.8676792E-09 -0.5213141E-07
2350750.  0.7197069E-08  0.4397203E-06  0.3051261E-09  0.1867857E-07 -0.4409220E-09 -0.2740374E-07
2280172.  0.3618099E-08  0.2282385E-06  0.1531966E-09  0.9681201E-08 -0.2188558E-09 -0.1407820E-07
2209594.  0.1778150E-08  0.1159142E-06  0.7519860E-10  0.4910138E-08 -0.1059757E-09 -0.7060269E-08
2139016.  0.8531338E-09  0.5752109E-07  0.3603622E-10  0.2433673E-08 -0.4999017E-10 -0.3452210E-08
2068438.  0.3990238E-09  0.2784615E-07  0.1683121E-10  0.1177175E-08 -0.2293033E-10 -0.1643852E-08
1997859.  0.1817286E-09  0.1312011E-07  0.7644160E-11  0.5551324E-09 -0.1019567E-10 -0.7621707E-09
1927281.  0.0000000E+00  0.0000000E+00  0.0000000E+00  0.0000000E+00  0.0000000E+00  0.0000000E+00
1856703.  0.0000000E+00  0.0000000E+00  0.0000000E+00  0.0000000E+00  0.0000000E+00  0.0000000E+00
1786125.  0.0000000E+00  0.0000000E+00  0.0000000E+00  0.0000000E+00  0.0000000E+00  0.0000000E+00
1715547.  0.0000000E+00  0.0000000E+00  0.0000000E+00  0.0000000E+00  0.0000000E+00  0.0000000E+00
1644969.  0.0000000E+00  0.0000000E+00  0.0000000E+00  0.0000000E+00  0.0000000E+00  0.0000000E+00
1574391.  0.0000000E+00  0.0000000E+00  0.0000000E+00  0.0000000E+00  0.0000000E+00  0.0000000E+00
1503812.  0.0000000E+00  0.0000000E+00  0.0000000E+00  0.0000000E+00  0.0000000E+00  0.0000000E+00
1433234.  0.0000000E+00  0.0000000E+00  0.0000000E+00  0.0000000E+00  0.0000000E+00  0.0000000E+00
1362656.  0.0000000E+00  0.0000000E+00  0.0000000E+00  0.0000000E+00  0.0000000E+00  0.0000000E+00
1292078.  0.0000000E+00  0.0000000E+00  0.0000000E+00  0.0000000E+00  0.0000000E+00  0.0000000E+00
1221500.  0.0000000E+00  0.0000000E+00  0.0000000E+00  0.0000000E+00  0.0000000E+00  0.0000000E+00
1221500.  0.0000000E+00  0.0000000E+00  0.0000000E+00  0.0000000E+00  0.0000000E+00  0.0000000E+00
1183328.  0.0000000E+00  0.0000000E+00  0.0000000E+00  0.0000000E+00  0.0000000E+00  0.0000000E+00
1145156.  0.0000000E+00  0.0000000E+00  0.0000000E+00  0.0000000E+00  0.0000000E+00  0.0000000E+00
1106984.  0.0000000E+00  0.0000000E+00  0.0000000E+00  0.0000000E+00  0.0000000E+00  0.0000000E+00
1068812.  0.0000000E+00  0.0000000E+00  0.0000000E+00  0.0000000E+00  0.0000000E+00  0.0000000E+00
1030641.  0.0000000E+00  0.0000000E+00  0.0000000E+00  0.0000000E+00  0.0000000E+00  0.0000000E+00
 992469.  0.0000000E+00  0.0000000E+00  0.0000000E+00  0.0000000E+00  0.0000000E+00  0.0000000E+00
 954297.  0.0000000E+00  0.0000000E+00  0.0000000E+00  0.0000000E+00  0.0000000E+00  0.0000000E+00
 916125.  0.0000000E+00  0.0000000E+00  0.0000000E+00  0.0000000E+00  0.0000000E+00  0.0000000E+00
 877953.  0.0000000E+00  0.0000000E+00  0.0000000E+00  0.0000000E+00  0.0000000E+00  0.0000000E+00
 839781.  0.0000000E+00  0.0000000E+00  0.0000000E+00  0.0000000E+00  0.0000000E+00  0.0000000E+00
 801609.  0.0000000E+00  0.0000000E+00  0.0000000E+00  0.0000000E+00  0.0000000E+00  0.0000000E+00
 763438.  0.0000000E+00  0.0000000E+00  0.0000000E+00  0.0000000E+00  0.0000000E+00  0.0000000E+00
 725266.  0.0000000E+00  0.0000000E+00  0.0000000E+00  0.0000000E+00  0.0000000E+00  0.0000000E+00
 687094.  0.0000000E+00  0.0000000E+00  0.0000000E+00  0.0000000E+00  0.0000000E+00  0.0000000E+00
 648922.  0.0000000E+00  0.0000000E+00  0.0000000E+00  0.0000000E+00  0.0000000E+00  0.0000000E+00
 610750.  0.0000000E+00  0.0000000E+00  0.0000000E+00  0.0000000E+00  0.0000000E+00  0.0000000E+00
 572578.  0.0000000E+00  0.0000000E+00  0.0000000E+00  0.0000000E+00  0.0000000E+00  0.0000000E+00
 534406.  0.0000000E+00  0.0000000E+00  0.0000000E+00  0.0000000E+00  0.0000000E+00  0.0000000E+00
 496234.  0.0000000E+00  0.0000000E+00  0.0000000E+00  0.0000000E+00  0.0000000E+00  0.0000000E+00
 458062.  0.0000000E+00  0.0000000E+00  0.0000000E+00  0.0000000E+00  0.0000000E+00  0.0000000E+00
 419891.  0.0000000E+00  0.0000000E+00  0.0000000E+00  0.0000000E+00  0.0000000E+00  0.0000000E+00
 381719.  0.0000000E+00  0.0000000E+00  0.0000000E+00  0.0000000E+00  0.0000000E+00  0.0000000E+00
 343547.  0.0000000E+00  0.0000000E+00  0.0000000E+00  0.0000000E+00  0.0000000E+00  0.0000000E+00
 305375.  0.0000000E+00  0.0000000E+00  0.0000000E+00  0.0000000E+00  0.0000000E+00  0.0000000E+00
 267203.  0.0000000E+00  0.0000000E+00  0.0000000E+00  0.0000000E+00  0.0000000E+00  0.0000000E+00
 229031.  0.0000000E+00  0.0000000E+00  0.0000000E+00  0.0000000E+00  0.0000000E+00  0.0000000E+00
 190859.  0.0000000E+00  0.0000000E+00  0.0000000E+00  0.0000000E+00  0.0000000E+00  0.0000000E+00
 152688.  0.0000000E+00  0.0000000E+00  0.0000000E+00  0.0000000E+00  0.0000000E+00  0.0000000E+00
 114516.  0.0000000E+00  0.0000000E+00  0.0000000E+00  0.0000000E+00  0.0000000E+00  0.0000000E+00
  76344.  0.0000000E+00  0.0000000E+00  0.0000000E+00  0.0000000E+00  0.0000000E+00  0.0000000E+00
  38172.  0.0000000E+00  0.0000000E+00  0.0000000E+00  0.0000000E+00  0.0000000E+00  0.0000000E+00
      0.  0.0000000E+00  0.0000000E+00  0.0000000E+00  0.0000000E+00  0.0000000E+00  0.0000000E+00
