       4       12 S      281        241.07570         13.28385          5.63908        272.66019      185    7
6371000. -0.5636624E-01  0.6579841E+00  0.1000190E-01  0.6636814E-01 -0.1122240E-02  0.1208827E+00
6370000. -0.5646889E-01  0.6499818E+00  0.9991190E-02  0.7006460E-01 -0.1141195E-02  0.1206468E+00
6369000. -0.5657028E-01  0.6419017E+00  0.9979903E-02  0.7375532E-01 -0.1160113E-02  0.1204094E+00
6368000. -0.5667039E-01  0.6337439E+00  0.9968037E-02  0.7744008E-01 -0.1178994E-02  0.1201704E+00
6368000. -0.5667039E-01  0.6337439E+00  0.9968037E-02  0.7744008E-01 -0.1178994E-02  0.1201704E+00
6367000. -0.5676922E-01  0.6255088E+00  0.9955593E-02  0.8111864E-01 -0.1197837E-02  0.1199297E+00
6366000. -0.5686675E-01  0.6171965E+00  0.9942573E-02  0.8479078E-01 -0.1216643E-02  0.1196875E+00
6365000. -0.5696297E-01  0.6088073E+00  0.9928975E-02  0.8845626E-01 -0.1235410E-02  0.1194437E+00
6364000. -0.5705786E-01  0.6003414E+00  0.9914804E-02  0.9211486E-01 -0.1254139E-02  0.1191983E+00
6363000. -0.5715143E-01  0.5917991E+00  0.9900060E-02  0.9576635E-01 -0.1272829E-02  0.1189513E+00
6362000. -0.5724364E-01  0.5831806E+00  0.9884741E-02  0.9941051E-01 -0.1291480E-02  0.1187027E+00
6361000. -0.5733449E-01  0.5744862E+00  0.9868853E-02  0.1030471E+00 -0.1310092E-02  0.1184526E+00
6360000. -0.5742398E-01  0.5657161E+00  0.9852394E-02  0.1066759E+00 -0.1328665E-02  0.1182009E+00
6359000. -0.5751208E-01  0.5568706E+00  0.9835365E-02  0.1102967E+00 -0.1347198E-02  0.1179476E+00
6358000. -0.5759879E-01  0.5479499E+00  0.9817769E-02  0.1139093E+00 -0.1365691E-02  0.1176927E+00
6357000. -0.5768409E-01  0.5389544E+00  0.9799607E-02  0.1175134E+00 -0.1384144E-02  0.1174363E+00
6356000. -0.5776798E-01  0.5298844E+00  0.9780880E-02  0.1211088E+00 -0.1402557E-02  0.1171783E+00
6356000. -0.5776798E-01  0.4899514E+00  0.9780880E-02  0.9994058E-01 -0.1402557E-02  0.1297480E+00
6355000. -0.5784437E-01  0.4834413E+00  0.9765017E-02  0.1021756E+00 -0.1422898E-02  0.1294414E+00
6354000. -0.5791974E-01  0.4768857E+00  0.9748804E-02  0.1044056E+00 -0.1443191E-02  0.1291337E+00
6353000. -0.5799407E-01  0.4702849E+00  0.9732242E-02  0.1066305E+00 -0.1463436E-02  0.1288250E+00
6352000. -0.5806737E-01  0.4636389E+00  0.9715331E-02  0.1088502E+00 -0.1483632E-02  0.1285153E+00
6351000. -0.5813962E-01  0.4569480E+00  0.9698072E-02  0.1110647E+00 -0.1503780E-02  0.1282046E+00
6350000. -0.5821081E-01  0.4502122E+00  0.9680466E-02  0.1132737E+00 -0.1523879E-02  0.1278928E+00
6349000. -0.5828094E-01  0.4434317E+00  0.9662514E-02  0.1154773E+00 -0.1543928E-02  0.1275799E+00
6348000. -0.5835001E-01  0.4366067E+00  0.9644215E-02  0.1176754E+00 -0.1563929E-02  0.1272661E+00
6347000. -0.5841801E-01  0.4297374E+00  0.9625572E-02  0.1198678E+00 -0.1583880E-02  0.1269512E+00
6346600. -0.5844490E-01  0.4269772E+00  0.9618019E-02  0.1207432E+00 -0.1591847E-02  0.1268250E+00
6346600. -0.5844490E-01  0.5680124E+00  0.9618019E-02  0.1037145E+00 -0.1591847E-02  0.1472039E+00
6318800. -0.6060155E-01  0.4158886E+00  0.9074036E-02  0.1450179E+00 -0.2214112E-02  0.1379310E+00
6291000. -0.6203577E-01  0.2372594E+00  0.8358358E-02  0.1822567E+00 -0.2794906E-02  0.1281967E+00
6291000. -0.6203577E-01  0.2527558E+00  0.8358358E-02  0.1866461E+00 -0.2794906E-02  0.1281967E+00
6263000. -0.6269388E-01  0.4276583E-01  0.7460792E-02  0.2208424E+00 -0.3336278E-02  0.1180861E+00
6235000. -0.6237953E-01 -0.1891046E+00  0.6426290E-02  0.2488330E+00 -0.3832160E-02  0.1074959E+00
6207000. -0.6100613E-01 -0.4383738E+00  0.5283699E-02  0.2699306E+00 -0.4280457E-02  0.9643341E-01
6179000. -0.5850832E-01 -0.6998870E+00  0.4064500E-02  0.2836253E+00 -0.4679115E-02  0.8490842E-01
6151000. -0.5484470E-01 -0.9679036E+00  0.2802006E-02  0.2895961E+00 -0.5026132E-02  0.7293615E-01
6151000. -0.5484470E-01 -0.7348289E+00  0.2802006E-02  0.2612350E+00 -0.5026132E-02  0.7597046E-01
6128500. -0.5196906E-01 -0.8929980E+00  0.1882405E-02  0.2588864E+00 -0.5281380E-02  0.6857992E-01
6106000. -0.4854330E-01 -0.1046043E+01  0.9779837E-03  0.2526676E+00 -0.5510549E-02  0.6120522E-01
6083500. -0.4458908E-01 -0.1191942E+01  0.1020713E-03  0.2427784E+00 -0.5713735E-02  0.5387003E-01
6061000. -0.4013509E-01 -0.1328780E+01 -0.7327871E-03  0.2294625E+00 -0.5891121E-02  0.4659780E-01
6038500. -0.3521648E-01 -0.1454781E+01 -0.1514983E-02  0.2130062E+00 -0.6042966E-02  0.3940953E-01
6016000. -0.2987445E-01 -0.1568315E+01 -0.2233985E-02  0.1937304E+00 -0.6169602E-02  0.3232478E-01
5993500. -0.2415567E-01 -0.1667922E+01 -0.2880441E-02  0.1719833E+00 -0.6271429E-02  0.2536223E-01
5971000. -0.1811160E-01 -0.1752343E+01 -0.3446278E-02  0.1481383E+00 -0.6348906E-02  0.1853791E-01
5971000. -0.1811160E-01 -0.1602329E+01 -0.3446278E-02  0.1335423E+00 -0.6348906E-02  0.2090887E-01
5937667. -0.9595714E-02 -0.1647341E+01 -0.4048146E-02  0.9652098E-01 -0.6436962E-02  0.1287388E-01
5904333. -0.9307272E-03 -0.1659481E+01 -0.4457181E-02  0.6000818E-01 -0.6484916E-02  0.5582771E-02
5871000.  0.7715457E-02 -0.1640617E+01 -0.4678712E-02  0.2499649E-01 -0.6496704E-02 -0.9504241E-03
5837667.  0.1618705E-01 -0.1593190E+01 -0.4722728E-02 -0.7736626E-02 -0.6476287E-02 -0.6729519E-02
5804333.  0.2434221E-01 -0.1520067E+01 -0.4602746E-02 -0.3761117E-01 -0.6427567E-02 -0.1177312E-01
5771000.  0.3205409E-01 -0.1424376E+01 -0.4334859E-02 -0.6422392E-01 -0.6354319E-02 -0.1611272E-01
5771000.  0.3205409E-01 -0.1424434E+01 -0.4334859E-02 -0.6422313E-01 -0.6354319E-02 -0.1611272E-01
5701000.  0.4670375E-01 -0.1225509E+01 -0.3349538E-02 -0.1134209E+00 -0.6143469E-02 -0.2198468E-01
5701000.  0.4670375E-01 -0.1044303E+01 -0.3349538E-02 -0.1013073E+00 -0.6143469E-02 -0.3514878E-01
5667333.  0.5180144E-01 -0.8929949E+00 -0.2786316E-02 -0.1118325E+00 -0.5958111E-02 -0.3492099E-01
5633667.  0.5620506E-01 -0.7747884E+00 -0.2166013E-02 -0.1228912E+00 -0.5774371E-02 -0.3463575E-01
5600000.  0.5996506E-01 -0.6462100E+00 -0.1491696E-02 -0.1318998E+00 -0.5592374E-02 -0.3420836E-01
5600000.  0.5996506E-01 -0.6462100E+00 -0.1491696E-02 -0.1318998E+00 -0.5592374E-02 -0.3420836E-01
5563518.  0.6324318E-01 -0.4972765E+00 -0.7142227E-03 -0.1392234E+00 -0.5398226E-02 -0.3357216E-01
5527037.  0.6564537E-01 -0.3406832E+00  0.9787671E-04 -0.1440007E+00 -0.5208208E-02 -0.3277148E-01
5490556.  0.6713459E-01 -0.1787882E+00  0.9300739E-03 -0.1462489E+00 -0.5023190E-02 -0.3183033E-01
5454074.  0.6768731E-01 -0.1397690E-01  0.1768048E-02 -0.1460245E+00 -0.4843887E-02 -0.3077678E-01
5417593.  0.6729373E-01  0.1513363E+00  0.2597886E-02 -0.1434353E+00 -0.4670920E-02 -0.2962194E-01
5381111.  0.6595761E-01  0.3148455E+00  0.3406452E-02 -0.1386113E+00 -0.4504786E-02 -0.2839272E-01
5344630.  0.6369584E-01  0.4743012E+00  0.4181362E-02 -0.1317184E+00 -0.4345861E-02 -0.2710817E-01
5308148.  0.6053755E-01  0.6276110E+00  0.4911360E-02 -0.1229502E+00 -0.4194415E-02 -0.2578218E-01
5271667.  0.5652391E-01  0.7727733E+00  0.5586244E-02 -0.1125122E+00 -0.4050624E-02 -0.2443907E-01
5235185.  0.5170653E-01  0.9080189E+00  0.6197143E-02 -0.1006352E+00 -0.3914541E-02 -0.2309015E-01
5198704.  0.4614709E-01  0.1031749E+01  0.6736467E-02 -0.8755766E-01 -0.3786177E-02 -0.2174727E-01
5162222.  0.3991554E-01  0.1142503E+01  0.7198049E-02 -0.7351890E-01 -0.3665430E-02 -0.2043042E-01
5125741.  0.3308985E-01  0.1239154E+01  0.7577084E-02 -0.5877148E-01 -0.3552144E-02 -0.1914338E-01
5089259.  0.2575328E-01  0.1320727E+01  0.7870229E-02 -0.4355663E-01 -0.3446116E-02 -0.1789625E-01
5052778.  0.1799492E-01  0.1386442E+01  0.8075478E-02 -0.2811367E-01 -0.3347094E-02 -0.1669818E-01
5016296.  0.9906566E-02  0.1435852E+01  0.8192202E-02 -0.1267307E-01 -0.3254784E-02 -0.1555174E-01
4979815.  0.1583021E-02  0.1468630E+01  0.8221037E-02  0.2548088E-02 -0.3168883E-02 -0.1446100E-01
4943333. -0.6880623E-02  0.1484721E+01  0.8163828E-02  0.1734689E-01 -0.3089061E-02 -0.1342741E-01
4906852. -0.1538882E-01  0.1484310E+01  0.8023539E-02  0.3153751E-01 -0.3014997E-02 -0.1245069E-01
4870370. -0.2384824E-01  0.1467671E+01  0.7804129E-02  0.4495350E-01 -0.2946370E-02 -0.1152739E-01
4833889. -0.3216705E-01  0.1435391E+01  0.7510481E-02  0.5744655E-01 -0.2882881E-02 -0.1065610E-01
4797407. -0.4025815E-01  0.1388180E+01  0.7148230E-02  0.6889296E-01 -0.2824240E-02 -0.9832079E-02
4760926. -0.4803777E-01  0.1326834E+01  0.6723698E-02  0.7918689E-01 -0.2770211E-02 -0.9044765E-02
4724444. -0.5542836E-01  0.1252404E+01  0.6243709E-02  0.8824684E-01 -0.2720588E-02 -0.8292110E-02
4687963. -0.6235769E-01  0.1165978E+01  0.5715538E-02  0.9601237E-01 -0.2675201E-02 -0.7563119E-02
4651482. -0.6876056E-01  0.1068738E+01  0.5146706E-02  0.1024435E+00 -0.2633955E-02 -0.6844807E-02
4615000. -0.7457897E-01  0.9619981E+00  0.4544902E-02  0.1075216E+00 -0.2596796E-02 -0.6133060E-02
4578518. -0.7976207E-01  0.8470658E+00  0.3917897E-02  0.1112470E+00 -0.2563738E-02 -0.5409989E-02
4542037. -0.8426677E-01  0.7253289E+00  0.3273412E-02  0.1136372E+00 -0.2534883E-02 -0.4664206E-02
4505556. -0.8805826E-01  0.5981852E+00  0.2618985E-02  0.1147271E+00 -0.2510376E-02 -0.3888209E-02
4469074. -0.9110959E-01  0.4670042E+00  0.1961903E-02  0.1145672E+00 -0.2490467E-02 -0.3055196E-02
4432593. -0.9340146E-01  0.3331806E+00  0.1309189E-02  0.1132189E+00 -0.2475503E-02 -0.2160216E-02
4396111. -0.9492272E-01  0.1980462E+00  0.6674075E-03  0.1107562E+00 -0.2465876E-02 -0.1186444E-02
4359630. -0.9566953E-01  0.6290810E-01  0.4273285E-04  0.1072644E+00 -0.2462124E-02 -0.1055593E-03
4323148. -0.9564545E-01 -0.7101361E-01 -0.5592253E-03  0.1028314E+00 -0.2464876E-02  0.1087263E-02
4286667. -0.9486084E-01 -0.2025413E+00 -0.1133321E-02  0.9755520E-01 -0.2474843E-02  0.2419487E-02
4250185. -0.9333252E-01 -0.3305891E+00 -0.1675045E-02  0.9153626E-01 -0.2492900E-02  0.3915590E-02
4213704. -0.9108336E-01 -0.4541734E+00 -0.2180398E-02  0.8487366E-01 -0.2520022E-02  0.5590176E-02
4177222. -0.8814148E-01 -0.5723717E+00 -0.2646020E-02  0.7767166E-01 -0.2557332E-02  0.7478973E-02
4140741. -0.8454024E-01 -0.6843810E+00 -0.3069084E-02  0.7002948E-01 -0.2606129E-02  0.9606015E-02
4104259. -0.8031686E-01 -0.7895209E+00 -0.3447359E-02  0.6204038E-01 -0.2667847E-02  0.1199840E-01
4067778. -0.7551287E-01 -0.8871197E+00 -0.3779121E-02  0.5380205E-01 -0.2744141E-02  0.1470393E-01
4031296. -0.7017258E-01 -0.9767231E+00 -0.4063197E-02  0.4539467E-01 -0.2836894E-02  0.1775199E-01
3994815. -0.6434325E-01 -0.1057906E+01 -0.4298823E-02  0.3689526E-01 -0.2948181E-02  0.2118777E-01
3958333. -0.5807399E-01 -0.1130279E+01 -0.4485703E-02  0.2837744E-01 -0.3080405E-02  0.2507252E-01
3921852. -0.5141615E-01 -0.1193663E+01 -0.4623879E-02  0.1989412E-01 -0.3236266E-02  0.2945453E-01
3885370. -0.4442144E-01 -0.1247835E+01 -0.4713697E-02  0.1149410E-01 -0.3418816E-02  0.3440541E-01
3848889. -0.3714349E-01 -0.1292652E+01 -0.4755747E-02  0.3214148E-02 -0.3631528E-02  0.4000475E-01
3812407. -0.2963553E-01 -0.1328092E+01 -0.4750768E-02 -0.4929184E-02 -0.3878362E-02  0.4633728E-01
3775926. -0.2195201E-01 -0.1354024E+01 -0.4699581E-02 -0.1292515E-01 -0.4163805E-02  0.5351127E-01
3739444. -0.1414705E-01 -0.1370438E+01 -0.4603006E-02 -0.2078471E-01 -0.4493027E-02  0.6164633E-01
3702963. -0.6275583E-02 -0.1377308E+01 -0.4461754E-02 -0.2853700E-01 -0.4871897E-02  0.7088095E-01
3666482.  0.1607404E-02 -0.1374437E+01 -0.4276324E-02 -0.3622404E-01 -0.5307185E-02  0.8138136E-01
3630000.  0.9446093E-02 -0.1361734E+01 -0.4046897E-02 -0.4391485E-01 -0.5806688E-02  0.9333944E-01
3630000.  0.9446093E-02 -0.1361734E+01 -0.4046897E-02 -0.4391485E-01 -0.5806688E-02  0.9333944E-01
3592500.  0.1739695E-01 -0.1338058E+01 -0.3764939E-02 -0.5191673E-01 -0.6396490E-02  0.1073857E+00
3555000.  0.2517570E-01 -0.1303168E+01 -0.3435298E-02 -0.6014035E-01 -0.7074889E-02  0.1234959E+00
3517500.  0.3271466E-01 -0.1256446E+01 -0.3056217E-02 -0.6874534E-01 -0.7855013E-02  0.1420123E+00
3480000.  0.3994134E-01 -0.1196863E+01 -0.2624892E-02 -0.7792801E-01 -0.8752168E-02  0.1633333E+00
3480000.  0.3994134E-01  0.2043414E+00  0.5831988E-02  0.6234440E-01 -0.8752168E-02  0.3596478E-01
3409422.  0.3735767E-01  0.2583964E+00  0.5152495E-02  0.6011929E-01 -0.8875008E-02 -0.1094744E-01
3338844.  0.3429236E-01  0.2918561E+00  0.4503995E-02  0.5680672E-01 -0.8565763E-02 -0.4263744E-01
3268266.  0.3095489E-01  0.3080961E+00  0.3896701E-02  0.5273003E-01 -0.7974248E-02 -0.6241800E-01
3197688.  0.2751741E-01  0.3104568E+00  0.3337485E-02  0.4817032E-01 -0.7216342E-02 -0.7310759E-01
3127109.  0.2411592E-01  0.3020925E+00  0.2830327E-02  0.4336675E-01 -0.6379282E-02 -0.7706197E-01
3056531.  0.2085322E-01  0.2858550E+00  0.2376814E-02  0.3851564E-01 -0.5526632E-02 -0.7621352E-01
2985953.  0.1780233E-01  0.2642361E+00  0.1976573E-02  0.3377150E-01 -0.4702650E-02 -0.7211612E-01
2915375.  0.1501084E-01  0.2393436E+00  0.1627743E-02  0.2925083E-01 -0.3936280E-02 -0.6599064E-01
2844797.  0.1250512E-01  0.2128989E+00  0.1327356E-02  0.2503682E-01 -0.3244568E-02 -0.5877183E-01
2774219.  0.1029453E-01  0.1862590E+00  0.1071692E-02  0.2118338E-01 -0.2635582E-02 -0.5115326E-01
2703641.  0.8375267E-02  0.1604475E+00  0.8565746E-03  0.1771969E-01 -0.2110847E-02 -0.4362911E-01
2633062.  0.6733843E-02  0.1361944E+00  0.6776155E-03  0.1465520E-01 -0.1667335E-02 -0.3653231E-01
2562484.  0.5350161E-02  0.1139808E+00  0.5304171E-03  0.1198405E-01 -0.1299078E-02 -0.3006923E-01
2491906.  0.4199921E-02  0.9408005E-01  0.4107094E-03  0.9688308E-02 -0.9983698E-03 -0.2434857E-01
2421328.  0.3256763E-02  0.7660121E-01  0.3144719E-03  0.7741961E-02 -0.7567274E-03 -0.1940692E-01
2350750.  0.2493853E-02  0.6152677E-01  0.2380029E-03  0.6113835E-02 -0.5655626E-03 -0.1522974E-01
2280172.  0.1885093E-02  0.4874706E-01  0.1779645E-03  0.4769815E-02 -0.4166511E-03 -0.1176841E-01
2209594.  0.1405971E-02  0.3808951E-01  0.1314030E-03  0.3674923E-02 -0.3024332E-03 -0.8953530E-02
2139016.  0.1034122E-02  0.2934308E-01  0.9574988E-04  0.2794822E-02 -0.2161837E-03 -0.6705333E-02
2068438.  0.7496367E-03  0.2227791E-01  0.6880828E-04  0.2096939E-02 -0.1520826E-03 -0.4941195E-02
1997859.  0.5351836E-03  0.1666059E-01  0.4872833E-04  0.1551204E-02 -0.1052149E-03 -0.3581014E-02
1927281.  0.3759892E-03  0.1226569E-01  0.3397800E-04  0.1130544E-02 -0.7152370E-04 -0.2550733E-02
1856703.  0.2596887E-03  0.8883232E-02  0.2330667E-04  0.8110861E-03 -0.4772770E-04 -0.1784281E-02
1786125.  0.1761352E-03  0.6323984E-02  0.1571037E-04  0.5722156E-03 -0.3122877E-04 -0.1224586E-02
1715547.  0.1171501E-03  0.4422079E-02  0.1039599E-04  0.3964491E-03 -0.2001049E-04 -0.8236713E-03
1644969.  0.7625759E-04  0.3036033E-02  0.6747734E-05  0.2692161E-03 -0.1253935E-04 -0.5422153E-03
1574391.  0.4841447E-04  0.2048647E-02  0.4296528E-05  0.1785349E-03 -0.7673026E-05 -0.3487655E-03
1503812.  0.2974262E-04  0.1366693E-02  0.2693524E-05  0.1146012E-03 -0.4578526E-05 -0.2187503E-03
1433234.  0.1726212E-04  0.9217196E-03  0.1688948E-05  0.6923124E-04 -0.2661841E-05 -0.1334442E-03
1362656.  0.8594930E-05  0.6747827E-03  0.1118551E-05  0.3496025E-04 -0.1508614E-05 -0.7895847E-04
1292078.  0.1565681E-05  0.6326747E-03  0.9042856E-06  0.3266555E-05 -0.8355271E-06 -0.4541534E-04
1221500. -0.6525669E-05  0.8962310E-03  0.1085964E-05 -0.3969210E-04 -0.4488767E-06 -0.2649060E-04
1221500. -0.6525669E-05  0.3909333E-04  0.4774007E-07  0.3428505E-04 -0.4488767E-06 -0.2366365E-04
1183328. -0.6411547E-05 -0.6738217E-04 -0.1058706E-06  0.1806093E-04 -0.3246682E-06 -0.1799466E-04
1145156. -0.5817168E-05 -0.1241727E-03 -0.1797816E-06  0.7404626E-05 -0.2310115E-06 -0.1344336E-04
1106984. -0.4991157E-05 -0.1469968E-03 -0.2027116E-06  0.8205728E-06 -0.1616271E-06 -0.9867385E-05
1068812. -0.4099254E-05 -0.1478997E-03 -0.1953477E-06 -0.2882960E-05 -0.1111267E-06 -0.7114402E-05
1030641. -0.3244613E-05 -0.1358280E-03 -0.1720513E-06 -0.4632274E-05 -0.7502780E-07 -0.5036677E-05
 992469. -0.2484632E-05 -0.1171756E-03 -0.1423303E-06 -0.5127127E-05 -0.4969538E-07 -0.3498998E-05
 954297. -0.1844821E-05 -0.9629547E-04 -0.1120856E-06 -0.4878486E-05 -0.3225747E-07 -0.2383309E-05
 916125. -0.1329545E-05 -0.7595765E-04 -0.8463100E-07 -0.4244676E-05 -0.2049318E-07 -0.1590063E-05
 877953. -0.9303002E-06 -0.5774863E-04 -0.6150667E-07 -0.3464444E-05 -0.1272347E-07 -0.1037770E-05
 839781. -0.6317661E-06 -0.4240869E-04 -0.4310856E-07 -0.2685538E-05 -0.7706698E-08 -0.6615989E-06
 801609. -0.4160167E-06 -0.3010801E-04 -0.2915564E-07 -0.1989957E-05 -0.4544927E-08 -0.4112775E-06
 763438. -0.2652665E-06 -0.2066224E-04 -0.1902176E-07 -0.1414013E-05 -0.2603606E-08 -0.2487872E-06
 725266. -0.1634681E-06 -0.1369448E-04 -0.1195741E-07 -0.9646810E-06 -0.1444851E-08 -0.1460844E-06
 687094. -0.9711935E-07 -0.8751704E-05 -0.7228741E-08 -0.6317429E-06 -0.7742733E-09 -0.8302941E-07
 648922. -0.5545965E-07 -0.5380455E-05 -0.4191629E-08 -0.3965893E-06 -0.3991722E-09 -0.4552263E-07
 610750. -0.3032596E-07 -0.3172475E-05 -0.2323285E-08 -0.2380993E-06 -0.1971020E-09 -0.2397942E-07
 572578. -0.1580567E-07 -0.1787025E-05 -0.1225527E-08 -0.1362418E-06 -0.9271955E-10 -0.1207698E-07
 534406. -0.7807343E-08 -0.9569061E-06 -0.6118697E-09 -0.7396296E-07 -0.4128576E-10 -0.5781330E-08
 496234. -0.3629320E-08 -0.4840730E-06 -0.2871554E-09 -0.3786959E-07 -0.1726431E-10 -0.2611623E-08
 458062. -0.1573784E-08 -0.2295272E-06 -0.1255791E-09 -0.1814745E-07 -0.6713657E-11 -0.1103351E-08
 419891. -0.6295125E-09 -0.1009892E-06 -0.5061103E-10 -0.8059351E-08 -0.2398078E-11 -0.4310427E-09
 381719. -0.2289220E-09 -0.4069446E-07 -0.1852768E-10 -0.3274230E-08 -0.7743133E-12 -0.1534520E-09
 343547. -0.7424873E-10 -0.1476042E-07 -0.6044603E-11 -0.1196108E-08 -0.2213133E-12 -0.4883389E-10
 305375. -0.2092765E-10 -0.4706901E-08 -0.1712469E-11 -0.3837920E-09 -0.5442275E-13 -0.1353455E-10
 267203. -0.4942311E-11 -0.1276603E-08 -0.4062116E-12 -0.1046470E-09 -0.1106384E-13 -0.3149631E-11
 229031. -0.9270016E-12 -0.2805166E-09 -0.7647810E-13 -0.2309863E-10 -0.1753891E-14 -0.5833120E-12
 190859. -0.1270929E-12 -0.4631090E-10 -0.1051810E-13 -0.3827687E-11 -0.1980253E-15 -0.7912312E-13
 152688. -0.1108465E-13 -0.5062217E-11 -0.9195834E-15 -0.4196144E-12 -0.1368280E-16 -0.6838471E-14
 114516.  0.0000000E+00  0.0000000E+00  0.0000000E+00  0.0000000E+00  0.0000000E+00  0.0000000E+00
  76344.  0.0000000E+00  0.0000000E+00  0.0000000E+00  0.0000000E+00  0.0000000E+00  0.0000000E+00
  38172.  0.0000000E+00  0.0000000E+00  0.0000000E+00  0.0000000E+00  0.0000000E+00  0.0000000E+00
      0.  0.0000000E+00  0.0000000E+00  0.0000000E+00  0.0000000E+00  0.0000000E+00  0.0000000E+00
