      20       10 S      701        101.01320         37.74159          3.91545        240.25000      185    7
6371000. -0.1879502E-01 -0.1928730E+00 -0.4803767E-02  0.1399125E-01  0.1468940E-03  0.3382717E-01
6370000. -0.1876366E-01 -0.2066951E+00 -0.4805067E-02  0.2571312E-02  0.1415770E-03  0.3392151E-01
6369000. -0.1873014E-01 -0.2203603E+00 -0.4804573E-02 -0.8858039E-02  0.1362455E-03  0.3401195E-01
6368000. -0.1869449E-01 -0.2338670E+00 -0.4802286E-02 -0.2029251E-01  0.1309001E-03  0.3409848E-01
6368000. -0.1869449E-01 -0.2338670E+00 -0.4802286E-02 -0.2029251E-01  0.1309001E-03  0.3409848E-01
6367000. -0.1865673E-01 -0.2472137E+00 -0.4798203E-02 -0.3172782E-01  0.1255414E-03  0.3418111E-01
6366000. -0.1861689E-01 -0.2603985E+00 -0.4792326E-02 -0.4315965E-01  0.1201701E-03  0.3425981E-01
6365000. -0.1857500E-01 -0.2734202E+00 -0.4784655E-02 -0.5458372E-01  0.1147867E-03  0.3433458E-01
6364000. -0.1853107E-01 -0.2862771E+00 -0.4775192E-02 -0.6599575E-01  0.1093919E-03  0.3440540E-01
6363000. -0.1848513E-01 -0.2989680E+00 -0.4763938E-02 -0.7739142E-01  0.1039863E-03  0.3447228E-01
6362000. -0.1843722E-01 -0.3114915E+00 -0.4750898E-02 -0.8876645E-01  0.9857047E-04  0.3453518E-01
6361000. -0.1838736E-01 -0.3238463E+00 -0.4736074E-02 -0.1001166E+00  0.9314511E-04  0.3459412E-01
6360000. -0.1833557E-01 -0.3360314E+00 -0.4719470E-02 -0.1114375E+00  0.8771081E-04  0.3464908E-01
6359000. -0.1828188E-01 -0.3480456E+00 -0.4701093E-02 -0.1227249E+00  0.8226819E-04  0.3470005E-01
6358000. -0.1822632E-01 -0.3598878E+00 -0.4680946E-02 -0.1339747E+00  0.7681789E-04  0.3474704E-01
6357000. -0.1816891E-01 -0.3715572E+00 -0.4659037E-02 -0.1451825E+00  0.7136053E-04  0.3479002E-01
6356000. -0.1810969E-01 -0.3830529E+00 -0.4635373E-02 -0.1563441E+00  0.6589673E-04  0.3482899E-01
6356000. -0.1810969E-01 -0.2914653E+00 -0.4635373E-02 -0.8901472E-01  0.6589673E-04  0.3876945E-01
6355000. -0.1806326E-01 -0.3000476E+00 -0.4620818E-02 -0.9643759E-01  0.5980589E-04  0.3883944E-01
6354000. -0.1801550E-01 -0.3085213E+00 -0.4605100E-02 -0.1038416E+00  0.5370432E-04  0.3890625E-01
6353000. -0.1796642E-01 -0.3168859E+00 -0.4588221E-02 -0.1112249E+00  0.4759252E-04  0.3896987E-01
6352000. -0.1791603E-01 -0.3251407E+00 -0.4570185E-02 -0.1185857E+00  0.4147097E-04  0.3903030E-01
6351000. -0.1786436E-01 -0.3332855E+00 -0.4550995E-02 -0.1259219E+00  0.3534020E-04  0.3908752E-01
6350000. -0.1781141E-01 -0.3413198E+00 -0.4530657E-02 -0.1332319E+00  0.2920069E-04  0.3914154E-01
6349000. -0.1775721E-01 -0.3492430E+00 -0.4509172E-02 -0.1405138E+00  0.2305295E-04  0.3919235E-01
6348000. -0.1770178E-01 -0.3570549E+00 -0.4486548E-02 -0.1477657E+00  0.1689750E-04  0.3923994E-01
6347000. -0.1764513E-01 -0.3647551E+00 -0.4462787E-02 -0.1549857E+00  0.1073482E-04  0.3928431E-01
6346600. -0.1762214E-01 -0.3678038E+00 -0.4452966E-02 -0.1578644E+00  0.8267846E-05  0.3930116E-01
6346600. -0.1762214E-01 -0.3122978E+00 -0.4452966E-02 -0.1022862E+00  0.8267846E-05  0.4544574E-01
6318800. -0.1596409E-01 -0.4370080E+00 -0.3681434E-02 -0.2472750E+00 -0.1926739E-03  0.4630785E-01
6291000. -0.1389901E-01 -0.4997219E+00 -0.2345631E-02 -0.3576190E+00 -0.3928034E-03  0.4507006E-01
6291000. -0.1389901E-01 -0.5079070E+00 -0.2345631E-02 -0.3698226E+00 -0.3928034E-03  0.4507006E-01
6263000. -0.1163553E-01 -0.5144231E+00 -0.5650242E-03 -0.4300955E+00 -0.5840849E-03  0.4163063E-01
6235000. -0.9429267E-02 -0.4856431E+00  0.1338560E-02 -0.4249958E+00 -0.7558124E-03  0.3620305E-01
6207000. -0.7383217E-02 -0.4456557E+00  0.3075041E-02 -0.3549977E+00 -0.8997269E-03  0.2901921E-01
6179000. -0.5493330E-02 -0.4182623E+00  0.4378872E-02 -0.2306376E+00 -0.1008763E-02  0.2038773E-01
6151000. -0.3660361E-02 -0.4222408E+00  0.5050127E-02 -0.7084468E-01 -0.1077348E-02  0.1067673E-01
6151000. -0.3660361E-02 -0.2942882E+00  0.5050127E-02 -0.6121952E-01 -0.1077348E-02  0.1087925E-01
6128500. -0.2600687E-02 -0.3103099E+00  0.5048470E-02  0.6189248E-01 -0.1102977E-02  0.3598043E-02
6106000. -0.1437422E-02 -0.3526283E+00  0.4621197E-02  0.1780421E+00 -0.1102614E-02 -0.3808339E-02
6083500. -0.8329760E-04 -0.4174812E+00  0.3810952E-02  0.2772270E+00 -0.1076151E-02 -0.1115231E-01
6061000.  0.1529709E-02 -0.4978302E+00  0.2692872E-02  0.3511784E+00 -0.1024133E-02 -0.1824988E-01
6038500.  0.3440029E-02 -0.5841006E+00  0.1367209E-02  0.3940333E+00 -0.9477446E-03 -0.2492543E-01
6016000.  0.5649190E-02 -0.6651412E+00 -0.4999726E-04  0.4027650E+00 -0.8487678E-03 -0.3101608E-01
5993500.  0.8118175E-02 -0.7293351E+00 -0.1437312E-02  0.3773517E+00 -0.7295314E-03 -0.3637589E-01
5971000.  0.1076782E-01 -0.7657475E+00 -0.2678443E-02  0.3206910E+00 -0.5928450E-03 -0.4087914E-01
5971000.  0.1076782E-01 -0.7034460E+00 -0.2678443E-02  0.2837810E+00 -0.5928450E-03 -0.4228874E-01
5937667.  0.1438243E-01 -0.6651785E+00 -0.3852367E-02  0.1604245E+00 -0.3589516E-03 -0.4673763E-01
5904333.  0.1758892E-01 -0.5473748E+00 -0.4331549E-02  0.2234964E-01 -0.1078482E-03 -0.4885598E-01
5871000.  0.1998219E-01 -0.3564706E+00 -0.4101811E-02 -0.1069677E+00  0.1482397E-03 -0.4865946E-01
5837667.  0.2122229E-01 -0.1103190E+00 -0.3260509E-02 -0.2088399E+00  0.3975231E-03 -0.4628716E-01
5804333.  0.2108480E-01  0.1654157E+00 -0.1985565E-02 -0.2713453E+00  0.6292119E-03 -0.4197781E-01
5771000.  0.1949079E-01  0.4415277E+00 -0.4981732E-03 -0.2898979E+00  0.8339506E-03 -0.3604461E-01
5771000.  0.1949079E-01  0.4415289E+00 -0.4981732E-03 -0.2898892E+00  0.8339506E-03 -0.3604461E-01
5701000.  0.1162787E-01  0.9571258E+00  0.2426633E-02 -0.2144329E+00  0.1138179E-02 -0.1857575E-01
5701000.  0.1162787E-01  0.8042971E+00  0.2426633E-02 -0.1717629E+00  0.1138179E-02 -0.2185322E-01
5667333.  0.7137830E-02  0.8904753E+00  0.3127269E-02 -0.9423663E-01  0.1233276E-02 -0.1418040E-01
5633667.  0.2258829E-02  0.9484535E+00  0.3424279E-02 -0.1752025E-01  0.1287991E-02 -0.6481521E-02
5600000. -0.2760067E-02  0.9390980E+00  0.3309001E-02  0.6062836E-01  0.1301402E-02  0.1411191E-02
5600000. -0.2760067E-02  0.9390980E+00  0.3309001E-02  0.6062836E-01  0.1301402E-02  0.1411191E-02
5563518. -0.7930993E-02  0.8546532E+00  0.2737130E-02  0.1368182E+00  0.1269020E-02  0.9857566E-02
5527037. -0.1241837E-01  0.7026405E+00  0.1777015E-02  0.1948099E+00  0.1189255E-02  0.1791507E-01
5490556. -0.1588007E-01  0.4996359E+00  0.5547008E-03  0.2274638E+00  0.1065102E-02  0.2531961E-01
5454074. -0.1808382E-01  0.2671202E+00 -0.7720423E-03  0.2309371E+00  0.9009726E-03  0.3184083E-01
5417593. -0.1892869E-01  0.2906319E-01 -0.2033904E-02  0.2050988E+00  0.7025160E-03  0.3728157E-01
5381111. -0.1845112E-01 -0.1910311E+00 -0.3071259E-02  0.1533562E+00  0.4763643E-03  0.4149006E-01
5344630. -0.1681494E-01 -0.3725602E+00 -0.3752996E-02  0.8219498E-01  0.2299263E-03  0.4435384E-01
5308148. -0.1428788E-01 -0.5001281E+00 -0.3992005E-02  0.2919009E-03 -0.2888697E-04  0.4580190E-01
5271667. -0.1120755E-01 -0.5649897E+00 -0.3754538E-02 -0.8256098E-01 -0.2918587E-03  0.4580763E-01
5235185. -0.7940019E-02 -0.5658995E+00 -0.3063304E-02 -0.1566399E+00 -0.5507587E-03  0.4438232E-01
5198704. -0.4837634E-02 -0.5089089E+00 -0.1993827E-02 -0.2134059E+00 -0.7975035E-03  0.4157629E-01
5162222. -0.2199147E-02 -0.4063622E+00 -0.6648112E-03 -0.2464269E+00 -0.1024436E-02  0.3747778E-01
5125741. -0.2381643E-03 -0.2754376E+00  0.7759958E-03 -0.2521259E+00 -0.1224475E-02  0.3220766E-01
5089259.  0.9385992E-03 -0.1358041E+00  0.2169375E-02 -0.2300320E+00 -0.1391341E-02  0.2591740E-01
5052778.  0.1338643E-02 -0.7369739E-02  0.3362212E-02 -0.1827825E+00 -0.1519684E-02  0.1878615E-01
5016296.  0.1078686E-02  0.9204354E-01  0.4224829E-02 -0.1157801E+00 -0.1605263E-02  0.1101496E-01
4979815.  0.3663538E-03  0.1488035E+00  0.4664626E-02 -0.3648189E-01 -0.1645028E-02  0.2822917E-02
4943333. -0.5283808E-03  0.1549443E+00  0.4635692E-02  0.4644123E-01 -0.1637227E-02 -0.5559785E-02
4906852. -0.1308284E-02  0.1090319E+00  0.4142904E-02  0.1240806E+00 -0.1581444E-02 -0.1389671E-01
4870370. -0.1687305E-02  0.1632711E-01  0.3240474E-02  0.1882553E+00 -0.1478611E-02 -0.2195340E-01
4833889. -0.1427117E-02 -0.1119109E+00  0.2025351E-02  0.2323827E+00 -0.1330995E-02 -0.2950298E-01
4797407. -0.3681353E-03 -0.2596900E+00  0.6258297E-03  0.2521358E+00 -0.1142103E-02 -0.3633461E-01
4760926.  0.1548029E-02 -0.4080260E+00 -0.8122385E-03  0.2458121E+00 -0.9166138E-03 -0.4225807E-01
4724444.  0.4268076E-02 -0.5372078E+00 -0.2141488E-02  0.2145247E+00 -0.6601924E-03 -0.4711160E-01
4687963.  0.7628393E-02 -0.6288477E+00 -0.3228274E-02  0.1619431E+00 -0.3793666E-03 -0.5076591E-01
4651482.  0.1136918E-01 -0.6679957E+00 -0.3966449E-02  0.9388156E-01 -0.8127859E-04 -0.5312858E-01
4615000.  0.1515919E-01 -0.6448665E+00 -0.4287813E-02  0.1765868E-01  0.2265082E-03 -0.5414486E-01
4578518.  0.1862832E-01 -0.5558869E+00 -0.4168401E-02 -0.5871755E-01  0.5362193E-03 -0.5380183E-01
4542037.  0.2140542E-01 -0.4042962E+00 -0.3630181E-02 -0.1273649E+00  0.8401174E-03 -0.5212457E-01
4505556.  0.2315717E-01 -0.1998904E+00 -0.2737880E-02 -0.1813497E+00  0.1130727E-02 -0.4917411E-01
4469074.  0.2362309E-01  0.4182737E-01 -0.1591600E-02 -0.2153393E+00  0.1401035E-02 -0.4504985E-01
4432593.  0.2264453E-01  0.3010826E+00 -0.3161450E-03 -0.2261438E+00  0.1644648E-02 -0.3987504E-01
4396111.  0.2018368E-01  0.5557517E+00  0.9523488E-03 -0.2129648E+00  0.1855976E-02 -0.3379903E-01
4359630.  0.1633171E-01  0.7833591E+00  0.2079969E-02 -0.1774199E+00  0.2030333E-02 -0.2699257E-01
4323148.  0.1130330E-01  0.9634663E+00  0.2948797E-02 -0.1233741E+00  0.2164047E-02 -0.1963261E-01
4286667.  0.5420675E-02  0.1079397E+01  0.3468281E-02 -0.5647084E-01  0.2254475E-02 -0.1190648E-01
4250185. -0.9140336E-03  0.1119986E+01  0.3584022E-02  0.1643620E-01  0.2300061E-02 -0.4000790E-02
4213704. -0.7252920E-02  0.1080742E+01  0.3282690E-02  0.8796988E-01  0.2300300E-02  0.3902172E-02
4177222. -0.1314280E-01  0.9641005E+00  0.2592903E-02  0.1509681E+00  0.2255707E-02  0.1162990E-01
4140741. -0.1816396E-01  0.7794841E+00  0.1582112E-02  0.1991609E+00  0.2167758E-02  0.1901970E-01
4104259. -0.2196912E-01  0.5423444E+00  0.3495238E-03  0.2277758E+00  0.2038814E-02  0.2592430E-01
4067778. -0.2431289E-01  0.2727331E+00 -0.9834317E-03  0.2339257E+00  0.1872035E-02  0.3221529E-01
4031296. -0.2507439E-01 -0.6355875E-02 -0.2285141E-02  0.2169193E+00  0.1671268E-02  0.3777552E-01
3994815. -0.2426743E-01 -0.2711932E+00 -0.3426177E-02  0.1782396E+00  0.1440999E-02  0.4250774E-01
3958333. -0.2203869E-01 -0.4994210E+00 -0.4291583E-02  0.1213770E+00  0.1186181E-02  0.4633510E-01
3921852. -0.1865445E-01 -0.6720247E+00 -0.4791362E-02  0.5151943E-01  0.9122130E-03  0.4918882E-01
3885370. -0.1447563E-01 -0.7750783E+00 -0.4868833E-02 -0.2500405E-01  0.6248028E-03  0.5102084E-01
3848889. -0.9925830E-02 -0.8009480E+00 -0.4505501E-02 -0.1012763E+00  0.3299212E-03  0.5179609E-01
3812407. -0.5451870E-02 -0.7490326E+00 -0.3722538E-02 -0.1704626E+00  0.3367985E-04  0.5149016E-01
3775926. -0.1484435E-02 -0.6257008E+00 -0.2578716E-02 -0.2263805E+00 -0.2576804E-03  0.5009332E-01
3739444.  0.1601748E-02 -0.4438353E+00 -0.1164800E-02 -0.2640924E+00 -0.5379242E-03  0.4760566E-01
3702963.  0.3521308E-02 -0.2216389E+00  0.4046097E-03 -0.2803041E+00 -0.8008159E-03  0.4403786E-01
3666482.  0.4104587E-02  0.1904059E-01  0.2001402E-02 -0.2735894E+00 -0.1040230E-02  0.3940952E-01
3630000.  0.3313205E-02  0.2545120E+00  0.3495169E-02 -0.2445733E+00 -0.1250179E-02  0.3374984E-01
3630000.  0.3313205E-02  0.2545120E+00  0.3495169E-02 -0.2445733E+00 -0.1250179E-02  0.3374984E-01
3592500.  0.1170339E-02  0.4665756E+00  0.4795607E-02 -0.1941414E+00 -0.1429163E-02  0.2689498E-01
3555000. -0.2075164E-02  0.6257213E+00  0.5748447E-02 -0.1273603E+00 -0.1564815E-02  0.1903423E-01
3517500. -0.6056067E-02  0.7139524E+00  0.6274519E-02 -0.5021505E-01 -0.1651360E-02  0.1021774E-01
3480000. -0.1031750E-01  0.7197216E+00  0.6332599E-02  0.3048212E-01 -0.1683326E-02  0.4977752E-03
3480000. -0.1031750E-01  0.1876826E+00 -0.1448867E-03 -0.1862106E-01 -0.1683326E-02  0.3339912E-01
3409422. -0.1106559E-01 -0.5313728E-01  0.7805377E-04 -0.2082458E-01 -0.2145507E-02  0.4664939E-01
3338844. -0.9232121E-02 -0.2695053E+00  0.2984932E-03 -0.1818817E-01 -0.2642852E-02  0.3999626E-01
3268266. -0.5353536E-02 -0.4164056E+00  0.4653896E-03 -0.1134511E-01 -0.2970676E-02  0.1693243E-01
3197688. -0.3567275E-03 -0.4691502E+00  0.5397703E-03 -0.1787028E-02 -0.2981605E-02 -0.1594174E-01
3127109.  0.4681906E-02 -0.4252972E+00  0.5022272E-03  0.8515571E-02 -0.2610903E-02 -0.5060497E-01
3056531.  0.8770207E-02 -0.3017182E+00  0.3558639E-03  0.1753932E-01 -0.1882428E-02 -0.7936326E-01
2985953.  0.1118234E-01 -0.1283725E+00  0.1246683E-03  0.2359357E-01 -0.8965138E-03 -0.9630238E-01
2915375.  0.1156175E-01  0.5930628E-01 -0.1518247E-03  0.2559733E-01  0.1953203E-03 -0.9819704E-01
2844797.  0.9940506E-02  0.2277044E+00 -0.4261783E-03  0.2321514E-01  0.1222331E-02 -0.8479825E-01
2774219.  0.6685704E-02  0.3507156E+00 -0.6513877E-03  0.1684765E-01  0.2026388E-02 -0.5854175E-01
2703641.  0.2395363E-02  0.4131106E+00 -0.7884027E-03  0.7500223E-02  0.2488013E-02 -0.2382339E-01
2633062. -0.2229363E-02  0.4114414E+00 -0.8116936E-03 -0.3432032E-02  0.2542896E-02  0.1396177E-01
2562484. -0.6509214E-02  0.3527874E+00 -0.7121922E-03 -0.1441418E-01  0.2187419E-02  0.4940888E-01
2491906. -0.9889564E-02  0.2519835E+00 -0.4974780E-03 -0.2401318E-01  0.1473847E-02  0.7795738E-01
2421328. -0.1200675E-01  0.1280654E+00 -0.1895093E-03 -0.3109364E-01  0.4974322E-03  0.9647975E-01
2350750. -0.1271447E-01  0.6713455E-03  0.1794502E-03 -0.3494504E-01 -0.6212989E-03  0.1035604E+00
2280172. -0.1207282E-01 -0.1130147E+00  0.5718792E-03 -0.3533057E-01 -0.1755623E-02  0.9946869E-01
2209594. -0.1030838E-01 -0.2003875E+00  0.9501762E-03 -0.3246284E-01 -0.2789944E-02  0.8588117E-01
2139016. -0.7756697E-02 -0.2544622E+00  0.1281220E-02 -0.2692048E-01 -0.3633050E-02  0.6544176E-01
2068438. -0.4799064E-02 -0.2738856E+00  0.1539775E-02 -0.1952619E-01 -0.4226032E-02  0.4125271E-01
1997859. -0.1804143E-02 -0.2620918E+00  0.1710443E-02 -0.1120989E-01 -0.4544607E-02  0.1638742E-01
1927281.  0.9177483E-03 -0.2259459E+00  0.1788108E-02 -0.2879352E-02 -0.4596487E-02 -0.6505804E-02
1856703.  0.3143989E-02 -0.1741210E+00  0.1777080E-02  0.4688459E-02 -0.4415071E-02 -0.2547110E-01
1786125.  0.4750889E-02 -0.1155757E+00  0.1689196E-02  0.1091976E-01 -0.4050982E-02 -0.3936310E-01
1715547.  0.5709547E-02 -0.5828416E-01  0.1541345E-02  0.1547911E-01 -0.3563048E-02 -0.4783277E-01
1644969.  0.6069846E-02 -0.8395107E-02  0.1352797E-02  0.1826985E-01 -0.3010076E-02 -0.5120652E-01
1574391.  0.5937719E-02  0.3014736E-01  0.1142691E-02  0.1940526E-01 -0.2444357E-02 -0.5029941E-01
1503812.  0.5450624E-02  0.5555223E-01  0.9279535E-03  0.1916270E-01 -0.1907426E-02 -0.4620101E-01
1433234.  0.4755761E-02  0.6775875E-01  0.7217682E-03  0.1793433E-01 -0.1428217E-02 -0.4006828E-01
1362656.  0.3994616E-02  0.6770962E-01  0.5325165E-03  0.1618923E-01 -0.1023300E-02 -0.3294418E-01
1292078.  0.3297366E-02  0.5629485E-01  0.3629961E-03  0.1447097E-01 -0.6990558E-03 -0.2560252E-01
1221500.  0.2791712E-02  0.3272026E-01  0.2092893E-03  0.1347067E-01 -0.4555267E-03 -0.1837963E-01
1221500.  0.2791712E-02 -0.5205745E-01  0.4470716E-04 -0.1432760E-01 -0.4555267E-03 -0.1958901E-01
1183328.  0.2892004E-02  0.2373414E-01  0.1559806E-03 -0.2128905E-01 -0.3500873E-03 -0.1571672E-01
1145156.  0.2475082E-02  0.1154294E+00  0.2805566E-03 -0.1872504E-01 -0.2659502E-03 -0.1246662E-01
1106984.  0.1541874E-02  0.1907110E+00  0.3639398E-03 -0.8030186E-02 -0.1995920E-03 -0.9771049E-02
1068812.  0.2794958E-03  0.2215304E+00  0.3685399E-03  0.6753693E-02 -0.1478861E-03 -0.7564917E-02
1030641. -0.9935660E-03  0.1933089E+00  0.2851234E-03  0.2050465E-01 -0.1080919E-03 -0.5784702E-02
 992469. -0.1924654E-02  0.1094480E+00  0.1338471E-03  0.2881264E-01 -0.7784225E-04 -0.4368444E-02
 954297. -0.2233177E-02 -0.1007965E-01 -0.4443439E-04  0.2934689E-01 -0.5513630E-04 -0.3256998E-02
 916125. -0.1792528E-02 -0.1352610E+00 -0.2026967E-03  0.2238672E-01 -0.3831459E-04 -0.2395543E-02
 877953. -0.6631962E-03 -0.2352500E+00 -0.3026454E-03  0.1043517E-01 -0.2602925E-04 -0.1735130E-02
 839781.  0.9295162E-03 -0.2871502E+00 -0.3251185E-03 -0.2832822E-02 -0.1720476E-04 -0.1233935E-02
 801609.  0.2662218E-02 -0.2817084E+00 -0.2732823E-03 -0.1384502E-01 -0.1099381E-04 -0.8575980E-03
 763438.  0.4201043E-02 -0.2245026E+00 -0.1686706E-03 -0.2017957E-01 -0.6733628E-05 -0.5787835E-03
 725266.  0.5283118E-02 -0.1327883E+00 -0.4242633E-04 -0.2108252E-01 -0.3906491E-05 -0.3760598E-03
 687094.  0.5769249E-02 -0.2951148E-01  0.7469745E-04 -0.1738074E-01 -0.2109256E-05 -0.2325138E-03
 648922.  0.5657963E-02  0.6336951E-01  0.1603428E-03 -0.1093137E-01 -0.1029011E-05 -0.1347056E-03
 610750.  0.5062557E-02  0.1301879E+00  0.2045027E-03 -0.3874689E-02 -0.4264169E-06 -0.7136068E-04
 572578.  0.4164012E-02  0.1642047E+00  0.2091251E-03  0.2030847E-02 -0.1240279E-06 -0.3307297E-04
 534406.  0.3157008E-02  0.1673185E+00  0.1844909E-03  0.5799146E-02  0.4184343E-08 -0.1204858E-04
 496234.  0.2204918E-02  0.1475330E+00  0.1442522E-03  0.7275207E-02  0.4213776E-07 -0.2027361E-05
 458062.  0.1413691E-02  0.1154073E+00  0.1009690E-03  0.6928775E-02  0.4088371E-07  0.1693971E-05
 419891.  0.8268220E-03  0.8076230E-01  0.6333971E-04  0.5521684E-02  0.2791849E-07  0.2305509E-05
 381719.  0.4368685E-03  0.5052727E-01  0.3542841E-04  0.3793145E-02  0.1547901E-07  0.1754703E-05
 343547.  0.2056454E-03  0.2805044E-01  0.1747601E-04  0.2259955E-02  0.7194359E-08  0.1023372E-05
 305375.  0.8454249E-04  0.1361998E-01  0.7467537E-05  0.1159332E-02  0.2799928E-08  0.4848754E-06
 267203.  0.2949356E-04  0.5650601E-02  0.2689509E-05  0.5023179E-03  0.8925720E-09  0.1868602E-06
 229031.  0.8364631E-05  0.1931174E-02  0.7829638E-06  0.1776907E-03  0.2235617E-09  0.5688110E-07
 190859.  0.1803208E-05  0.5127469E-03  0.1723910E-06  0.4847827E-04  0.4098683E-10  0.1290636E-07
 152688.  0.2638536E-06  0.9571952E-04  0.2564875E-07  0.9242320E-05  0.4856985E-11  0.1957035E-08
 114516.  0.2117680E-07  0.1040210E-04  0.2084642E-08  0.1020270E-05  0.2938554E-12  0.1605415E-09
  76344.  0.5775553E-09  0.4301383E-06  0.5735722E-10  0.4265029E-07  0.5336999E-14  0.4422519E-11
  38172.  0.1160376E-11  0.1739367E-08  0.1158378E-12  0.1735704E-09  0.5324861E-17  0.8863834E-14
      0.  0.0000000E+00  0.0000000E+00  0.0000000E+00  0.0000000E+00  0.0000000E+00  0.0000000E+00
