      16        6 S      639        139.09779         44.27452         13.14909        751.38928      185    7
6371000.  0.5074869E-01  0.6206343E-02  0.2792533E-02 -0.4795615E-01 -0.1030873E-03 -0.9497854E-01
6370000.  0.5074616E-01  0.2600779E-01  0.2799786E-02 -0.4445342E-01 -0.8817698E-04 -0.9500769E-01
6369000.  0.5074052E-01  0.4579775E-01  0.2806487E-02 -0.4093373E-01 -0.7326254E-04 -0.9503117E-01
6368000.  0.5073178E-01  0.6557493E-01  0.2812635E-02 -0.3739777E-01 -0.5834486E-04 -0.9504899E-01
6368000.  0.5073178E-01  0.6557493E-01  0.2812635E-02 -0.3739777E-01 -0.5834486E-04 -0.9504899E-01
6367000.  0.5071994E-01  0.8533806E-01  0.2818227E-02 -0.3384623E-01 -0.4342482E-04 -0.9506115E-01
6366000.  0.5070499E-01  0.1050859E+00  0.2823259E-02 -0.3027981E-01 -0.2850332E-04 -0.9506765E-01
6365000.  0.5068695E-01  0.1248171E+00  0.2827732E-02 -0.2669921E-01 -0.1358125E-04 -0.9506848E-01
6364000.  0.5066581E-01  0.1445304E+00  0.2831640E-02 -0.2310514E-01  0.1340510E-05 -0.9506363E-01
6363000.  0.5064158E-01  0.1642246E+00  0.2834984E-02 -0.1949829E-01  0.1626106E-04 -0.9505311E-01
6362000.  0.5061426E-01  0.1838985E+00  0.2837761E-02 -0.1587940E-01  0.3117952E-04 -0.9503692E-01
6361000.  0.5058385E-01  0.2035507E+00  0.2839968E-02 -0.1224916E-01  0.4609499E-04 -0.9501506E-01
6360000.  0.5055036E-01  0.2231800E+00  0.2841606E-02 -0.8608296E-02  0.6100658E-04 -0.9498752E-01
6359000.  0.5051379E-01  0.2427852E+00  0.2842670E-02 -0.4957527E-02  0.7591341E-04 -0.9495430E-01
6358000.  0.5047414E-01  0.2623650E+00  0.2843161E-02 -0.1297577E-02  0.9081457E-04 -0.9491542E-01
6357000.  0.5043143E-01  0.2819183E+00  0.2843077E-02  0.2370831E-02  0.1057092E-03 -0.9487086E-01
6356000.  0.5038565E-01  0.3014436E+00  0.2842417E-02  0.6046969E-02  0.1205964E-03 -0.9482063E-01
6356000.  0.5038565E-01  0.1982842E+00  0.2842417E-02 -0.1524090E-01  0.1205964E-03 -0.1057840E+00
6355000.  0.5035340E-01  0.2125217E+00  0.2844616E-02 -0.1277779E-01  0.1371983E-03 -0.1057565E+00
6354000.  0.5031893E-01  0.2267434E+00  0.2846427E-02 -0.1030765E-01  0.1537955E-03 -0.1057244E+00
6353000.  0.5028223E-01  0.2409486E+00  0.2847851E-02 -0.7830814E-02  0.1703873E-03 -0.1056879E+00
6352000.  0.5024329E-01  0.2551367E+00  0.2848885E-02 -0.5347605E-02  0.1869730E-03 -0.1056468E+00
6351000.  0.5020213E-01  0.2693070E+00  0.2849529E-02 -0.2858352E-02  0.2035519E-03 -0.1056011E+00
6350000.  0.5015875E-01  0.2834588E+00  0.2849782E-02 -0.3633881E-03  0.2201233E-03 -0.1055509E+00
6349000.  0.5011315E-01  0.2975915E+00  0.2849643E-02  0.2136956E-02  0.2366865E-03 -0.1054962E+00
6348000.  0.5006533E-01  0.3117044E+00  0.2849111E-02  0.4642347E-02  0.2532407E-03 -0.1054369E+00
6347000.  0.5001530E-01  0.3257969E+00  0.2848186E-02  0.7152452E-02  0.2697853E-03 -0.1053731E+00
6346600.  0.4999467E-01  0.3314280E+00  0.2847705E-02  0.8157738E-02  0.2764002E-03 -0.1053463E+00
6346600.  0.4999467E-01  0.2079416E+00  0.2847705E-02 -0.9867346E-02  0.2764002E-03 -0.1227787E+00
6318800.  0.4847250E-01  0.4882914E+00  0.2769961E-02  0.4577852E-01  0.8078579E-03 -0.1203271E+00
6291000.  0.4575126E-01  0.7563372E+00  0.2449059E-02  0.1008288E+00  0.1322274E-02 -0.1149726E+00
6291000.  0.4575126E-01  0.7671040E+00  0.2449059E-02  0.1059546E+00  0.1322274E-02 -0.1149726E+00
6263000.  0.4181457E-01  0.1020457E+01  0.1866247E-02  0.1579184E+00  0.1810161E-02 -0.1065732E+00
6235000.  0.3682044E-01  0.1247362E+01  0.1076016E-02  0.1996469E+00  0.2254964E-02 -0.9539755E-01
6207000.  0.3089694E-01  0.1442605E+01  0.1318961E-03  0.2274109E+00  0.2644945E-02 -0.8166846E-01
6179000.  0.2419267E-01  0.1602066E+01 -0.8985029E-03  0.2385746E+00  0.2969505E-02 -0.6568208E-01
6151000.  0.1687201E-01  0.1722685E+01 -0.1938802E-02  0.2318123E+00  0.3219503E-02 -0.4780249E-01
6151000.  0.1687201E-01  0.1379231E+01 -0.1938802E-02  0.2012641E+00  0.3219503E-02 -0.4873594E-01
6128500.  0.1195043E-01  0.1404873E+01 -0.2619511E-02  0.1828242E+00  0.3369800E-02 -0.3628489E-01
6106000.  0.6970165E-02  0.1412670E+01 -0.3220784E-02  0.1564522E+00  0.3475230E-02 -0.2335627E-01
6083500.  0.1992005E-02  0.1403901E+01 -0.3716639E-02  0.1233503E+00  0.3534415E-02 -0.1012530E-01
6061000. -0.2927925E-02  0.1379924E+01 -0.4085853E-02  0.8500136E-01  0.3546599E-02  0.3232244E-02
6038500. -0.7738367E-02  0.1342126E+01 -0.4312832E-02  0.4309574E-01  0.3511641E-02  0.1654252E-01
6016000. -0.1239291E-01  0.1291856E+01 -0.4388196E-02 -0.5522436E-03  0.3430011E-02  0.2963554E-01
5993500. -0.1684980E-01  0.1230391E+01 -0.4309064E-02 -0.4408928E-01  0.3302766E-02  0.4234754E-01
5971000. -0.2107161E-01  0.1158924E+01 -0.4079047E-02 -0.8570667E-01  0.3131532E-02  0.5452229E-01
5971000. -0.2107161E-01  0.1043972E+01 -0.4079047E-02 -0.7426722E-01  0.3131532E-02  0.5728075E-01
5937667. -0.2616375E-01  0.9014830E+00 -0.3561117E-02 -0.1218047E+00  0.2788446E-02  0.7355077E-01
5904333. -0.3049679E-01  0.7543035E+00 -0.2826444E-02 -0.1567862E+00  0.2365461E-02  0.8777306E-01
5871000. -0.3405384E-01  0.6053122E+00 -0.1944655E-02 -0.1779545E+00  0.1873959E-02  0.9971497E-01
5837667. -0.3683139E-01  0.4566365E+00 -0.9884243E-03 -0.1853443E+00  0.1326303E-02  0.1092183E+00
5804333. -0.3883555E-01  0.3098882E+00 -0.2735381E-04 -0.1800500E+00  0.7354986E-03  0.1161923E+00
5771000. -0.4007978E-01  0.1663618E+00  0.8767733E-03 -0.1639529E+00  0.1149130E-03  0.1206100E+00
5771000. -0.4007978E-01  0.1663700E+00  0.8767733E-03 -0.1639461E+00  0.1149130E-03  0.1206100E+00
5701000. -0.4029611E-01 -0.1284685E+00  0.2451016E-02 -0.1168181E+00 -0.1214780E-02  0.1195939E+00
5701000. -0.4029611E-01 -0.9694282E-01  0.2451016E-02 -0.8231335E-01 -0.1214780E-02  0.1309519E+00
5667333. -0.3946293E-01 -0.2179765E+00  0.2790472E-02 -0.4811609E-01 -0.1896887E-02  0.1269145E+00
5633667. -0.3798277E-01 -0.3429166E+00  0.2974126E-02 -0.2185773E-01 -0.2553032E-02  0.1210945E+00
5600000. -0.3584725E-01 -0.4642415E+00  0.3021858E-02  0.3603194E-02 -0.3172914E-02  0.1131714E+00
5600000. -0.3584725E-01 -0.4642415E+00  0.3021858E-02  0.3603194E-02 -0.3172914E-02  0.1131714E+00
5563518. -0.3282724E-01 -0.5892421E+00  0.2927703E-02  0.2872937E-01 -0.3791181E-02  0.1024077E+00
5527037. -0.2911663E-01 -0.7050385E+00  0.2700483E-02  0.4986299E-01 -0.4341815E-02  0.8959626E-01
5490556. -0.2477568E-01 -0.8089555E+00  0.2366459E-02  0.6587699E-01 -0.4813851E-02  0.7500250E-01
5454074. -0.1988002E-01 -0.8983305E+00  0.1957240E-02  0.7603533E-01 -0.5197930E-02  0.5892127E-01
5417593. -0.1451979E-01 -0.9709010E+00  0.1507457E-02  0.8003423E-01 -0.5486394E-02  0.4166367E-01
5381111. -0.8797254E-02 -0.1024480E+01  0.1052220E-02  0.7798974E-01 -0.5673457E-02  0.2355843E-01
5344630. -0.2826674E-02 -0.1057367E+01  0.6248538E-03  0.7042272E-01 -0.5755222E-02  0.4943280E-02
5308148.  0.3270385E-02 -0.1068432E+01  0.2546016E-03  0.5820785E-01 -0.5729737E-02 -0.1384519E-01
5271667.  0.9366093E-02 -0.1056888E+01 -0.3506674E-04  0.4249098E-01 -0.5596973E-02 -0.3247191E-01
5235185.  0.1533109E-01 -0.1022790E+01 -0.2279086E-03  0.2462354E-01 -0.5358784E-02 -0.5061295E-01
5198704.  0.2103754E-01 -0.9667737E+00 -0.3157305E-03  0.6055708E-02 -0.5018858E-02 -0.6795844E-01
5162222.  0.2636306E-01 -0.8899499E+00 -0.2986943E-03 -0.1176257E-01 -0.4582561E-02 -0.8422311E-01
5125741.  0.3119363E-01 -0.7943247E+00 -0.1850848E-03 -0.2745938E-01 -0.4056886E-02 -0.9913743E-01
5089259.  0.3542849E-01 -0.6822726E+00  0.9441566E-05 -0.3984265E-01 -0.3450228E-02 -0.1124669E+00
5052778.  0.3898130E-01 -0.5566612E+00  0.2630462E-03 -0.4796080E-01 -0.2772293E-02 -0.1240069E+00
5016296.  0.4178400E-01 -0.4208166E+00  0.5492979E-03 -0.5116096E-01 -0.2033811E-02 -0.1335808E+00
4979815.  0.4378777E-01 -0.2782405E+00  0.8389388E-03 -0.4912268E-01 -0.1246491E-02 -0.1410527E+00
4943333.  0.4496461E-01 -0.1325935E+00  0.1101897E-02 -0.4187160E-01 -0.4226347E-03 -0.1463196E+00
4906852.  0.4530742E-01  0.1246061E-01  0.1309193E-02 -0.2977199E-01  0.4248664E-03 -0.1493113E+00
4870370.  0.4482972E-01  0.1534184E+00  0.1434878E-02 -0.1350213E-01  0.1282942E-02 -0.1500027E+00
4833889.  0.4356449E-01  0.2870238E+00  0.1457653E-02  0.5994945E-02  0.2138359E-02 -0.1483938E+00
4797407.  0.4156213E-01  0.4104180E+00  0.1362244E-02  0.2756978E-01  0.2978079E-02 -0.1445219E+00
4760926.  0.3888853E-01  0.5211315E+00  0.1140430E-02  0.4992315E-01  0.3789302E-02 -0.1384630E+00
4724444.  0.3562167E-01  0.6173401E+00  0.7915822E-03  0.7171094E-01  0.4559812E-02 -0.1303128E+00
4687963.  0.3184883E-01  0.6977084E+00  0.3228185E-03  0.9159140E-01  0.5277948E-02 -0.1202019E+00
4651482.  0.2766312E-01  0.7614870E+00 -0.2512988E-03  0.1083131E+00  0.5932943E-02 -0.1082863E+00
4615000.  0.2315984E-01  0.8086073E+00 -0.9095315E-03  0.1208007E+00  0.6514965E-02 -0.9473918E-01
4578518.  0.1843374E-01  0.8394164E+00 -0.1624995E-02  0.1281768E+00  0.7015209E-02 -0.7975862E-01
4542037.  0.1357600E-01  0.8548295E+00 -0.2366539E-02  0.1298425E+00  0.7426060E-02 -0.6355697E-01
4505556.  0.8670865E-02  0.8562111E+00 -0.3100491E-02  0.1254986E+00  0.7741170E-02 -0.4635708E-01
4469074.  0.3794328E-02  0.8450810E+00 -0.3792280E-02  0.1151358E+00  0.7955500E-02 -0.2839424E-01
4432593. -0.9871154E-03  0.8233811E+00 -0.4408180E-02  0.9907710E-01  0.8065356E-02 -0.9909178E-02
4396111. -0.5618875E-02  0.7930671E+00 -0.4917203E-02  0.7792211E-01  0.8068446E-02  0.8856484E-02
4359630. -0.1005668E-01  0.7560095E+00 -0.5292459E-02  0.5252334E-01  0.7963859E-02  0.2765924E-01
4323148. -0.1426790E-01  0.7141917E+00 -0.5512652E-02  0.2395253E-01  0.7752067E-02  0.4625971E-01
4286667. -0.1822990E-01  0.6692517E+00 -0.5563044E-02 -0.6569834E-02  0.7434909E-02  0.6442551E-01
4250185. -0.2192912E-01  0.6225931E+00 -0.5436188E-02 -0.3773164E-01  0.7015495E-02  0.8193444E-01
4213704. -0.2535909E-01  0.5754065E+00 -0.5132260E-02 -0.6819702E-01  0.6498232E-02  0.9857213E-01
4177222. -0.2851920E-01  0.5283964E+00 -0.4658985E-02 -0.9666626E-01  0.5888643E-02  0.1141447E+00
4140741. -0.3141167E-01  0.4820065E+00 -0.4031303E-02 -0.1219474E+00  0.5193392E-02  0.1284685E+00
4104259. -0.3404069E-01  0.4363241E+00 -0.3270444E-02 -0.1430170E+00  0.4420072E-02  0.1413799E+00
4067778. -0.3640933E-01  0.3910236E+00 -0.2403093E-02 -0.1590312E+00  0.3577221E-02  0.1527396E+00
4031296. -0.3851864E-01  0.3456204E+00 -0.1459898E-02 -0.1694269E+00  0.2674048E-02  0.1624207E+00
3994815. -0.4036586E-01  0.2993596E+00 -0.4740925E-03 -0.1738902E+00  0.1720520E-02  0.1703224E+00
3958333. -0.4194359E-01  0.2513224E+00  0.5200972E-03 -0.1723635E+00  0.7269865E-03  0.1763726E+00
3921852. -0.4323896E-01  0.2005958E+00  0.1488932E-02 -0.1651071E+00 -0.2957055E-03  0.1805086E+00
3885370. -0.4423394E-01  0.1462517E+00  0.2400923E-02 -0.1525991E+00 -0.1336554E-02  0.1827017E+00
3848889. -0.4490544E-01  0.8749629E-01  0.3227878E-02 -0.1355539E+00 -0.2384348E-02  0.1829440E+00
3812407. -0.4522632E-01  0.2370784E-01  0.3946425E-02 -0.1148911E+00 -0.3427980E-02  0.1812422E+00
3775926. -0.4516669E-01 -0.4543987E-01  0.4538703E-02 -0.9163918E-01 -0.4456366E-02  0.1776368E+00
3739444. -0.4469556E-01 -0.1199978E+00  0.4993140E-02 -0.6693770E-01 -0.5458803E-02  0.1721785E+00
3702963. -0.4378261E-01 -0.1996702E+00  0.5304773E-02 -0.4195698E-01 -0.6424811E-02  0.1649369E+00
3666482. -0.4240054E-01 -0.2837084E+00  0.5475249E-02 -0.1781950E-01 -0.7344481E-02  0.1560105E+00
3630000. -0.4052697E-01 -0.3711228E+00  0.5512508E-02  0.4404942E-02 -0.8208469E-02  0.1454981E+00
3630000. -0.4052697E-01 -0.3711228E+00  0.5512508E-02  0.4404942E-02 -0.8208469E-02  0.1454981E+00
3592500. -0.3807285E-01 -0.4629443E+00  0.5426385E-02  0.2428357E-01 -0.9029321E-02  0.1331713E+00
3555000. -0.3507687E-01 -0.5549104E+00  0.5234161E-02  0.4033621E-01 -0.9773427E-02  0.1194445E+00
3517500. -0.3154409E-01 -0.6449670E+00  0.4960248E-02  0.5196104E-01 -0.1043298E-01  0.1044667E+00
3480000. -0.2749275E-01 -0.7307044E+00  0.4631854E-02  0.5881202E-01 -0.1100109E-01  0.8840413E-01
3480000. -0.2749275E-01 -0.1324789E+01  0.2244666E-02 -0.5448262E-01 -0.1100109E-01  0.1760754E+00
3409422. -0.1137298E-01 -0.1551381E+01  0.2698163E-02 -0.2632703E-01 -0.1234816E-01  0.6360346E-01
3338844.  0.6117813E-02 -0.1572544E+01  0.2811459E-02  0.6287258E-02 -0.1236225E-01 -0.6185619E-01
3268266.  0.2275794E-01 -0.1402024E+01  0.2557155E-02  0.3936779E-01 -0.1098996E-01 -0.1840357E+00
3197688.  0.3659907E-01 -0.1074358E+01  0.1951924E-02  0.6902712E-01 -0.8352314E-02 -0.2880203E+00
3127109.  0.4615947E-01 -0.6380290E+00  0.1052948E-02  0.9189780E-01 -0.4720358E-02 -0.3618567E+00
3056531.  0.5053820E-01 -0.1482908E+00 -0.4961902E-04  0.1054445E+00 -0.4760797E-03 -0.3976311E+00
2985953.  0.4945230E-01  0.3396718E+00 -0.1243161E-02  0.1081634E+00  0.3936060E-02 -0.3919881E+00
2915375.  0.4320269E-01  0.7764524E+00 -0.2404511E-02  0.9965862E-01  0.8059666E-02 -0.3460898E+00
2844797.  0.3258501E-01  0.1122725E+01 -0.3412133E-02  0.8060594E-01  0.1147411E-01 -0.2651146E+00
2774219.  0.1876172E-01  0.1351894E+01 -0.4157342E-02  0.5262096E-01  0.1383455E-01 -0.1573992E+00
2703641.  0.3113817E-02  0.1451148E+01 -0.4553645E-02  0.1805549E-01  0.1490105E-01 -0.3335683E-01
2633062. -0.1291103E-01  0.1421040E+01 -0.4543520E-02 -0.2025633E-01  0.1455513E-01  0.9569574E-01
2562484. -0.2793753E-01  0.1273853E+01 -0.4102269E-02 -0.5926798E-01  0.1280343E-01  0.2186649E+00
2491906. -0.4078100E-01  0.1031129E+01 -0.3238879E-02 -0.9598727E-01  0.9769519E-02  0.3256875E+00
2421328. -0.5053269E-01  0.7206572E+00 -0.1994062E-02 -0.1277162E+00  0.5675721E-02  0.4089027E+00
2350750. -0.5661169E-01  0.3732985E+00 -0.4358524E-03 -0.1522477E+00  0.8178322E-03  0.4629723E+00
2280172. -0.5878162E-01  0.1992295E-01  0.1346649E-02 -0.1680041E+00 -0.4464423E-02  0.4853197E+00
2209594. -0.5713567E-01 -0.3112525E+00  0.3250748E-02 -0.1741165E+00 -0.9818041E-02  0.4760982E+00
2139016. -0.5205486E-01 -0.5967765E+00  0.5168155E-02 -0.1704425E+00 -0.1490571E-01  0.4379272E+00
2068438. -0.4414652E-01 -0.8194238E+00  0.6992863E-02 -0.1575233E+00 -0.1943080E-01  0.3754415E+00
1997859. -0.3417058E-01 -0.9689125E+00  0.8628258E-02 -0.1364929E+00 -0.2315661E-01  0.2947175E+00
1927281. -0.2296201E-01 -0.1042013E+01  0.9992944E-02 -0.1089514E+00 -0.2591869E-01  0.2026437E+00
1856703. -0.1135442E-01 -0.1041994E+01  0.1102516E-01 -0.7680397E-01 -0.2763060E-01  0.1062827E+00
1786125. -0.1135167E-03 -0.9776794E+00  0.1168515E-01 -0.4209287E-01 -0.2828239E-01  0.1230373E-01
1715547.  0.1011753E-01 -0.8621314E+00  0.1195575E-01 -0.6828763E-02 -0.2793358E-01 -0.7348878E-01
1644969.  0.1885713E-01 -0.7112216E+00  0.1184113E-01  0.2717852E-01 -0.2670159E-01 -0.1464874E+00
1574391.  0.2580865E-01 -0.5422502E+00  0.1136368E-01  0.5846845E-01 -0.2474736E-01 -0.2034578E+00
1503812.  0.3086952E-01 -0.3727781E+00  0.1055939E-01  0.8606925E-01 -0.2225992E-01 -0.2425463E+00
1433234.  0.3412938E-01 -0.2199077E+00  0.9471697E-02  0.1096404E+00 -0.1944199E-01 -0.2631069E+00
1362656.  0.3586442E-01 -0.1002585E+00  0.8143500E-02  0.1296444E+00 -0.1649825E-01 -0.2653357E+00
1292078.  0.3653682E-01 -0.3112155E-01  0.6606979E-02  0.1476174E+00 -0.1362928E-01 -0.2496486E+00
1221500.  0.3681723E-01 -0.3361697E-01  0.4869217E-02  0.1666664E+00 -0.1103428E-01 -0.2156686E+00
1221500.  0.3681723E-01  0.3891837E+00  0.7403580E-02 -0.1534133E+00 -0.1103428E-01 -0.2316180E+00
1183328.  0.3336551E-01  0.7587053E+00  0.8220540E-02 -0.1109485E+00 -0.9688520E-02 -0.2173441E+00
1145156.  0.2784647E-01  0.1067857E+01  0.8645189E-02 -0.2478503E-01 -0.8432485E-02 -0.2017449E+00
1106984.  0.2081665E-01  0.1253714E+01  0.8465445E-02  0.8728546E-01 -0.7272732E-02 -0.1852785E+00
1068812.  0.1316011E-01  0.1271695E+01  0.7592850E-02  0.2025407E+00 -0.6213171E-02 -0.1683670E+00
1030641.  0.5949739E-02  0.1104546E+01  0.6078113E-02  0.2980669E+00 -0.5255342E-02 -0.1513869E+00
 992469.  0.2681293E-03  0.7662585E+00  0.4098098E-02  0.3553162E+00 -0.4398605E-02 -0.1346640E+00
 954297. -0.2975967E-02  0.3002902E+00  0.1918903E-02  0.3635334E+00 -0.3640591E-02 -0.1184739E+00
 916125. -0.3205840E-02 -0.2276258E+00 -0.1571117E-03  0.3214780E+00 -0.2977411E-02 -0.1030414E+00
 877953. -0.2782747E-03 -0.7406032E+00 -0.1848506E-02  0.2371695E+00 -0.2403970E-02 -0.8854409E-01
 839781.  0.5488195E-02 -0.1163587E+01 -0.2944876E-02  0.1258358E+00 -0.1914244E-02 -0.7511574E-01
 801609.  0.1336239E-01 -0.1435795E+01 -0.3340652E-02  0.6624805E-02 -0.1501527E-02 -0.6285112E-01
 763438.  0.2231660E-01 -0.1520391E+01 -0.3047198E-02 -0.1012156E+00 -0.1158659E-02 -0.5180992E-01
 725266.  0.3118935E-01 -0.1409779E+01 -0.2182457E-02 -0.1818782E+00 -0.8781956E-03 -0.4201885E-01
 687094.  0.3886204E-01 -0.1125689E+01 -0.9420429E-03 -0.2255760E+00 -0.6526500E-03 -0.3347553E-01
 648922.  0.4442341E-01 -0.7143444E+00  0.4412616E-03 -0.2297630E+00 -0.4746195E-03 -0.2615114E-01
 610750.  0.4729141E-01 -0.2377133E+00  0.1740780E-02 -0.1988593E+00 -0.3369532E-03 -0.1999070E-01
 572578.  0.4727551E-01  0.2373555E+00  0.2773519E-02 -0.1426762E+00 -0.2328972E-03 -0.1491746E-01
 534406.  0.4457268E-01  0.6500934E+00  0.3425478E-02 -0.7398459E-01 -0.1562144E-03 -0.1083625E-01
 496234.  0.3970231E-01  0.9549214E+00  0.3661226E-02 -0.5794851E-02 -0.1012836E-03 -0.7637261E-02
 458062.  0.3339598E-01  0.1127221E+01  0.3517779E-02  0.5107535E-01 -0.6317344E-04 -0.5201188E-02
 419891.  0.2646496E-01  0.1164988E+01  0.3085966E-02  0.8968585E-01 -0.3767911E-04 -0.3405839E-02
 381719.  0.1966936E-01  0.1086405E+01  0.2484557E-02  0.1076642E+00 -0.2132419E-04 -0.2130591E-02
 343547.  0.1361408E-01  0.9241276E+00  0.1833532E-02  0.1068584E+00 -0.1133554E-04 -0.1262790E-02
 305375.  0.8683646E-02  0.7176479E+00  0.1231820E-02  0.9219857E-01 -0.5582137E-05 -0.7010816E-03
 267203.  0.5025532E-02  0.5053469E+00  0.7436117E-03  0.7006609E-01 -0.2497457E-05 -0.3588219E-03
 229031.  0.2577686E-02  0.3178429E+00  0.3946667E-03  0.4664961E-01 -0.9864001E-06 -0.1653597E-03
 190859.  0.1129150E-02  0.1737746E+00  0.1776765E-03  0.2662473E-01 -0.3288558E-06 -0.6611636E-04
 152688.  0.3967625E-03  0.7868472E-01  0.6378319E-04  0.1245056E-01 -0.8583374E-07 -0.2154871E-04
 114516.  0.9936433E-04  0.2687721E-01  0.1623283E-04  0.4354012E-02 -0.1521967E-07 -0.5088903E-05
  76344.  0.1359507E-04  0.5603388E-02  0.2246011E-05  0.9223958E-03 -0.1332558E-08 -0.6677031E-06
  38172.  0.4346670E-06  0.3616259E-03  0.7228588E-07  0.6008602E-04 -0.2079185E-10 -0.2083229E-07
      0.  0.0000000E+00  0.0000000E+00  0.0000000E+00  0.0000000E+00  0.0000000E+00  0.0000000E+00
