       8        1 S      439        346.30240         77.06207         14.18207        930.74109      185    7
6371000.  0.1352122E+00 -0.8213054E-01  0.3083396E-01 -0.1043783E+00  0.1504853E-09 -0.2549786E+00
6370000.  0.1352244E+00 -0.7358386E-01  0.3084985E-01 -0.9810400E-01  0.4002518E-04 -0.2550199E+00
6369000.  0.1352353E+00 -0.6503511E-01  0.3086476E-01 -0.9182157E-01  0.8005650E-04 -0.2550587E+00
6368000.  0.1352448E+00 -0.5648439E-01  0.3087867E-01 -0.8553115E-01  0.1200937E-03 -0.2550950E+00
6368000.  0.1352448E+00 -0.5648439E-01  0.3087867E-01 -0.8553115E-01  0.1200937E-03 -0.2550950E+00
6367000.  0.1352530E+00 -0.4793177E-01  0.3089160E-01 -0.7923296E-01  0.1601364E-03 -0.2551289E+00
6366000.  0.1352599E+00 -0.3937734E-01  0.3090355E-01 -0.7292719E-01  0.2001843E-03 -0.2551602E+00
6365000.  0.1352654E+00 -0.3082119E-01  0.3091450E-01 -0.6661403E-01  0.2402368E-03 -0.2551890E+00
6364000.  0.1352696E+00 -0.2226341E-01  0.3092446E-01 -0.6029369E-01  0.2802937E-03 -0.2552153E+00
6363000.  0.1352724E+00 -0.1370408E-01  0.3093342E-01 -0.5396637E-01  0.3203545E-03 -0.2552391E+00
6362000.  0.1352739E+00 -0.5143278E-02  0.3094140E-01 -0.4763225E-01  0.3604188E-03 -0.2552603E+00
6361000.  0.1352740E+00  0.3418902E-02  0.3094838E-01 -0.4129155E-01  0.4004863E-03 -0.2552791E+00
6360000.  0.1352728E+00  0.1198238E-01  0.3095436E-01 -0.3494446E-01  0.4405565E-03 -0.2552954E+00
6359000.  0.1352702E+00  0.2054706E-01  0.3095935E-01 -0.2859119E-01  0.4806291E-03 -0.2553091E+00
6358000.  0.1352663E+00  0.2911287E-01  0.3096334E-01 -0.2223193E-01  0.5207037E-03 -0.2553204E+00
6357000.  0.1352611E+00  0.3767971E-01  0.3096632E-01 -0.1586689E-01  0.5607798E-03 -0.2553291E+00
6356000.  0.1352545E+00  0.4624751E-01  0.3096832E-01 -0.9496259E-02  0.6008571E-03 -0.2553353E+00
6356000.  0.1352545E+00  0.1182815E-01  0.3096832E-01 -0.4716897E-01  0.6008571E-03 -0.2847652E+00
6355000.  0.1352522E+00  0.1805248E-01  0.3097538E-01 -0.4286893E-01  0.6455554E-03 -0.2847810E+00
6354000.  0.1352489E+00  0.2427774E-01  0.3098178E-01 -0.3856463E-01  0.6902561E-03 -0.2847948E+00
6353000.  0.1352445E+00  0.3050388E-01  0.3098749E-01 -0.3425613E-01  0.7349589E-03 -0.2848066E+00
6352000.  0.1352393E+00  0.3673087E-01  0.3099253E-01 -0.2994354E-01  0.7796632E-03 -0.2848164E+00
6351000.  0.1352330E+00  0.4295866E-01  0.3099689E-01 -0.2562694E-01  0.8243690E-03 -0.2848242E+00
6350000.  0.1352258E+00  0.4918720E-01  0.3100057E-01 -0.2130642E-01  0.8690758E-03 -0.2848299E+00
6349000.  0.1352176E+00  0.5541645E-01  0.3100358E-01 -0.1698209E-01  0.9137834E-03 -0.2848336E+00
6348000.  0.1352084E+00  0.6164636E-01  0.3100590E-01 -0.1265402E-01  0.9584913E-03 -0.2848352E+00
6347000.  0.1351982E+00  0.6787690E-01  0.3100755E-01 -0.8322317E-02  0.1003199E-02 -0.2848348E+00
6346600.  0.1351939E+00  0.7036927E-01  0.3100802E-01 -0.6588636E-02  0.1021083E-02 -0.2848341E+00
6346600.  0.1351939E+00  0.4070865E-02  0.3100802E-01 -0.3842405E-01  0.1021083E-02 -0.3319742E+00
6318800.  0.1349031E+00  0.1296025E+00  0.3096737E-01  0.5731054E-01  0.2469445E-02 -0.3316559E+00
6291000.  0.1340597E+00  0.2572604E+00  0.3050653E-01  0.1539647E+00  0.3913516E-02 -0.3300025E+00
6291000.  0.1340597E+00  0.2597575E+00  0.3050653E-01  0.1649121E+00  0.3913516E-02 -0.3300025E+00
6263000.  0.1326278E+00  0.3921036E+00  0.2955926E-01  0.2659703E+00  0.5357599E-02 -0.3269224E+00
6235000.  0.1306116E+00  0.5255813E+00  0.2817138E-01  0.3651984E+00  0.6785023E-02 -0.3224188E+00
6207000.  0.1280072E+00  0.6596451E+00  0.2635388E-01  0.4612541E+00  0.8189496E-02 -0.3164755E+00
6179000.  0.1248134E+00  0.7937359E+00  0.2412359E-01  0.5528352E+00  0.9564664E-02 -0.3090826E+00
6151000.  0.1210312E+00  0.9272650E+00  0.2150295E-01  0.6386860E+00  0.1090415E-01 -0.3002392E+00
6151000.  0.1210312E+00  0.7301693E+00  0.2150295E-01  0.5462874E+00  0.1090415E-01 -0.3069354E+00
6128500.  0.1183311E+00  0.7983917E+00  0.1948236E-01  0.5972844E+00  0.1197938E-01 -0.3018637E+00
6106000.  0.1153959E+00  0.8633736E+00  0.1728938E-01  0.6438659E+00  0.1303551E-01 -0.2961251E+00
6083500.  0.1122369E+00  0.9250702E+00  0.1494012E-01  0.6857401E+00  0.1407022E-01 -0.2897373E+00
6061000.  0.1088658E+00  0.9834468E+00  0.1245167E-01  0.7226493E+00  0.1508126E-01 -0.2827212E+00
6038500.  0.1052945E+00  0.1038489E+01  0.9841953E-02  0.7543852E+00  0.1606644E-01 -0.2750962E+00
6016000.  0.1015347E+00  0.1090186E+01  0.7129541E-02  0.7807820E+00  0.1702364E-01 -0.2668827E+00
5993500.  0.9759831E-01  0.1138535E+01  0.4333533E-02  0.8017094E+00  0.1795083E-01 -0.2581041E+00
5971000.  0.9349700E-01  0.1183556E+01  0.1473396E-02  0.8170890E+00  0.1884606E-01 -0.2487812E+00
5971000.  0.9349700E-01  0.1064386E+01  0.1473396E-02  0.7162558E+00  0.1884606E-01 -0.2610208E+00
5937667.  0.8785635E-01  0.1090581E+01 -0.2234832E-02  0.6998091E+00  0.2018005E-01 -0.2487823E+00
5904333.  0.8209711E-01  0.1109779E+01 -0.5835371E-02  0.6752583E+00  0.2144802E-01 -0.2357814E+00
5871000.  0.7625436E-01  0.1122683E+01 -0.9288828E-02  0.6438245E+00  0.2264612E-01 -0.2221037E+00
5837667.  0.7035913E-01  0.1129949E+01 -0.1256236E-01  0.6066696E+00  0.2377106E-01 -0.2078299E+00
5804333.  0.6443909E-01  0.1132192E+01 -0.1562904E-01  0.5648899E+00  0.2481996E-01 -0.1930341E+00
5771000.  0.5851944E-01  0.1129961E+01 -0.1846716E-01  0.5194989E+00  0.2579022E-01 -0.1777893E+00
5771000.  0.5851944E-01  0.1129968E+01 -0.1846716E-01  0.5194792E+00  0.2579022E-01 -0.1777893E+00
5701000.  0.4574647E-01  0.1192161E+01 -0.2383295E-01  0.4536542E+00  0.2754360E-01 -0.1409395E+00
5701000.  0.4574647E-01  0.9782125E+00 -0.2383295E-01  0.3412922E+00  0.2754360E-01 -0.1538338E+00
5667333.  0.4067600E-01  0.9493923E+00 -0.2546124E-01  0.2808788E+00  0.2831303E-01 -0.1375051E+00
5633667.  0.3562935E-01  0.9639214E+00 -0.2684937E-01  0.2460282E+00  0.2899737E-01 -0.1214557E+00
5600000.  0.3050078E-01  0.9759636E+00 -0.2805465E-01  0.2095713E+00  0.2959573E-01 -0.1049347E+00
5600000.  0.3050078E-01  0.9759636E+00 -0.2805465E-01  0.2095713E+00  0.2959573E-01 -0.1049347E+00
5563518.  0.2488163E-01  0.9861813E+00 -0.2913799E-01  0.1685855E+00  0.3014434E-01 -0.8660492E-01
5527037.  0.1921191E-01  0.9936939E+00 -0.2998323E-01  0.1264881E+00  0.3058681E-01 -0.6787701E-01
5490556.  0.1350680E-01  0.9985337E+00 -0.3058518E-01  0.8366849E-01  0.3092103E-01 -0.4880969E-01
5454074.  0.7781597E-02  0.1000683E+01 -0.3094079E-01  0.4051474E-01  0.3114526E-01 -0.2946282E-01
5417593.  0.2051337E-02  0.1000375E+01 -0.3104931E-01 -0.2566610E-02  0.3125803E-01 -0.9893937E-02
5381111. -0.3670250E-02  0.9975950E+00 -0.3091224E-01 -0.4520229E-01  0.3125825E-01  0.9840152E-02
5344630. -0.9368851E-02  0.9924330E+00 -0.3053321E-01 -0.8702027E-01  0.3114514E-01  0.2968082E-01
5308148. -0.1503167E-01  0.9850489E+00 -0.2991787E-01 -0.1276754E+00  0.3091823E-01  0.4957249E-01
5271667. -0.2064556E-01  0.9753990E+00 -0.2907391E-01 -0.1668236E+00  0.3057742E-01  0.6945968E-01
5235185. -0.2619822E-01  0.9636474E+00 -0.2801079E-01 -0.2041640E+00  0.3012287E-01  0.8928688E-01
5198704. -0.3167775E-01  0.9499010E+00 -0.2673973E-01 -0.2394138E+00  0.2955510E-01  0.1089986E+00
5162222. -0.3707278E-01  0.9340969E+00 -0.2527349E-01 -0.2722844E+00  0.2887489E-01  0.1285474E+00
5125741. -0.4237181E-01  0.9164507E+00 -0.2362636E-01 -0.3025701E+00  0.2808336E-01  0.1478747E+00
5089259. -0.4756477E-01  0.8969917E+00 -0.2181368E-01 -0.3300568E+00  0.2718188E-01  0.1669332E+00
5052778. -0.5264097E-01  0.8757368E+00 -0.1985217E-01 -0.3545453E+00  0.2617218E-01  0.1856758E+00
5016296. -0.5759085E-01  0.8528388E+00 -0.1775923E-01 -0.3759201E+00  0.2505616E-01  0.2040504E+00
4979815. -0.6240478E-01  0.8283039E+00 -0.1555322E-01 -0.3940395E+00  0.2383611E-01  0.2220138E+00
4943333. -0.6707382E-01  0.8022074E+00 -0.1325293E-01 -0.4088218E+00  0.2251444E-01  0.2395219E+00
4906852. -0.7158914E-01  0.7746602E+00 -0.1087767E-01 -0.4202349E+00  0.2109399E-01  0.2565260E+00
4870370. -0.7594261E-01  0.7456418E+00 -0.8446823E-02 -0.4282082E+00  0.1957763E-01  0.2729942E+00
4833889. -0.8012588E-01  0.7152755E+00 -0.5980155E-02 -0.4327824E+00  0.1796867E-01  0.2888789E+00
4797407. -0.8413170E-01  0.6836251E+00 -0.3496841E-02 -0.4339996E+00  0.1627048E-01  0.3041416E+00
4760926. -0.8795246E-01  0.6506872E+00 -0.1016232E-02 -0.4318748E+00  0.1448677E-01  0.3187553E+00
4724444. -0.9158133E-01  0.6165845E+00  0.1443048E-02 -0.4265496E+00  0.1262130E-01  0.3326755E+00
4687963. -0.9501159E-01  0.5813517E+00  0.3862845E-02 -0.4181217E+00  0.1067823E-01  0.3458731E+00
4651482. -0.9823694E-01  0.5450262E+00  0.6225759E-02 -0.4067117E+00  0.8661715E-02  0.3583229E+00
4615000. -0.1012515E+00  0.5076998E+00  0.8515364E-02 -0.3925239E+00  0.6576090E-02  0.3699866E+00
4578518. -0.1040495E+00  0.4694006E+00  0.1071612E-01 -0.3757070E+00  0.4425970E-02  0.3808458E+00
4542037. -0.1066254E+00  0.4301955E+00  0.1281349E-01 -0.3564768E+00  0.2216091E-02  0.3908740E+00
4505556. -0.1089745E+00  0.3901525E+00  0.1479443E-01 -0.3350755E+00 -0.4875001E-04  0.4000407E+00
4469074. -0.1110920E+00  0.3493039E+00  0.1664709E-01 -0.3116920E+00 -0.2363672E-02  0.4083410E+00
4432593. -0.1129734E+00  0.3077279E+00  0.1836082E-01 -0.2866137E+00 -0.4723501E-02  0.4157428E+00
4396111. -0.1146149E+00  0.2654777E+00  0.1992675E-01 -0.2600969E+00 -0.7123162E-02  0.4222303E+00
4359630. -0.1160126E+00  0.2226114E+00  0.2133723E-01 -0.2323765E+00 -0.9557291E-02  0.4278015E+00
4323148. -0.1171632E+00  0.1791901E+00  0.2258632E-01 -0.2037633E+00 -0.1202069E-01  0.4324270E+00
4286667. -0.1180637E+00  0.1352769E+00  0.2366959E-01 -0.1745156E+00 -0.1450779E-01  0.4361048E+00
4250185. -0.1187116E+00  0.9093840E-01  0.2458423E-01 -0.1449022E+00 -0.1701330E-01  0.4388294E+00
4213704. -0.1191045E+00  0.4622988E-01  0.2532895E-01 -0.1152245E+00 -0.1953157E-01  0.4405823E+00
4177222. -0.1192404E+00  0.1229972E-02  0.2590417E-01 -0.8573012E-01 -0.2205718E-01  0.4413713E+00
4140741. -0.1191181E+00 -0.4399734E-01  0.2631165E-01 -0.5669754E-01 -0.2458445E-01  0.4411869E+00
4104259. -0.1187362E+00 -0.8940241E-01  0.2655488E-01 -0.2839592E-01 -0.2710793E-01  0.4400213E+00
4067778. -0.1180941E+00 -0.1348691E+00  0.2663868E-01 -0.1051354E-02 -0.2962190E-01  0.4378930E+00
4031296. -0.1171915E+00 -0.1803678E+00  0.2656925E-01  0.2507686E-01 -0.3212097E-01  0.4347876E+00
3994815. -0.1160285E+00 -0.2258234E+00  0.2635424E-01  0.4976353E-01 -0.3459939E-01  0.4307095E+00
3958333. -0.1146056E+00 -0.2711100E+00  0.2600245E-01  0.7281487E-01 -0.3705180E-01  0.4256808E+00
3921852. -0.1129240E+00 -0.3162143E+00  0.2552388E-01  0.9401771E-01 -0.3947260E-01  0.4196897E+00
3885370. -0.1109848E+00 -0.3610290E+00  0.2492957E-01  0.1132051E+00 -0.4185643E-01  0.4127530E+00
3848889. -0.1087901E+00 -0.4054532E+00  0.2423156E-01  0.1302201E+00 -0.4419782E-01  0.4048864E+00
3812407. -0.1063421E+00 -0.4494706E+00  0.2344267E-01  0.1449196E+00 -0.4649156E-01  0.3960870E+00
3775926. -0.1036437E+00 -0.4929241E+00  0.2257652E-01  0.1571932E+00 -0.4873224E-01  0.3863838E+00
3739444. -0.1006981E+00 -0.5357746E+00  0.2164725E-01  0.1669441E+00 -0.5091485E-01  0.3757838E+00
3702963. -0.9750903E-01 -0.5779816E+00  0.2066958E-01  0.1740979E+00 -0.5303415E-01  0.3642945E+00
3666482. -0.9408059E-01 -0.6193585E+00  0.1965849E-01  0.1786091E+00 -0.5508520E-01  0.3519509E+00
3630000. -0.9041744E-01 -0.6599260E+00  0.1862918E-01  0.1804490E+00 -0.5706318E-01  0.3387547E+00
3630000. -0.9041744E-01 -0.6599260E+00  0.1862918E-01  0.1804490E+00 -0.5706318E-01  0.3387547E+00
3592500. -0.8641284E-01 -0.7006080E+00  0.1756830E-01  0.1795538E+00 -0.5901509E-01  0.3243341E+00
3555000. -0.8217203E-01 -0.7401839E+00  0.1652096E-01  0.1758556E+00 -0.6087961E-01  0.3090657E+00
3517500. -0.7770145E-01 -0.7786711E+00  0.1550352E-01  0.1694014E+00 -0.6265179E-01  0.2929602E+00
3480000. -0.7300793E-01 -0.8159110E+00  0.1453201E-01  0.1602635E+00 -0.6432679E-01  0.2760492E+00
3480000. -0.7300793E-01 -0.1317007E+01  0.1346246E-01 -0.1585649E+00 -0.6432679E-01  0.5088633E+00
3409422. -0.5767095E-01 -0.1446531E+01  0.1509874E-01 -0.1361759E+00 -0.6939276E-01  0.4035658E+00
3338844. -0.4107706E-01 -0.1543990E+01  0.1646534E-01 -0.1099334E+00 -0.7322448E-01  0.2864334E+00
3268266. -0.2357837E-01 -0.1610026E+01  0.1752151E-01 -0.8019496E-01 -0.7570422E-01  0.1598878E+00
3197688. -0.5517513E-02 -0.1645682E+01  0.1823065E-01 -0.4734563E-01 -0.7674132E-01  0.2639772E-01
3127109.  0.1277641E-01 -0.1652305E+01  0.1856047E-01 -0.1177969E-01 -0.7627258E-01 -0.1115617E+00
3056531.  0.3098999E-01 -0.1631515E+01  0.1848311E-01  0.2609864E-01 -0.7426211E-01 -0.2515375E+00
2985953.  0.4882980E-01 -0.1585143E+01  0.1797521E-01  0.6587786E-01 -0.7070088E-01 -0.3911445E+00
2915375.  0.6602335E-01 -0.1515189E+01  0.1701804E-01  0.1071412E+00 -0.6560577E-01 -0.5280862E+00
2844797.  0.8232118E-01 -0.1423797E+01  0.1559743E-01  0.1494762E+00 -0.5901850E-01 -0.6601821E+00
2774219.  0.9749810E-01 -0.1313201E+01  0.1370380E-01  0.1924735E+00 -0.5100421E-01 -0.7853916E+00
2703641.  0.1113541E+00 -0.1185716E+01  0.1133205E-01  0.2357261E+00 -0.4164975E-01 -0.9018330E+00
2633062.  0.1237153E+00 -0.1043697E+01  0.8481522E-02  0.2788384E+00 -0.3106173E-01 -0.1007799E+01
2562484.  0.1344336E+00 -0.8895286E+00  0.5156000E-02  0.3214248E+00 -0.1936510E-01 -0.1101770E+01
2491906.  0.1433877E+00 -0.7255881E+00  0.1363356E-02  0.3631104E+00 -0.6700082E-02 -0.1182428E+01
2421328.  0.1504824E+00 -0.5542388E+00 -0.2884426E-02  0.4035359E+00  0.6779517E-02 -0.1248664E+01
2350750.  0.1556486E+00 -0.3778054E+00 -0.7571470E-02  0.4423577E+00  0.2090874E-01 -0.1299579E+01
2280172.  0.1588427E+00 -0.1985598E+00 -0.1267818E-01  0.4792488E+00  0.3551391E-01 -0.1334495E+01
2209594.  0.1600457E+00 -0.1870453E-01 -0.1818145E-01  0.5139023E+00  0.5041503E-01 -0.1352950E+01
2139016.  0.1592627E+00  0.1596384E+00 -0.2405489E-01  0.5460330E+00  0.6542820E-01 -0.1354701E+01
2068438.  0.1565218E+00  0.3344536E+00 -0.3026907E-01  0.5753756E+00  0.8036797E-01 -0.1339713E+01
1997859.  0.1518726E+00  0.5038216E+00 -0.3679181E-01  0.6016847E+00  0.9504992E-01 -0.1308163E+01
1927281.  0.1453857E+00  0.6659567E+00 -0.4358811E-01  0.6247470E+00  0.1092921E+00 -0.1260429E+01
1856703.  0.1371505E+00  0.8191948E+00 -0.5062100E-01  0.6443671E+00  0.1229183E+00 -0.1197076E+01
1786125.  0.1272741E+00  0.9620292E+00 -0.5785137E-01  0.6603716E+00  0.1357596E+00 -0.1118852E+01
1715547.  0.1158793E+00  0.1093100E+01 -0.6523836E-01  0.6726263E+00  0.1476560E+00 -0.1026670E+01
1644969.  0.1031032E+00  0.1211208E+01 -0.7273979E-01  0.6810094E+00  0.1584589E+00 -0.9215935E+00
1574391.  0.8909541E-01  0.1315324E+01 -0.8031216E-01  0.6854235E+00  0.1680317E+00 -0.8048254E+00
1503812.  0.7401548E-01  0.1404603E+01 -0.8791127E-01  0.6858060E+00  0.1762524E+00 -0.6776834E+00
1433234.  0.5803206E-01  0.1478380E+01 -0.9549192E-01  0.6821063E+00  0.1830135E+00 -0.5415912E+00
1362656.  0.4131942E-01  0.1536196E+01 -0.1030089E+00  0.6743087E+00  0.1882244E+00 -0.3980462E+00
1292078.  0.2405599E-01  0.1577793E+01 -0.1104167E+00  0.6623868E+00  0.1918109E+00 -0.2486054E+00
1221500.  0.6421920E-02  0.1603125E+01 -0.1176696E+00  0.6463601E+00  0.1937166E+00 -0.9486127E-01
1221500.  0.6421920E-02  0.1287029E+01 -0.1326989E+00 -0.7256153E+00  0.1937166E+00 -0.9764327E-01
1183328. -0.1506517E-02  0.1361433E+01 -0.1279888E+00 -0.8389555E+00  0.1940539E+00 -0.1488256E-01
1145156. -0.9914587E-02  0.1447012E+01 -0.1227427E+00 -0.9037764E+00  0.1938943E+00  0.6817219E-01
1106984. -0.1886673E-01  0.1542861E+01 -0.1172626E+00 -0.9166425E+00  0.1932369E+00  0.1512818E+00
1068812. -0.2842079E-01  0.1647682E+01 -0.1118660E+00 -0.8757603E+00  0.1920819E+00  0.2342078E+00
1030641. -0.3862543E-01  0.1759817E+01 -0.1068761E+00 -0.7810381E+00  0.1904312E+00  0.3167091E+00
 992469. -0.4951932E-01  0.1877305E+01 -0.1026114E+00 -0.6340753E+00  0.1882881E+00  0.3985532E+00
 954297. -0.6112752E-01  0.1997859E+01 -0.9937590E-01 -0.4381304E+00  0.1856571E+00  0.4795040E+00
 916125. -0.7346107E-01  0.2118993E+01 -0.9744956E-01 -0.1980161E+00  0.1825444E+00  0.5593287E+00
 877953. -0.8651543E-01  0.2238004E+01 -0.9707894E-01  0.8004099E-01  0.1789574E+00  0.6378009E+00
 839781. -0.1002695E+00  0.2352078E+01 -0.9846964E-01  0.3885820E+00  0.1749048E+00  0.7146975E+00
 801609. -0.1146850E+00  0.2458333E+01 -0.1017794E+00  0.7191366E+00  0.1703967E+00  0.7898008E+00
 763438. -0.1297062E+00  0.2553876E+01 -0.1071125E+00  0.1062444E+01  0.1654447E+00  0.8628982E+00
 725266. -0.1452610E+00  0.2635895E+01 -0.1145167E+00  0.1408777E+01  0.1600611E+00  0.9337890E+00
 687094. -0.1612600E+00  0.2701696E+01 -0.1239800E+00  0.1748132E+01  0.1542598E+00  0.1002272E+01
 648922. -0.1775983E+00  0.2748769E+01 -0.1354308E+00  0.2070574E+01  0.1480560E+00  0.1068162E+01
 610750. -0.1941569E+00  0.2774866E+01 -0.1487388E+00  0.2366497E+01  0.1414656E+00  0.1131275E+01
 572578. -0.2108040E+00  0.2778033E+01 -0.1637177E+00  0.2626893E+01  0.1345057E+00  0.1191439E+01
 534406. -0.2273974E+00  0.2756666E+01 -0.1801297E+00  0.2843594E+01  0.1271947E+00  0.1248494E+01
 496234. -0.2437860E+00  0.2709547E+01 -0.1976911E+00  0.3009508E+01  0.1195515E+00  0.1302286E+01
 458062. -0.2598131E+00  0.2635890E+01 -0.2160797E+00  0.3118816E+01  0.1115961E+00  0.1352671E+01
 419891. -0.2753180E+00  0.2535347E+01 -0.2349417E+00  0.3167123E+01  0.1033497E+00  0.1399516E+01
 381719. -0.2901405E+00  0.2408035E+01 -0.2539034E+00  0.3151594E+01  0.9483320E-01  0.1442700E+01
 343547. -0.3041213E+00  0.2254529E+01 -0.2725773E+00  0.3071002E+01  0.8606925E-01  0.1482111E+01
 305375. -0.3171065E+00  0.2075881E+01 -0.2905743E+00  0.2925837E+01  0.7708073E-01  0.1517644E+01
 267203. -0.3289495E+00  0.1873576E+01 -0.3075129E+00  0.2718194E+01  0.6789117E-01  0.1549212E+01
 229031. -0.3395143E+00  0.1649534E+01 -0.3230292E+00  0.2451826E+01  0.5852453E-01  0.1576734E+01
 190859. -0.3486772E+00  0.1406060E+01 -0.3367863E+00  0.2131956E+01  0.4900530E-01  0.1600139E+01
 152688. -0.3563295E+00  0.1145828E+01 -0.3484826E+00  0.1765229E+01  0.3935858E-01  0.1619367E+01
 114516. -0.3623799E+00  0.8717902E+00 -0.3578608E+00  0.1359466E+01  0.2960903E-01  0.1634374E+01
  76344. -0.3667550E+00  0.5871714E+00 -0.3647127E+00  0.9234998E+00  0.1978231E-01  0.1645122E+01
  38172. -0.3694017E+00  0.2953925E+00 -0.3688860E+00  0.4669546E+00  0.9903997E-02  0.1651599E+01
      0. -0.3702866E+00  0.0000000E+00 -0.3702849E+00  0.0000000E+00  0.0000000E+00  0.1653702E+01
