       4        8 S      277        294.38550         15.99750         15.22484         89.60414      185    7
6371000. -0.2521259E-03  0.1511802E-02  0.4637498E-04  0.2985009E-03 -0.1019139E-05  0.4846227E-03
6370000. -0.2523614E-03  0.1488414E-02  0.4632718E-04  0.3106093E-03 -0.1095164E-05  0.4840935E-03
6369000. -0.2525931E-03  0.1464905E-02  0.4627747E-04  0.3227005E-03 -0.1171106E-05  0.4835589E-03
6368000. -0.2528212E-03  0.1441274E-02  0.4622587E-04  0.3347741E-03 -0.1246964E-05  0.4830187E-03
6368000. -0.2528212E-03  0.1441274E-02  0.4622587E-04  0.3347741E-03 -0.1246964E-05  0.4830187E-03
6367000. -0.2530456E-03  0.1417523E-02  0.4617238E-04  0.3468294E-03 -0.1322736E-05  0.4824730E-03
6366000. -0.2532662E-03  0.1393650E-02  0.4611699E-04  0.3588660E-03 -0.1398423E-05  0.4819218E-03
6365000. -0.2534831E-03  0.1369657E-02  0.4605972E-04  0.3708834E-03 -0.1474022E-05  0.4813652E-03
6364000. -0.2536962E-03  0.1345545E-02  0.4600057E-04  0.3828810E-03 -0.1549534E-05  0.4808031E-03
6363000. -0.2539055E-03  0.1321313E-02  0.4593953E-04  0.3948583E-03 -0.1624957E-05  0.4802355E-03
6362000. -0.2541110E-03  0.1296962E-02  0.4587661E-04  0.4068149E-03 -0.1700290E-05  0.4796625E-03
6361000. -0.2543126E-03  0.1272493E-02  0.4581182E-04  0.4187501E-03 -0.1775533E-05  0.4790840E-03
6360000. -0.2545104E-03  0.1247905E-02  0.4574516E-04  0.4306636E-03 -0.1850685E-05  0.4785000E-03
6359000. -0.2547044E-03  0.1223200E-02  0.4567663E-04  0.4425546E-03 -0.1925745E-05  0.4779106E-03
6358000. -0.2548944E-03  0.1198377E-02  0.4560623E-04  0.4544229E-03 -0.2000712E-05  0.4773158E-03
6357000. -0.2550806E-03  0.1173437E-02  0.4553398E-04  0.4662678E-03 -0.2075585E-05  0.4767155E-03
6356000. -0.2552628E-03  0.1148382E-02  0.4545986E-04  0.4780888E-03 -0.2150363E-05  0.4761098E-03
6356000. -0.2552628E-03  0.1081847E-02  0.4545986E-04  0.4080614E-03 -0.2150363E-05  0.5316520E-03
6355000. -0.2554311E-03  0.1063780E-02  0.4539522E-04  0.4156056E-03 -0.2233757E-05  0.5309468E-03
6354000. -0.2555967E-03  0.1045641E-02  0.4532939E-04  0.4231356E-03 -0.2317039E-05  0.5302376E-03
6353000. -0.2557594E-03  0.1027429E-02  0.4526239E-04  0.4306512E-03 -0.2400210E-05  0.5295245E-03
6352000. -0.2559192E-03  0.1009144E-02  0.4519420E-04  0.4381522E-03 -0.2483269E-05  0.5288073E-03
6351000. -0.2560762E-03  0.9907867E-03  0.4512485E-04  0.4456384E-03 -0.2566214E-05  0.5280863E-03
6350000. -0.2562303E-03  0.9723576E-03  0.4505431E-04  0.4531095E-03 -0.2649047E-05  0.5273613E-03
6349000. -0.2563814E-03  0.9538567E-03  0.4498260E-04  0.4605653E-03 -0.2731765E-05  0.5266323E-03
6348000. -0.2565297E-03  0.9352843E-03  0.4490973E-04  0.4680057E-03 -0.2814368E-05  0.5258994E-03
6347000. -0.2566750E-03  0.9166406E-03  0.4483569E-04  0.4754303E-03 -0.2896856E-05  0.5251626E-03
6346600. -0.2567323E-03  0.9091632E-03  0.4480574E-04  0.4783957E-03 -0.2929819E-05  0.5248667E-03
6346600. -0.2567323E-03  0.1265341E-02  0.4480574E-04  0.4213186E-03 -0.2929819E-05  0.6143855E-03
6318800. -0.2614045E-03  0.8680405E-03  0.4264436E-04  0.5676121E-03 -0.5563586E-05  0.5924305E-03
6291000. -0.2642393E-03  0.4237076E-03  0.3986903E-04  0.7023223E-03 -0.8096852E-05  0.5683211E-03
6291000. -0.2642393E-03  0.4596623E-03  0.3986903E-04  0.7185161E-03 -0.8096852E-05  0.5683211E-03
6263000. -0.2651676E-03 -0.4452050E-04  0.3642490E-04  0.8461094E-03 -0.1053802E-04  0.5422109E-03
6235000. -0.2637872E-03 -0.5900601E-03  0.3245715E-04  0.9564565E-03 -0.1285950E-04  0.5138509E-03
6207000. -0.2599291E-03 -0.1170964E-02  0.2804594E-04  0.1047618E-02 -0.1505140E-04  0.4832489E-03
6179000. -0.2534529E-03 -0.1780314E-02  0.2327922E-04  0.1118004E-02 -0.1710391E-04  0.4504204E-03
6151000. -0.2442502E-03 -0.2410293E-02  0.1825112E-04  0.1166395E-02 -0.1900730E-04  0.4153972E-03
6151000. -0.2442502E-03 -0.1793341E-02  0.1825112E-04  0.1055451E-02 -0.1900730E-04  0.4289105E-03
6128500. -0.2372657E-03 -0.2161356E-02  0.1449684E-04  0.1068625E-02 -0.2048371E-04  0.4070947E-03
6106000. -0.2289906E-03 -0.2523777E-02  0.1071726E-04  0.1069813E-02 -0.2188205E-04  0.3847145E-03
6083500. -0.2194498E-03 -0.2877689E-02  0.6954256E-05  0.1059298E-02 -0.2320046E-04  0.3618386E-03
6061000. -0.2086783E-03 -0.3220246E-02  0.3248493E-05  0.1037469E-02 -0.2443732E-04  0.3385396E-03
6038500. -0.1967212E-03 -0.3548729E-02 -0.3609186E-06  0.1004825E-02 -0.2559123E-04  0.3148837E-03
6016000. -0.1836327E-03 -0.3860515E-02 -0.3836800E-05  0.9619542E-03 -0.2666108E-04  0.2909357E-03
5993500. -0.1694764E-03 -0.4153121E-02 -0.7144193E-05  0.9095260E-03 -0.2764592E-04  0.2667622E-03
5971000. -0.1543239E-03 -0.4424271E-02 -0.1025065E-04  0.8482910E-03 -0.2854509E-04  0.2424228E-03
5971000. -0.1543239E-03 -0.4016991E-02 -0.1025065E-04  0.7717729E-03 -0.2854509E-04  0.2626251E-03
5937667. -0.1327177E-03 -0.4232721E-02 -0.1399786E-04  0.6595890E-03 -0.2984032E-04  0.2326482E-03
5904333. -0.1101301E-03 -0.4392001E-02 -0.1714446E-04  0.5426889E-03 -0.3098130E-04  0.2036766E-03
5871000. -0.8685495E-04 -0.4496074E-02 -0.1967376E-04  0.4241246E-03 -0.3197369E-04  0.1758846E-03
5837667. -0.6317544E-04 -0.4546987E-02 -0.2158415E-04  0.3065016E-03 -0.3282405E-04  0.1494084E-03
5804333. -0.3936209E-04 -0.4547449E-02 -0.2288650E-04  0.1920042E-03 -0.3353958E-04  0.1243481E-03
5771000. -0.1567224E-04 -0.4500621E-02 -0.2360192E-04  0.8242379E-04 -0.3412785E-04  0.1007769E-03
5771000. -0.1567224E-04 -0.4500767E-02 -0.2360192E-04  0.8242080E-04 -0.3412785E-04  0.1007769E-03
5701000.  0.3399461E-04 -0.4504770E-02 -0.2331811E-04 -0.1330834E-03 -0.3497271E-04  0.5350883E-04
5701000.  0.3399461E-04 -0.3811721E-02 -0.2331811E-04 -0.1185087E-03 -0.3497271E-04  0.4392697E-04
5667333.  0.5345723E-04 -0.3582641E-02 -0.2250687E-04 -0.1873647E-03 -0.3517121E-04  0.3173905E-04
5633667.  0.7211867E-04 -0.3487786E-02 -0.2133788E-04 -0.2551998E-03 -0.3531055E-04  0.2104988E-04
5600000.  0.9023719E-04 -0.3362238E-02 -0.1981708E-04 -0.3195314E-03 -0.3539462E-04  0.1089227E-04
5600000.  0.9023719E-04 -0.3362238E-02 -0.1981708E-04 -0.3195314E-03 -0.3539462E-04  0.1089227E-04
5563518.  0.1090212E-03 -0.3192926E-02 -0.1779923E-04 -0.3843418E-03 -0.3542728E-04  0.6455068E-06
5527037.  0.1267416E-03 -0.2991280E-02 -0.1542636E-04 -0.4434485E-03 -0.3540352E-04 -0.8815004E-05
5490556.  0.1432199E-03 -0.2759433E-02 -0.1273278E-04 -0.4962654E-03 -0.3532782E-04 -0.1749801E-04
5454074.  0.1582899E-03 -0.2499737E-02 -0.9755929E-05 -0.5422882E-03 -0.3520456E-04 -0.2542536E-04
5417593.  0.1718003E-03 -0.2215275E-02 -0.6535926E-05 -0.5811708E-03 -0.3503811E-04 -0.3258719E-04
5381111.  0.1836178E-03 -0.1908863E-02 -0.3114355E-05 -0.6126160E-03 -0.3483275E-04 -0.3901717E-04
5344630.  0.1936253E-03 -0.1583715E-02  0.4654241E-06 -0.6364462E-03 -0.3459263E-04 -0.4473293E-04
5308148.  0.2017257E-03 -0.1243230E-02  0.4159832E-05 -0.6526101E-03 -0.3432181E-04 -0.4974515E-04
5271667.  0.2078400E-03 -0.8906799E-03  0.7924646E-05 -0.6610800E-03 -0.3402418E-04 -0.5410127E-04
5235185.  0.2119097E-03 -0.5296247E-03  0.1171633E-04 -0.6619908E-03 -0.3370345E-04 -0.5781248E-04
5198704.  0.2138960E-03 -0.1635846E-03  0.1549196E-04 -0.6555401E-03 -0.3336329E-04 -0.6089863E-04
5162222.  0.2137801E-03  0.2040634E-03  0.1921015E-04 -0.6419432E-03 -0.3300708E-04 -0.6342129E-04
5125741.  0.2115629E-03  0.5697760E-03  0.2283084E-04 -0.6215881E-03 -0.3263807E-04 -0.6537405E-04
5089259.  0.2072649E-03  0.9302477E-03  0.2631663E-04 -0.5948574E-03 -0.3225941E-04 -0.6679466E-04
5052778.  0.2009259E-03  0.1282201E-02  0.2963202E-04 -0.5621887E-03 -0.3187404E-04 -0.6772454E-04
5016296.  0.1926031E-03  0.1622546E-02  0.3274470E-04 -0.5241134E-03 -0.3148473E-04 -0.6816747E-04
4979815.  0.1823721E-03  0.1948307E-02  0.3562504E-04 -0.4811572E-03 -0.3109421E-04 -0.6816044E-04
4943333.  0.1703238E-03  0.2256735E-02  0.3824687E-04 -0.4338997E-03 -0.3070495E-04 -0.6772392E-04
4906852.  0.1565655E-03  0.2545300E-02  0.4058719E-04 -0.3829560E-03 -0.3031943E-04 -0.6686283E-04
4870370.  0.1412170E-03  0.2811604E-02  0.4262671E-04 -0.3289191E-03 -0.2993995E-04 -0.6561312E-04
4833889.  0.1244129E-03  0.3053610E-02  0.4434944E-04 -0.2724380E-03 -0.2956875E-04 -0.6397277E-04
4797407.  0.1062963E-03  0.3269527E-02  0.4574329E-04 -0.2141366E-03 -0.2920805E-04 -0.6194713E-04
4760926.  0.8702269E-04  0.3457653E-02  0.4679952E-04 -0.1546321E-03 -0.2886000E-04 -0.5955479E-04
4724444.  0.6675373E-04  0.3616827E-02  0.4751309E-04 -0.9454736E-04 -0.2852673E-04 -0.5678357E-04
4687963.  0.4565939E-04  0.3745969E-02  0.4788235E-04 -0.3447443E-04 -0.2821042E-04 -0.5363195E-04
4651482.  0.2391362E-04  0.3844270E-02  0.4790902E-04  0.2501423E-04 -0.2791326E-04 -0.5009419E-04
4615000.  0.1693484E-05  0.3911383E-02  0.4759802E-04  0.8337488E-04 -0.2763749E-04 -0.4615210E-04
4578518. -0.2082080E-04  0.3946981E-02  0.4695731E-04  0.1400951E-03 -0.2738550E-04 -0.4178708E-04
4542037. -0.4344819E-04  0.3951156E-02  0.4599767E-04  0.1946959E-03 -0.2715978E-04 -0.3697466E-04
4505556. -0.6601045E-04  0.3924288E-02  0.4473247E-04  0.2467492E-03 -0.2696297E-04 -0.3168558E-04
4469074. -0.8833143E-04  0.3866775E-02  0.4317744E-04  0.2958556E-03 -0.2679791E-04 -0.2587435E-04
4432593. -0.1102368E-03  0.3779522E-02  0.4135053E-04  0.3416698E-03 -0.2666770E-04 -0.1950626E-04
4396111. -0.1315605E-03  0.3663515E-02  0.3927135E-04  0.3838975E-03 -0.2657567E-04 -0.1252872E-04
4359630. -0.1521394E-03  0.3519848E-02  0.3696136E-04  0.4222714E-03 -0.2652553E-04 -0.4869009E-05
4323148. -0.1718206E-03  0.3350009E-02  0.3444307E-04  0.4566004E-03 -0.2652130E-04  0.3520052E-05
4286667. -0.1904573E-03  0.3155477E-02  0.3174025E-04  0.4867218E-03 -0.2656740E-04  0.1272743E-04
4250185. -0.2079138E-03  0.2937903E-02  0.2887721E-04  0.5125233E-03 -0.2666880E-04  0.2284494E-04
4213704. -0.2240625E-03  0.2699164E-02  0.2587900E-04  0.5339524E-03 -0.2683090E-04  0.3395067E-04
4177222. -0.2387882E-03  0.2441074E-02  0.2277059E-04  0.5509839E-03 -0.2705976E-04  0.4617774E-04
4140741. -0.2519851E-03  0.2165653E-02  0.1957728E-04  0.5636467E-03 -0.2736210E-04  0.5963616E-04
4104259. -0.2635605E-03  0.1874938E-02  0.1632370E-04  0.5720179E-03 -0.2774531E-04  0.7445095E-04
4067778. -0.2734320E-03  0.1570966E-02  0.1303435E-04  0.5761909E-03 -0.2821770E-04  0.9081430E-04
4031296. -0.2815303E-03  0.1255840E-02  0.9732670E-05  0.5763214E-03 -0.2878856E-04  0.1088620E-03
3994815. -0.2877969E-03  0.9316460E-03  0.6441483E-05  0.5725886E-03 -0.2946800E-04  0.1287876E-03
3958333. -0.2921862E-03  0.6004133E-03  0.3182178E-05  0.5651920E-03 -0.3026757E-04  0.1508494E-03
3921852. -0.2946634E-03  0.2641538E-03 -0.2478007E-07  0.5543787E-03 -0.3120001E-04  0.1752410E-03
3885370. -0.2952053E-03 -0.7521349E-04 -0.3160730E-05  0.5404048E-03 -0.3227951E-04  0.2022591E-03
3848889. -0.2937997E-03 -0.4158040E-03 -0.6208196E-05  0.5235524E-03 -0.3352198E-04  0.2322222E-03
3812407. -0.2904442E-03 -0.7559414E-03 -0.9151723E-05  0.5041239E-03 -0.3494521E-04  0.2654411E-03
3775926. -0.2851466E-03 -0.1093916E-02 -0.1197729E-04  0.4824315E-03 -0.3656895E-04  0.3023462E-03
3739444. -0.2779232E-03 -0.1428294E-02 -0.1467300E-04  0.4588020E-03 -0.3841563E-04  0.3433621E-03
3702963. -0.2687987E-03 -0.1757776E-02 -0.1722860E-04  0.4335702E-03 -0.4050998E-04  0.3889624E-03
3666482. -0.2578048E-03 -0.2081068E-02 -0.1963593E-04  0.4070746E-03 -0.4288005E-04  0.4397653E-03
3630000. -0.2449792E-03 -0.2397319E-02 -0.2188881E-04  0.3796576E-03 -0.4555740E-04  0.4963706E-03
3630000. -0.2449792E-03 -0.2397319E-02 -0.2188881E-04  0.3796576E-03 -0.4555740E-04  0.4963706E-03
3592500. -0.2299320E-03 -0.2714076E-02 -0.2403899E-04  0.3508769E-03 -0.4866684E-04  0.5614046E-03
3555000. -0.2130469E-03 -0.3021780E-02 -0.2601890E-04  0.3218593E-03 -0.5218168E-04  0.6342750E-03
3517500. -0.1943779E-03 -0.3320182E-02 -0.2782820E-04  0.2929690E-03 -0.5615092E-04  0.7159867E-03
3480000. -0.1739806E-03 -0.3609022E-02 -0.2946872E-04  0.2645647E-03 -0.6063006E-04  0.8077494E-03
3480000. -0.1739806E-03 -0.8868428E-04  0.2128792E-04 -0.3578927E-03 -0.6063006E-04  0.1362554E-02
3409422. -0.1739080E-03  0.8829423E-04  0.2533010E-04 -0.3726312E-03 -0.7546462E-04  0.1317075E-02
3338844. -0.1762267E-03  0.3438563E-03  0.2956440E-04 -0.3929206E-03 -0.8985017E-04  0.1282151E-02
3268266. -0.1818407E-03  0.6846600E-03  0.3406447E-04 -0.4210259E-03 -0.1039257E-03  0.1261782E-02
3197688. -0.1917505E-03  0.1121659E-02  0.3893150E-04 -0.4596714E-03 -0.1178750E-03  0.1260042E-02
3127109. -0.2071089E-03  0.1671696E-02  0.4430017E-04 -0.5121962E-03 -0.1319280E-03  0.1281201E-02
3056531. -0.2292960E-03  0.2359410E-02  0.5034642E-04 -0.5828007E-03 -0.1463630E-03  0.1329866E-02
2985953. -0.2600209E-03  0.3220059E-02  0.5729928E-04 -0.6769035E-03 -0.1615130E-03  0.1411186E-02
2915375. -0.3014594E-03  0.4303359E-02  0.6545668E-04 -0.8016251E-03 -0.1777717E-03  0.1531102E-02
2844797. -0.3564420E-03  0.5678895E-02  0.7520779E-04 -0.9664505E-03 -0.1956045E-03  0.1696666E-02
2774219. -0.4287150E-03  0.7444018E-02  0.8706428E-04 -0.1184213E-02 -0.2155630E-03  0.1916462E-02
2703641. -0.5233075E-03  0.9735184E-02  0.1017049E-03 -0.1472520E-02 -0.2383048E-03  0.2201115E-02
2633062. -0.6470527E-03  0.1274471E-01  0.1200392E-03 -0.1855786E-02 -0.2646197E-03  0.2563961E-02
2562484. -0.8093272E-03  0.1674544E-01  0.1432972E-03 -0.2368200E-02 -0.2954628E-03  0.3021881E-02
2491906. -0.1023147E-02  0.2212812E-01  0.1731628E-03 -0.3058339E-02 -0.3320024E-03  0.3596423E-02
2421328. -0.1306757E-02  0.2945782E-01  0.2119677E-03 -0.3995918E-02 -0.3756767E-03  0.4315145E-02
2350750. -0.1686007E-02  0.3956055E-01  0.2629780E-03 -0.5282099E-02 -0.4282706E-03  0.5213407E-02
2280172. -0.2197940E-02  0.5365844E-01  0.3308260E-03 -0.7065702E-02 -0.4920142E-03  0.6336608E-02
2209594. -0.2896266E-02  0.7358291E-01  0.4221679E-03 -0.9568460E-02 -0.5697080E-03  0.7742897E-02
2139016. -0.3859853E-02  0.1021160E+00  0.5466962E-03 -0.1312537E-01 -0.6648828E-03  0.9506464E-02
2068438. -0.5206082E-02  0.1435453E+00  0.7187286E-03 -0.1824997E-01 -0.7819960E-03  0.1172105E-01
1997859. -0.7112209E-02  0.2045834E+00  0.9597331E-03 -0.2574202E-01 -0.9266706E-03  0.1450348E-01
1927281. -0.9849913E-02  0.2959087E+00  0.1302399E-02 -0.3686784E-01 -0.1105953E-02  0.1799495E-01
1856703. -0.1384276E-01  0.4348208E+00  0.1797378E-02 -0.5366883E-01 -0.1328584E-02  0.2235776E-01
1786125. -0.1976266E-01  0.6498722E+00  0.2524559E-02 -0.7949893E-01 -0.1605151E-02  0.2775926E-01
1715547. -0.2869601E-01  0.9891610E+00  0.3612400E-02 -0.1199839E+00 -0.1947942E-02  0.3432707E-01
1644969. -0.4243571E-01  0.1535509E+01  0.5271804E-02 -0.1847697E+00 -0.2369979E-02  0.4204103E-01
1574391. -0.6400679E-01  0.2434944E+01  0.7856857E-02 -0.2907957E+00 -0.2882221E-02  0.5048925E-01
1503812. -0.9863798E-01  0.3951696E+01  0.1197675E-01 -0.4685977E+00 -0.3486604E-02  0.5832335E-01
1433234. -0.1556036E+00  0.6577326E+01  0.1870725E-01 -0.7747769E+00 -0.4159855E-02  0.6205863E-01
1362656. -0.2518365E+00  0.1125510E+02  0.3000432E-01 -0.1317580E+01 -0.4817060E-02  0.5340527E-01
1292078. -0.4192358E+00  0.1985698E+02  0.4953827E-01 -0.2311127E+01 -0.5229564E-02  0.1324796E-01
1221500. -0.7200180E+00  0.3623922E+02  0.8444130E-01 -0.4195189E+01 -0.4838896E-02 -0.1022428E+00
1221500. -0.7200180E+00  0.5491738E+01  0.6520108E-02  0.3789418E+01 -0.4838896E-02  0.2096719E+00
1183328. -0.7339822E+00 -0.5610090E+00 -0.1264764E-01  0.2643970E+01 -0.5652982E-02  0.7126383E-01
1145156. -0.7163419E+00 -0.5088899E+01 -0.2557033E-01  0.1702493E+01 -0.5788490E-02 -0.1915933E-01
1106984. -0.6756670E+00 -0.8282154E+01 -0.3342528E-01  0.9495152E+00 -0.5494114E-02 -0.7408172E-01
1068812. -0.6193725E+00 -0.1033520E+02 -0.3728864E-01  0.3668831E+00 -0.4951787E-02 -0.1033825E+00
1030641. -0.5537124E+00 -0.1144057E+02 -0.3812186E-01 -0.6538411E-01 -0.4290862E-02 -0.1148078E+00
 992469. -0.4838018E+00 -0.1178350E+02 -0.3676334E-01 -0.3682671E+00 -0.3599757E-02 -0.1143097E+00
 954297. -0.4136846E+00 -0.1153714E+02 -0.3392496E-01 -0.5628545E+00 -0.2935862E-02 -0.1063668E+00
 916125. -0.3464112E+00 -0.1085906E+02 -0.3019371E-01 -0.6696487E+00 -0.2333339E-02 -0.9428814E-01
 877953. -0.2841414E+00 -0.9888496E+01 -0.2603696E-01 -0.7079766E+00 -0.1809518E-02 -0.8041932E-01
 839781. -0.2282604E+00 -0.8744626E+01 -0.2181141E-01 -0.6953859E+00 -0.1369991E-02 -0.6636591E-01
 801609. -0.1795010E+00 -0.7526006E+01 -0.1777451E-01 -0.6473982E+00 -0.1012522E-02 -0.5315947E-01
 763438. -0.1380683E+00 -0.6310676E+01 -0.1409783E-01 -0.5771803E+00 -0.7300763E-03 -0.4139533E-01
 725266. -0.1037558E+00 -0.5157126E+01 -0.1088077E-01 -0.4955416E+00 -0.5130296E-03 -0.3135259E-01
 687094. -0.7606407E-01 -0.4106010E+01 -0.8165486E-02 -0.4109057E+00 -0.3508047E-03 -0.2309092E-01
 648922. -0.5429770E-01 -0.3182198E+01 -0.5950251E-02 -0.3294848E+00 -0.2329467E-03 -0.1651893E-01
 610750. -0.3765342E-01 -0.2397187E+01 -0.4202270E-02 -0.2554835E+00 -0.1498304E-03 -0.1145978E-01
 572578. -0.2529270E-01 -0.1751696E+01 -0.2868891E-02 -0.1913746E+00 -0.9304396E-04 -0.7691020E-02
 534406. -0.1639846E-01 -0.1238281E+01 -0.1887057E-02 -0.1382115E+00 -0.5556061E-04 -0.4977455E-02
 496234. -0.1021642E-01 -0.8438223E+00 -0.1190850E-02 -0.9595115E-01 -0.3174293E-04 -0.3093427E-02
 458062. -0.6082174E-02 -0.5517923E+00 -0.7170971E-03 -0.6376871E-01 -0.1724122E-04 -0.1836395E-02
 419891. -0.3435627E-02 -0.3442203E+00 -0.4091946E-03 -0.4034593E-01 -0.8831193E-05 -0.1034131E-02
 381719. -0.1824461E-02 -0.2032671E+00 -0.2192577E-03 -0.2411980E-01 -0.4221121E-05 -0.5474395E-03
 343547. -0.8998504E-03 -0.1124607E+00 -0.1089980E-03 -0.1348789E-01 -0.1856797E-05 -0.2691608E-03
 305375. -0.4054521E-03 -0.5748270E-01 -0.4945167E-04 -0.6958019E-02 -0.7376226E-06 -0.1209130E-03
 267203. -0.1630662E-03 -0.2661172E-01 -0.2000736E-04 -0.3246732E-02 -0.2576998E-06 -0.4849207E-04
 229031. -0.5658004E-04 -0.1083861E-01 -0.6977317E-05 -0.1331186E-02 -0.7615768E-07 -0.1678186E-04
 190859. -0.1606579E-04 -0.3711961E-02 -0.1989567E-05 -0.4584187E-03 -0.1792361E-07 -0.4754226E-05
 152688. -0.3417117E-05 -0.9909502E-03 -0.4246142E-06 -0.1229227E-03 -0.3036213E-08 -0.1009204E-05
 114516. -0.4611238E-06 -0.1788630E-03 -0.5744996E-07 -0.2226249E-04 -0.3062031E-09 -0.1359634E-06
  76344. -0.2719788E-07 -0.1585989E-04 -0.3394780E-08 -0.1978756E-05 -0.1200887E-10 -0.8009126E-08
  38172. -0.2134636E-09 -0.2492813E-06 -0.2667315E-10 -0.3114544E-07 -0.4704736E-13 -0.6280064E-10
      0.  0.0000000E+00  0.0000000E+00  0.0000000E+00  0.0000000E+00  0.0000000E+00  0.0000000E+00
