       2       27 S      191        174.29720          8.35150          6.44220        188.88110      185    7
6371000. -0.5038718E-01 -0.1586136E+01 -0.5469637E-02  0.4491754E-01  0.4610719E-02 -0.3408170E-01
6370000. -0.5013709E-01 -0.1600472E+01 -0.5476461E-02  0.4204137E-01  0.4616056E-02 -0.3391646E-01
6369000. -0.4988477E-01 -0.1614521E+01 -0.5482834E-02  0.3915699E-01  0.4621367E-02 -0.3375436E-01
6368000. -0.4963027E-01 -0.1628282E+01 -0.5488753E-02  0.3626469E-01  0.4626652E-02 -0.3359542E-01
6368000. -0.4963027E-01 -0.1628282E+01 -0.5488753E-02  0.3626469E-01  0.4626652E-02 -0.3359542E-01
6367000. -0.4937363E-01 -0.1641753E+01 -0.5494218E-02  0.3336477E-01  0.4631913E-02 -0.3343964E-01
6366000. -0.4911490E-01 -0.1654934E+01 -0.5499227E-02  0.3045752E-01  0.4637150E-02 -0.3328704E-01
6365000. -0.4885413E-01 -0.1667822E+01 -0.5503778E-02  0.2754323E-01  0.4642363E-02 -0.3313763E-01
6364000. -0.4859135E-01 -0.1680418E+01 -0.5507873E-02  0.2462221E-01  0.4647553E-02 -0.3299144E-01
6363000. -0.4832662E-01 -0.1692719E+01 -0.5511508E-02  0.2169474E-01  0.4652720E-02 -0.3284846E-01
6362000. -0.4805999E-01 -0.1704725E+01 -0.5514683E-02  0.1876113E-01  0.4657865E-02 -0.3270870E-01
6361000. -0.4779148E-01 -0.1716435E+01 -0.5517397E-02  0.1582168E-01  0.4662988E-02 -0.3257220E-01
6360000. -0.4752117E-01 -0.1727848E+01 -0.5519649E-02  0.1287668E-01  0.4668090E-02 -0.3243896E-01
6359000. -0.4724909E-01 -0.1738963E+01 -0.5521439E-02  0.9926426E-02  0.4673171E-02 -0.3230898E-01
6358000. -0.4697529E-01 -0.1749778E+01 -0.5522765E-02  0.6971229E-02  0.4678233E-02 -0.3218229E-01
6357000. -0.4669981E-01 -0.1760294E+01 -0.5523627E-02  0.4011387E-02  0.4683274E-02 -0.3205890E-01
6356000. -0.4642271E-01 -0.1770509E+01 -0.5524024E-02  0.1047199E-02  0.4688297E-02 -0.3193882E-01
6356000. -0.4642271E-01 -0.1513753E+01 -0.5524024E-02  0.1688276E-01  0.4688297E-02 -0.2183778E-01
6355000. -0.4618446E-01 -0.1522010E+01 -0.5526555E-02  0.1536663E-01  0.4691702E-02 -0.2155320E-01
6354000. -0.4594492E-01 -0.1530115E+01 -0.5528848E-02  0.1384756E-01  0.4695063E-02 -0.2127084E-01
6353000. -0.4570413E-01 -0.1538066E+01 -0.5530902E-02  0.1232564E-01  0.4698380E-02 -0.2099071E-01
6352000. -0.4546210E-01 -0.1545864E+01 -0.5532717E-02  0.1080097E-01  0.4701653E-02 -0.2071279E-01
6351000. -0.4521886E-01 -0.1553509E+01 -0.5534292E-02  0.9273645E-02  0.4704882E-02 -0.2043711E-01
6350000. -0.4497442E-01 -0.1560998E+01 -0.5535628E-02  0.7743750E-02  0.4708068E-02 -0.2016366E-01
6349000. -0.4472883E-01 -0.1568333E+01 -0.5536723E-02  0.6211382E-02  0.4711212E-02 -0.1989245E-01
6348000. -0.4448210E-01 -0.1575513E+01 -0.5537578E-02  0.4676635E-02  0.4714313E-02 -0.1962348E-01
6347000. -0.4423425E-01 -0.1582537E+01 -0.5538191E-02  0.3139601E-02  0.4717372E-02 -0.1935676E-01
6346600. -0.4413480E-01 -0.1585302E+01 -0.5538370E-02  0.2524168E-02  0.4718584E-02 -0.1925070E-01
6346600. -0.4413480E-01 -0.1749418E+01 -0.5538370E-02  0.1429075E-01  0.4718584E-02 -0.3861536E-02
6318800. -0.3616268E-01 -0.1893264E+01 -0.5554561E-02 -0.7082250E-02  0.4715547E-02  0.5070949E-02
6291000. -0.2771562E-01 -0.1966123E+01 -0.5475251E-02 -0.2935488E-01  0.4675844E-02  0.1296236E-01
6291000. -0.2771562E-01 -0.2026808E+01 -0.5475251E-02 -0.3128042E-01  0.4675844E-02  0.1296236E-01
6263000. -0.1879800E-01 -0.2017096E+01 -0.5283024E-02 -0.5612973E-01  0.4604617E-02  0.1929564E-01
6235000. -0.1011223E-01 -0.1921266E+01 -0.4983170E-02 -0.8009990E-01  0.4507530E-02  0.2474777E-01
6207000. -0.2034537E-02 -0.1740915E+01 -0.4581621E-02 -0.1022556E+00  0.4388228E-02  0.2942182E-01
6179000.  0.5073508E-02 -0.1481130E+01 -0.4088315E-02 -0.1217155E+00  0.4249905E-02  0.3342147E-01
6151000.  0.1088026E-01 -0.1150415E+01 -0.3516877E-02 -0.1376883E+00  0.4095298E-02  0.3684865E-01
6151000.  0.1088026E-01 -0.1146765E+01 -0.3516877E-02 -0.1226725E+00  0.4095298E-02  0.3624669E-01
6128500.  0.1449278E-01 -0.8960863E+00 -0.3073925E-02 -0.1277995E+00  0.3962615E-02  0.3883170E-01
6106000.  0.1719088E-01 -0.6299087E+00 -0.2616872E-02 -0.1306575E+00  0.3821433E-02  0.4106503E-01
6083500.  0.1893053E-01 -0.3542905E+00 -0.2153708E-02 -0.1312669E+00  0.3672940E-02  0.4297633E-01
6061000.  0.1968904E-01 -0.7525065E-01 -0.1692273E-02 -0.1296933E+00  0.3518227E-02  0.4459293E-01
6038500.  0.1946474E-01  0.2013482E+00 -0.1240095E-02 -0.1260453E+00  0.3358285E-02  0.4594104E-01
6016000.  0.1827624E-01  0.4699042E+00 -0.8042546E-03 -0.1204686E+00  0.3194020E-02  0.4704567E-01
5993500.  0.1616129E-01  0.7251870E+00 -0.3912578E-03 -0.1131404E+00  0.3026248E-02  0.4793055E-01
5971000.  0.1317533E-01  0.9624309E+00 -0.6937045E-05 -0.1042650E+00  0.2855704E-02  0.4861949E-01
5971000.  0.1317533E-01  0.8695505E+00 -0.6937045E-05 -0.9432798E-01  0.2855704E-02  0.4689473E-01
5937667.  0.7951053E-02  0.1117755E+01  0.4453618E-03 -0.7842641E-01  0.2610796E-02  0.4662820E-01
5904333.  0.1582297E-02  0.1306748E+01  0.8130008E-03 -0.6210344E-01  0.2368758E-02  0.4580173E-01
5871000. -0.5620096E-02  0.1436769E+01  0.1095826E-02 -0.4612104E-01  0.2132415E-02  0.4446229E-01
5837667. -0.1335427E-01  0.1510682E+01  0.1297228E-02 -0.3106118E-01  0.1904302E-02  0.4266621E-01
5804333. -0.2133873E-01  0.1533267E+01  0.1423190E-02 -0.1733715E-01  0.1686635E-02  0.4047725E-01
5771000. -0.2931980E-01  0.1510568E+01  0.1481440E-02 -0.5210829E-02  0.1481305E-02  0.3796543E-01
5771000. -0.2931980E-01  0.1510648E+01  0.1481440E-02 -0.5209549E-02  0.1481305E-02  0.3796543E-01
5701000. -0.4549577E-01  0.1407598E+01  0.1431385E-02  0.1360600E-01  0.1103055E-02  0.3089008E-01
5701000. -0.4549577E-01  0.1223497E+01  0.1431385E-02  0.2176495E-01  0.1103055E-02  0.4371370E-01
5667333. -0.5154093E-01  0.1072879E+01  0.1302352E-02  0.2633291E-01  0.8888972E-03  0.3740742E-01
5633667. -0.5691102E-01  0.9618960E+00  0.1159191E-02  0.2757755E-01  0.7060320E-03  0.3197245E-01
5600000. -0.6168976E-01  0.8453715E+00  0.1011285E-02  0.2835375E-01  0.5497859E-03  0.2725945E-01
5600000. -0.6168976E-01  0.8453715E+00  0.1011285E-02  0.2835375E-01  0.5497859E-03  0.2725945E-01
5563518. -0.6615877E-01  0.7150717E+00  0.8478987E-03  0.2861733E-01  0.4066872E-03  0.2282925E-01
5527037. -0.6987598E-01  0.5832418E+00  0.6845805E-03  0.2834127E-01  0.2871786E-03  0.1900650E-01
5490556. -0.7283971E-01  0.4522693E+00  0.5242382E-03  0.2758952E-01  0.1880149E-03  0.1571205E-01
5454074. -0.7506113E-01  0.3242858E+00  0.3693889E-03  0.2643193E-01  0.1063482E-03  0.1288298E-01
5417593. -0.7656283E-01  0.2011859E+00  0.2221895E-03  0.2493001E-01  0.3972526E-04  0.1044841E-01
5381111. -0.7737748E-01  0.8455124E-01  0.8440086E-04  0.2315564E-01 -0.1397941E-04  0.8363693E-02
5344630. -0.7754596E-01 -0.2431446E-01 -0.4260334E-04  0.2117436E-01 -0.5664059E-04  0.6583539E-02
5308148. -0.7711577E-01 -0.1244042E+00 -0.1578089E-03  0.1904403E-01 -0.8987056E-04  0.5063803E-02
5271667. -0.7613949E-01 -0.2149541E+00 -0.2605457E-03  0.1683010E-01 -0.1150850E-03  0.3779620E-02
5235185. -0.7467315E-01 -0.2955007E+00 -0.3504839E-03  0.1457986E-01 -0.1335383E-03  0.2695954E-02
5198704. -0.7277492E-01 -0.3657899E+00 -0.4275347E-03  0.1233822E-01 -0.1462854E-03  0.1784165E-02
5162222. -0.7050375E-01 -0.4257581E+00 -0.4919006E-03  0.1015486E-01 -0.1542819E-03  0.1033057E-02
5125741. -0.6791838E-01 -0.4755992E+00 -0.5439899E-03  0.8054911E-02 -0.1583610E-03  0.4114803E-03
5089259. -0.6507584E-01 -0.5156108E+00 -0.5843659E-03  0.6068627E-02 -0.1592139E-03 -0.9508453E-04
5052778. -0.6203143E-01 -0.5462271E+00 -0.6137599E-03  0.4222291E-02 -0.1574729E-03 -0.4974526E-03
5016296. -0.5883710E-01 -0.5680442E+00 -0.6330060E-03  0.2525920E-02 -0.1536749E-03 -0.8160702E-03
4979815. -0.5554168E-01 -0.5816807E+00 -0.6430043E-03  0.9944831E-03 -0.1482722E-03 -0.1059064E-02
4943333. -0.5218980E-01 -0.5878550E+00 -0.6447217E-03 -0.3665876E-03 -0.1416704E-03 -0.1237426E-02
4906852. -0.4882219E-01 -0.5873310E+00 -0.6391269E-03 -0.1559066E-02 -0.1341961E-03 -0.1364939E-02
4870370. -0.4547495E-01 -0.5808395E+00 -0.6271987E-03 -0.2578846E-02 -0.1261333E-03 -0.1443904E-02
4833889. -0.4218013E-01 -0.5691856E+00 -0.6099051E-03 -0.3435213E-02 -0.1177294E-03 -0.1486297E-02
4797407. -0.3896490E-01 -0.5531237E+00 -0.5881522E-03 -0.4136901E-02 -0.1091661E-03 -0.1499792E-02
4760926. -0.3585270E-01 -0.5333565E+00 -0.5628169E-03 -0.4688419E-02 -0.1006082E-03 -0.1485433E-02
4724444. -0.3286244E-01 -0.5106163E+00 -0.5347137E-03 -0.5105931E-02 -0.9218777E-04 -0.1453077E-02
4687963. -0.3000946E-01 -0.4855379E+00 -0.5045779E-03 -0.5400135E-02 -0.8399530E-04 -0.1406008E-02
4651482. -0.2730536E-01 -0.4587131E+00 -0.4730859E-03 -0.5582060E-02 -0.7611070E-04 -0.1346441E-02
4615000. -0.2475841E-01 -0.4307079E+00 -0.4408323E-03 -0.5668171E-02 -0.6858613E-04 -0.1280835E-02
4578518. -0.2237408E-01 -0.4019886E+00 -0.4083349E-03 -0.5668946E-02 -0.6145232E-04 -0.1210087E-02
4542037. -0.2015526E-01 -0.3729924E+00 -0.3760471E-03 -0.5597851E-02 -0.5473237E-04 -0.1137140E-02
4505556. -0.1810234E-01 -0.3440930E+00 -0.3443375E-03 -0.5468735E-02 -0.4842554E-04 -0.1065941E-02
4469074. -0.1621389E-01 -0.3155797E+00 -0.3135125E-03 -0.5290304E-02 -0.4252373E-04 -0.9958246E-03
4432593. -0.1448698E-01 -0.2877258E+00 -0.2838204E-03 -0.5075417E-02 -0.3701152E-04 -0.9305397E-03
4396111. -0.1291715E-01 -0.2607251E+00 -0.2554375E-03 -0.4834021E-02 -0.3185436E-04 -0.8717233E-03
4359630. -0.1149919E-01 -0.2347177E+00 -0.2284973E-03 -0.4573217E-02 -0.2701658E-04 -0.8193674E-03
4323148. -0.1022698E-01 -0.2098188E+00 -0.2030813E-03 -0.4302825E-02 -0.2245168E-04 -0.7767616E-03
4286667. -0.9094076E-02 -0.1860800E+00 -0.1792266E-03 -0.4028976E-02 -0.1810096E-04 -0.7446748E-03
4250185. -0.8093704E-02 -0.1635185E+00 -0.1569365E-03 -0.3757208E-02 -0.1390084E-04 -0.7245406E-03
4213704. -0.7219185E-02 -0.1421247E+00 -0.1361819E-03 -0.3493579E-02 -0.9774976E-05 -0.7191164E-03
4177222. -0.6463938E-02 -0.1218411E+00 -0.1169057E-03 -0.3241133E-02 -0.5634631E-05 -0.7298867E-03
4140741. -0.5821846E-02 -0.1025949E+00 -0.9903547E-04 -0.3003284E-02 -0.1379416E-05 -0.7599003E-03
4104259. -0.5287211E-02 -0.8428310E-01 -0.8247791E-04 -0.2782644E-02  0.3111874E-05 -0.8128217E-03
4067778. -0.4855073E-02 -0.6677835E-01 -0.6713523E-04 -0.2579152E-02  0.7978914E-05 -0.8919191E-03
4031296. -0.4521167E-02 -0.4994497E-01 -0.5290629E-04 -0.2393516E-02  0.1338743E-04 -0.1002945E-02
3994815. -0.4282098E-02 -0.3363062E-01 -0.3969253E-04 -0.2224157E-02  0.1953787E-04 -0.1152156E-02
3958333. -0.4135332E-02 -0.1767888E-01 -0.2741163E-04 -0.2066854E-02  0.2666855E-04 -0.1346713E-02
3921852. -0.4079220E-02 -0.1944117E-02 -0.1600806E-04 -0.1916706E-02  0.3506709E-04 -0.1596893E-02
3885370. -0.4112907E-02  0.1370389E-01 -0.5465162E-05 -0.1764175E-02  0.4508473E-04 -0.1914212E-02
3848889. -0.4236158E-02  0.2934858E-01  0.4165368E-05 -0.1595486E-02  0.5714436E-04 -0.2312933E-02
3812407. -0.4449048E-02  0.4500528E-01  0.1273975E-04 -0.1391180E-02  0.7176326E-04 -0.2811173E-02
3775926. -0.4751391E-02  0.6056303E-01  0.1997342E-04 -0.1121420E-02  0.8956767E-04 -0.3429494E-02
3739444. -0.5141896E-02  0.7572494E-01  0.2537924E-04 -0.7444860E-03  0.1113170E-03 -0.4193545E-02
3702963. -0.5616766E-02  0.8990359E-01  0.2818214E-04 -0.2001983E-03  0.1379292E-03 -0.5133456E-02
3666482. -0.6167651E-02  0.1020538E+00  0.2718650E-04  0.5995213E-03  0.1705053E-03 -0.6282662E-02
3630000. -0.6778457E-02  0.1104715E+00  0.2059543E-04  0.1778770E-02  0.2103560E-03 -0.7680836E-02
3630000. -0.6778457E-02  0.1104715E+00  0.2059543E-04  0.1778770E-02  0.2103560E-03 -0.7680836E-02
3592500. -0.7438540E-02  0.1123557E+00  0.5184271E-05  0.3576644E-02  0.2605238E-03 -0.9420427E-02
3555000. -0.8078806E-02  0.1027905E+00 -0.2321391E-04  0.6247524E-02  0.3219446E-03 -0.1151188E-01
3517500. -0.8612402E-02  0.7465393E-01 -0.7086286E-04  0.1019915E-01  0.3968147E-03 -0.1399608E-01
3480000. -0.8900156E-02  0.1703685E-01 -0.1469392E-03  0.1602493E-01  0.4875242E-03 -0.1689542E-01
3480000. -0.8900156E-02 -0.3438607E+00 -0.3905062E-03 -0.1557242E-01  0.4875242E-03  0.1148619E-01
3409422. -0.5752829E-02 -0.2309509E+00 -0.2491296E-03 -0.1028160E-01  0.3624298E-03  0.1072717E-01
3338844. -0.3656908E-02 -0.1523152E+00 -0.1564950E-03 -0.6678152E-02  0.2545591E-03  0.8652613E-02
3268266. -0.2286101E-02 -0.9867113E-01 -0.9678002E-04 -0.4267372E-02  0.1712319E-03  0.6418211E-02
3197688. -0.1405355E-02 -0.6279602E-01 -0.5890953E-04 -0.2682538E-02  0.1111663E-03  0.4495473E-02
3127109. -0.8493892E-03 -0.3926308E-01 -0.3528360E-04 -0.1658622E-02  0.6998392E-04  0.3013632E-02
3056531. -0.5046050E-03 -0.2411684E-01 -0.2078749E-04 -0.1008495E-02  0.4285082E-04  0.1948484E-02
2985953. -0.2945591E-03 -0.1454991E-01 -0.1204176E-04 -0.6028233E-03  0.2556686E-04  0.1220715E-02
2915375. -0.1688849E-03 -0.8619566E-02 -0.6855338E-05 -0.3541039E-03  0.1488216E-04  0.7432022E-03
2844797. -0.9505952E-04 -0.5012306E-02 -0.3833376E-05 -0.2043145E-03  0.8457067E-05  0.4405229E-03
2774219. -0.5249783E-04 -0.2859693E-02 -0.2104168E-05 -0.1157351E-03  0.4693230E-05  0.2544946E-03
2703641. -0.2842812E-04 -0.1599906E-02 -0.1132990E-05 -0.6432258E-04  0.2543486E-05  0.1433823E-03
2633062. -0.1508329E-04 -0.8771692E-03 -0.5979737E-06 -0.3505016E-04  0.1345838E-05  0.7879639E-04
2562484. -0.7834977E-05 -0.4709529E-03 -0.3090910E-06 -0.1871183E-04  0.6950017E-06  0.4223573E-04
2491906. -0.3980829E-05 -0.2474077E-03 -0.1563239E-06 -0.9778220E-05  0.3500599E-06  0.2207327E-04
2421328. -0.1976347E-05 -0.1270534E-03 -0.7727647E-07 -0.4996884E-05  0.1718401E-06  0.1124149E-04
2350750. -0.9576730E-06 -0.6371518E-04 -0.3729523E-07 -0.2494412E-05  0.8213411E-07  0.5574719E-05
2280172. -0.4523697E-06 -0.3116563E-04 -0.1755057E-07 -0.1214918E-05  0.3818195E-07  0.2689391E-05
2209594. -0.2080129E-06 -0.1484977E-04 -0.8041773E-08 -0.5765788E-06  0.1724137E-07  0.1260735E-05
2139016. -0.9296951E-07 -0.6882465E-05 -0.3582284E-08 -0.2662340E-06  0.7551422E-08  0.5735301E-06
2068438. -0.4031836E-07 -0.3097750E-05 -0.1548704E-08 -0.1194127E-06  0.3202640E-08  0.2528051E-06
1997859. -0.1693351E-07 -0.1351567E-05 -0.6485466E-09 -0.5193058E-07  0.1312773E-08  0.1077823E-06
1927281. -0.6873290E-08 -0.5704949E-06 -0.2625210E-09 -0.2185287E-07  0.5189970E-09  0.4435966E-07
1856703. -0.2689818E-08 -0.2324359E-06 -0.1024707E-09 -0.8877994E-08  0.1974205E-09  0.1758416E-07
1786125. -0.1012207E-08 -0.9117807E-07 -0.3846733E-10 -0.3473247E-08  0.7206133E-10  0.6696336E-08
1715547. -0.3651811E-09 -0.3433782E-07 -0.1384652E-10 -0.1304743E-08  0.2516357E-10  0.2442725E-08
1644969. -0.1258856E-09 -0.1237509E-07 -0.4762980E-11 -0.4691125E-09  0.8377264E-11  0.8507471E-09
1574391. -0.4130588E-10 -0.4252310E-08 -0.1559705E-11 -0.1608405E-09  0.2648414E-11  0.2818266E-09
1503812. -0.1284448E-10 -0.1387326E-08 -0.4840917E-12 -0.5236664E-10  0.7915254E-12  0.8841862E-10
1433234. -0.3766571E-11 -0.4276885E-09 -0.1416986E-12 -0.1611371E-10  0.2224845E-12  0.2614372E-10
1362656. -0.1036036E-11 -0.1238394E-09 -0.3887476E-13 -0.4662324E-11  0.5843329E-13  0.7247848E-11
1292078.  0.0000000E+00  0.0000000E+00  0.0000000E+00  0.0000000E+00  0.0000000E+00  0.0000000E+00
1221500.  0.0000000E+00  0.0000000E+00  0.0000000E+00  0.0000000E+00  0.0000000E+00  0.0000000E+00
1221500.  0.0000000E+00  0.0000000E+00  0.0000000E+00  0.0000000E+00  0.0000000E+00  0.0000000E+00
1183328.  0.0000000E+00  0.0000000E+00  0.0000000E+00  0.0000000E+00  0.0000000E+00  0.0000000E+00
1145156.  0.0000000E+00  0.0000000E+00  0.0000000E+00  0.0000000E+00  0.0000000E+00  0.0000000E+00
1106984.  0.0000000E+00  0.0000000E+00  0.0000000E+00  0.0000000E+00  0.0000000E+00  0.0000000E+00
1068812.  0.0000000E+00  0.0000000E+00  0.0000000E+00  0.0000000E+00  0.0000000E+00  0.0000000E+00
1030641.  0.0000000E+00  0.0000000E+00  0.0000000E+00  0.0000000E+00  0.0000000E+00  0.0000000E+00
 992469.  0.0000000E+00  0.0000000E+00  0.0000000E+00  0.0000000E+00  0.0000000E+00  0.0000000E+00
 954297.  0.0000000E+00  0.0000000E+00  0.0000000E+00  0.0000000E+00  0.0000000E+00  0.0000000E+00
 916125.  0.0000000E+00  0.0000000E+00  0.0000000E+00  0.0000000E+00  0.0000000E+00  0.0000000E+00
 877953.  0.0000000E+00  0.0000000E+00  0.0000000E+00  0.0000000E+00  0.0000000E+00  0.0000000E+00
 839781.  0.0000000E+00  0.0000000E+00  0.0000000E+00  0.0000000E+00  0.0000000E+00  0.0000000E+00
 801609.  0.0000000E+00  0.0000000E+00  0.0000000E+00  0.0000000E+00  0.0000000E+00  0.0000000E+00
 763438.  0.0000000E+00  0.0000000E+00  0.0000000E+00  0.0000000E+00  0.0000000E+00  0.0000000E+00
 725266.  0.0000000E+00  0.0000000E+00  0.0000000E+00  0.0000000E+00  0.0000000E+00  0.0000000E+00
 687094.  0.0000000E+00  0.0000000E+00  0.0000000E+00  0.0000000E+00  0.0000000E+00  0.0000000E+00
 648922.  0.0000000E+00  0.0000000E+00  0.0000000E+00  0.0000000E+00  0.0000000E+00  0.0000000E+00
 610750.  0.0000000E+00  0.0000000E+00  0.0000000E+00  0.0000000E+00  0.0000000E+00  0.0000000E+00
 572578.  0.0000000E+00  0.0000000E+00  0.0000000E+00  0.0000000E+00  0.0000000E+00  0.0000000E+00
 534406.  0.0000000E+00  0.0000000E+00  0.0000000E+00  0.0000000E+00  0.0000000E+00  0.0000000E+00
 496234.  0.0000000E+00  0.0000000E+00  0.0000000E+00  0.0000000E+00  0.0000000E+00  0.0000000E+00
 458062.  0.0000000E+00  0.0000000E+00  0.0000000E+00  0.0000000E+00  0.0000000E+00  0.0000000E+00
 419891.  0.0000000E+00  0.0000000E+00  0.0000000E+00  0.0000000E+00  0.0000000E+00  0.0000000E+00
 381719.  0.0000000E+00  0.0000000E+00  0.0000000E+00  0.0000000E+00  0.0000000E+00  0.0000000E+00
 343547.  0.0000000E+00  0.0000000E+00  0.0000000E+00  0.0000000E+00  0.0000000E+00  0.0000000E+00
 305375.  0.0000000E+00  0.0000000E+00  0.0000000E+00  0.0000000E+00  0.0000000E+00  0.0000000E+00
 267203.  0.0000000E+00  0.0000000E+00  0.0000000E+00  0.0000000E+00  0.0000000E+00  0.0000000E+00
 229031.  0.0000000E+00  0.0000000E+00  0.0000000E+00  0.0000000E+00  0.0000000E+00  0.0000000E+00
 190859.  0.0000000E+00  0.0000000E+00  0.0000000E+00  0.0000000E+00  0.0000000E+00  0.0000000E+00
 152688.  0.0000000E+00  0.0000000E+00  0.0000000E+00  0.0000000E+00  0.0000000E+00  0.0000000E+00
 114516.  0.0000000E+00  0.0000000E+00  0.0000000E+00  0.0000000E+00  0.0000000E+00  0.0000000E+00
  76344.  0.0000000E+00  0.0000000E+00  0.0000000E+00  0.0000000E+00  0.0000000E+00  0.0000000E+00
  38172.  0.0000000E+00  0.0000000E+00  0.0000000E+00  0.0000000E+00  0.0000000E+00  0.0000000E+00
      0.  0.0000000E+00  0.0000000E+00  0.0000000E+00  0.0000000E+00  0.0000000E+00  0.0000000E+00
