       3       45 S      265        106.05690          8.29540          6.14309        218.32359      185    7
6371000. -0.2672397E-01 -0.1778745E+01 -0.2212461E-02  0.2451151E-01  0.1722001E-02 -0.2881688E-01
6370000. -0.2644316E-01 -0.1799191E+01 -0.2216063E-02  0.2138249E-01  0.1726505E-02 -0.2857466E-01
6369000. -0.2615921E-01 -0.1818772E+01 -0.2219173E-02  0.1824216E-01  0.1730971E-02 -0.2833750E-01
6368000. -0.2587225E-01 -0.1837485E+01 -0.2221789E-02  0.1509139E-01  0.1735401E-02 -0.2810542E-01
6368000. -0.2587225E-01 -0.1837485E+01 -0.2221789E-02  0.1509139E-01  0.1735401E-02 -0.2810542E-01
6367000. -0.2558243E-01 -0.1855325E+01 -0.2223910E-02  0.1193104E-01  0.1739795E-02 -0.2787845E-01
6366000. -0.2528987E-01 -0.1872287E+01 -0.2225534E-02  0.8761978E-02  0.1744153E-02 -0.2765664E-01
6365000. -0.2499472E-01 -0.1888369E+01 -0.2226660E-02  0.5585083E-02  0.1748477E-02 -0.2744001E-01
6364000. -0.2469712E-01 -0.1903566E+01 -0.2227287E-02  0.2401226E-02  0.1752767E-02 -0.2722860E-01
6363000. -0.2439720E-01 -0.1917876E+01 -0.2227413E-02 -0.7887139E-03  0.1757025E-02 -0.2702244E-01
6362000. -0.2409510E-01 -0.1931295E+01 -0.2227039E-02 -0.3983860E-02  0.1761250E-02 -0.2682157E-01
6361000. -0.2379097E-01 -0.1943821E+01 -0.2226163E-02 -0.7183331E-02  0.1765445E-02 -0.2662603E-01
6360000. -0.2348494E-01 -0.1955451E+01 -0.2224784E-02 -0.1038624E-01  0.1769609E-02 -0.2643584E-01
6359000. -0.2317715E-01 -0.1966184E+01 -0.2222902E-02 -0.1359171E-01  0.1773744E-02 -0.2625104E-01
6358000. -0.2286776E-01 -0.1976017E+01 -0.2220517E-02 -0.1679886E-01  0.1777850E-02 -0.2607167E-01
6357000. -0.2255689E-01 -0.1984948E+01 -0.2217628E-02 -0.2000679E-01  0.1781929E-02 -0.2589777E-01
6356000. -0.2224468E-01 -0.1992978E+01 -0.2214236E-02 -0.2321462E-01  0.1785981E-02 -0.2572936E-01
6356000. -0.2224468E-01 -0.1698595E+01 -0.2214236E-02 -0.6053349E-02  0.1785981E-02 -0.2088917E-01
6355000. -0.2197749E-01 -0.1705960E+01 -0.2213159E-02 -0.7679271E-02  0.1789232E-02 -0.2053944E-01
6354000. -0.2170917E-01 -0.1712870E+01 -0.2211826E-02 -0.9306741E-02  0.1792428E-02 -0.2019360E-01
6353000. -0.2143980E-01 -0.1719323E+01 -0.2210237E-02 -0.1093549E-01  0.1795571E-02 -0.1985168E-01
6352000. -0.2116946E-01 -0.1725318E+01 -0.2208393E-02 -0.1256525E-01  0.1798661E-02 -0.1951366E-01
6351000. -0.2089821E-01 -0.1730855E+01 -0.2206292E-02 -0.1419574E-01  0.1801697E-02 -0.1917956E-01
6350000. -0.2062613E-01 -0.1735933E+01 -0.2203936E-02 -0.1582671E-01  0.1804682E-02 -0.1884940E-01
6349000. -0.2035329E-01 -0.1740552E+01 -0.2201324E-02 -0.1745788E-01  0.1807615E-02 -0.1852317E-01
6348000. -0.2007975E-01 -0.1744710E+01 -0.2198456E-02 -0.1908898E-01  0.1810497E-02 -0.1820089E-01
6347000. -0.1980560E-01 -0.1748408E+01 -0.2195332E-02 -0.2071974E-01  0.1813328E-02 -0.1788257E-01
6346600. -0.1969579E-01 -0.1749758E+01 -0.2194010E-02 -0.2137189E-01  0.1814447E-02 -0.1775635E-01
6346600. -0.1969579E-01 -0.1926463E+01 -0.2194010E-02 -0.8721591E-02  0.1814447E-02 -0.1088871E-01
6318800. -0.1118267E-01 -0.1942453E+01 -0.2108847E-02 -0.3029479E-01  0.1839264E-02 -0.8137289E-03
6291000. -0.3033001E-02 -0.1760375E+01 -0.1931284E-02 -0.5073024E-01  0.1824130E-02  0.7485677E-02
6291000. -0.3033001E-02 -0.1811740E+01 -0.1931284E-02 -0.5246221E-01  0.1824130E-02  0.7485677E-02
6263000.  0.4137255E-02 -0.1419488E+01 -0.1656943E-02 -0.7161944E-01  0.1776775E-02  0.1384786E-01
6235000.  0.9195698E-02 -0.8584647E+00 -0.1309855E-02 -0.8527076E-01  0.1704087E-02  0.1906349E-01
6207000.  0.1151622E-01 -0.1841182E+00 -0.9176849E-03 -0.9194428E-01  0.1610480E-02  0.2341132E-01
6179000.  0.1074938E-01  0.5341166E+00 -0.5130631E-03 -0.9087501E-01  0.1499227E-02  0.2712889E-01
6151000.  0.6869209E-02  0.1219762E+01 -0.1302346E-03 -0.8210272E-01  0.1372669E-02  0.3040261E-01
6151000.  0.6869209E-02  0.9603992E+00 -0.1302346E-03 -0.7306988E-01  0.1372669E-02  0.3002256E-01
6128500.  0.2783920E-02  0.1341151E+01  0.1098372E-03 -0.6244508E-01  0.1266147E-02  0.3023239E-01
6106000. -0.2507499E-02  0.1640489E+01  0.3081492E-03 -0.4954478E-01  0.1159603E-02  0.3004036E-01
6083500. -0.8689219E-02  0.1843320E+01  0.4580243E-03 -0.3514976E-01  0.1054402E-02  0.2947602E-01
6061000. -0.1540237E-01  0.1940429E+01  0.5556316E-03 -0.2008322E-01  0.9518150E-03  0.2856449E-01
6038500. -0.2226633E-01  0.1928730E+01  0.6000539E-03 -0.5164227E-02  0.8530290E-03  0.2732628E-01
6016000. -0.2890030E-01  0.1811150E+01  0.5931935E-03  0.8836487E-02  0.7591691E-03  0.2577696E-01
5993500. -0.3494382E-01  0.1596196E+01  0.5395322E-03  0.2123433E-01  0.6713138E-03  0.2392690E-01
5971000. -0.4007538E-01  0.1297289E+01  0.4457729E-03  0.3146056E-01  0.5905185E-03  0.2177856E-01
5971000. -0.4007538E-01  0.1207640E+01  0.4457729E-03  0.3275779E-01  0.5905185E-03  0.2702477E-01
5937667. -0.4498658E-01  0.6582452E+00  0.2499159E-03  0.4112063E-01  0.4593108E-03  0.2309984E-01
5904333. -0.4689922E-01  0.7177464E-01  0.2538329E-04  0.4382277E-01  0.3489560E-03  0.1908389E-01
5871000. -0.4577401E-01 -0.4943106E+00 -0.2002536E-03  0.4171924E-01  0.2594671E-03  0.1515080E-01
5837667. -0.4184229E-01 -0.9945938E+00 -0.4047784E-03  0.3595597E-01  0.1900396E-03  0.1143318E-01
5804333. -0.3553680E-01 -0.1397555E+01 -0.5722659E-03  0.2776222E-01  0.1393102E-03  0.8011497E-02
5771000. -0.2741939E-01 -0.1685416E+01 -0.6930757E-03  0.1829511E-01  0.1056442E-03  0.4910046E-02
5771000. -0.2741939E-01 -0.1685509E+01 -0.6930757E-03  0.1829547E-01  0.1056442E-03  0.4910046E-02
5701000. -0.6848874E-02 -0.1965956E+01 -0.7700634E-03 -0.4668948E-02  0.9487427E-04 -0.3183305E-02
5701000. -0.6848874E-02 -0.1706870E+01 -0.7700634E-03 -0.2272113E-02  0.9487427E-04 -0.1252854E-02
5667333.  0.1936980E-02 -0.1624174E+01 -0.7484638E-03 -0.5680358E-02  0.1011830E-03 -0.9787234E-03
5633667.  0.1037666E-01 -0.1569120E+01 -0.7112463E-03 -0.8357420E-02  0.1048234E-03 -0.4452630E-03
5600000.  0.1844521E-01 -0.1477992E+01 -0.6605886E-03 -0.1074493E-01  0.1063092E-03 -0.1363562E-03
5600000.  0.1844521E-01 -0.1477992E+01 -0.6605886E-03 -0.1074493E-01  0.1063092E-03 -0.1363562E-03
5563518.  0.2654194E-01 -0.1344624E+01 -0.5929635E-03 -0.1277638E-01  0.1064141E-03  0.8379365E-04
5527037.  0.3379062E-01 -0.1183239E+01 -0.5154267E-03 -0.1420346E-01  0.1054836E-03  0.2326690E-03
5490556.  0.4005484E-01 -0.1002151E+01 -0.4314662E-03 -0.1502283E-01  0.1038192E-03  0.3438813E-03
5454074.  0.4524545E-01 -0.8095359E+00 -0.3444804E-03 -0.1526647E-01  0.1015865E-03  0.4339277E-03
5417593.  0.4931874E-01 -0.6131719E+00 -0.2576298E-03 -0.1498752E-01  0.9885622E-04  0.5191096E-03
5381111.  0.5227361E-01 -0.4199314E+00 -0.1736870E-03 -0.1426417E-01  0.9565234E-04  0.5988168E-03
5344630.  0.5414517E-01 -0.2357066E+00 -0.9495553E-04 -0.1318236E-01  0.9200769E-04  0.6737273E-03
5308148.  0.5499930E-01 -0.6524915E-01 -0.2323727E-04 -0.1182934E-01  0.8794042E-04  0.7456386E-03
5271667.  0.5492560E-01  0.8786316E-01  0.4018254E-04 -0.1029935E-01  0.8349181E-04  0.8061101E-03
5235185.  0.5403079E-01  0.2212343E+00  0.9452775E-04 -0.8671417E-02  0.7872738E-04  0.8566557E-03
5198704.  0.5243231E-01  0.3335049E+00  0.1394417E-03 -0.7018046E-02  0.7369775E-04  0.8975299E-03
5162222.  0.5025249E-01  0.4242770E+00  0.1749882E-03 -0.5408646E-02  0.6848759E-04  0.9195413E-03
5125741.  0.4761355E-01  0.4940256E+00  0.2015507E-03 -0.3887042E-02  0.6318683E-04  0.9301716E-03
5089259.  0.4463289E-01  0.5438260E+00  0.2197483E-03 -0.2492965E-02  0.5786036E-04  0.9276086E-03
5052778.  0.4142059E-01  0.5752712E+00  0.2304030E-03 -0.1255761E-02  0.5259444E-04  0.9096136E-03
5016296.  0.3807596E-01  0.5903586E+00  0.2344501E-03 -0.1865287E-03  0.4746052E-04  0.8819703E-03
4979815.  0.3468679E-01  0.5912358E+00  0.2328779E-03  0.7061155E-03  0.4251468E-04  0.8437728E-03
4943333.  0.3132775E-01  0.5801894E+00  0.2266970E-03  0.1424551E-02  0.3781452E-04  0.7969356E-03
4906852.  0.2806072E-01  0.5594946E+00  0.2168755E-03  0.1979362E-02  0.3339495E-04  0.7459139E-03
4870370.  0.2493462E-01  0.5312866E+00  0.2043249E-03  0.2379895E-02  0.2928456E-04  0.6890109E-03
4833889.  0.2198670E-01  0.4976166E+00  0.1898794E-03  0.2644684E-02  0.2550733E-04  0.6303555E-03
4797407.  0.1924275E-01  0.4602904E+00  0.1742604E-03  0.2792349E-02  0.2206455E-04  0.5720382E-03
4760926.  0.1671931E-01  0.4208750E+00  0.1580947E-03  0.2838902E-02  0.1895847E-04  0.5130013E-03
4724444.  0.1442413E-01  0.3807484E+00  0.1419011E-03  0.2805225E-02  0.1618422E-04  0.4565227E-03
4687963.  0.1235814E-01  0.3410060E+00  0.1260894E-03  0.2708181E-02  0.1372483E-04  0.4029292E-03
4651482.  0.1051648E-01  0.3025229E+00  0.1109788E-03  0.2563035E-02  0.1156491E-04  0.3521191E-03
4615000.  0.8889854E-02  0.2659791E+00  0.9679829E-04  0.2385448E-02  0.9683619E-05  0.3056924E-03
4578518.  0.7465791E-02  0.2318361E+00  0.8369995E-04  0.2186808E-02  0.8056819E-05  0.2631375E-03
4542037.  0.6229611E-02  0.2004093E+00  0.7177427E-04  0.1977693E-02  0.6662478E-05  0.2246417E-03
4505556.  0.5165171E-02  0.1718656E+00  0.6105376E-04  0.1767029E-02  0.5475315E-05  0.1906972E-03
4469074.  0.4255786E-02  0.1462433E+00  0.5153002E-04  0.1560509E-02  0.4471893E-05  0.1603927E-03
4432593.  0.3484833E-02  0.1235099E+00  0.4316377E-04  0.1363623E-02  0.3630864E-05  0.1340297E-03
4396111.  0.2836030E-02  0.1035468E+00  0.3588829E-04  0.1179838E-02  0.2929908E-05  0.1113432E-03
4359630.  0.2294018E-02  0.8618602E-01  0.2962357E-04  0.1010940E-02  0.2350100E-05  0.9168444E-04
4323148.  0.1844408E-02  0.7123334E-01  0.2427915E-04  0.8585040E-03  0.1873983E-05  0.7509474E-04
4286667.  0.1474060E-02  0.5846735E-01  0.1975988E-04  0.7227405E-03  0.1485174E-05  0.6110567E-04
4250185.  0.1171087E-02  0.4766065E-01  0.1597099E-04  0.6032953E-03  0.1169951E-05  0.4935741E-04
4213704.  0.9249239E-03  0.3858975E-01  0.1282061E-04  0.4996044E-03  0.9159425E-06  0.3967829E-04
4177222.  0.7262569E-03  0.3103399E-01  0.1022161E-04  0.4104731E-03  0.7123521E-06  0.3169141E-04
4140741.  0.5670120E-03  0.2478948E-01  0.8094259E-05  0.3346902E-03  0.5501864E-06  0.2518520E-04
4104259.  0.4402221E-03  0.1966647E-01  0.6365614E-05  0.2709573E-03  0.4214407E-06  0.1997485E-04
4067778.  0.3399769E-03  0.1549208E-01  0.4971019E-05  0.2177981E-03  0.3194826E-06  0.1579878E-04
4031296.  0.2612848E-03  0.1211365E-01  0.3853582E-05  0.1739332E-03  0.2387429E-06  0.1254633E-04
3994815.  0.1999887E-03  0.9395440E-02  0.2963757E-05  0.1380955E-03  0.1742814E-06  0.1008879E-04
3958333.  0.1526537E-03  0.7218681E-02  0.2259102E-05  0.1090656E-03  0.1219446E-06  0.8298532E-05
3921852.  0.1164791E-03  0.5481989E-02  0.1703646E-05  0.8582632E-04  0.7803001E-07  0.7142906E-05
3885370.  0.8920147E-04  0.4097403E-02  0.1266983E-05  0.6741868E-04  0.3899575E-07  0.6590797E-05
3848889.  0.6902513E-04  0.2990520E-02  0.9239271E-06  0.5300700E-04  0.1368069E-08  0.6661608E-05
3812407.  0.5454421E-04  0.2098298E-02  0.6536870E-06  0.4186666E-04 -0.3865344E-07  0.7445060E-05
3775926.  0.4468695E-04  0.1367680E-02  0.4395199E-06  0.3331450E-04 -0.8551841E-07  0.9083273E-05
3739444.  0.3865651E-04  0.7551163E-03  0.2684607E-06  0.2669818E-04 -0.1447673E-06  0.1181989E-04
3702963.  0.3587947E-04  0.2265582E-03  0.1314230E-06  0.2130004E-04 -0.2236582E-06  0.1601410E-04
3666482.  0.3594564E-04 -0.2405227E-03  0.2396489E-07  0.1618480E-04 -0.3318760E-06  0.2216003E-04
3630000.  0.3852935E-04 -0.6518579E-03 -0.5193364E-07  0.9995303E-05 -0.4824531E-06  0.3093596E-04
3630000.  0.3852935E-04 -0.6518579E-03 -0.5193364E-07  0.9995303E-05 -0.4824531E-06  0.3093596E-04
3592500.  0.4342352E-04 -0.9930341E-03 -0.8437858E-07  0.1756048E-06 -0.6997317E-06  0.4359201E-04
3555000.  0.4990953E-04 -0.1173062E-02 -0.3930031E-07 -0.1723726E-04 -0.1004954E-05  0.6100466E-04
3517500.  0.5657487E-04 -0.1011699E-02  0.1473229E-06 -0.4950327E-04 -0.1429301E-05  0.8421874E-04
3480000.  0.6044678E-04 -0.1396258E-03  0.5973615E-06 -0.1095691E-03 -0.2008785E-05  0.1136992E-03
3480000.  0.6044678E-04  0.3989851E-02  0.1600109E-05  0.1077058E-03 -0.2008785E-05 -0.7905883E-04
3409422.  0.2869358E-04  0.1965776E-02  0.7491940E-06  0.5220937E-04 -0.1199543E-05 -0.6289683E-04
3338844.  0.1324839E-04  0.9407809E-03  0.3416459E-06  0.2462539E-04 -0.6400173E-06 -0.3870033E-04
3268266.  0.5949503E-05  0.4374375E-03  0.1517027E-06  0.1130134E-04 -0.3166735E-06 -0.2100003E-04
3197688.  0.2598050E-05  0.1976184E-03  0.6556814E-07  0.5045558E-05 -0.1478645E-06 -0.1050481E-04
3127109.  0.1102831E-05  0.8672690E-04  0.2757199E-07  0.2190680E-05 -0.6576582E-07 -0.4942140E-05
3056531.  0.4548513E-06  0.3696345E-04  0.1127404E-07  0.9246047E-06 -0.2801245E-07 -0.2209815E-05
2985953.  0.1821641E-06  0.1529257E-04  0.4479437E-08  0.3791290E-06 -0.1146222E-07 -0.9446508E-06
2915375.  0.7079044E-07  0.6137878E-05  0.1728035E-08  0.1509277E-06 -0.4513613E-08 -0.3873878E-06
2844797.  0.2667077E-07  0.2388177E-05  0.6466513E-09  0.5828363E-07 -0.1711998E-08 -0.1526927E-06
2774219.  0.9732419E-08  0.9000061E-06  0.2344918E-09  0.2181270E-07 -0.6256341E-09 -0.5790370E-07
2703641.  0.3435960E-08  0.3281810E-06  0.8230409E-10  0.7902945E-08 -0.2202353E-09 -0.2113174E-07
2633062.  0.1172109E-08  0.1156539E-06  0.2792443E-10  0.2768547E-08 -0.7463544E-10 -0.7419999E-08
2562484.  0.3858214E-09  0.3933942E-07  0.9145480E-11  0.9365299E-09 -0.2432878E-10 -0.2505281E-08
2491906.  0.1223547E-09  0.1289642E-07  0.2886630E-11  0.3054449E-09 -0.7618954E-11 -0.8125908E-09
2421328.  0.3731816E-10  0.4067882E-08  0.8765468E-12  0.9588578E-10 -0.2288992E-11 -0.2528728E-09
2350750.  0.1092579E-10  0.1232330E-08  0.2555734E-12  0.2891845E-10 -0.6586113E-12 -0.7538339E-10
2280172.  0.3064053E-11  0.3578141E-09  0.7139714E-13  0.8361723E-11 -0.1811332E-12 -0.2148819E-10
2209594.  0.8211623E-12  0.9935125E-10  0.1906515E-13  0.2312703E-11 -0.4750944E-13 -0.5844639E-11
2139016.  0.2097582E-12  0.2631344E-10  0.4853478E-14  0.6102983E-12 -0.1185430E-13 -0.1513223E-11
2068438.  0.5092383E-13  0.6628853E-11  0.1174474E-14  0.1532317E-12 -0.2805666E-14 -0.3719318E-12
1997859.  0.1171888E-13  0.1582385E-11  0.2691186E-15  0.3651197E-13 -0.6274246E-15 -0.8657634E-13
1927281.  0.0000000E+00  0.0000000E+00  0.0000000E+00  0.0000000E+00  0.0000000E+00  0.0000000E+00
1856703.  0.0000000E+00  0.0000000E+00  0.0000000E+00  0.0000000E+00  0.0000000E+00  0.0000000E+00
1786125.  0.0000000E+00  0.0000000E+00  0.0000000E+00  0.0000000E+00  0.0000000E+00  0.0000000E+00
1715547.  0.0000000E+00  0.0000000E+00  0.0000000E+00  0.0000000E+00  0.0000000E+00  0.0000000E+00
1644969.  0.0000000E+00  0.0000000E+00  0.0000000E+00  0.0000000E+00  0.0000000E+00  0.0000000E+00
1574391.  0.0000000E+00  0.0000000E+00  0.0000000E+00  0.0000000E+00  0.0000000E+00  0.0000000E+00
1503812.  0.0000000E+00  0.0000000E+00  0.0000000E+00  0.0000000E+00  0.0000000E+00  0.0000000E+00
1433234.  0.0000000E+00  0.0000000E+00  0.0000000E+00  0.0000000E+00  0.0000000E+00  0.0000000E+00
1362656.  0.0000000E+00  0.0000000E+00  0.0000000E+00  0.0000000E+00  0.0000000E+00  0.0000000E+00
1292078.  0.0000000E+00  0.0000000E+00  0.0000000E+00  0.0000000E+00  0.0000000E+00  0.0000000E+00
1221500.  0.0000000E+00  0.0000000E+00  0.0000000E+00  0.0000000E+00  0.0000000E+00  0.0000000E+00
1221500.  0.0000000E+00  0.0000000E+00  0.0000000E+00  0.0000000E+00  0.0000000E+00  0.0000000E+00
1183328.  0.0000000E+00  0.0000000E+00  0.0000000E+00  0.0000000E+00  0.0000000E+00  0.0000000E+00
1145156.  0.0000000E+00  0.0000000E+00  0.0000000E+00  0.0000000E+00  0.0000000E+00  0.0000000E+00
1106984.  0.0000000E+00  0.0000000E+00  0.0000000E+00  0.0000000E+00  0.0000000E+00  0.0000000E+00
1068812.  0.0000000E+00  0.0000000E+00  0.0000000E+00  0.0000000E+00  0.0000000E+00  0.0000000E+00
1030641.  0.0000000E+00  0.0000000E+00  0.0000000E+00  0.0000000E+00  0.0000000E+00  0.0000000E+00
 992469.  0.0000000E+00  0.0000000E+00  0.0000000E+00  0.0000000E+00  0.0000000E+00  0.0000000E+00
 954297.  0.0000000E+00  0.0000000E+00  0.0000000E+00  0.0000000E+00  0.0000000E+00  0.0000000E+00
 916125.  0.0000000E+00  0.0000000E+00  0.0000000E+00  0.0000000E+00  0.0000000E+00  0.0000000E+00
 877953.  0.0000000E+00  0.0000000E+00  0.0000000E+00  0.0000000E+00  0.0000000E+00  0.0000000E+00
 839781.  0.0000000E+00  0.0000000E+00  0.0000000E+00  0.0000000E+00  0.0000000E+00  0.0000000E+00
 801609.  0.0000000E+00  0.0000000E+00  0.0000000E+00  0.0000000E+00  0.0000000E+00  0.0000000E+00
 763438.  0.0000000E+00  0.0000000E+00  0.0000000E+00  0.0000000E+00  0.0000000E+00  0.0000000E+00
 725266.  0.0000000E+00  0.0000000E+00  0.0000000E+00  0.0000000E+00  0.0000000E+00  0.0000000E+00
 687094.  0.0000000E+00  0.0000000E+00  0.0000000E+00  0.0000000E+00  0.0000000E+00  0.0000000E+00
 648922.  0.0000000E+00  0.0000000E+00  0.0000000E+00  0.0000000E+00  0.0000000E+00  0.0000000E+00
 610750.  0.0000000E+00  0.0000000E+00  0.0000000E+00  0.0000000E+00  0.0000000E+00  0.0000000E+00
 572578.  0.0000000E+00  0.0000000E+00  0.0000000E+00  0.0000000E+00  0.0000000E+00  0.0000000E+00
 534406.  0.0000000E+00  0.0000000E+00  0.0000000E+00  0.0000000E+00  0.0000000E+00  0.0000000E+00
 496234.  0.0000000E+00  0.0000000E+00  0.0000000E+00  0.0000000E+00  0.0000000E+00  0.0000000E+00
 458062.  0.0000000E+00  0.0000000E+00  0.0000000E+00  0.0000000E+00  0.0000000E+00  0.0000000E+00
 419891.  0.0000000E+00  0.0000000E+00  0.0000000E+00  0.0000000E+00  0.0000000E+00  0.0000000E+00
 381719.  0.0000000E+00  0.0000000E+00  0.0000000E+00  0.0000000E+00  0.0000000E+00  0.0000000E+00
 343547.  0.0000000E+00  0.0000000E+00  0.0000000E+00  0.0000000E+00  0.0000000E+00  0.0000000E+00
 305375.  0.0000000E+00  0.0000000E+00  0.0000000E+00  0.0000000E+00  0.0000000E+00  0.0000000E+00
 267203.  0.0000000E+00  0.0000000E+00  0.0000000E+00  0.0000000E+00  0.0000000E+00  0.0000000E+00
 229031.  0.0000000E+00  0.0000000E+00  0.0000000E+00  0.0000000E+00  0.0000000E+00  0.0000000E+00
 190859.  0.0000000E+00  0.0000000E+00  0.0000000E+00  0.0000000E+00  0.0000000E+00  0.0000000E+00
 152688.  0.0000000E+00  0.0000000E+00  0.0000000E+00  0.0000000E+00  0.0000000E+00  0.0000000E+00
 114516.  0.0000000E+00  0.0000000E+00  0.0000000E+00  0.0000000E+00  0.0000000E+00  0.0000000E+00
  76344.  0.0000000E+00  0.0000000E+00  0.0000000E+00  0.0000000E+00  0.0000000E+00  0.0000000E+00
  38172.  0.0000000E+00  0.0000000E+00  0.0000000E+00  0.0000000E+00  0.0000000E+00  0.0000000E+00
      0.  0.0000000E+00  0.0000000E+00  0.0000000E+00  0.0000000E+00  0.0000000E+00  0.0000000E+00
