      10       20 S      522        117.60380         16.60399          9.08577        369.66650      185    7
6371000.  0.5359813E-01 -0.2956854E+00 -0.1536082E-02 -0.5513421E-01 -0.7649820E-04 -0.9946708E-01
6370000.  0.5364214E-01 -0.2651079E+00 -0.1527230E-02 -0.5765020E-01 -0.6089446E-04 -0.9935458E-01
6369000.  0.5368134E-01 -0.2343844E+00 -0.1517985E-02 -0.6014168E-01 -0.4530893E-04 -0.9923507E-01
6368000.  0.5371571E-01 -0.2035185E+00 -0.1508351E-02 -0.6260795E-01 -0.2974271E-04 -0.9910856E-01
6368000.  0.5371571E-01 -0.2035185E+00 -0.1508351E-02 -0.6260795E-01 -0.2974271E-04 -0.9910856E-01
6367000.  0.5374523E-01 -0.1725137E+00 -0.1498333E-02 -0.6504837E-01 -0.1419690E-04 -0.9897505E-01
6366000.  0.5376986E-01 -0.1413737E+00 -0.1487933E-02 -0.6746224E-01  0.1327415E-05 -0.9883455E-01
6365000.  0.5378960E-01 -0.1101024E+00 -0.1477156E-02 -0.6984895E-01  0.1682912E-04 -0.9868707E-01
6364000.  0.5380442E-01 -0.7870334E-01 -0.1466007E-02 -0.7220783E-01  0.3230714E-04 -0.9853262E-01
6363000.  0.5381430E-01 -0.4718046E-01 -0.1454490E-02 -0.7453826E-01  0.4776036E-04 -0.9837119E-01
6362000.  0.5381922E-01 -0.1553756E-01 -0.1442609E-02 -0.7683960E-01  0.6318770E-04 -0.9820282E-01
6361000.  0.5381917E-01  0.1622147E-01 -0.1430370E-02 -0.7911123E-01  0.7858807E-04 -0.9802750E-01
6360000.  0.5381413E-01  0.4809270E-01 -0.1417776E-02 -0.8135255E-01  0.9396037E-04 -0.9784523E-01
6359000.  0.5380407E-01  0.8007216E-01 -0.1404833E-02 -0.8356296E-01  0.1093035E-03 -0.9765606E-01
6358000.  0.5378899E-01  0.1121559E+00 -0.1391545E-02 -0.8574185E-01  0.1246164E-03 -0.9745996E-01
6357000.  0.5376885E-01  0.1443398E+00 -0.1377918E-02 -0.8788864E-01  0.1398980E-03 -0.9725697E-01
6356000.  0.5374367E-01  0.1766198E+00 -0.1363957E-02 -0.9000277E-01  0.1551472E-03 -0.9704709E-01
6356000.  0.5374367E-01  0.5548315E-01 -0.1363957E-02 -0.7622173E-01  0.1551472E-03 -0.1087411E+00
6355000.  0.5373312E-01  0.7896386E-01 -0.1351887E-02 -0.7756517E-01  0.1721996E-03 -0.1085396E+00
6354000.  0.5371888E-01  0.1025067E+00 -0.1339609E-02 -0.7888920E-01  0.1892200E-03 -0.1083331E+00
6353000.  0.5370094E-01  0.1261095E+00 -0.1327123E-02 -0.8019358E-01  0.2062076E-03 -0.1081216E+00
6352000.  0.5367928E-01  0.1497700E+00 -0.1314435E-02 -0.8147808E-01  0.2231615E-03 -0.1079051E+00
6351000.  0.5365391E-01  0.1734859E+00 -0.1301547E-02 -0.8274248E-01  0.2400811E-03 -0.1076835E+00
6350000.  0.5362482E-01  0.1972551E+00 -0.1288461E-02 -0.8398657E-01  0.2569655E-03 -0.1074570E+00
6349000.  0.5359199E-01  0.2210753E+00 -0.1275182E-02 -0.8521011E-01  0.2738140E-03 -0.1072255E+00
6348000.  0.5355542E-01  0.2449442E+00 -0.1261713E-02 -0.8641288E-01  0.2906258E-03 -0.1069891E+00
6347000.  0.5351510E-01  0.2688594E+00 -0.1248057E-02 -0.8759470E-01  0.3074000E-03 -0.1067477E+00
6346600.  0.5349791E-01  0.2784380E+00 -0.1242542E-02 -0.8806152E-01  0.3140990E-03 -0.1066497E+00
6346600.  0.5349791E-01  0.5311221E-01 -0.1242542E-02 -0.7730526E-01  0.3140990E-03 -0.1253037E+00
6318800.  0.5216656E-01  0.5614699E+00 -0.8618694E-03 -0.9505448E-01  0.8462686E-03 -0.1181529E+00
6291000.  0.4858394E-01  0.1079343E+01 -0.4324873E-03 -0.9945445E-01  0.1341277E-02 -0.1082907E+00
6291000.  0.4858394E-01  0.1092069E+01 -0.4324873E-03 -0.1011569E+00  0.1341277E-02 -0.1082907E+00
6263000.  0.4265839E-01  0.1596883E+01 -0.4344939E-05 -0.9131245E-01  0.1790267E-02 -0.9560716E-01
6235000.  0.3464158E-01  0.2037699E+01  0.3507111E-03 -0.6826258E-01  0.2178124E-02 -0.8052099E-01
6207000.  0.2489105E-01  0.2380688E+01  0.5805488E-03 -0.3493116E-01  0.2495015E-02 -0.6337768E-01
6179000.  0.1389898E-01  0.2598933E+01  0.6487318E-03  0.4530435E-02  0.2732818E-02 -0.4460954E-01
6151000.  0.2255504E-02  0.2675163E+01  0.5389354E-03  0.4520788E-01  0.2885489E-02 -0.2472713E-01
6151000.  0.2255504E-02  0.2175261E+01  0.5389354E-03  0.3952200E-01  0.2885489E-02 -0.2485192E-01
6128500. -0.5309150E-02  0.2097637E+01  0.3537492E-03  0.6480145E-01  0.2951483E-02 -0.1252535E-01
6106000. -0.1248577E-01  0.1956701E+01  0.8609940E-04  0.8595211E-01  0.2974090E-02 -0.3095939E-03
6083500. -0.1906501E-01  0.1760950E+01 -0.2467670E-03  0.1015219E+00  0.2953991E-02  0.1163385E-01
6061000. -0.2487180E-01  0.1521218E+01 -0.6231270E-03  0.1104396E+00  0.2892416E-02  0.2315478E-01
6038500. -0.2977259E-01  0.1250045E+01 -0.1018233E-02  0.1120700E+00  0.2791104E-02  0.3411497E-01
6016000. -0.3367998E-01  0.9609268E+00 -0.1405905E-02  0.1062397E+00  0.2652261E-02  0.4438919E-01
5993500. -0.3655486E-01  0.6675782E+00 -0.1760165E-02  0.9323217E-01  0.2478510E-02  0.5386654E-01
5971000. -0.3840588E-01  0.3832090E+00 -0.2056802E-02  0.7375908E-01  0.2272842E-02  0.6244916E-01
5971000. -0.3840588E-01  0.3198685E+00 -0.2056802E-02  0.6990600E-01  0.2272842E-02  0.6747682E-01
5937667. -0.3908970E-01 -0.4580784E-01 -0.2332986E-02  0.3469523E-01  0.1888655E-02  0.7902475E-01
5904333. -0.3807385E-01 -0.3273386E+00 -0.2413634E-02 -0.4090751E-02  0.1449663E-02  0.8842560E-01
5871000. -0.3582793E-01 -0.5153873E+00 -0.2291464E-02 -0.4216579E-01  0.9670320E-03  0.9572179E-01
5837667. -0.3284234E-01 -0.6110408E+00 -0.1979982E-02 -0.7593205E-01  0.4515647E-03  0.1009935E+00
5804333. -0.2957872E-01 -0.6237902E+00 -0.1509102E-02 -0.1027353E+00 -0.8642858E-04  0.1043457E+00
5771000. -0.2643259E-01 -0.5691195E+00 -0.9199671E-03 -0.1209610E+00 -0.6371902E-03  0.1059024E+00
5771000. -0.2643259E-01 -0.5691441E+00 -0.9199671E-03 -0.1209561E+00 -0.6371902E-03  0.1059024E+00
5701000. -0.2132716E-01 -0.3346886E+00  0.5542270E-03 -0.1405710E+00 -0.1787276E-02  0.1021988E+00
5701000. -0.2132716E-01 -0.2628776E+00  0.5542270E-03 -0.1060296E+00 -0.1787276E-02  0.1082101E+00
5667333. -0.2021756E-01 -0.1610519E+00  0.1080827E-02 -0.9434456E-01 -0.2349727E-02  0.1045492E+00
5633667. -0.1959362E-01 -0.7666228E-01  0.1560134E-02 -0.8700406E-01 -0.2890951E-02  0.1001507E+00
5600000. -0.1939273E-01 -0.1585201E-02  0.1992307E-02 -0.7588124E-01 -0.3406538E-02  0.9483903E-01
5600000. -0.1939273E-01 -0.1585201E-02  0.1992307E-02 -0.7588124E-01 -0.3406538E-02  0.9483903E-01
5563518. -0.1957077E-01  0.5958655E-01  0.2384173E-02 -0.6049930E-01 -0.3930990E-02  0.8819184E-01
5527037. -0.2002014E-01  0.9210788E-01  0.2680792E-02 -0.4282744E-01 -0.4415045E-02  0.8076017E-01
5490556. -0.2056115E-01  0.9104105E-01  0.2872743E-02 -0.2416023E-01 -0.4854669E-02  0.7269886E-01
5454074. -0.2099513E-01  0.5469203E-01  0.2958070E-02 -0.5798627E-02 -0.5246719E-02  0.6416607E-01
5417593. -0.2112243E-01 -0.1556744E-01  0.2942077E-02  0.1103812E-01 -0.5588912E-02  0.5531416E-01
5381111. -0.2076051E-01 -0.1151895E+00  0.2836559E-02  0.2531441E-01 -0.5879878E-02  0.4629544E-01
5344630. -0.1976041E-01 -0.2371357E+00  0.2658606E-02  0.3622822E-01 -0.6119064E-02  0.3725475E-01
5308148. -0.1801889E-01 -0.3725095E+00  0.2429083E-02  0.4326311E-01 -0.6306743E-02  0.2832496E-01
5271667. -0.1548829E-01 -0.5110016E+00  0.2170980E-02  0.4620145E-01 -0.6443907E-02  0.1963224E-01
5235185. -0.1218076E-01 -0.6421103E+00  0.1907641E-02  0.4512843E-01 -0.6532239E-02  0.1128530E-01
5198704. -0.8168114E-02 -0.7556663E+00  0.1661135E-02  0.4040512E-01 -0.6573992E-02  0.3378750E-02
5162222. -0.3577903E-02 -0.8424150E+00  0.1450760E-02  0.3262234E-01 -0.6571929E-02 -0.4006763E-02
5125741.  0.1414600E-02 -0.8951989E+00  0.1291892E-02  0.2255830E-01 -0.6529220E-02 -0.1080889E-01
5089259.  0.6599431E-02 -0.9088749E+00  0.1195077E-02  0.1110175E-01 -0.6449341E-02 -0.1698241E-01
5052778.  0.1174351E-01 -0.8808271E+00  0.1165614E-02 -0.8083625E-03 -0.6335990E-02 -0.2249721E-01
5016296.  0.1660771E-01 -0.8113258E+00  0.1203435E-02 -0.1224948E-01 -0.6192981E-02 -0.2733855E-01
4979815.  0.2096098E-01 -0.7030760E+00  0.1303385E-02 -0.2237797E-01 -0.6024184E-02 -0.3150743E-01
4943333.  0.2459545E-01 -0.5612961E+00  0.1455837E-02 -0.3048003E-01 -0.5833406E-02 -0.3501658E-01
4906852.  0.2733908E-01 -0.3933085E+00  0.1647531E-02 -0.3601035E-01 -0.5624379E-02 -0.3788833E-01
4870370.  0.2906627E-01 -0.2078196E+00  0.1862652E-02 -0.3861950E-01 -0.5400641E-02 -0.4015915E-01
4833889.  0.2970464E-01 -0.1471994E-01  0.2083955E-02 -0.3816513E-01 -0.5165539E-02 -0.4186631E-01
4797407.  0.2923982E-01  0.1758130E+00  0.2293992E-02 -0.3470902E-01 -0.4922163E-02 -0.4305504E-01
4760926.  0.2771513E-01  0.3538635E+00  0.2476199E-02 -0.2850360E-01 -0.4673346E-02 -0.4377738E-01
4724444.  0.2522881E-01  0.5102328E+00  0.2615962E-02 -0.1996413E-01 -0.4421610E-02 -0.4407998E-01
4687963.  0.2192832E-01  0.6370896E+00  0.2701416E-02 -0.9635366E-02 -0.4169229E-02 -0.4401426E-01
4651482.  0.1800097E-01  0.7283222E+00  0.2724104E-02  0.1847691E-02 -0.3918156E-02 -0.4363042E-01
4615000.  0.1366341E-01  0.7798241E+00  0.2679345E-02  0.1380696E-01 -0.3670080E-02 -0.4297290E-01
4578518.  0.9149798E-02  0.7896761E+00  0.2566382E-02  0.2555731E-01 -0.3426444E-02 -0.4208644E-01
4542037.  0.4698910E-02  0.7581946E+00  0.2388295E-02  0.3645174E-01 -0.3188451E-02 -0.4101070E-01
4505556.  0.5412642E-03  0.6878283E+00  0.2151660E-02  0.4591873E-01 -0.2957075E-02 -0.3978101E-01
4469074. -0.3112282E-02  0.5829670E+00  0.1866061E-02  0.5348122E-01 -0.2733096E-02 -0.3842963E-01
4432593. -0.6080612E-02  0.4496528E+00  0.1543484E-02  0.5879048E-01 -0.2517142E-02 -0.3698501E-01
4396111. -0.8221339E-02  0.2951843E+00  0.1197492E-02  0.6163100E-01 -0.2309661E-02 -0.3547199E-01
4359630. -0.9436358E-02  0.1277502E+00  0.8425419E-03  0.6192116E-01 -0.2110994E-02 -0.3391172E-01
4323148. -0.9675885E-02 -0.4410351E-01  0.4931060E-03  0.5972236E-01 -0.1921341E-02 -0.3232502E-01
4286667. -0.8939189E-02 -0.2118220E+00  0.1629950E-03  0.5521390E-01 -0.1740813E-02 -0.3072928E-01
4250185. -0.7273396E-02 -0.3673173E+00 -0.1353561E-03  0.4868267E-01 -0.1569405E-02 -0.2914102E-01
4213704. -0.4769774E-02 -0.5033546E+00 -0.3913911E-03  0.4050458E-01 -0.1407032E-02 -0.2757771E-01
4177222. -0.1557759E-02 -0.6138006E+00 -0.5969047E-03  0.3111045E-01 -0.1253497E-02 -0.2605558E-01
4140741.  0.2201671E-02 -0.6939314E+00 -0.7462567E-03  0.2097057E-01 -0.1108521E-02 -0.2459266E-01
4104259.  0.6325360E-02 -0.7405870E+00 -0.8365563E-03  0.1056250E-01 -0.9717027E-03 -0.2320853E-01
4067778.  0.1061595E-01 -0.7521383E+00 -0.8675933E-03  0.3470845E-03 -0.8425346E-03 -0.2192587E-01
4031296.  0.1487212E-01 -0.7286687E+00 -0.8417182E-03 -0.9248352E-02 -0.7203615E-03 -0.2076842E-01
3994815.  0.1889692E-01 -0.6717397E+00 -0.7635748E-03 -0.1785315E-01 -0.6043930E-03 -0.1976555E-01
3958333.  0.2250663E-01 -0.5842461E+00 -0.6397280E-03 -0.2516587E-01 -0.4936344E-03 -0.1895367E-01
3921852.  0.2553743E-01 -0.4703473E+00 -0.4782729E-03 -0.3095929E-01 -0.3868950E-03 -0.1836987E-01
3885370.  0.2785228E-01 -0.3350559E+00 -0.2883473E-03 -0.3509123E-01 -0.2827255E-03 -0.1806442E-01
3848889.  0.2934462E-01 -0.1840753E+00 -0.7969038E-04 -0.3749977E-01 -0.1793698E-03 -0.1809686E-01
3812407.  0.2994200E-01 -0.2348591E-01  0.1378492E-03 -0.3820053E-01 -0.7470207E-04 -0.1853486E-01
3775926.  0.2960707E-01  0.1405298E+00  0.3546997E-03 -0.3728102E-01  0.3384705E-04 -0.1947018E-01
3739444.  0.2833757E-01  0.3019552E+00  0.5619886E-03 -0.3488757E-01  0.1494289E-03 -0.2100949E-01
3702963.  0.2616474E-01  0.4551579E+00  0.7517998E-03 -0.3121418E-01  0.2758588E-03 -0.2328603E-01
3666482.  0.2315046E-01  0.5950735E+00  0.9174563E-03 -0.2649138E-01  0.4178472E-03 -0.2647568E-01
3630000.  0.1938336E-01  0.7174250E+00  0.1053660E-02 -0.2096784E-01  0.5812122E-03 -0.3079087E-01
3630000.  0.1938336E-01  0.7174250E+00  0.1053660E-02 -0.2096784E-01  0.5812122E-03 -0.3079087E-01
3592500.  0.1484346E-01  0.8212165E+00  0.1158923E-02 -0.1472673E-01  0.7790048E-03 -0.3669268E-01
3555000.  0.9765121E-02  0.9000096E+00  0.1226437E-02 -0.8184968E-02  0.1016820E-02 -0.4446239E-01
3517500.  0.4300971E-02  0.9521088E+00  0.1255185E-02 -0.1594397E-02  0.1307049E-02 -0.5459636E-01
3480000. -0.1389128E-02  0.9767330E+00  0.1245549E-02  0.4823427E-02  0.1665431E-02 -0.6774259E-01
3480000. -0.1389128E-02  0.1918139E+00 -0.9159018E-03 -0.8500463E-03  0.1665431E-02 -0.6331282E-01
3409422. -0.3202398E-02  0.1352180E+00 -0.8864032E-03 -0.4317055E-02  0.2155776E-02 -0.2729105E-01
3338844. -0.4391399E-02  0.8025924E-01 -0.8239003E-03 -0.6800968E-02  0.2311575E-02 -0.2511456E-02
3268266. -0.5007430E-02  0.3247143E-01 -0.7393067E-03 -0.8316986E-02  0.2244405E-02  0.1332777E-01
3197688. -0.5148442E-02 -0.5204089E-02 -0.6428005E-03 -0.8975914E-02  0.2041620E-02  0.2229791E-01
3127109. -0.4932671E-02 -0.3194902E-01 -0.5429902E-03 -0.8943426E-02  0.1768960E-02  0.2622420E-01
3056531. -0.4478511E-02 -0.4845111E-01 -0.4465159E-03 -0.8404947E-02  0.1473443E-02  0.2666090E-01
2985953. -0.3891139E-02 -0.5631355E-01 -0.3579747E-03 -0.7539446E-02  0.1186427E-02  0.2487674E-01
2915375. -0.3255310E-02 -0.5754627E-01 -0.2801006E-03 -0.6502569E-02  0.9268027E-03  0.2185706E-01
2844797. -0.2633076E-02 -0.5418588E-01 -0.2140752E-03 -0.5418065E-02  0.7040279E-03  0.1832420E-01
2774219. -0.2064967E-02 -0.4805113E-01 -0.1598991E-03 -0.4375470E-02  0.5208625E-03  0.1477123E-01
2703641. -0.1573223E-02 -0.4061181E-01 -0.1167614E-03 -0.3432396E-02  0.3756862E-03  0.1150322E-01
2633062. -0.1165943E-02 -0.3294950E-01 -0.8336681E-04 -0.2619603E-02  0.2643382E-03  0.8680564E-02
2562484. -0.8413282E-03 -0.2578013E-01 -0.5820091E-04 -0.1947161E-02  0.1814952E-03  0.6360049E-02
2491906. -0.5914069E-03 -0.1951031E-01 -0.3972288E-04 -0.1410530E-02  0.1216088E-03  0.4530008E-02
2421328. -0.4050868E-03 -0.1431025E-01 -0.2649716E-04 -0.9961631E-03  0.7950509E-04  0.3138934E-02
2350750. -0.2703657E-03 -0.1018550E-01 -0.1726712E-04 -0.6859498E-03  0.5070012E-04  0.2116700E-02
2280172. -0.1757934E-03 -0.7040279E-02 -0.1098643E-04 -0.4604819E-03  0.3152000E-04  0.1389134E-02
2209594. -0.1113063E-03 -0.4727260E-02 -0.6820316E-05 -0.3012636E-03  0.1909116E-04  0.8870185E-03
2139016. -0.6858617E-04 -0.3083420E-02 -0.4127571E-05 -0.1919841E-03  0.1125591E-04  0.5508304E-03
2068438. -0.4109637E-04 -0.1953082E-02 -0.2432724E-05 -0.1190850E-03  0.6453406E-05  0.3324255E-03
1997859. -0.2392113E-04 -0.1200643E-02 -0.1394724E-05 -0.7183304E-04  0.3593620E-05  0.1947863E-03
1927281. -0.1350994E-04 -0.7157255E-03 -0.7767881E-06 -0.4209094E-04  0.1940932E-05  0.1106927E-03
1856703. -0.7392538E-05 -0.4132687E-03 -0.4196228E-06 -0.2392608E-04  0.1015123E-05  0.6092192E-04
1786125. -0.3912693E-05 -0.2308176E-03 -0.2194755E-06 -0.1317334E-04  0.5131577E-06  0.3241995E-04
1715547. -0.1999204E-05 -0.1244874E-03 -0.1109170E-06 -0.7012484E-05  0.2501962E-06  0.1664969E-04
1644969. -0.9839422E-06 -0.6470332E-04 -0.5403495E-07 -0.3601575E-05  0.1173665E-06  0.8233623E-05
1574391. -0.4653031E-06 -0.3232864E-04 -0.2530477E-07 -0.1780549E-05  0.5282098E-07  0.3910738E-05
1503812. -0.2109447E-06 -0.1547114E-04 -0.1134818E-07 -0.8456294E-06  0.2272911E-07  0.1778948E-05
1433234. -0.9181277E-07 -0.7027220E-05 -0.4833151E-08 -0.3866572E-06  0.9308260E-08  0.7728278E-06
1362656. -0.3956722E-07 -0.2885244E-05 -0.1877167E-08 -0.1762255E-06  0.3595365E-08  0.3202188E-06
1292078. -0.2107375E-07 -0.6056574E-06 -0.4368580E-09 -0.1017592E-06  0.1273765E-08  0.1267765E-06
1221500. -0.2653847E-07  0.1830006E-05  0.7864782E-09 -0.1425134E-06  0.3855873E-09  0.4373188E-07
1221500. -0.2653847E-07  0.7448804E-06  0.3781021E-09  0.1403893E-06  0.3855873E-09  0.5522845E-07
1183328. -0.2728711E-07 -0.3558190E-06 -0.1983006E-09  0.5959777E-07  0.1565111E-09  0.2486870E-07
1145156. -0.2356858E-07 -0.8041395E-06 -0.4089805E-09  0.1552340E-07  0.5618954E-10  0.1045309E-07
1106984. -0.1837533E-07 -0.8864446E-06 -0.4294103E-09 -0.5819770E-08  0.1567358E-10  0.3961624E-08
1068812. -0.1330167E-07 -0.7883504E-06 -0.3654833E-09 -0.1390999E-07  0.1318324E-11  0.1241589E-08
1030641. -0.9059709E-08 -0.6229006E-06 -0.2766425E-09 -0.1495062E-07 -0.2527128E-11  0.2201122E-09
 992469. -0.5844660E-08 -0.4527593E-06 -0.1926016E-09 -0.1279372E-07 -0.2701312E-11 -0.9184979E-10
 954297. -0.3583169E-08 -0.3075231E-06 -0.1252213E-09 -0.9653460E-08 -0.1936955E-11 -0.1398625E-09
 916125. -0.2090158E-08 -0.1966869E-06 -0.7658715E-10 -0.6657792E-08 -0.1174006E-11 -0.1096360E-09
 877953. -0.1159966E-08 -0.1188839E-06 -0.4421193E-10 -0.4263911E-08 -0.6399440E-12 -0.6944370E-10
 839781. -0.6117518E-09 -0.6798967E-07 -0.2411284E-10 -0.2554488E-08 -0.3214138E-12 -0.3890870E-10
 801609. -0.3059891E-09 -0.3677632E-07 -0.1241683E-10 -0.1436018E-08 -0.1503196E-12 -0.1991578E-10
 763438. -0.1447566E-09 -0.1878466E-07 -0.6025930E-11 -0.7578512E-09 -0.6573001E-13 -0.9438800E-11
 725266. -0.6453513E-10 -0.9035992E-08 -0.2747870E-11 -0.3749700E-09 -0.2688403E-13 -0.4163005E-11
 687094. -0.2699275E-10 -0.4078354E-08 -0.1172726E-11 -0.1734573E-09 -0.1026389E-13 -0.1710444E-11
 648922. -0.1053455E-10 -0.1718931E-08 -0.4660195E-12 -0.7470992E-10 -0.3642605E-14 -0.6530000E-12
 610750. -0.3810762E-11 -0.6725029E-09 -0.1713343E-12 -0.2979587E-10 -0.1194698E-14 -0.2306103E-12
 572578. -0.1267392E-11 -0.2424172E-09 -0.5782111E-13 -0.1092571E-10 -0.3592784E-15 -0.7482974E-13
 534406. -0.3837078E-12 -0.7977505E-10 -0.1773739E-13 -0.3650710E-11 -0.9807605E-16 -0.2210701E-13
 496234. -0.1044610E-12 -0.2369356E-10 -0.4886375E-14 -0.1099144E-11 -0.2399751E-16 -0.5876838E-14
 458062. -0.2518354E-13 -0.6260479E-11 -0.1190615E-14 -0.2939745E-12 -0.5179630E-17 -0.1384995E-14
 419891. -0.5273148E-14 -0.1445013E-11 -0.2516892E-15 -0.6859187E-13 -0.9662708E-18 -0.2838302E-15
 381719. -0.9351552E-15 -0.2845183E-12 -0.4501631E-16 -0.1363580E-13 -0.1517308E-18 -0.4933109E-16
 343547. -0.1358931E-15 -0.4631723E-13 -0.6590916E-17 -0.2238694E-14 -0.1936364E-19 -0.7035188E-17
 305375. -0.1547512E-16 -0.5974509E-14 -0.7553252E-18 -0.2908282E-15 -0.1917308E-20 -0.7813600E-18
 267203.  0.0000000E+00  0.0000000E+00  0.0000000E+00  0.0000000E+00  0.0000000E+00  0.0000000E+00
 229031.  0.0000000E+00  0.0000000E+00  0.0000000E+00  0.0000000E+00  0.0000000E+00  0.0000000E+00
 190859.  0.0000000E+00  0.0000000E+00  0.0000000E+00  0.0000000E+00  0.0000000E+00  0.0000000E+00
 152688.  0.0000000E+00  0.0000000E+00  0.0000000E+00  0.0000000E+00  0.0000000E+00  0.0000000E+00
 114516.  0.0000000E+00  0.0000000E+00  0.0000000E+00  0.0000000E+00  0.0000000E+00  0.0000000E+00
  76344.  0.0000000E+00  0.0000000E+00  0.0000000E+00  0.0000000E+00  0.0000000E+00  0.0000000E+00
  38172.  0.0000000E+00  0.0000000E+00  0.0000000E+00  0.0000000E+00  0.0000000E+00  0.0000000E+00
      0.  0.0000000E+00  0.0000000E+00  0.0000000E+00  0.0000000E+00  0.0000000E+00  0.0000000E+00
