       2       21 S      185        220.64870          8.43816          8.73319        407.94379      185    7
6371000. -0.6016680E-02 -0.1353773E+00 -0.7711711E-03  0.5245509E-02  0.6674132E-03 -0.3337040E-02
6370000. -0.5995347E-02 -0.1364417E+00 -0.7719744E-03  0.4990162E-02  0.6679360E-03 -0.3324775E-02
6369000. -0.5973848E-02 -0.1374906E+00 -0.7727375E-03  0.4734196E-02  0.6684569E-03 -0.3312736E-02
6368000. -0.5952186E-02 -0.1385241E+00 -0.7734605E-03  0.4477625E-02  0.6689759E-03 -0.3300924E-02
6368000. -0.5952186E-02 -0.1385241E+00 -0.7734605E-03  0.4477625E-02  0.6689759E-03 -0.3300924E-02
6367000. -0.5930363E-02 -0.1395419E+00 -0.7741431E-03  0.4220467E-02  0.6694932E-03 -0.3289340E-02
6366000. -0.5908382E-02 -0.1405442E+00 -0.7747854E-03  0.3962737E-02  0.6700086E-03 -0.3277984E-02
6365000. -0.5886244E-02 -0.1415308E+00 -0.7753871E-03  0.3704452E-02  0.6705222E-03 -0.3266858E-02
6364000. -0.5863953E-02 -0.1425016E+00 -0.7759483E-03  0.3445628E-02  0.6710341E-03 -0.3255962E-02
6363000. -0.5841510E-02 -0.1434567E+00 -0.7764688E-03  0.3186281E-02  0.6715443E-03 -0.3245297E-02
6362000. -0.5818919E-02 -0.1443959E+00 -0.7769485E-03  0.2926428E-02  0.6720529E-03 -0.3234864E-02
6361000. -0.5796182E-02 -0.1453192E+00 -0.7773875E-03  0.2666085E-02  0.6725598E-03 -0.3224662E-02
6360000. -0.5773301E-02 -0.1462266E+00 -0.7777854E-03  0.2405270E-02  0.6730652E-03 -0.3214694E-02
6359000. -0.5750279E-02 -0.1471180E+00 -0.7781425E-03  0.2143997E-02  0.6735690E-03 -0.3204960E-02
6358000. -0.5727118E-02 -0.1479933E+00 -0.7784584E-03  0.1882285E-02  0.6740713E-03 -0.3195460E-02
6357000. -0.5703822E-02 -0.1488526E+00 -0.7787333E-03  0.1620150E-02  0.6745722E-03 -0.3186196E-02
6356000. -0.5680391E-02 -0.1496957E+00 -0.7789670E-03  0.1357607E-02  0.6750716E-03 -0.3177168E-02
6356000. -0.5680391E-02 -0.1282869E+00 -0.7789670E-03  0.2766977E-02  0.6750716E-03 -0.1941180E-02
6355000. -0.5660202E-02 -0.1289584E+00 -0.7793907E-03  0.2631235E-02  0.6753744E-03 -0.1918073E-02
6354000. -0.5639909E-02 -0.1296216E+00 -0.7797930E-03  0.2495240E-02  0.6756737E-03 -0.1895121E-02
6353000. -0.5619511E-02 -0.1302766E+00 -0.7801740E-03  0.2358995E-02  0.6759693E-03 -0.1872326E-02
6352000. -0.5599012E-02 -0.1309234E+00 -0.7805336E-03  0.2222507E-02  0.6762615E-03 -0.1849687E-02
6351000. -0.5578412E-02 -0.1315618E+00 -0.7808717E-03  0.2085780E-02  0.6765500E-03 -0.1827204E-02
6350000. -0.5557713E-02 -0.1321919E+00 -0.7811883E-03  0.1948821E-02  0.6768351E-03 -0.1804879E-02
6349000. -0.5536915E-02 -0.1328136E+00 -0.7814834E-03  0.1811633E-02  0.6771166E-03 -0.1782710E-02
6348000. -0.5516020E-02 -0.1334270E+00 -0.7817570E-03  0.1674222E-02  0.6773947E-03 -0.1760700E-02
6347000. -0.5495030E-02 -0.1340320E+00 -0.7820090E-03  0.1536594E-02  0.6776694E-03 -0.1738846E-02
6346600. -0.5486607E-02 -0.1342717E+00 -0.7821037E-03  0.1481483E-02  0.6777783E-03 -0.1730149E-02
6346600. -0.5486607E-02 -0.1487885E+00 -0.7821037E-03  0.2534384E-02  0.6777783E-03  0.1829504E-03
6318800. -0.4807079E-02 -0.1620621E+00 -0.7889191E-03  0.5691272E-03  0.6753272E-03  0.9275088E-03
6291000. -0.4077876E-02 -0.1714956E+00 -0.7869243E-03 -0.1496570E-02  0.6697937E-03  0.1596551E-02
6291000. -0.4077876E-02 -0.1770284E+00 -0.7869243E-03 -0.1684377E-02  0.6697937E-03  0.1596551E-02
6263000. -0.3287103E-02 -0.1820340E+00 -0.7743550E-03 -0.4040550E-02  0.6615614E-03  0.2137537E-02
6235000. -0.2485047E-02 -0.1821293E+00 -0.7514061E-03 -0.6398459E-02  0.6511088E-03  0.2607749E-02
6207000. -0.1693621E-02 -0.1771841E+00 -0.7181944E-03 -0.8701281E-02  0.6387366E-03  0.3011836E-02
6179000. -0.9350333E-03 -0.1671942E+00 -0.6750869E-03 -0.1089248E-01  0.6247250E-03  0.3354694E-02
6151000. -0.2312235E-03 -0.1522873E+00 -0.6226955E-03 -0.1291715E-01  0.6093317E-03  0.3641403E-02
6151000. -0.2312235E-03 -0.1461913E+00 -0.6226955E-03 -0.1137724E-01  0.6093317E-03  0.3654196E-02
6128500.  0.2635933E-03 -0.1337524E+00 -0.5808966E-03 -0.1227001E-01  0.5959254E-03  0.3932876E-02
6106000.  0.7115201E-03 -0.1196735E+00 -0.5362029E-03 -0.1301559E-01  0.5815874E-03  0.4182117E-02
6083500.  0.1107174E-02 -0.1041881E+00 -0.4891431E-03 -0.1360930E-01  0.5664184E-03  0.4403776E-02
6061000.  0.1446013E-02 -0.8753799E-01 -0.4402589E-03 -0.1404867E-01  0.5505127E-03  0.4599568E-02
6038500.  0.1724360E-02 -0.6997120E-01 -0.3900960E-03 -0.1433347E-01  0.5339590E-03  0.4771122E-02
6016000.  0.1939422E-02 -0.5173868E-01 -0.3391978E-03 -0.1446556E-01  0.5168398E-03  0.4919974E-02
5993500.  0.2089287E-02 -0.3308970E-01 -0.2880977E-03 -0.1444863E-01  0.4992330E-03  0.5047534E-02
5971000.  0.2172919E-02 -0.1426914E-01 -0.2373124E-03 -0.1428827E-01  0.4812111E-03  0.5155199E-02
5971000.  0.2172919E-02 -0.1679869E-01 -0.2373124E-03 -0.1299750E-01  0.4812111E-03  0.4870745E-02
5937667.  0.2198000E-02  0.6917564E-02 -0.1714733E-03 -0.1213717E-01  0.4553851E-03  0.4994560E-02
5904333.  0.2104012E-02  0.2864872E-01 -0.1105999E-03 -0.1110893E-01  0.4290199E-03  0.5076805E-02
5871000.  0.1902261E-02  0.4806908E-01 -0.5541806E-04 -0.9971336E-02  0.4023301E-03  0.5119330E-02
5837667.  0.1605390E-02  0.6498617E-01 -0.6361704E-05 -0.8775213E-02  0.3755166E-03  0.5124459E-02
5804333.  0.1226741E-02  0.7931985E-01  0.3638006E-04 -0.7563492E-02  0.3487673E-03  0.5095035E-02
5771000.  0.7798623E-03  0.9108064E-01  0.7281815E-04 -0.6371254E-02  0.3222561E-03  0.5034330E-02
5771000.  0.7798623E-03  0.9108351E-01  0.7281815E-04 -0.6371072E-02  0.3222561E-03  0.5034330E-02
5701000. -0.3540470E-03  0.1137766E+00  0.1313767E-03 -0.4282226E-02  0.2676388E-03  0.4904508E-02
5701000. -0.3540470E-03  0.9717640E-01  0.1313767E-03 -0.3266380E-02  0.2676388E-03  0.5004301E-02
5667333. -0.8697575E-03  0.9854191E-01  0.1462780E-03 -0.2448759E-02  0.2419978E-03  0.4690406E-02
5633667. -0.1401438E-02  0.1028715E+00  0.1578690E-03 -0.1962562E-02  0.2180849E-03  0.4363768E-02
5600000. -0.1954549E-02  0.1062394E+00  0.1670239E-03 -0.1504372E-02  0.1958480E-03  0.4054140E-02
5600000. -0.1954549E-02  0.1062394E+00  0.1670239E-03 -0.1504372E-02  0.1958480E-03  0.4054140E-02
5563518. -0.2570863E-02  0.1088521E+00  0.1743172E-03 -0.1050434E-02  0.1735597E-03  0.3732950E-02
5527037. -0.3199280E-02  0.1104886E+00  0.1791421E-03 -0.6426082E-03  0.1530690E-03  0.3426397E-02
5490556. -0.3834508E-02  0.1112479E+00  0.1817675E-03 -0.2823689E-03  0.1342931E-03  0.3133962E-02
5454074. -0.4471833E-02  0.1112339E+00  0.1824677E-03  0.2970895E-04  0.1171513E-03  0.2855326E-02
5417593. -0.5107140E-02  0.1105690E+00  0.1815210E-03  0.2928908E-03  0.1015692E-03  0.2589202E-02
5381111. -0.5737065E-02  0.1093674E+00  0.1792051E-03  0.5080824E-03  0.8747542E-04  0.2335309E-02
5344630. -0.6358843E-02  0.1077503E+00  0.1757921E-03  0.6762304E-03  0.7480262E-04  0.2092798E-02
5308148. -0.6970492E-02  0.1058436E+00  0.1715487E-03  0.7984136E-03  0.6348893E-04  0.1860396E-02
5271667. -0.7570650E-02  0.1037627E+00  0.1667311E-03  0.8772071E-03  0.5347754E-04  0.1637929E-02
5235185. -0.8158708E-02  0.1016322E+00  0.1615828E-03  0.9140823E-03  0.4471495E-04  0.1423796E-02
5198704. -0.8734699E-02  0.9957265E-01  0.1563391E-03  0.9111391E-03  0.3715882E-04  0.1216589E-02
5162222. -0.9299376E-02  0.9769376E-01  0.1512171E-03  0.8718703E-03  0.3076843E-04  0.1016337E-02
5125741. -0.9854085E-02  0.9611611E-01  0.1464218E-03  0.7973739E-03  0.2551187E-04  0.8202039E-03
5089259. -0.1040090E-01  0.9495059E-01  0.1421474E-03  0.6904114E-03  0.2136949E-04  0.6270733E-03
5052778. -0.1094247E-01  0.9430409E-01  0.1385712E-03  0.5538609E-03  0.1832638E-04  0.4358981E-03
5016296. -0.1148210E-01  0.9428924E-01  0.1358594E-03  0.3887257E-03  0.1637999E-04  0.2435862E-03
4979815. -0.1202369E-01  0.9501184E-01  0.1341687E-03  0.1976760E-03  0.1554151E-04  0.4870907E-04
4943333. -0.1257181E-01  0.9658018E-01  0.1336423E-03 -0.1786740E-04  0.1583184E-04 -0.1513113E-03
4906852. -0.1313158E-01  0.9910727E-01  0.1344196E-03 -0.2573835E-03  0.1729185E-04 -0.3602352E-03
4870370. -0.1370884E-01  0.1027015E+00  0.1366304E-03 -0.5183294E-03  0.1997709E-04 -0.5797246E-03
4833889. -0.1431001E-01  0.1074829E+00  0.1403981E-03 -0.8013553E-03  0.2396095E-04 -0.8147869E-03
4797407. -0.1494227E-01  0.1135779E+00  0.1458505E-03 -0.1106457E-02  0.2934712E-04 -0.1069972E-02
4760926. -0.1561347E-01  0.1211130E+00  0.1531079E-03 -0.1431915E-02  0.3625846E-04 -0.1348452E-02
4724444. -0.1633232E-01  0.1302367E+00  0.1622937E-03 -0.1780275E-02  0.4484961E-04 -0.1657860E-02
4687963. -0.1710830E-01  0.1411046E+00  0.1735400E-03 -0.2151551E-02  0.5531519E-04 -0.2004120E-02
4651482. -0.1795190E-01  0.1538852E+00  0.1869776E-03 -0.2546021E-02  0.6788398E-04 -0.2394007E-02
4615000. -0.1887466E-01  0.1687764E+00  0.2027497E-03 -0.2967132E-02  0.8283662E-04 -0.2838266E-02
4578518. -0.1988922E-01  0.1859863E+00  0.2210089E-03 -0.3414695E-02  0.1005096E-03 -0.3345754E-02
4542037. -0.2100949E-01  0.2057526E+00  0.2419112E-03 -0.3891191E-02  0.1212976E-03 -0.3928954E-02
4505556. -0.2225092E-01  0.2283496E+00  0.2656341E-03 -0.4399877E-02  0.1456802E-03 -0.4603651E-02
4469074. -0.2363055E-01  0.2540649E+00  0.2923583E-03 -0.4939389E-02  0.1742200E-03 -0.5383536E-02
4432593. -0.2516713E-01  0.2832389E+00  0.3222693E-03 -0.5513877E-02  0.2075780E-03 -0.6290871E-02
4396111. -0.2688160E-01  0.3162494E+00  0.3555744E-03 -0.6124081E-02  0.2465530E-03 -0.7348665E-02
4359630. -0.2879696E-01  0.3534926E+00  0.3924649E-03 -0.6766453E-02  0.2920693E-03 -0.8581075E-02
4323148. -0.3093887E-01  0.3954422E+00  0.4331337E-03 -0.7443223E-02  0.3452299E-03 -0.1002424E-01
4286667. -0.3333557E-01  0.4425893E+00  0.4777607E-03 -0.8147782E-02  0.4073394E-03 -0.1171345E-01
4250185. -0.3601845E-01  0.4954678E+00  0.5264815E-03 -0.8871475E-02  0.4799289E-03 -0.1369247E-01
4213704. -0.3902187E-01  0.5546722E+00  0.5793827E-03 -0.9605804E-02  0.5648105E-03 -0.1601687E-01
4177222. -0.4238390E-01  0.6207913E+00  0.6364670E-03 -0.1032765E-01  0.6641287E-03 -0.1874468E-01
4140741. -0.4614570E-01  0.6944430E+00  0.6975872E-03 -0.1101156E-01  0.7803933E-03 -0.2195083E-01
4104259. -0.5035245E-01  0.7762615E+00  0.7624380E-03 -0.1162144E-01  0.9166008E-03 -0.2572379E-01
4067778. -0.5505218E-01  0.8667502E+00  0.8304165E-03 -0.1209359E-01  0.1076249E-02 -0.3015742E-01
4031296. -0.6029623E-01  0.9664068E+00  0.9005489E-03 -0.1235969E-01  0.1263478E-02 -0.3537854E-01
3994815. -0.6613778E-01  0.1075514E+01  0.9713742E-03 -0.1231408E-01  0.1483185E-02 -0.4152650E-01
3958333. -0.7263119E-01  0.1193991E+01  0.1040687E-02 -0.1180342E-01  0.1741117E-02 -0.4875709E-01
3921852. -0.7982885E-01  0.1321438E+01  0.1105325E-02 -0.1064564E-01  0.2044024E-02 -0.5727363E-01
3885370. -0.8777963E-01  0.1456696E+01  0.1160858E-02 -0.8569879E-02  0.2399906E-02 -0.6729495E-01
3848889. -0.9652216E-01  0.1597608E+01  0.1201044E-02 -0.5219288E-02  0.2818067E-02 -0.7907781E-01
3812407. -0.1060803E+00  0.1740757E+01  0.1217325E-02 -0.1282276E-03  0.3309498E-02 -0.9293567E-01
3775926. -0.1164515E+00  0.1880536E+01  0.1197957E-02  0.7356218E-02  0.3886985E-02 -0.1091998E+00
3739444. -0.1275948E+00  0.2008696E+01  0.1126911E-02  0.1808183E-01  0.4565455E-02 -0.1282735E+00
3702963. -0.1394107E+00  0.2113131E+01  0.9825544E-03  0.3318506E-01  0.5362250E-02 -0.1506108E+00
3666482. -0.1517158E+00  0.2176030E+01  0.7355756E-03  0.5421924E-01  0.6297398E-02 -0.1766831E+00
3630000. -0.1642050E+00  0.2172405E+01  0.3464667E-03  0.8321556E-01  0.7393905E-02 -0.2070559E+00
3630000. -0.1642050E+00  0.2172405E+01  0.3464667E-03  0.8321556E-01  0.7393905E-02 -0.2070559E+00
3592500. -0.1767306E+00  0.2061670E+01 -0.2576195E-03  0.1242317E+00  0.8716756E-02 -0.2433384E+00
3555000. -0.1881573E+00  0.1788304E+01 -0.1146017E-02  0.1805925E+00  0.1026981E-01 -0.2853834E+00
3517500. -0.1973152E+00  0.1275682E+01 -0.2424179E-02  0.2577165E+00  0.1208886E-01 -0.3338123E+00
3480000. -0.2024961E+00  0.4157870E+00 -0.4234895E-02  0.3629662E+00  0.1421292E-01 -0.3890896E+00
3480000. -0.2024961E+00 -0.5957175E+01 -0.1141055E-01 -0.3496390E+00  0.1421292E-01  0.2566479E+00
3409422. -0.1452197E+00 -0.4444235E+01 -0.8078158E-02 -0.2561773E+00  0.1135544E-01  0.2527559E+00
3338844. -0.1027902E+00 -0.3266912E+01 -0.5651312E-02 -0.1853144E+00  0.8709991E-02  0.2221497E+00
3268266. -0.7181363E-01 -0.2367133E+01 -0.3906289E-02 -0.1323600E+00  0.6466854E-02  0.1822459E+00
3197688. -0.4951879E-01 -0.1691040E+01 -0.2667367E-02 -0.9334172E-01  0.4671131E-02  0.1424576E+00
3127109. -0.3369679E-01 -0.1191190E+01 -0.1798897E-02 -0.6498742E-01  0.3293159E-02  0.1072837E+00
3056531. -0.2262499E-01 -0.8274007E+00 -0.1197904E-02 -0.4466415E-01  0.2270902E-02  0.7835034E-01
2985953. -0.1498518E-01 -0.5666615E+00 -0.7873883E-03 -0.3029503E-01  0.1533878E-02  0.5571614E-01
2915375. -0.9787621E-02 -0.3825931E+00 -0.5106769E-03 -0.2027440E-01  0.1015746E-02  0.3868111E-01
2844797. -0.6301973E-02 -0.2545980E+00 -0.3266718E-03 -0.1338278E-01  0.6598100E-03  0.2626275E-01
2774219. -0.3998301E-02 -0.1669334E+00 -0.2060056E-03 -0.8709594E-02  0.4205407E-03  0.1745748E-01
2703641. -0.2498403E-02 -0.1078044E+00 -0.1280022E-03 -0.5586061E-02  0.2630106E-03  0.1136863E-01
2633062. -0.1536720E-02 -0.6853846E-01 -0.7831919E-04 -0.3528933E-02  0.1613809E-03  0.7255321E-02
2562484. -0.9298393E-03 -0.4287586E-01 -0.4715770E-04 -0.2194654E-02  0.9712319E-04  0.4537957E-02
2491906. -0.5530917E-03 -0.2637574E-01 -0.2792237E-04 -0.1342723E-02  0.5730491E-04  0.2781328E-02
2421328. -0.3231663E-03 -0.1594450E-01 -0.1624500E-04 -0.8075816E-03  0.3312907E-04  0.1669879E-02
2350750. -0.1853192E-03 -0.9464405E-02 -0.9278357E-05 -0.4771068E-03  0.1875292E-04  0.9816119E-03
2280172. -0.1041992E-03 -0.5511539E-02 -0.5197343E-05 -0.2766185E-03  0.1038502E-04  0.5645856E-03
2209594. -0.5738491E-04 -0.3145757E-02 -0.2852212E-05 -0.1572343E-03  0.5620840E-05  0.3174682E-03
2139016. -0.3091776E-04 -0.1757826E-02 -0.1531628E-05 -0.8752436E-04  0.2970059E-05  0.1743529E-03
2068438. -0.1627521E-04 -0.9604966E-03 -0.8037492E-06 -0.4765274E-04  0.1530193E-05  0.9341631E-04
1997859. -0.8358259E-05 -0.5124939E-03 -0.4115669E-06 -0.2534083E-04  0.7675624E-06  0.4876507E-04
1927281. -0.4180980E-05 -0.2666244E-03 -0.2053099E-06 -0.1314211E-04  0.3742551E-06  0.2476536E-04
1856703. -0.2033386E-05 -0.1350154E-03 -0.9959349E-07 -0.6635423E-05  0.1770533E-06  0.1221474E-04
1786125. -0.9595233E-06 -0.6642094E-04 -0.4688284E-07 -0.3255305E-05  0.8109956E-07  0.5839614E-05
1715547. -0.4383176E-06 -0.3167554E-04 -0.2136774E-07 -0.1548417E-05  0.3588286E-07  0.2700129E-05
1644969. -0.1933275E-06 -0.1460760E-04 -0.9404550E-08 -0.7123413E-06  0.1529495E-07  0.1204456E-05
1574391. -0.8208903E-07 -0.6496361E-05 -0.3985467E-08 -0.3160621E-06  0.6261513E-08  0.5168383E-06
1503812. -0.3343859E-07 -0.2777645E-05 -0.1620953E-08 -0.1348009E-06  0.2453390E-08  0.2126353E-06
1433234. -0.1300438E-07 -0.1139010E-05 -0.6309103E-09 -0.5500443E-07  0.9164566E-09  0.8355592E-07
1362656. -0.4764336E-08 -0.4505808E-06 -0.2359336E-09 -0.2117322E-07  0.3249882E-09  0.3121572E-07
1292078. -0.1486341E-08 -0.1877085E-06 -0.9118603E-10 -0.6879758E-08  0.1090332E-09  0.1102556E-07
1221500.  0.1814330E-09 -0.1453178E-06 -0.6103743E-10  0.1264214E-08  0.3448984E-10  0.3708759E-08
1221500.  0.1814330E-09  0.3694469E-09 -0.6201684E-12 -0.9495379E-09  0.3448984E-10  0.3630161E-08
1183328.  0.1562023E-09  0.6612197E-08  0.2544778E-11 -0.2160031E-09  0.1815595E-10  0.1978533E-08
1145156.  0.1133657E-09  0.7134385E-08  0.2875515E-11  0.5545337E-10  0.9340527E-11  0.1054772E-08
1106984.  0.7447741E-10  0.5702588E-08  0.2278359E-11  0.1232983E-09  0.4689435E-11  0.5492672E-09
1068812.  0.4557586E-10  0.3964745E-08  0.1548460E-11  0.1135605E-09  0.2293896E-11  0.2789547E-09
1030641.  0.2634653E-10  0.2523439E-08  0.9578082E-12  0.8254484E-10  0.1091620E-11  0.1378615E-09
 992469.  0.0000000E+00  0.0000000E+00  0.0000000E+00  0.0000000E+00  0.0000000E+00  0.0000000E+00
 954297.  0.0000000E+00  0.0000000E+00  0.0000000E+00  0.0000000E+00  0.0000000E+00  0.0000000E+00
 916125.  0.0000000E+00  0.0000000E+00  0.0000000E+00  0.0000000E+00  0.0000000E+00  0.0000000E+00
 877953.  0.0000000E+00  0.0000000E+00  0.0000000E+00  0.0000000E+00  0.0000000E+00  0.0000000E+00
 839781.  0.0000000E+00  0.0000000E+00  0.0000000E+00  0.0000000E+00  0.0000000E+00  0.0000000E+00
 801609.  0.0000000E+00  0.0000000E+00  0.0000000E+00  0.0000000E+00  0.0000000E+00  0.0000000E+00
 763438.  0.0000000E+00  0.0000000E+00  0.0000000E+00  0.0000000E+00  0.0000000E+00  0.0000000E+00
 725266.  0.0000000E+00  0.0000000E+00  0.0000000E+00  0.0000000E+00  0.0000000E+00  0.0000000E+00
 687094.  0.0000000E+00  0.0000000E+00  0.0000000E+00  0.0000000E+00  0.0000000E+00  0.0000000E+00
 648922.  0.0000000E+00  0.0000000E+00  0.0000000E+00  0.0000000E+00  0.0000000E+00  0.0000000E+00
 610750.  0.0000000E+00  0.0000000E+00  0.0000000E+00  0.0000000E+00  0.0000000E+00  0.0000000E+00
 572578.  0.0000000E+00  0.0000000E+00  0.0000000E+00  0.0000000E+00  0.0000000E+00  0.0000000E+00
 534406.  0.0000000E+00  0.0000000E+00  0.0000000E+00  0.0000000E+00  0.0000000E+00  0.0000000E+00
 496234.  0.0000000E+00  0.0000000E+00  0.0000000E+00  0.0000000E+00  0.0000000E+00  0.0000000E+00
 458062.  0.0000000E+00  0.0000000E+00  0.0000000E+00  0.0000000E+00  0.0000000E+00  0.0000000E+00
 419891.  0.0000000E+00  0.0000000E+00  0.0000000E+00  0.0000000E+00  0.0000000E+00  0.0000000E+00
 381719.  0.0000000E+00  0.0000000E+00  0.0000000E+00  0.0000000E+00  0.0000000E+00  0.0000000E+00
 343547.  0.0000000E+00  0.0000000E+00  0.0000000E+00  0.0000000E+00  0.0000000E+00  0.0000000E+00
 305375.  0.0000000E+00  0.0000000E+00  0.0000000E+00  0.0000000E+00  0.0000000E+00  0.0000000E+00
 267203.  0.0000000E+00  0.0000000E+00  0.0000000E+00  0.0000000E+00  0.0000000E+00  0.0000000E+00
 229031.  0.0000000E+00  0.0000000E+00  0.0000000E+00  0.0000000E+00  0.0000000E+00  0.0000000E+00
 190859.  0.0000000E+00  0.0000000E+00  0.0000000E+00  0.0000000E+00  0.0000000E+00  0.0000000E+00
 152688.  0.0000000E+00  0.0000000E+00  0.0000000E+00  0.0000000E+00  0.0000000E+00  0.0000000E+00
 114516.  0.0000000E+00  0.0000000E+00  0.0000000E+00  0.0000000E+00  0.0000000E+00  0.0000000E+00
  76344.  0.0000000E+00  0.0000000E+00  0.0000000E+00  0.0000000E+00  0.0000000E+00  0.0000000E+00
  38172.  0.0000000E+00  0.0000000E+00  0.0000000E+00  0.0000000E+00  0.0000000E+00  0.0000000E+00
      0.  0.0000000E+00  0.0000000E+00  0.0000000E+00  0.0000000E+00  0.0000000E+00  0.0000000E+00
