       1       13 S      109        361.22699          8.20868          8.45968        342.36789      185    7
6371000.  0.7773704E-01  0.1309283E+00  0.2682688E-02 -0.7505435E-01 -0.7581793E-02 -0.4044877E-01
6370000.  0.7771607E-01  0.1362532E+00  0.2694446E-02 -0.7476259E-01 -0.7575456E-02 -0.4030421E-01
6369000.  0.7769427E-01  0.1415728E+00  0.2706158E-02 -0.7446777E-01 -0.7569141E-02 -0.4015879E-01
6368000.  0.7767163E-01  0.1468869E+00  0.2717823E-02 -0.7416990E-01 -0.7562849E-02 -0.4001253E-01
6368000.  0.7767163E-01  0.1468869E+00  0.2717823E-02 -0.7416990E-01 -0.7562849E-02 -0.4001253E-01
6367000.  0.7764816E-01  0.1521953E+00  0.2729441E-02 -0.7386900E-01 -0.7556580E-02 -0.3986542E-01
6366000.  0.7762385E-01  0.1574981E+00  0.2741012E-02 -0.7356505E-01 -0.7550334E-02 -0.3971747E-01
6365000.  0.7759871E-01  0.1627950E+00  0.2752535E-02 -0.7325807E-01 -0.7544112E-02 -0.3956866E-01
6364000.  0.7757275E-01  0.1680861E+00  0.2764009E-02 -0.7294807E-01 -0.7537913E-02 -0.3941900E-01
6363000.  0.7754595E-01  0.1733710E+00  0.2775435E-02 -0.7263504E-01 -0.7531737E-02 -0.3926849E-01
6362000.  0.7751832E-01  0.1786499E+00  0.2786811E-02 -0.7231900E-01 -0.7525586E-02 -0.3911713E-01
6361000.  0.7748987E-01  0.1839226E+00  0.2798137E-02 -0.7199996E-01 -0.7519457E-02 -0.3896492E-01
6360000.  0.7746059E-01  0.1891889E+00  0.2809413E-02 -0.7167791E-01 -0.7513354E-02 -0.3881185E-01
6359000.  0.7743048E-01  0.1944487E+00  0.2820638E-02 -0.7135287E-01 -0.7507274E-02 -0.3865792E-01
6358000.  0.7739954E-01  0.1997021E+00  0.2831812E-02 -0.7102484E-01 -0.7501218E-02 -0.3850314E-01
6357000.  0.7736779E-01  0.2049488E+00  0.2842934E-02 -0.7069383E-01 -0.7495187E-02 -0.3834749E-01
6356000.  0.7733521E-01  0.2101887E+00  0.2854005E-02 -0.7035983E-01 -0.7489180E-02 -0.3819099E-01
6356000.  0.7733521E-01  0.1692038E+00  0.2854005E-02 -0.7206324E-01 -0.7489180E-02 -0.5501824E-01
6355000.  0.7730834E-01  0.1731702E+00  0.2865302E-02 -0.7188865E-01 -0.7480555E-02 -0.5488522E-01
6354000.  0.7728085E-01  0.1771336E+00  0.2876572E-02 -0.7171234E-01 -0.7471950E-02 -0.5475174E-01
6353000.  0.7725273E-01  0.1810938E+00  0.2887814E-02 -0.7153432E-01 -0.7463367E-02 -0.5461782E-01
6352000.  0.7722399E-01  0.1850510E+00  0.2899028E-02 -0.7135460E-01 -0.7454805E-02 -0.5448344E-01
6351000.  0.7719464E-01  0.1890049E+00  0.2910214E-02 -0.7117317E-01 -0.7446263E-02 -0.5434861E-01
6350000.  0.7716466E-01  0.1929556E+00  0.2921371E-02 -0.7099004E-01 -0.7437743E-02 -0.5421332E-01
6349000.  0.7713407E-01  0.1969030E+00  0.2932499E-02 -0.7080521E-01 -0.7429245E-02 -0.5407758E-01
6348000.  0.7710285E-01  0.2008470E+00  0.2943598E-02 -0.7061867E-01 -0.7420767E-02 -0.5394138E-01
6347000.  0.7707102E-01  0.2047877E+00  0.2954668E-02 -0.7043044E-01 -0.7412311E-02 -0.5380473E-01
6346600.  0.7705811E-01  0.2063629E+00  0.2959087E-02 -0.7035468E-01 -0.7408935E-02 -0.5374994E-01
6346600.  0.7705811E-01  0.1996672E+00  0.2959087E-02 -0.7166360E-01 -0.7408935E-02 -0.8061898E-01
6318800.  0.7599111E-01  0.2893404E+00  0.3265266E-02 -0.6852256E-01 -0.7064650E-02 -0.7716252E-01
6291000.  0.7453403E-01  0.3783238E+00  0.3555792E-02 -0.6449182E-01 -0.6735718E-02 -0.7357937E-01
6291000.  0.7453403E-01  0.3891330E+00  0.3555792E-02 -0.6417693E-01 -0.6735718E-02 -0.7357937E-01
6263000.  0.7262569E-01  0.4789253E+00  0.3826272E-02 -0.5875402E-01 -0.6420811E-02 -0.6969642E-01
6235000.  0.7032845E-01  0.5659526E+00  0.4070879E-02 -0.5240925E-01 -0.6123373E-02 -0.6562602E-01
6207000.  0.6765649E-01  0.6492913E+00  0.4285649E-02 -0.4518346E-01 -0.5844273E-02 -0.6134854E-01
6179000.  0.6462806E-01  0.7280220E+00  0.4466816E-02 -0.3712686E-01 -0.5584463E-02 -0.5684426E-01
6151000.  0.6126540E-01  0.8012330E+00  0.4610858E-02 -0.2829922E-01 -0.5344980E-02 -0.5209480E-01
6151000.  0.6126540E-01  0.7034786E+00  0.4610858E-02 -0.3208793E-01 -0.5344980E-02 -0.5548434E-01
6128500.  0.5870879E-01  0.7437717E+00  0.4714688E-02 -0.2668111E-01 -0.5153190E-02 -0.5312116E-01
6106000.  0.5601675E-01  0.7801544E+00  0.4799115E-02 -0.2110516E-01 -0.4969825E-02 -0.5071303E-01
6083500.  0.5320329E-01  0.8125211E+00  0.4863598E-02 -0.1539221E-01 -0.4795045E-02 -0.4825873E-01
6061000.  0.5028275E-01  0.8407813E+00  0.4907710E-02 -0.9573856E-02 -0.4629015E-02 -0.4575766E-01
6038500.  0.4726977E-01  0.8648670E+00  0.4931134E-02 -0.3680453E-02 -0.4471905E-02 -0.4320743E-01
6016000.  0.4417916E-01  0.8847286E+00  0.4933654E-02  0.2258855E-02 -0.4323891E-02 -0.4060509E-01
5993500.  0.4102593E-01  0.9003295E+00  0.4915159E-02  0.8215851E-02 -0.4185164E-02 -0.3794805E-01
5971000.  0.3782515E-01  0.9116560E+00  0.4875634E-02  0.1416426E-01 -0.4055924E-02 -0.3523176E-01
5971000.  0.3782515E-01  0.8524839E+00  0.4875634E-02  0.8730714E-02 -0.4055924E-02 -0.4018339E-01
5937667.  0.3337223E-01  0.8486305E+00  0.4816004E-02  0.1395431E-01 -0.3852403E-02 -0.3763349E-01
5904333.  0.2895487E-01  0.8389833E+00  0.4730747E-02  0.1852795E-01 -0.3661929E-02 -0.3519458E-01
5871000.  0.2460146E-01  0.8243703E+00  0.4623227E-02  0.2246924E-01 -0.3483924E-02 -0.3286954E-01
5837667.  0.2033579E-01  0.8055677E+00  0.4496684E-02  0.2580533E-01 -0.3317785E-02 -0.3065831E-01
5804333.  0.1617776E-01  0.7832985E+00  0.4354191E-02  0.2857048E-01 -0.3162919E-02 -0.2855784E-01
5771000.  0.1214397E-01  0.7582248E+00  0.4198647E-02  0.3080300E-01 -0.3018766E-02 -0.2656368E-01
5771000.  0.1214397E-01  0.7582729E+00  0.4198647E-02  0.3080172E-01 -0.3018766E-02 -0.2656368E-01
5701000.  0.3980390E-02  0.7249733E+00  0.3822949E-02  0.3746799E-01 -0.2753099E-02 -0.2176385E-01
5701000.  0.3980390E-02  0.6338329E+00  0.3822949E-02  0.2950538E-01 -0.2753099E-02 -0.2288578E-01
5667333.  0.7459910E-03  0.5953993E+00  0.3672243E-02  0.2781072E-01 -0.2633689E-02 -0.2238068E-01
5633667. -0.2359761E-02  0.5819206E+00  0.3526247E-02  0.2755940E-01 -0.2516264E-02 -0.2205781E-01
5600000. -0.5399156E-02  0.5680003E+00  0.3381289E-02  0.2726704E-01 -0.2400633E-02 -0.2170456E-01
5600000. -0.5399156E-02  0.5680003E+00  0.3381289E-02  0.2726704E-01 -0.2400633E-02 -0.2170456E-01
5563518. -0.8607568E-02  0.5525761E+00  0.3226306E-02  0.2684809E-01 -0.2277455E-02 -0.2131679E-01
5527037. -0.1172699E-01  0.5369719E+00  0.3073990E-02  0.2633771E-01 -0.2156505E-02 -0.2092880E-01
5490556. -0.1475687E-01  0.5213204E+00  0.2924847E-02  0.2574063E-01 -0.2037762E-02 -0.2054685E-01
5454074. -0.1769736E-01  0.5057444E+00  0.2779357E-02  0.2506152E-01 -0.1921175E-02 -0.2017579E-01
5417593. -0.2054919E-01  0.4904036E+00  0.2637980E-02  0.2430637E-01 -0.1806664E-02 -0.1982381E-01
5381111. -0.2331420E-01  0.4754131E+00  0.2501126E-02  0.2348103E-01 -0.1694102E-02 -0.1949442E-01
5344630. -0.2599460E-01  0.4609009E+00  0.2369190E-02  0.2259124E-01 -0.1583353E-02 -0.1919304E-01
5308148. -0.2859368E-01  0.4470004E+00  0.2242517E-02  0.2164237E-01 -0.1474229E-02 -0.1892624E-01
5271667. -0.3111507E-01  0.4338087E+00  0.2121432E-02  0.2064167E-01 -0.1366534E-02 -0.1869570E-01
5235185. -0.3356333E-01  0.4214526E+00  0.2006212E-02  0.1959357E-01 -0.1260037E-02 -0.1850842E-01
5198704. -0.3594344E-01  0.4100459E+00  0.1897121E-02  0.1850345E-01 -0.1154474E-02 -0.1837028E-01
5162222. -0.3826120E-01  0.3996706E+00  0.1794367E-02  0.1737991E-01 -0.1049563E-02 -0.1828060E-01
5125741. -0.4052274E-01  0.3904507E+00  0.1698142E-02  0.1622476E-01 -0.9450028E-03 -0.1825025E-01
5089259. -0.4273509E-01  0.3824787E+00  0.1608604E-02  0.1504455E-01 -0.8404349E-03 -0.1828237E-01
5052778. -0.4490550E-01  0.3758399E+00  0.1525879E-02  0.1384655E-01 -0.7355037E-03 -0.1837938E-01
5016296. -0.4704203E-01  0.3706407E+00  0.1450061E-02  0.1263226E-01 -0.6298026E-03 -0.1855149E-01
4979815. -0.4915305E-01  0.3669637E+00  0.1381226E-02  0.1140937E-01 -0.5228971E-03 -0.1880151E-01
4943333. -0.5124764E-01  0.3648985E+00  0.1319405E-02  0.1018202E-01 -0.4143199E-03 -0.1913618E-01
4906852. -0.5333520E-01  0.3645425E+00  0.1264625E-02  0.8952207E-02 -0.3035584E-03 -0.1956630E-01
4870370. -0.5542585E-01  0.3659672E+00  0.1216865E-02  0.7730104E-02 -0.1900570E-03 -0.2009306E-01
4833889. -0.5752992E-01  0.3692701E+00  0.1176082E-02  0.6515857E-02 -0.7323379E-04 -0.2073024E-01
4797407. -0.5965856E-01  0.3745431E+00  0.1142223E-02  0.5313273E-02  0.4758559E-04 -0.2148830E-01
4760926. -0.6182315E-01  0.3818561E+00  0.1115187E-02  0.4133850E-02  0.1730925E-03 -0.2237056E-01
4724444. -0.6403576E-01  0.3913135E+00  0.1094843E-02  0.2975445E-02  0.3040574E-03 -0.2339632E-01
4687963. -0.6630880E-01  0.4029989E+00  0.1081055E-02  0.1846634E-02  0.4413289E-03 -0.2457572E-01
4651482. -0.6865533E-01  0.4169921E+00  0.1073619E-02  0.7568701E-03  0.5858156E-03 -0.2591952E-01
4615000. -0.7108890E-01  0.4333993E+00  0.1072315E-02 -0.2936589E-03  0.7385288E-03 -0.2745065E-01
4578518. -0.7362352E-01  0.4522957E+00  0.1076879E-02 -0.1290305E-02  0.9005735E-03 -0.2918085E-01
4542037. -0.7627361E-01  0.4737713E+00  0.1086975E-02 -0.2225690E-02  0.1073137E-02 -0.3113098E-01
4505556. -0.7905430E-01  0.4979264E+00  0.1102241E-02 -0.3093197E-02  0.1257568E-02 -0.3332864E-01
4469074. -0.8198120E-01  0.5248191E+00  0.1122222E-02 -0.3869300E-02  0.1455324E-02 -0.3578736E-01
4432593. -0.8507006E-01  0.5545425E+00  0.1146368E-02 -0.4546836E-02  0.1667987E-02 -0.3854370E-01
4396111. -0.8833750E-01  0.5871705E+00  0.1174072E-02 -0.5106603E-02  0.1897368E-02 -0.4162786E-01
4359630. -0.9180005E-01  0.6227275E+00  0.1204561E-02 -0.5515789E-02  0.2145391E-02 -0.4506367E-01
4323148. -0.9547486E-01  0.6612815E+00  0.1236928E-02 -0.5758482E-02  0.2414227E-02 -0.4890236E-01
4286667. -0.9937891E-01  0.7028285E+00  0.1270115E-02 -0.5794408E-02  0.2706272E-02 -0.5317854E-01
4250185. -0.1035295E+00  0.7473341E+00  0.1302808E-02 -0.5579539E-02  0.3024165E-02 -0.5793686E-01
4213704. -0.1079432E+00  0.7947595E+00  0.1333464E-02 -0.5074127E-02  0.3370827E-02 -0.6323900E-01
4177222. -0.1126365E+00  0.8449490E+00  0.1360226E-02 -0.4206572E-02  0.3749527E-02 -0.6913229E-01
4140741. -0.1176246E+00  0.8977067E+00  0.1380818E-02 -0.2908404E-02  0.4163817E-02 -0.7568704E-01
4104259. -0.1229217E+00  0.9527667E+00  0.1392563E-02 -0.1098073E-02  0.4617740E-02 -0.8298188E-01
4067778. -0.1285394E+00  0.1009634E+01  0.1392172E-02  0.1350582E-02  0.5115679E-02 -0.9107853E-01
4031296. -0.1344868E+00  0.1067782E+01  0.1375667E-02  0.4550922E-02  0.5662543E-02 -0.1000842E+00
3994815. -0.1407689E+00  0.1126432E+01  0.1338323E-02  0.8661559E-02  0.6263802E-02 -0.1100965E+00
3958333. -0.1473858E+00  0.1184467E+01  0.1274328E-02  0.1389292E-01  0.6925495E-02 -0.1212061E+00
3921852. -0.1543301E+00  0.1240608E+01  0.1176688E-02  0.2045465E-01  0.7654273E-02 -0.1335577E+00
3885370. -0.1615865E+00  0.1293050E+01  0.1036973E-02  0.2864232E-01  0.8457652E-02 -0.1472745E+00
3848889. -0.1691270E+00  0.1339483E+01  0.8449033E-03  0.3880282E-01  0.9343782E-02 -0.1624969E+00
3812407. -0.1769099E+00  0.1377076E+01  0.5880694E-03  0.5133781E-01  0.1032186E-01 -0.1794087E+00
3775926. -0.1848736E+00  0.1402017E+01  0.2514293E-03  0.6677490E-01  0.1140194E-01 -0.1981623E+00
3739444. -0.1929332E+00  0.1409632E+01 -0.1833540E-03  0.8572253E-01  0.1259520E-01 -0.2189651E+00
3702963. -0.2009729E+00  0.1394024E+01 -0.7383930E-03  0.1089230E+00  0.1391396E-01 -0.2420420E+00
3666482. -0.2088388E+00  0.1347508E+01 -0.1440676E-02  0.1373204E+00  0.1537181E-01 -0.2675849E+00
3630000. -0.2163282E+00  0.1260715E+01 -0.2323038E-02  0.1720158E+00  0.1698369E-01 -0.2958733E+00
3630000. -0.2163282E+00  0.1260715E+01 -0.2323038E-02  0.1720158E+00  0.1698369E-01 -0.2958733E+00
3592500. -0.2233561E+00  0.1116803E+01 -0.3459715E-02  0.2157063E+00  0.1881831E-01 -0.3280547E+00
3555000. -0.2293349E+00  0.9011857E+00 -0.4881844E-02  0.2693444E+00  0.2085233E-01 -0.3636798E+00
3517500. -0.2337843E+00  0.5932938E+00 -0.6654351E-02  0.3351772E+00  0.2310700E-01 -0.4030839E+00
3480000. -0.2360870E+00  0.1668351E+00 -0.8856953E-02  0.4160007E+00  0.2560543E-01 -0.4465483E+00
3480000. -0.2360870E+00 -0.4190376E+01 -0.2097815E-01 -0.3934754E+00  0.2560543E-01  0.3063068E+00
3409422. -0.1931856E+00 -0.3565529E+01 -0.1698403E-01 -0.3290741E+00  0.2218485E-01  0.3077486E+00
3338844. -0.1568499E+00 -0.3005319E+01 -0.1365589E-01 -0.2731408E+00  0.1884858E-01  0.2924171E+00
3268266. -0.1263591E+00 -0.2510168E+01 -0.1090345E-01 -0.2250228E+00  0.1574243E-01  0.2671686E+00
3197688. -0.1010015E+00 -0.2078093E+01 -0.8644084E-02 -0.1839984E+00  0.1294747E-01  0.2369188E+00
3127109. -0.8009687E-01 -0.1705475E+01 -0.6803297E-02 -0.1493257E+00  0.1049894E-01  0.2050829E+00
3056531. -0.6301222E-01 -0.1387658E+01 -0.5314852E-02 -0.1202712E+00  0.8400967E-02  0.1739364E+00
2985953. -0.4916889E-01 -0.1119394E+01 -0.4120439E-02 -0.9612701E-01  0.6637334E-02  0.1449004E+00
2915375. -0.3804810E-01 -0.8952216E+00 -0.3169387E-02 -0.7622904E-01  0.5179759E-02  0.1187723E+00
2844797. -0.2919158E-01 -0.7097188E+00 -0.2418090E-02 -0.5996648E-01  0.3993732E-02  0.9590577E-01
2774219. -0.2220001E-01 -0.5576854E+00 -0.1829394E-02 -0.4678604E-01  0.3042616E-02  0.7635099E-01
2703641. -0.1672987E-01 -0.4342676E+00 -0.1371948E-02 -0.3619352E-01  0.2290401E-02  0.5995984E-01
2633062. -0.1248907E-01 -0.3350330E+00 -0.1019542E-02 -0.2775386E-01  0.1703436E-02  0.4646447E-01
2562484. -0.9232229E-02 -0.2560121E+00 -0.7504810E-03 -0.2108901E-01  0.1251444E-02  0.3553591E-01
2491906. -0.6755214E-02 -0.1937003E+00 -0.5469493E-03 -0.1587316E-01  0.9079214E-03  0.2682284E-01
2421328. -0.4890189E-02 -0.1450548E+00 -0.3944723E-03 -0.1182937E-01  0.6502553E-03  0.1997945E-01
2350750. -0.3500591E-02 -0.1074677E+00 -0.2813945E-03 -0.8724697E-02  0.4595491E-03  0.1468272E-01
2280172. -0.2476491E-02 -0.7873235E-01 -0.1984208E-03 -0.6365074E-02  0.3203105E-03  0.1064222E-01
2209594. -0.1730354E-02 -0.5700571E-01 -0.1382127E-03 -0.4590595E-02  0.2200615E-03  0.7604566E-02
2139016. -0.1193243E-02 -0.4076650E-01 -0.9503523E-04 -0.3270896E-02  0.1489204E-03  0.5354315E-02
2068438. -0.8114774E-03 -0.2877440E-01 -0.6445417E-04 -0.2300837E-02  0.9918921E-04  0.3712311E-02
1997859. -0.5437446E-03 -0.2003022E-01 -0.4307839E-04 -0.1596533E-02  0.6496635E-04  0.2532630E-02
1927281. -0.3586450E-03 -0.1373938E-01 -0.2834572E-04 -0.1091837E-02  0.4180205E-04  0.1698699E-02
1856703. -0.2325987E-03 -0.9277352E-02 -0.1834245E-04 -0.7351711E-03  0.2639359E-04  0.1119039E-02
1786125. -0.1481441E-03 -0.6160046E-02 -0.1165842E-04 -0.4868295E-03  0.1633187E-04  0.7232108E-03
1715547. -0.9252915E-04 -0.4017256E-02 -0.7268619E-05 -0.3166295E-03  0.9889685E-05  0.4579413E-03
1644969. -0.5657826E-04 -0.2569972E-02 -0.4438914E-05 -0.2019385E-03  0.5850969E-05  0.2836805E-03
1574391. -0.3379166E-04 -0.1611235E-02 -0.2651864E-05 -0.1260147E-03  0.3375767E-05  0.1716226E-03
1503812. -0.1963707E-04 -0.9904139E-03 -0.1549317E-05 -0.7663305E-04  0.1895501E-05  0.1011963E-03
1433234. -0.1099818E-04 -0.6008366E-03 -0.8889356E-06 -0.4494017E-04  0.1033570E-05  0.5801900E-04
1362656. -0.5738541E-05 -0.3710878E-03 -0.5124699E-06 -0.2443620E-04  0.5461299E-06  0.3225467E-04
1292078. -0.2335754E-05 -0.2619054E-03 -0.3254215E-06 -0.9914369E-05  0.2791089E-06  0.1735275E-04
1221500.  0.5057309E-06 -0.2746650E-03 -0.2907157E-06  0.4151902E-05  0.1372614E-06  0.9115879E-05
1221500.  0.5057309E-06  0.6149916E-06 -0.9279310E-09 -0.2642590E-05  0.1372614E-06  0.8896794E-05
1183328.  0.4728601E-06  0.9253829E-05  0.9999815E-08 -0.1137013E-05  0.9245262E-07  0.6205681E-05
1145156.  0.4052251E-06  0.1265963E-04  0.1398163E-07 -0.2779484E-06  0.6139124E-07  0.4271084E-05
1106984.  0.3271860E-06  0.1302231E-04  0.1415135E-07  0.1676159E-06  0.4015318E-07  0.2898181E-05
1068812.  0.2523314E-06  0.1178764E-04  0.1247447E-07  0.3602795E-06  0.2584205E-07  0.1937118E-05
1030641.  0.1872742E-06  0.9869786E-05  0.1012177E-07  0.4075907E-06  0.1634750E-07  0.1274075E-05
 992469.  0.1343229E-06  0.7812928E-05  0.7739920E-08  0.3790582E-06  0.1015184E-07  0.8236453E-06
 954297.  0.9332746E-07  0.5912519E-05  0.5643961E-08  0.3175897E-06  0.6180315E-08  0.5226889E-06
 916125.  0.6288406E-07  0.4303365E-05  0.3949488E-08  0.2480459E-06  0.3682743E-08  0.3251498E-06
 877953.  0.4110060E-07  0.3022322E-05  0.2661097E-08  0.1834915E-06  0.2144184E-08  0.1979505E-06
 839781.  0.2604602E-07  0.2051381E-05  0.1729060E-08  0.1296095E-06  0.1217348E-08  0.1177236E-06
 801609.  0.1598734E-07  0.1346157E-05  0.1083722E-08  0.8778343E-07  0.6724177E-09  0.6824856E-07
 763438.  0.9490294E-08  0.8536373E-06  0.6547957E-09  0.5711225E-07  0.3604176E-09  0.3847737E-07
 725266.  0.5436561E-08  0.5224248E-06  0.3808305E-09  0.3570231E-07  0.1868915E-09  0.2103665E-07
 687094.  0.2997424E-08  0.3079590E-06  0.2127341E-09  0.2142423E-07  0.9342651E-10  0.1111754E-07
 648922.  0.1585270E-08  0.1743845E-06  0.1137947E-09  0.1231695E-07  0.4483919E-10  0.5657834E-08
 610750.  0.8009826E-09  0.9452347E-07  0.5806421E-10  0.6764008E-08  0.2056056E-10  0.2760269E-08
 572578.  0.3847626E-09  0.4882520E-07  0.2812489E-10  0.3533553E-08  0.8955134E-11  0.1284010E-08
 534406.  0.1747064E-09  0.2391044E-07  0.1286114E-10  0.1744305E-08  0.3679536E-11  0.5655827E-09
 496234.  0.0000000E+00  0.0000000E+00  0.0000000E+00  0.0000000E+00  0.0000000E+00  0.0000000E+00
 458062.  0.0000000E+00  0.0000000E+00  0.0000000E+00  0.0000000E+00  0.0000000E+00  0.0000000E+00
 419891.  0.0000000E+00  0.0000000E+00  0.0000000E+00  0.0000000E+00  0.0000000E+00  0.0000000E+00
 381719.  0.0000000E+00  0.0000000E+00  0.0000000E+00  0.0000000E+00  0.0000000E+00  0.0000000E+00
 343547.  0.0000000E+00  0.0000000E+00  0.0000000E+00  0.0000000E+00  0.0000000E+00  0.0000000E+00
 305375.  0.0000000E+00  0.0000000E+00  0.0000000E+00  0.0000000E+00  0.0000000E+00  0.0000000E+00
 267203.  0.0000000E+00  0.0000000E+00  0.0000000E+00  0.0000000E+00  0.0000000E+00  0.0000000E+00
 229031.  0.0000000E+00  0.0000000E+00  0.0000000E+00  0.0000000E+00  0.0000000E+00  0.0000000E+00
 190859.  0.0000000E+00  0.0000000E+00  0.0000000E+00  0.0000000E+00  0.0000000E+00  0.0000000E+00
 152688.  0.0000000E+00  0.0000000E+00  0.0000000E+00  0.0000000E+00  0.0000000E+00  0.0000000E+00
 114516.  0.0000000E+00  0.0000000E+00  0.0000000E+00  0.0000000E+00  0.0000000E+00  0.0000000E+00
  76344.  0.0000000E+00  0.0000000E+00  0.0000000E+00  0.0000000E+00  0.0000000E+00  0.0000000E+00
  38172.  0.0000000E+00  0.0000000E+00  0.0000000E+00  0.0000000E+00  0.0000000E+00  0.0000000E+00
      0.  0.0000000E+00  0.0000000E+00  0.0000000E+00  0.0000000E+00  0.0000000E+00  0.0000000E+00
