      14        2 S      600        186.20250         85.99278          1.09431        201.79250      185    7
6371000. -0.1557368E-01 -0.9064025E-01 -0.4361204E-01 -0.2803837E-01  0.2237301E-03  0.2869712E-01
6370000. -0.1555919E-01 -0.9399106E-01 -0.4360521E-01 -0.5901742E-01  0.2192218E-03  0.2874684E-01
6369000. -0.1554417E-01 -0.9731942E-01 -0.4359352E-01 -0.9000079E-01  0.2147059E-03  0.2879560E-01
6368000. -0.1552864E-01 -0.1006252E+00 -0.4357696E-01 -0.1209850E+00  0.2101823E-03  0.2884339E-01
6368000. -0.1552864E-01 -0.1006252E+00 -0.4357696E-01 -0.1209850E+00  0.2101823E-03  0.2884339E-01
6367000. -0.1551258E-01 -0.1039083E+00 -0.4355554E-01 -0.1519667E+00  0.2056513E-03  0.2889021E-01
6366000. -0.1549602E-01 -0.1071685E+00 -0.4352925E-01 -0.1829423E+00  0.2011131E-03  0.2893606E-01
6365000. -0.1547894E-01 -0.1104058E+00 -0.4349811E-01 -0.2139084E+00  0.1965677E-03  0.2898094E-01
6364000. -0.1546136E-01 -0.1136201E+00 -0.4346211E-01 -0.2448616E+00  0.1920153E-03  0.2902485E-01
6363000. -0.1544328E-01 -0.1168112E+00 -0.4342124E-01 -0.2757984E+00  0.1874562E-03  0.2906778E-01
6362000. -0.1542469E-01 -0.1199790E+00 -0.4337553E-01 -0.3067153E+00  0.1828904E-03  0.2910973E-01
6361000. -0.1540561E-01 -0.1231234E+00 -0.4332496E-01 -0.3376088E+00  0.1783180E-03  0.2915070E-01
6360000. -0.1538604E-01 -0.1262444E+00 -0.4326954E-01 -0.3684757E+00  0.1737394E-03  0.2919070E-01
6359000. -0.1536598E-01 -0.1293418E+00 -0.4320928E-01 -0.3993123E+00  0.1691545E-03  0.2922971E-01
6358000. -0.1534544E-01 -0.1324155E+00 -0.4314419E-01 -0.4301152E+00  0.1645635E-03  0.2926773E-01
6357000. -0.1532442E-01 -0.1354654E+00 -0.4307427E-01 -0.4608810E+00  0.1599667E-03  0.2930477E-01
6356000. -0.1530292E-01 -0.1384915E+00 -0.4299951E-01 -0.4916063E+00  0.1553642E-03  0.2934082E-01
6356000. -0.1530292E-01 -0.1103264E+00 -0.4299951E-01 -0.3077364E+00  0.1553642E-03  0.3267056E-01
6355000. -0.1528542E-01 -0.1125676E+00 -0.4294959E-01 -0.3283641E+00  0.1502323E-03  0.3271912E-01
6354000. -0.1526758E-01 -0.1147936E+00 -0.4289643E-01 -0.3489745E+00  0.1450930E-03  0.3276689E-01
6353000. -0.1524939E-01 -0.1170044E+00 -0.4284004E-01 -0.3695659E+00  0.1399461E-03  0.3281386E-01
6352000. -0.1523085E-01 -0.1192000E+00 -0.4278042E-01 -0.3901368E+00  0.1347920E-03  0.3286003E-01
6351000. -0.1521197E-01 -0.1213802E+00 -0.4271757E-01 -0.4106857E+00  0.1296307E-03  0.3290541E-01
6350000. -0.1519275E-01 -0.1235450E+00 -0.4265150E-01 -0.4312110E+00  0.1244623E-03  0.3294998E-01
6349000. -0.1517319E-01 -0.1256945E+00 -0.4258221E-01 -0.4517112E+00  0.1192870E-03  0.3299376E-01
6348000. -0.1515329E-01 -0.1278284E+00 -0.4250970E-01 -0.4721847E+00  0.1141048E-03  0.3303673E-01
6347000. -0.1513306E-01 -0.1299469E+00 -0.4243398E-01 -0.4926300E+00  0.1089160E-03  0.3307889E-01
6346600. -0.1512487E-01 -0.1307899E+00 -0.4240279E-01 -0.5007999E+00  0.1068387E-03  0.3309553E-01
6346600. -0.1512487E-01 -0.1228497E+00 -0.4240279E-01 -0.3470064E+00  0.1068387E-03  0.3836935E-01
6318800. -0.1450090E-01 -0.1616305E+00 -0.3993129E-01 -0.7818584E+00 -0.6324344E-04  0.3949795E-01
6291000. -0.1372776E-01 -0.1911851E+00 -0.3562792E-01 -0.1183459E+01 -0.2370677E-03  0.4008097E-01
6291000. -0.1372776E-01 -0.1955092E+00 -0.3562792E-01 -0.1227138E+01 -0.2370677E-03  0.4008097E-01
6263000. -0.1282127E-01 -0.2154186E+00 -0.2940948E-01 -0.1591788E+01 -0.4133633E-03  0.4004861E-01
6235000. -0.1184772E-01 -0.2261686E+00 -0.2174430E-01 -0.1882886E+01 -0.5882281E-03  0.3942940E-01
6207000. -0.1084511E-01 -0.2288689E+00 -0.1298748E-01 -0.2086580E+01 -0.7590833E-03  0.3822504E-01
6179000. -0.9845571E-02 -0.2250527E+00 -0.3546111E-02 -0.2193155E+01 -0.9233776E-03  0.3644624E-01
6151000. -0.8873764E-02 -0.2165817E+00  0.6139883E-02 -0.2197436E+01 -0.1078626E-02  0.3411227E-01
6151000. -0.8873764E-02 -0.1700383E+00  0.6139883E-02 -0.1926302E+01 -0.1078626E-02  0.3460321E-01
6128500. -0.8294466E-02 -0.1579069E+00  0.1282076E-01 -0.1848755E+01 -0.1197790E-02  0.3283480E-01
6106000. -0.7758737E-02 -0.1455158E+00  0.1914077E-01 -0.1722540E+01 -0.1310232E-02  0.3079903E-01
6083500. -0.7265904E-02 -0.1337565E+00  0.2493508E-01 -0.1551831E+01 -0.1415035E-02  0.2851192E-01
6061000. -0.6812257E-02 -0.1234531E+00  0.3005550E-01 -0.1341869E+01 -0.1511344E-02  0.2599134E-01
6038500. -0.6391328E-02 -0.1153411E+00  0.3437407E-01 -0.1098820E+01 -0.1598366E-02  0.2325654E-01
6016000. -0.5994241E-02 -0.1100429E+00  0.3778588E-01 -0.8295687E+00 -0.1675383E-02  0.2032820E-01
5993500. -0.5610147E-02 -0.1080546E+00  0.4021137E-01 -0.5415137E+00 -0.1741748E-02  0.1722841E-01
5971000. -0.5226678E-02 -0.1097356E+00  0.4159769E-01 -0.2423782E+00 -0.1796896E-02  0.1398013E-01
5971000. -0.5226678E-02 -0.9039985E-01  0.4159769E-01 -0.2101722E+00 -0.1796896E-02  0.1466435E-01
5937667. -0.4745109E-02 -0.9500856E-01  0.4160297E-01  0.2027327E+00 -0.1860845E-02  0.9747669E-02
5904333. -0.4219385E-02 -0.1071308E+00  0.3954786E-01  0.5747252E+00 -0.1898620E-02  0.4672080E-02
5871000. -0.3612841E-02 -0.1256966E+00  0.3568467E-01  0.8920187E+00 -0.1909595E-02 -0.4835078E-03
5837667. -0.2895339E-02 -0.1492867E+00  0.3032535E-01  0.1145491E+01 -0.1893555E-02 -0.5642604E-02
5804333. -0.2044779E-02 -0.1762632E+00  0.2381802E-01  0.1330312E+01 -0.1850672E-02 -0.1073195E-01
5771000. -0.1048042E-02 -0.2048808E+00  0.1652657E-01  0.1445422E+01 -0.1781498E-02 -0.1568199E-01
5771000. -0.1048042E-02 -0.2048784E+00  0.1652657E-01  0.1445375E+01 -0.1781498E-02 -0.1568199E-01
5701000.  0.1629908E-02 -0.2821370E+00 -0.3372758E-03  0.1576725E+01 -0.1554333E-02 -0.2550957E-01
5701000.  0.1629908E-02 -0.2335687E+00 -0.3372758E-03  0.1244809E+01 -0.1554333E-02 -0.2596898E-01
5667333.  0.2894426E-02 -0.2463720E+00 -0.6599140E-02  0.1135787E+01 -0.1406798E-02 -0.2979294E-01
5633667.  0.4248638E-02 -0.2665416E+00 -0.1243075E-01  0.1071382E+01 -0.1240067E-02 -0.3326554E-01
5600000.  0.5702590E-02 -0.2828031E+00 -0.1784800E-01  0.9722712E+00 -0.1055768E-02 -0.3642932E-01
5600000.  0.5702590E-02 -0.2828031E+00 -0.1784800E-01  0.9722712E+00 -0.1055768E-02 -0.3642932E-01
5563518.  0.7359353E-02 -0.2947997E+00 -0.2302431E-01  0.8300879E+00 -0.8382844E-03 -0.3945884E-01
5527037.  0.9065611E-02 -0.2999447E+00 -0.2729686E-01  0.6577452E+00 -0.6047283E-03 -0.4203973E-01
5490556.  0.1077959E-01 -0.2973704E+00 -0.3051260E-01  0.4621883E+00 -0.3577494E-03 -0.4414288E-01
5454074.  0.1245522E-01 -0.2864559E+00 -0.3256021E-01  0.2510535E+00 -0.1001419E-03 -0.4574618E-01
5417593.  0.1404364E-01 -0.2668996E+00 -0.3337355E-01  0.3246150E-01  0.1651621E-03 -0.4683129E-01
5381111.  0.1549520E-01 -0.2386587E+00 -0.3293322E-01 -0.1854703E+00  0.4351813E-03 -0.4738963E-01
5344630.  0.1676074E-01 -0.2020106E+00 -0.3126600E-01 -0.3947766E+00  0.7068726E-03 -0.4741764E-01
5308148.  0.1779369E-01 -0.1575296E+00 -0.2844276E-01 -0.5880249E+00  0.9772157E-03 -0.4691730E-01
5271667.  0.1855145E-01 -0.1060666E+00 -0.2457544E-01 -0.7584187E+00  0.1243200E-02 -0.4589984E-01
5235185.  0.1899716E-01 -0.4873578E-01 -0.1981173E-01 -0.9002068E+00  0.1501916E-02 -0.4437897E-01
5198704.  0.1910091E-01  0.1312756E-01 -0.1432951E-01 -0.1008729E+01  0.1750520E-02 -0.4237463E-01
5162222.  0.1884107E-01  0.7799121E-01 -0.8329776E-02 -0.1080443E+01  0.1986338E-02 -0.3991538E-01
5125741.  0.1820514E-01  0.1442055E+00 -0.2029986E-02 -0.1113370E+01  0.2206828E-02 -0.3702855E-01
5089259.  0.1719032E-01  0.2100247E+00  0.4345377E-02 -0.1106753E+01  0.2409652E-02 -0.3374904E-01
5052778.  0.1580408E-01  0.2736509E+00  0.1057048E-01 -0.1061175E+01  0.2592661E-02 -0.3011606E-01
5016296.  0.1406387E-01  0.3333537E+00  0.1642781E-01 -0.9786767E+00  0.2753950E-02 -0.2616829E-01
4979815.  0.1199717E-01  0.3874314E+00  0.2171405E-01 -0.8623783E+00  0.2891833E-02 -0.2194989E-01
4943333.  0.9640597E-02  0.4343378E+00  0.2624763E-01 -0.7165493E+00  0.3004896E-02 -0.1750538E-01
4906852.  0.7039294E-02  0.4727191E+00  0.2987384E-01 -0.5464215E+00  0.3091966E-02 -0.1287996E-01
4870370.  0.4245464E-02  0.5013827E+00  0.3247018E-01 -0.3578515E+00  0.3152147E-02 -0.8120982E-02
4833889.  0.1317547E-02  0.5194603E+00  0.3394932E-01 -0.1573464E+00  0.3184805E-02 -0.3274902E-02
4797407. -0.1682162E-02  0.5263454E+00  0.3426224E-01  0.4834764E-01  0.3189574E-02  0.1612432E-02
4760926. -0.4688230E-02  0.5216858E+00  0.3339884E-01  0.2523709E+00  0.3166348E-02  0.6495158E-02
4724444. -0.7634697E-02  0.5055314E+00  0.3138797E-01  0.4480222E+00  0.3115282E-02  0.1132875E-01
4687963. -0.1045633E-01  0.4781875E+00  0.2829614E-01  0.6289197E+00  0.3036784E-02  0.1607051E-01
4651482. -0.1309074E-01  0.4402694E+00  0.2422483E-01  0.7892165E+00  0.2931492E-02  0.2067998E-01
4615000. -0.1548003E-01  0.3927258E+00  0.1930674E-01  0.9238566E+00  0.2800278E-02  0.2511722E-01
4578518. -0.1757224E-01  0.3367214E+00  0.1370160E-01  0.1028541E+01  0.2644233E-02  0.2934676E-01
4542037. -0.1932283E-01  0.2736869E+00  0.7590973E-02  0.1100025E+01  0.2464651E-02  0.3333409E-01
4505556. -0.2069621E-01  0.2052450E+00  0.1171376E-02  0.1136176E+01  0.2263010E-02  0.3704654E-01
4469074. -0.2166634E-01  0.1331362E+00 -0.5351170E-02  0.1135835E+01  0.2040953E-02  0.4045831E-01
4432593. -0.2221752E-01  0.5924198E-01 -0.1176723E-01  0.1099168E+01  0.1800296E-02  0.4354077E-01
4396111. -0.2234501E-01 -0.1453788E-01 -0.1787214E-01  0.1027379E+01  0.1542981E-02  0.4627110E-01
4359630. -0.2205489E-01 -0.8630201E-01 -0.2347024E-01  0.9226789E+00  0.1271089E-02  0.4863142E-01
4323148. -0.2136401E-01 -0.1542106E+00 -0.2838253E-01  0.7884233E+00  0.9867828E-03  0.5060114E-01
4286667. -0.2029951E-01 -0.2165329E+00 -0.3245096E-01  0.6287320E+00  0.6923566E-03  0.5216721E-01
4250185. -0.1889789E-01 -0.2717008E+00 -0.3554371E-01  0.4484888E+00  0.3901365E-03  0.5331841E-01
4213704. -0.1720419E-01 -0.3183578E+00 -0.3755856E-01  0.2532300E+00  0.8254866E-04  0.5404367E-01
4177222. -0.1527039E-01 -0.3553751E+00 -0.3842630E-01  0.4883336E-01 -0.2279700E-03  0.5433844E-01
4140741. -0.1315437E-01 -0.3819098E+00 -0.3811219E-01 -0.1585183E+00 -0.5389244E-03  0.5419810E-01
4104259. -0.1091770E-01 -0.3974280E+00 -0.3661707E-01 -0.3626259E+00 -0.8478313E-03  0.5362055E-01
4067778. -0.8624475E-02 -0.4016692E+00 -0.3397723E-01 -0.5573542E+00 -0.1152178E-02  0.5260890E-01
4031296. -0.6338995E-02 -0.3947483E+00 -0.3026295E-01 -0.7369440E+00 -0.1449503E-02  0.5116553E-01
3994815. -0.4124250E-02 -0.3770739E+00 -0.2557660E-01 -0.8960625E+00 -0.1737332E-02  0.4929661E-01
3958333. -0.2039878E-02 -0.3493371E+00 -0.2004919E-01 -0.1029924E+01 -0.2013271E-02  0.4701138E-01
3921852. -0.1407641E-03 -0.3125804E+00 -0.1383720E-01 -0.1134641E+01 -0.2274949E-02  0.4432032E-01
3885370.  0.1525036E-02 -0.2680570E+00 -0.7116595E-02 -0.1207046E+01 -0.2520093E-02  0.4123646E-01
3848889.  0.2917127E-02 -0.2172649E+00 -0.7966327E-04 -0.1244922E+01 -0.2746484E-02  0.3777544E-01
3812407.  0.4004503E-02 -0.1619091E+00  0.7072653E-02 -0.1247161E+01 -0.2952025E-02  0.3395494E-01
3775926.  0.4766102E-02 -0.1038004E+00  0.1413462E-01 -0.1213477E+01 -0.3134700E-02  0.2979446E-01
3739444.  0.5191687E-02 -0.4487038E-01  0.2090289E-01 -0.1144758E+01 -0.3292634E-02  0.2531601E-01
3702963.  0.5282184E-02  0.1291148E-01  0.2718149E-01 -0.1042878E+01 -0.3424069E-02  0.2054411E-01
3666482.  0.5049697E-02  0.6762176E-01  0.3278778E-01 -0.9104694E+00 -0.3527396E-02  0.1550356E-01
3630000.  0.4517250E-02  0.1173712E+00  0.3755725E-01 -0.7512228E+00 -0.3601162E-02  0.1022289E-01
3630000.  0.4517250E-02  0.1173712E+00  0.3755725E-01 -0.7512228E+00 -0.3601162E-02  0.1022289E-01
3592500.  0.3692606E-02  0.1615075E+00  0.4143858E-01 -0.5640622E+00 -0.3644814E-02  0.4575150E-02
3555000.  0.2633266E-02  0.1968509E+00  0.4416127E-01 -0.3584864E+00 -0.3654650E-02 -0.1261588E-02
3517500.  0.1395455E-02  0.2219302E+00  0.4563427E-01 -0.1404564E+00 -0.3629662E-02 -0.7251405E-02
3480000.  0.4315595E-04  0.2355852E+00  0.4580255E-01  0.8377389E-01 -0.3569057E-02 -0.1335761E-01
3480000.  0.4315595E-04  0.1167893E-03 -0.7435826E-05  0.9263711E-04 -0.3569057E-02 -0.1349523E-01
3409422.  0.3957896E-04  0.5221145E-03 -0.8454093E-05  0.8978183E-04 -0.3421129E-02 -0.1320594E-01
3338844.  0.3178918E-04  0.8731663E-03 -0.9394248E-05  0.7860817E-04 -0.3276583E-02 -0.1288503E-01
3268266.  0.2051484E-04  0.1148148E-02 -0.1016759E-04  0.5982771E-04 -0.3135748E-02 -0.1253695E-01
3197688.  0.6687267E-05  0.1332246E-02 -0.1069609E-04  0.3464166E-04 -0.2998892E-02 -0.1216794E-01
3127109. -0.8637644E-05  0.1417727E-02 -0.1091731E-04  0.4643263E-05 -0.2866203E-02 -0.1178551E-01
3056531. -0.2435576E-04  0.1403654E-02 -0.1078812E-04 -0.2828801E-04 -0.2737789E-02 -0.1139786E-01
2985953. -0.3938801E-04  0.1295240E-02 -0.1028729E-04 -0.6210219E-04 -0.2613660E-02 -0.1101331E-01
2915375. -0.5274289E-04  0.1102955E-02 -0.9416709E-05 -0.9469210E-04 -0.2493737E-02 -0.1063980E-01
2844797. -0.6356920E-04  0.8414726E-03 -0.8201407E-05 -0.1240057E-03 -0.2377858E-02 -0.1028440E-01
2774219. -0.7119619E-04  0.5284965E-03 -0.6688370E-05 -0.1481460E-03 -0.2265787E-02 -0.9952976E-02
2703641. -0.7516055E-04  0.1835781E-03 -0.4944328E-05 -0.1654600E-03 -0.2157235E-02 -0.9649849E-02
2633062. -0.7522033E-04 -0.1730558E-03 -0.3052590E-05 -0.1746133E-03 -0.2051869E-02 -0.9377650E-02
2562484. -0.7135649E-04 -0.5215694E-03 -0.1109298E-05 -0.1746455E-03 -0.1949344E-02 -0.9137235E-02
2491906. -0.6376280E-04 -0.8435178E-03  0.7811075E-06 -0.1650104E-03 -0.1849310E-02 -0.8927681E-02
2421328. -0.5282594E-04 -0.1122653E-02  0.2510512E-05 -0.1455964E-03 -0.1751438E-02 -0.8746412E-02
2350750. -0.3909719E-04 -0.1345595E-02  0.3971968E-05 -0.1167248E-03 -0.1655435E-02 -0.8589381E-02
2280172. -0.2325798E-04 -0.1502293E-02  0.5064438E-05 -0.7913820E-04 -0.1561061E-02 -0.8451323E-02
2209594. -0.6081140E-05 -0.1586328E-02  0.5697309E-05 -0.3396794E-04 -0.1468140E-02 -0.8326055E-02
2139016.  0.1161005E-04 -0.1595019E-02  0.5794437E-05  0.1731168E-04 -0.1376566E-02 -0.8206815E-02
2068438.  0.2898324E-04 -0.1529378E-02  0.5297657E-05  0.7294252E-04 -0.1286313E-02 -0.8086602E-02
1997859.  0.4523675E-04 -0.1393850E-02  0.4169510E-05  0.1309498E-03 -0.1197427E-02 -0.7958533E-02
1927281.  0.5963520E-04 -0.1196006E-02  0.2395373E-05  0.1892100E-03 -0.1110035E-02 -0.7816172E-02
1856703.  0.7154269E-04 -0.9460232E-03 -0.1549204E-07  0.2455377E-03 -0.1024326E-02 -0.7653817E-02
1786125.  0.8044782E-04 -0.6561452E-03 -0.3029589E-05  0.2977588E-03 -0.9405484E-03 -0.7466767E-02
1715547.  0.8598333E-04 -0.3400437E-03 -0.6589756E-05  0.3437879E-03 -0.8589965E-03 -0.7251513E-02
1644969.  0.8793832E-04 -0.1216084E-04 -0.1061657E-04  0.3817016E-03 -0.7799961E-03 -0.7005884E-02
1574391.  0.8626304E-04  0.3129581E-03 -0.1501047E-04  0.4098018E-03 -0.7038891E-03 -0.6729125E-02
1503812.  0.8106634E-04  0.6213213E-03 -0.1965470E-04  0.4266723E-03 -0.6310171E-03 -0.6421899E-02
1433234.  0.7260651E-04  0.9000769E-03 -0.2441834E-04  0.4312187E-03 -0.5617095E-03 -0.6086263E-02
1362656.  0.6127494E-04  0.1138089E-02 -0.2916050E-04  0.4227007E-03 -0.4962625E-03 -0.5725536E-02
1292078.  0.4757487E-04  0.1326388E-02 -0.3373400E-04  0.4007318E-03 -0.4349307E-03 -0.5344163E-02
1221500.  0.3209510E-04  0.1458557E-02 -0.3798931E-04  0.3652827E-03 -0.3779136E-03 -0.4947525E-02
1221500.  0.3209510E-04  0.6522661E-03 -0.6369105E-04 -0.4995936E-03 -0.3779136E-03 -0.4961429E-02
1183328.  0.2772716E-04  0.8211276E-03 -0.5915753E-04 -0.9934616E-03 -0.3488609E-03 -0.4736227E-02
1145156.  0.2208274E-04  0.1076068E-02 -0.5208965E-04 -0.1336071E-02 -0.3211615E-03 -0.4509848E-02
1106984.  0.1470034E-04  0.1396831E-02 -0.4354432E-04 -0.1480711E-02 -0.2948198E-03 -0.4283185E-02
1068812.  0.5276739E-05  0.1751169E-02 -0.3478874E-04 -0.1404693E-02 -0.2698347E-03 -0.4057135E-02
1030641. -0.6268202E-05  0.2097535E-02 -0.2714554E-04 -0.1112522E-02 -0.2462005E-03 -0.3832595E-02
 992469. -0.1974841E-04  0.2389029E-02 -0.2182789E-04 -0.6357206E-03 -0.2239044E-03 -0.3610420E-02
 954297. -0.3469119E-04  0.2578031E-02 -0.1978729E-04 -0.2952136E-04 -0.2029303E-03 -0.3391452E-02
 916125. -0.5034984E-04  0.2621441E-02 -0.2158798E-04  0.6333592E-03 -0.1832565E-03 -0.3176484E-02
 877953. -0.6574525E-04  0.2485582E-02 -0.2732652E-04  0.1271032E-02 -0.1648569E-03 -0.2966252E-02
 839781. -0.7973600E-04  0.2150590E-02 -0.3660480E-04  0.1801869E-02 -0.1477010E-03 -0.2761431E-02
 801609. -0.9111135E-04  0.1613620E-02 -0.4856038E-04  0.2154045E-02 -0.1317545E-03 -0.2562626E-02
 763438. -0.9869913E-04  0.8905979E-03 -0.6195092E-04  0.2273956E-02 -0.1169802E-03 -0.2370368E-02
 725266. -0.1014797E-03  0.1616902E-04 -0.7528564E-04  0.2132798E-02 -0.1033367E-03 -0.2185099E-02
 687094. -0.9869278E-04 -0.9579657E-03 -0.8698428E-04  0.1730238E-02 -0.9078134E-04 -0.2007189E-02
 648922. -0.8993070E-04 -0.1966612E-02 -0.9555290E-04  0.1095129E-02 -0.7926917E-04 -0.1836922E-02
 610750. -0.7520492E-04 -0.2935946E-02 -0.9975203E-04  0.2828802E-03 -0.6875373E-04 -0.1674501E-02
 572578. -0.5498040E-04 -0.3789474E-02 -0.9874057E-04 -0.6300862E-03 -0.5918764E-04 -0.1520042E-02
 534406. -0.3017235E-04 -0.4454489E-02 -0.9217905E-04 -0.1554223E-02 -0.5052301E-04 -0.1373584E-02
 496234. -0.2104121E-05 -0.4868491E-02 -0.8028057E-04 -0.2396252E-02 -0.4271202E-04 -0.1235082E-02
 458062.  0.2757174E-04 -0.4984977E-02 -0.6380358E-04 -0.3069061E-02 -0.3570731E-04 -0.1104413E-02
 419891.  0.5698323E-04 -0.4778104E-02 -0.4398692E-04 -0.3501018E-02 -0.2946268E-04 -0.9813796E-03
 381719.  0.8417564E-04 -0.4245688E-02 -0.2243061E-04 -0.3643794E-02 -0.2393288E-04 -0.8656944E-03
 343547.  0.1072532E-03 -0.3410395E-02 -0.9421639E-06 -0.3477650E-02 -0.1907505E-04 -0.7570044E-03
 305375.  0.1245295E-03 -0.2318819E-02  0.1864603E-04 -0.3013971E-02 -0.1484854E-04 -0.6548772E-03
 267203.  0.1346619E-03 -0.1038545E-02  0.3466155E-04 -0.2294376E-02 -0.1121552E-04 -0.5588079E-03
 229031.  0.1367644E-03  0.3465602E-03  0.4576291E-04 -0.1386803E-02 -0.8141368E-05 -0.4682208E-03
 190859.  0.1304871E-03  0.1742525E-02  0.5107836E-04 -0.3787979E-03 -0.5595139E-05 -0.3824724E-03
 152688.  0.1160564E-03  0.3052354E-02  0.5029799E-04  0.6312343E-03 -0.3549968E-05 -0.3008614E-03
 114516.  0.9426832E-04  0.4183628E-02  0.4370891E-04  0.1544084E-02 -0.1983212E-05 -0.2226269E-03
  76344.  0.6644307E-04  0.5055458E-02  0.3217061E-04  0.2269538E-02 -0.8770718E-06 -0.1469683E-03
  38172.  0.3433361E-04  0.5605091E-02  0.1703251E-04  0.2735614E-02 -0.2186109E-06 -0.7304828E-04
      0.  0.0000000E+00  0.5793000E-02  0.0000000E+00  0.2896344E-02  0.0000000E+00  0.0000000E+00
