       7       29 S      430        114.66620         11.83396          7.47727        257.76620      185    7
6371000.  0.6070545E-01  0.5913049E-01  0.3124919E-03 -0.6039296E-01 -0.6279543E-03 -0.9563765E-01
6370000.  0.6069320E-01  0.9697336E-01  0.3219350E-03 -0.5992602E-01 -0.6129453E-03 -0.9560559E-01
6369000.  0.6067501E-01  0.1347737E+00  0.3313026E-03 -0.5943193E-01 -0.5979419E-03 -0.9556679E-01
6368000.  0.6065089E-01  0.1725259E+00  0.3405906E-03 -0.5891079E-01 -0.5829451E-03 -0.9552123E-01
6368000.  0.6065089E-01  0.1725259E+00  0.3405906E-03 -0.5891079E-01 -0.5829451E-03 -0.9552123E-01
6367000.  0.6062085E-01  0.2102241E+00  0.3497947E-03 -0.5836275E-01 -0.5679560E-03 -0.9546895E-01
6366000.  0.6058490E-01  0.2478627E+00  0.3589106E-03 -0.5778793E-01 -0.5529756E-03 -0.9540990E-01
6365000.  0.6054305E-01  0.2854359E+00  0.3679342E-03 -0.5718647E-01 -0.5380050E-03 -0.9534410E-01
6364000.  0.6049530E-01  0.3229381E+00  0.3768613E-03 -0.5655853E-01 -0.5230453E-03 -0.9527156E-01
6363000.  0.6044167E-01  0.3603636E+00  0.3856878E-03 -0.5590427E-01 -0.5080975E-03 -0.9519225E-01
6362000.  0.6038218E-01  0.3977067E+00  0.3944096E-03 -0.5522383E-01 -0.4931627E-03 -0.9510619E-01
6361000.  0.6031683E-01  0.4349620E+00  0.4030225E-03 -0.5451741E-01 -0.4782419E-03 -0.9501337E-01
6360000.  0.6024564E-01  0.4721237E+00  0.4115224E-03 -0.5378518E-01 -0.4633362E-03 -0.9491379E-01
6359000.  0.6016862E-01  0.5091863E+00  0.4199055E-03 -0.5302733E-01 -0.4484466E-03 -0.9480745E-01
6358000.  0.6008580E-01  0.5461442E+00  0.4281676E-03 -0.5224406E-01 -0.4335743E-03 -0.9469435E-01
6357000.  0.5999718E-01  0.5829921E+00  0.4363047E-03 -0.5143557E-01 -0.4187203E-03 -0.9457450E-01
6356000.  0.5990279E-01  0.6197242E+00  0.4443130E-03 -0.5060208E-01 -0.4038856E-03 -0.9444790E-01
6356000.  0.5990279E-01  0.4277005E+00  0.4443130E-03 -0.5416842E-01 -0.4038856E-03 -0.1074820E+00
6355000.  0.5983352E-01  0.4549539E+00  0.4527745E-03 -0.5364493E-01 -0.3870211E-03 -0.1074054E+00
6354000.  0.5975997E-01  0.4821406E+00  0.4611526E-03 -0.5310543E-01 -0.3701689E-03 -0.1073246E+00
6353000.  0.5968217E-01  0.5092574E+00  0.4694447E-03 -0.5255002E-01 -0.3533297E-03 -0.1072395E+00
6352000.  0.5960011E-01  0.5363012E+00  0.4776483E-03 -0.5197879E-01 -0.3365042E-03 -0.1071502E+00
6351000.  0.5951381E-01  0.5632690E+00  0.4857611E-03 -0.5139183E-01 -0.3196931E-03 -0.1070566E+00
6350000.  0.5942329E-01  0.5901577E+00  0.4937806E-03 -0.5078925E-01 -0.3028970E-03 -0.1069589E+00
6349000.  0.5932856E-01  0.6169644E+00  0.5017042E-03 -0.5017115E-01 -0.2861165E-03 -0.1068569E+00
6348000.  0.5922962E-01  0.6436859E+00  0.5095296E-03 -0.4953762E-01 -0.2693524E-03 -0.1067507E+00
6347000.  0.5912649E-01  0.6703194E+00  0.5172544E-03 -0.4888878E-01 -0.2526053E-03 -0.1066403E+00
6346600.  0.5908407E-01  0.6809474E+00  0.5203156E-03 -0.4862499E-01 -0.2459113E-03 -0.1065950E+00
6346600.  0.5908407E-01  0.4826632E+00  0.5203156E-03 -0.5192683E-01 -0.2459113E-03 -0.1271967E+00
6318800.  0.5577017E-01  0.1026837E+01  0.7125174E-03 -0.3477671E-01  0.3044661E-03 -0.1247627E+00
6291000.  0.5023411E-01  0.1494722E+01  0.8130713E-03 -0.1026927E-01  0.8402361E-03 -0.1205004E+00
6291000.  0.5023411E-01  0.1519307E+01  0.8130713E-03 -0.8917259E-02  0.8402361E-03 -0.1205004E+00
6263000.  0.4271773E-01  0.1878891E+01  0.7856243E-03  0.2198253E-01  0.1356393E-02 -0.1140730E+00
6235000.  0.3393131E-01  0.2094056E+01  0.6174027E-03  0.5454251E-01  0.1840241E-02 -0.1058204E+00
6207000.  0.2454103E-01  0.2152990E+01  0.3091820E-03  0.8507429E-01  0.2284107E-02 -0.9591182E-01
6179000.  0.1523110E-01  0.2059416E+01 -0.1221493E-03  0.1100006E+00  0.2681201E-02 -0.8457954E-01
6151000.  0.6635332E-02  0.1832367E+01 -0.6449426E-03  0.1262442E+00  0.3025874E-02 -0.7210681E-01
6151000.  0.6635332E-02  0.1430363E+01 -0.6449426E-03  0.1100656E+00  0.3025874E-02 -0.7247391E-01
6128500.  0.2014043E-02  0.1180962E+01 -0.1042048E-02  0.1139035E+00  0.3268890E-02 -0.6511675E-01
6106000. -0.1675647E-02  0.9057226E+00 -0.1442918E-02  0.1121850E+00  0.3485635E-02 -0.5761110E-01
6083500. -0.4373982E-02  0.6225051E+00 -0.1827986E-02  0.1049951E+00  0.3675734E-02 -0.5003995E-01
6061000. -0.6083931E-02  0.3488045E+00 -0.2178538E-02  0.9272845E-01  0.3839098E-02 -0.4248409E-01
6038500. -0.6868173E-02  0.1007841E+00 -0.2477756E-02  0.7605620E-01  0.3975921E-02 -0.3502219E-01
6016000. -0.6842781E-02 -0.1076140E+00 -0.2711608E-02  0.5587656E-01  0.4086670E-02 -0.2773119E-01
5993500. -0.6168121E-02 -0.2653413E+00 -0.2869548E-02  0.3325458E-01  0.4172083E-02 -0.2068627E-01
5971000. -0.5037711E-02 -0.3647453E+00 -0.2944992E-02  0.9357145E-02  0.4233159E-02 -0.1396140E-01
5971000. -0.5037711E-02 -0.4167871E+00 -0.2944992E-02  0.8572291E-02  0.4233159E-02 -0.1330192E-01
5937667. -0.2686671E-02 -0.4615327E+00 -0.2909293E-02 -0.2150771E-01  0.4275625E-02 -0.3078527E-02
5904333. -0.4044867E-03 -0.3938703E+00 -0.2729289E-02 -0.4625375E-01  0.4267007E-02  0.6208267E-02
5871000.  0.1281957E-02 -0.2385542E+00 -0.2437283E-02 -0.6415418E-01  0.4212459E-02  0.1446542E-01
5837667.  0.1991738E-02 -0.2579557E-01 -0.2070953E-02 -0.7464252E-01  0.4117565E-02  0.2162042E-01
5804333.  0.1506911E-02  0.2129204E+00 -0.1668764E-02 -0.7795390E-01  0.3988231E-02  0.2762323E-01
5771000. -0.2298262E-03  0.4481815E+00 -0.1266304E-02 -0.7493069E-01  0.3830568E-02  0.3244852E-01
5771000. -0.2298262E-03  0.4481313E+00 -0.1266304E-02 -0.7492828E-01  0.3830568E-02  0.3244852E-01
5701000. -0.7844415E-02  0.9084535E+00 -0.5181480E-03 -0.5818515E-01  0.3433442E-02  0.3909868E-01
5701000. -0.7844415E-02  0.7294301E+00 -0.5181480E-03 -0.4429593E-01  0.3433442E-02  0.4130974E-01
5667333. -0.1184075E-01  0.7806396E+00 -0.3219589E-03 -0.3058441E-01  0.3213326E-02  0.4178788E-01
5633667. -0.1607529E-01  0.8168622E+00 -0.1895936E-03 -0.1967788E-01  0.2993112E-02  0.4148883E-01
5600000. -0.2037850E-01  0.8026959E+00 -0.1145150E-03 -0.8751150E-02  0.2775620E-02  0.4074848E-01
5600000. -0.2037850E-01  0.8026959E+00 -0.1145150E-03 -0.8751150E-02  0.2775620E-02  0.4074848E-01
5563518. -0.2479682E-01  0.7310347E+00 -0.9682292E-04  0.2394923E-02  0.2545688E-02  0.3948794E-01
5527037. -0.2864797E-01  0.6057490E+00 -0.1393110E-03  0.1216786E-01  0.2324129E-02  0.3784036E-01
5490556. -0.3164708E-01  0.4350401E+00 -0.2325355E-03  0.2004136E-01  0.2112906E-02  0.3589243E-01
5454074. -0.3356409E-01  0.2297843E+00 -0.3645011E-03  0.2565110E-01  0.1913487E-02  0.3372799E-01
5417593. -0.3423721E-01  0.2824995E-02 -0.5215947E-03  0.2880118E-01  0.1726920E-02  0.3141779E-01
5381111. -0.3358106E-01 -0.2321942E+00 -0.6895917E-03  0.2946712E-01  0.1553819E-02  0.2903377E-01
5344630. -0.3158903E-01 -0.4615297E+00 -0.8545601E-03  0.2777821E-01  0.1394438E-02  0.2663678E-01
5308148. -0.2833110E-01 -0.6722733E+00 -0.1003715E-02  0.2399544E-01  0.1248694E-02  0.2427723E-01
5271667. -0.2394751E-01 -0.8529869E+00 -0.1126066E-02  0.1848637E-01  0.1116242E-02  0.2200260E-01
5235185. -0.1863773E-01 -0.9943746E+00 -0.1212968E-02  0.1168983E-01  0.9964866E-03  0.1984596E-01
5198704. -0.1264799E-01 -0.1089610E+01 -0.1258399E-02  0.4084186E-02  0.8886848E-03  0.1783261E-01
5162222. -0.6255528E-02 -0.1134523E+01 -0.1259131E-02 -0.3841873E-02  0.7919478E-03  0.1598263E-01
5125741.  0.2461704E-03 -0.1127840E+01 -0.1214683E-02 -0.1162214E-01  0.7053170E-03  0.1430455E-01
5089259.  0.6564601E-02 -0.1070873E+01 -0.1127115E-02 -0.1883667E-01  0.6277929E-03  0.1280105E-01
5052778.  0.1242106E-01 -0.9673581E+00 -0.1000729E-02 -0.2512776E-01  0.5583870E-03  0.1146887E-01
5016296.  0.1756526E-01 -0.8231678E+00 -0.8416389E-03 -0.3021870E-01  0.4961334E-03  0.1030062E-01
4979815.  0.2178469E-01 -0.6457587E+00 -0.6573179E-03 -0.3391725E-01  0.4401324E-03  0.9283092E-02
4943333.  0.2491362E-01 -0.4437581E+00 -0.4560681E-03 -0.3611951E-01  0.3895608E-03  0.8401437E-02
4906852.  0.2683753E-01 -0.2264650E+00 -0.2465614E-03 -0.3680669E-01  0.3436840E-03  0.7640732E-02
4870370.  0.2749593E-01 -0.3299026E-02 -0.3733048E-04 -0.3603672E-01  0.3018659E-03  0.6980304E-02
4833889.  0.2688164E-01  0.2165790E+00  0.1635976E-03 -0.3393433E-01  0.2635793E-03  0.6405456E-02
4797407.  0.2503800E-01  0.4247423E+00  0.3490909E-03 -0.3067717E-01  0.2283750E-03  0.5900255E-02
4760926.  0.2205409E-01  0.6137330E+00  0.5131332E-03 -0.2648237E-01  0.1959104E-03  0.5446548E-02
4724444.  0.1805768E-01  0.7774476E+00  0.6510451E-03 -0.2159029E-01  0.1659203E-03  0.5033993E-02
4687963.  0.1320794E-01  0.9111593E+00  0.7595410E-03 -0.1625109E-01  0.1382037E-03  0.4650790E-02
4651482.  0.7686481E-02  0.1011665E+01  0.8367756E-03 -0.1071174E-01  0.1126222E-03  0.4287058E-02
4615000.  0.1688627E-02  0.1077348E+01  0.8822774E-03 -0.5203760E-02  0.8908043E-04  0.3937255E-02
4578518. -0.4584699E-02  0.1107954E+01  0.8968303E-03  0.6552690E-04  0.6751396E-04  0.3596534E-02
4542037. -0.1093508E-01  0.1104619E+01  0.8823246E-03  0.4918937E-02  0.4787984E-04  0.3262179E-02
4505556. -0.1717448E-01  0.1069648E+01  0.8415635E-03  0.9215833E-02  0.3014611E-04  0.2932905E-02
4469074. -0.2313056E-01  0.1006209E+01  0.7780406E-03  0.1285443E-01  0.1427626E-04  0.2611299E-02
4432593. -0.2865112E-01  0.9183041E+00  0.6957380E-03  0.1576784E-01  0.2277823E-06  0.2296813E-02
4396111. -0.3360897E-01  0.8103784E+00  0.5989024E-03  0.1792795E-01 -0.1204580E-04  0.1992371E-02
4359630. -0.3790252E-01  0.6871222E+00  0.4918484E-03  0.1934092E-01 -0.2262310E-04  0.1704833E-02
4323148. -0.4145798E-01  0.5533413E+00  0.3787746E-03  0.2003694E-01 -0.3159793E-04  0.1432795E-02
4286667. -0.4422832E-01  0.4136764E+00  0.2636362E-03  0.2007470E-01 -0.3907541E-04  0.1183385E-02
4250185. -0.4619257E-01  0.2724670E+00  0.1499840E-03  0.1953008E-01 -0.4520439E-04  0.9618325E-03
4213704. -0.4735332E-01  0.1336612E+00  0.4092215E-04  0.1848789E-01 -0.5014215E-04  0.7681609E-03
4177222. -0.4773438E-01  0.6578678E-03 -0.6098461E-04  0.1704659E-01 -0.5407351E-04  0.6115279E-03
4140741. -0.4737737E-01 -0.1237133E+00 -0.1537238E-03  0.1530232E-01 -0.5722044E-04  0.4940475E-03
4104259. -0.4633829E-01 -0.2372482E+00 -0.2358300E-03  0.1334796E-01 -0.5980882E-04  0.4179884E-03
4067778. -0.4468415E-01 -0.3383375E+00 -0.3063734E-03  0.1127892E-01 -0.6211239E-04  0.3957401E-03
4031296. -0.4248917E-01 -0.4260176E+00 -0.3649264E-03  0.9171160E-02 -0.6444327E-04  0.4276386E-03
3994815. -0.3983177E-01 -0.4998380E+00 -0.4114643E-03  0.7094293E-02 -0.6712780E-04  0.5218310E-03
3958333. -0.3679130E-01 -0.5598377E+00 -0.4463531E-03  0.5110314E-02 -0.7057095E-04  0.6942938E-03
3921852. -0.3344578E-01 -0.6065266E+00 -0.4702391E-03  0.3257061E-02 -0.7524010E-04  0.9520176E-03
3885370. -0.2986911E-01 -0.6406906E+00 -0.4839646E-03  0.1565604E-02 -0.8167498E-04  0.1315049E-02
3848889. -0.2613034E-01 -0.6633744E+00 -0.4885090E-03  0.5098185E-04 -0.9054889E-04  0.1807915E-02
3812407. -0.2229156E-01 -0.6757905E+00 -0.4848769E-03 -0.1291773E-02 -0.1026780E-03  0.2457827E-02
3775926. -0.1840837E-01 -0.6791149E+00 -0.4740181E-03 -0.2477156E-02 -0.1190808E-03  0.3308840E-02
3739444. -0.1452931E-01 -0.6744873E+00 -0.4567401E-03 -0.3541676E-02 -0.1410561E-03  0.4413821E-02
3702963. -0.1069739E-01 -0.6628010E+00 -0.4335812E-03 -0.4542219E-02 -0.1702462E-03  0.5842985E-02
3666482. -0.6951467E-02 -0.6444843E+00 -0.4047010E-03 -0.5555357E-02 -0.2087746E-03  0.7693650E-02
3630000. -0.3329390E-02 -0.6194214E+00 -0.3697252E-03 -0.6692465E-02 -0.2593964E-03  0.1009036E-01
3630000. -0.3329390E-02 -0.6194214E+00 -0.3697252E-03 -0.6692465E-02 -0.2593964E-03  0.1009036E-01
3592500.  0.2211213E-03 -0.5854564E+00 -0.3262408E-03 -0.8147629E-02 -0.3278106E-03  0.1329951E-01
3555000.  0.3541311E-02 -0.5405730E+00 -0.2728112E-03 -0.1011540E-01 -0.4179080E-03  0.1750440E-01
3517500.  0.6554261E-02 -0.4800447E+00 -0.2055520E-03 -0.1290778E-01 -0.5364563E-03  0.2302885E-01
3480000.  0.9146553E-02 -0.3960043E+00 -0.1183964E-03 -0.1696178E-01 -0.6924350E-03  0.3030601E-01
3480000.  0.9146553E-02  0.2555884E+00  0.4919308E-03  0.1583582E-01 -0.6924350E-03  0.1138670E-02
3409422.  0.6606204E-02  0.2032171E+00  0.3401372E-03  0.1170501E-01 -0.6329648E-03 -0.9907067E-02
3338844.  0.4629745E-02  0.1546097E+00  0.2295525E-03  0.8394469E-02 -0.5036131E-03 -0.1252149E-01
3268266.  0.3153805E-02  0.1131998E+00  0.1513053E-03  0.5852305E-02 -0.3689935E-03 -0.1141922E-01
3197688.  0.2090942E-02  0.8006923E-01  0.9744382E-04  0.3971647E-02 -0.2550970E-03 -0.9059953E-02
3127109.  0.1350435E-02  0.5486167E-01  0.6133254E-04  0.2626361E-02 -0.1684974E-03 -0.6613950E-02
3056531.  0.8501701E-03  0.3648263E-01  0.3773263E-04  0.1693494E-02 -0.1070996E-03 -0.4551413E-02
2985953.  0.5219186E-03  0.2357718E-01  0.2268914E-04  0.1065240E-02 -0.6578986E-04 -0.2989398E-02
2915375.  0.3124948E-03  0.1482104E-01  0.1333304E-04  0.6537996E-03 -0.3916215E-04 -0.1887306E-02
2844797.  0.1824847E-03  0.9067567E-02  0.7654817E-05  0.3915593E-03 -0.2262683E-04 -0.1150175E-02
2774219.  0.1039166E-03  0.5400759E-02  0.4292094E-05  0.2288006E-03 -0.1270116E-04 -0.6783851E-03
2703641.  0.5768784E-04  0.3131809E-02  0.2349193E-05  0.1304091E-03 -0.6929859E-05 -0.3878440E-03
2633062.  0.3120508E-04  0.1767850E-02  0.1254345E-05  0.7247204E-04 -0.3675362E-05 -0.2151168E-03
2562484.  0.1643843E-04  0.9711116E-03  0.6529206E-06  0.3924801E-04 -0.1894466E-05 -0.1157946E-03
2491906.  0.8426938E-05  0.5188514E-03  0.3310399E-06  0.2069902E-04 -0.9485948E-06 -0.6048971E-04
2421328.  0.4200273E-05  0.2694485E-03  0.1633276E-06  0.1062212E-04 -0.4610892E-06 -0.3065502E-04
2350750.  0.2033496E-05  0.1358949E-03  0.7832905E-07  0.5298903E-05 -0.2173770E-06 -0.1506192E-04
2280172.  0.9551248E-06  0.6649469E-04  0.3646968E-07  0.2566792E-05 -0.9928733E-07 -0.7168760E-05
2209594.  0.4346591E-06  0.3152918E-04  0.1646194E-07  0.1205792E-05 -0.4387992E-07 -0.3301549E-05
2139016.  0.1913604E-06  0.1446720E-04  0.7192664E-08  0.5485315E-06 -0.1873609E-07 -0.1469358E-05
2068438.  0.8136304E-07  0.6413840E-05  0.3036651E-08  0.2412496E-06 -0.7715901E-08 -0.6309517E-06
1997859.  0.3334495E-07  0.2742387E-05  0.1236330E-08  0.1023901E-06 -0.3058672E-08 -0.2609360E-06
1927281.  0.1314397E-07  0.1128599E-05  0.4843486E-09  0.4184825E-07 -0.1164565E-08 -0.1037172E-06
1856703.  0.4971022E-08  0.4460053E-06  0.1821298E-09  0.1643218E-07 -0.4247953E-09 -0.3952865E-07
1786125.  0.1798801E-08  0.1688061E-06  0.6555211E-10  0.6182353E-08 -0.1480277E-09 -0.1440600E-07
1715547.  0.6208364E-09  0.6100799E-07  0.2251137E-10  0.2221986E-08 -0.4911888E-10 -0.5005059E-08
1644969.  0.2036488E-09  0.2098268E-07  0.7349733E-11  0.7602739E-09 -0.1546323E-10 -0.1651902E-08
1574391.  0.6323202E-10  0.6841104E-08  0.2272092E-11  0.2466860E-09 -0.4599167E-11 -0.5158545E-09
1503812.  0.1849791E-10  0.2104966E-08  0.6619664E-12  0.7556462E-10 -0.1286159E-11 -0.1517167E-09
1433234.  0.5071659E-11  0.6081369E-09  0.1807953E-12  0.2174143E-10 -0.3363244E-12 -0.4180506E-10
1362656.  0.1295737E-11  0.1639165E-09  0.4598548E-13  0.5843328E-11 -0.8167861E-13 -0.1073099E-10
1292078.  0.0000000E+00  0.0000000E+00  0.0000000E+00  0.0000000E+00  0.0000000E+00  0.0000000E+00
1221500.  0.0000000E+00  0.0000000E+00  0.0000000E+00  0.0000000E+00  0.0000000E+00  0.0000000E+00
1221500.  0.0000000E+00  0.0000000E+00  0.0000000E+00  0.0000000E+00  0.0000000E+00  0.0000000E+00
1183328.  0.0000000E+00  0.0000000E+00  0.0000000E+00  0.0000000E+00  0.0000000E+00  0.0000000E+00
1145156.  0.0000000E+00  0.0000000E+00  0.0000000E+00  0.0000000E+00  0.0000000E+00  0.0000000E+00
1106984.  0.0000000E+00  0.0000000E+00  0.0000000E+00  0.0000000E+00  0.0000000E+00  0.0000000E+00
1068812.  0.0000000E+00  0.0000000E+00  0.0000000E+00  0.0000000E+00  0.0000000E+00  0.0000000E+00
1030641.  0.0000000E+00  0.0000000E+00  0.0000000E+00  0.0000000E+00  0.0000000E+00  0.0000000E+00
 992469.  0.0000000E+00  0.0000000E+00  0.0000000E+00  0.0000000E+00  0.0000000E+00  0.0000000E+00
 954297.  0.0000000E+00  0.0000000E+00  0.0000000E+00  0.0000000E+00  0.0000000E+00  0.0000000E+00
 916125.  0.0000000E+00  0.0000000E+00  0.0000000E+00  0.0000000E+00  0.0000000E+00  0.0000000E+00
 877953.  0.0000000E+00  0.0000000E+00  0.0000000E+00  0.0000000E+00  0.0000000E+00  0.0000000E+00
 839781.  0.0000000E+00  0.0000000E+00  0.0000000E+00  0.0000000E+00  0.0000000E+00  0.0000000E+00
 801609.  0.0000000E+00  0.0000000E+00  0.0000000E+00  0.0000000E+00  0.0000000E+00  0.0000000E+00
 763438.  0.0000000E+00  0.0000000E+00  0.0000000E+00  0.0000000E+00  0.0000000E+00  0.0000000E+00
 725266.  0.0000000E+00  0.0000000E+00  0.0000000E+00  0.0000000E+00  0.0000000E+00  0.0000000E+00
 687094.  0.0000000E+00  0.0000000E+00  0.0000000E+00  0.0000000E+00  0.0000000E+00  0.0000000E+00
 648922.  0.0000000E+00  0.0000000E+00  0.0000000E+00  0.0000000E+00  0.0000000E+00  0.0000000E+00
 610750.  0.0000000E+00  0.0000000E+00  0.0000000E+00  0.0000000E+00  0.0000000E+00  0.0000000E+00
 572578.  0.0000000E+00  0.0000000E+00  0.0000000E+00  0.0000000E+00  0.0000000E+00  0.0000000E+00
 534406.  0.0000000E+00  0.0000000E+00  0.0000000E+00  0.0000000E+00  0.0000000E+00  0.0000000E+00
 496234.  0.0000000E+00  0.0000000E+00  0.0000000E+00  0.0000000E+00  0.0000000E+00  0.0000000E+00
 458062.  0.0000000E+00  0.0000000E+00  0.0000000E+00  0.0000000E+00  0.0000000E+00  0.0000000E+00
 419891.  0.0000000E+00  0.0000000E+00  0.0000000E+00  0.0000000E+00  0.0000000E+00  0.0000000E+00
 381719.  0.0000000E+00  0.0000000E+00  0.0000000E+00  0.0000000E+00  0.0000000E+00  0.0000000E+00
 343547.  0.0000000E+00  0.0000000E+00  0.0000000E+00  0.0000000E+00  0.0000000E+00  0.0000000E+00
 305375.  0.0000000E+00  0.0000000E+00  0.0000000E+00  0.0000000E+00  0.0000000E+00  0.0000000E+00
 267203.  0.0000000E+00  0.0000000E+00  0.0000000E+00  0.0000000E+00  0.0000000E+00  0.0000000E+00
 229031.  0.0000000E+00  0.0000000E+00  0.0000000E+00  0.0000000E+00  0.0000000E+00  0.0000000E+00
 190859.  0.0000000E+00  0.0000000E+00  0.0000000E+00  0.0000000E+00  0.0000000E+00  0.0000000E+00
 152688.  0.0000000E+00  0.0000000E+00  0.0000000E+00  0.0000000E+00  0.0000000E+00  0.0000000E+00
 114516.  0.0000000E+00  0.0000000E+00  0.0000000E+00  0.0000000E+00  0.0000000E+00  0.0000000E+00
  76344.  0.0000000E+00  0.0000000E+00  0.0000000E+00  0.0000000E+00  0.0000000E+00  0.0000000E+00
  38172.  0.0000000E+00  0.0000000E+00  0.0000000E+00  0.0000000E+00  0.0000000E+00  0.0000000E+00
      0.  0.0000000E+00  0.0000000E+00  0.0000000E+00  0.0000000E+00  0.0000000E+00  0.0000000E+00
