       4       47 S      316         98.21237          8.58080          8.66249        422.78500      185    7
6371000.  0.1048843E-04  0.1717653E-02  0.1946892E-05 -0.8541567E-05  0.0000000E+00  0.0000000E+00
6370000.  0.1021812E-04  0.1726439E-02  0.1947971E-05 -0.5211619E-05  0.0000000E+00  0.0000000E+00
6369000.  0.9946510E-05  0.1734225E-02  0.1948527E-05 -0.1877138E-05  0.0000000E+00  0.0000000E+00
6368000.  0.9673759E-05  0.1741008E-02  0.1948560E-05  0.1460791E-05  0.0000000E+00  0.0000000E+00
6368000.  0.9673759E-05  0.1741008E-02  0.1948560E-05  0.1460791E-05  0.0000000E+00  0.0000000E+00
6367000.  0.9400022E-05  0.1746785E-02  0.1948069E-05  0.4801077E-05  0.0000000E+00  0.0000000E+00
6366000.  0.9125456E-05  0.1751555E-02  0.1947053E-05  0.8142630E-05  0.0000000E+00  0.0000000E+00
6365000.  0.8850221E-05  0.1755318E-02  0.1945513E-05  0.1148436E-04  0.0000000E+00  0.0000000E+00
6364000.  0.8574475E-05  0.1758072E-02  0.1943448E-05  0.1482517E-04  0.0000000E+00  0.0000000E+00
6363000.  0.8298376E-05  0.1759817E-02  0.1940859E-05  0.1816398E-04  0.0000000E+00  0.0000000E+00
6362000.  0.8022082E-05  0.1760553E-02  0.1937746E-05  0.2149969E-04  0.0000000E+00  0.0000000E+00
6361000.  0.7745752E-05  0.1760281E-02  0.1934110E-05  0.2483122E-04  0.0000000E+00  0.0000000E+00
6360000.  0.7469543E-05  0.1759000E-02  0.1929951E-05  0.2815746E-04  0.0000000E+00  0.0000000E+00
6359000.  0.7193614E-05  0.1756713E-02  0.1925271E-05  0.3147735E-04  0.0000000E+00  0.0000000E+00
6358000.  0.6918124E-05  0.1753421E-02  0.1920070E-05  0.3478979E-04  0.0000000E+00  0.0000000E+00
6357000.  0.6643229E-05  0.1749125E-02  0.1914350E-05  0.3809369E-04  0.0000000E+00  0.0000000E+00
6356000.  0.6369086E-05  0.1743828E-02  0.1908112E-05  0.4138799E-04  0.0000000E+00  0.0000000E+00
6356000.  0.6369086E-05  0.1514330E-02  0.1908112E-05  0.2320908E-04  0.0000000E+00  0.0000000E+00
6355000.  0.6131583E-05  0.1511854E-02  0.1904335E-05  0.2492256E-04  0.0000000E+00  0.0000000E+00
6354000.  0.5894508E-05  0.1508861E-02  0.1900289E-05  0.2663256E-04  0.0000000E+00  0.0000000E+00
6353000.  0.5657944E-05  0.1505353E-02  0.1895974E-05  0.2833874E-04  0.0000000E+00  0.0000000E+00
6352000.  0.5421971E-05  0.1501330E-02  0.1891393E-05  0.3004076E-04  0.0000000E+00  0.0000000E+00
6351000.  0.5186670E-05  0.1496793E-02  0.1886544E-05  0.3173829E-04  0.0000000E+00  0.0000000E+00
6350000.  0.4952121E-05  0.1491743E-02  0.1881430E-05  0.3343100E-04  0.0000000E+00  0.0000000E+00
6349000.  0.4718405E-05  0.1486182E-02  0.1876050E-05  0.3511855E-04  0.0000000E+00  0.0000000E+00
6348000.  0.4485602E-05  0.1480111E-02  0.1870405E-05  0.3680061E-04  0.0000000E+00  0.0000000E+00
6347000.  0.4253792E-05  0.1473531E-02  0.1864497E-05  0.3847686E-04  0.0000000E+00  0.0000000E+00
6346600.  0.4161364E-05  0.1470757E-02  0.1862061E-05  0.3914566E-04  0.0000000E+00  0.0000000E+00
6346600.  0.4161364E-05  0.1696128E-02  0.1862061E-05  0.2567904E-04  0.0000000E+00  0.0000000E+00
6318800. -0.2827593E-05  0.1470588E-02  0.1700531E-05  0.4785776E-04  0.0000000E+00  0.0000000E+00
6291000. -0.8373914E-05  0.1040624E-02  0.1450516E-05  0.6584874E-04  0.0000000E+00  0.0000000E+00
6291000. -0.8373914E-05  0.1076865E-02  0.1450516E-05  0.6768418E-04  0.0000000E+00  0.0000000E+00
6263000. -0.1180031E-04  0.4589140E-03  0.1121586E-05  0.8069797E-04  0.0000000E+00  0.0000000E+00
6235000. -0.1226030E-04 -0.2590501E-03  0.7536284E-06  0.8525956E-04  0.0000000E+00  0.0000000E+00
6207000. -0.9508411E-05 -0.9870005E-03  0.3854339E-06  0.8080414E-04  0.0000000E+00  0.0000000E+00
6179000. -0.3708820E-05 -0.1630496E-02  0.5582679E-07  0.6788442E-04  0.0000000E+00  0.0000000E+00
6151000.  0.4571410E-05 -0.2102647E-02 -0.2011926E-06  0.4812370E-04  0.0000000E+00  0.0000000E+00
6151000.  0.4571410E-05 -0.1733936E-02 -0.2011926E-06  0.4173320E-04  0.0000000E+00  0.0000000E+00
6128500.  0.1099626E-04 -0.1883712E-02 -0.3208379E-06  0.2584995E-04  0.0000000E+00  0.0000000E+00
6106000.  0.1772501E-04 -0.1905282E-02 -0.3832165E-06  0.9488571E-05  0.0000000E+00  0.0000000E+00
6083500.  0.2430201E-04 -0.1798474E-02 -0.3885849E-06 -0.6259520E-05  0.0000000E+00  0.0000000E+00
6061000.  0.3028629E-04 -0.1571696E-02 -0.3409067E-06 -0.2039721E-04  0.0000000E+00  0.0000000E+00
6038500.  0.3528055E-04 -0.1241059E-02 -0.2474124E-06 -0.3208038E-04  0.0000000E+00  0.0000000E+00
6016000.  0.3895599E-04 -0.8290028E-03 -0.1179745E-06 -0.4066299E-04  0.0000000E+00  0.0000000E+00
5993500.  0.4107182E-04 -0.3626175E-03  0.3564715E-07 -0.4572566E-04  0.0000000E+00  0.0000000E+00
5971000.  0.4148838E-04  0.1282323E-03  0.2006315E-06 -0.4708749E-04  0.0000000E+00  0.0000000E+00
5971000.  0.4148838E-04  0.1285673E-03  0.2006315E-06 -0.4675326E-04  0.0000000E+00  0.0000000E+00
5937667.  0.3903763E-04  0.7957394E-03  0.4384904E-06 -0.4317542E-04  0.0000000E+00  0.0000000E+00
5904333.  0.3334764E-04  0.1356959E-02  0.6436223E-06 -0.3455870E-04  0.0000000E+00  0.0000000E+00
5871000.  0.2510502E-04  0.1765922E-02  0.7947523E-06 -0.2286274E-04  0.0000000E+00  0.0000000E+00
5837667.  0.1517396E-04  0.2000624E-02  0.8807747E-06 -0.9963076E-05  0.0000000E+00  0.0000000E+00
5804333.  0.4475598E-05  0.2060591E-02  0.8996777E-06  0.2564482E-05  0.0000000E+00  0.0000000E+00
5771000. -0.6111862E-05  0.1962211E-02  0.8566438E-06  0.1355615E-04  0.0000000E+00  0.0000000E+00
5771000. -0.6111862E-05  0.1962337E-02  0.8566438E-06  0.1355596E-04  0.0000000E+00  0.0000000E+00
5701000. -0.2510757E-04  0.1408798E-02  0.6030869E-06  0.3123315E-04  0.0000000E+00  0.0000000E+00
5701000. -0.2510757E-04  0.1237406E-02  0.6030869E-06  0.3071057E-04  0.0000000E+00  0.0000000E+00
5667333. -0.3057917E-04  0.8432289E-03  0.4387676E-06  0.3112730E-04  0.0000000E+00  0.0000000E+00
5633667. -0.3409367E-04  0.4890974E-03  0.2767187E-06  0.3004173E-04  0.0000000E+00  0.0000000E+00
5600000. -0.3575326E-04  0.1407560E-03  0.1224771E-06  0.2822112E-04  0.0000000E+00  0.0000000E+00
5600000. -0.3575326E-04  0.1407560E-03  0.1224771E-06  0.2822112E-04  0.0000000E+00  0.0000000E+00
5563518. -0.3552224E-04 -0.2169498E-03 -0.3163638E-07  0.2548902E-04  0.0000000E+00  0.0000000E+00
5527037. -0.3333117E-04 -0.5420366E-03 -0.1682830E-06  0.2215515E-04  0.0000000E+00  0.0000000E+00
5490556. -0.2939523E-04 -0.8250791E-03 -0.2846085E-06  0.1842662E-04  0.0000000E+00  0.0000000E+00
5454074. -0.2397468E-04 -0.1059753E-02 -0.3789608E-06  0.1451367E-04  0.0000000E+00  0.0000000E+00
5417593. -0.1735714E-04 -0.1242943E-02 -0.4508475E-06  0.1061164E-04  0.0000000E+00  0.0000000E+00
5381111. -0.9839267E-05 -0.1374319E-02 -0.5008439E-06  0.6894039E-05  0.0000000E+00  0.0000000E+00
5344630. -0.1712887E-05 -0.1456132E-02 -0.5304306E-06  0.3504483E-05  0.0000000E+00  0.0000000E+00
5308148.  0.6750454E-05 -0.1492802E-02 -0.5418146E-06  0.5512867E-06  0.0000000E+00  0.0000000E+00
5271667.  0.1530798E-04 -0.1490209E-02 -0.5377217E-06 -0.1891507E-05  0.0000000E+00  0.0000000E+00
5235185.  0.2375540E-04 -0.1455539E-02 -0.5212119E-06 -0.3780814E-05  0.0000000E+00  0.0000000E+00
5198704.  0.3193087E-04 -0.1396625E-02 -0.4955072E-06 -0.5103731E-05  0.0000000E+00  0.0000000E+00
5162222.  0.3971879E-04 -0.1321453E-02 -0.4638173E-06 -0.5874273E-05  0.0000000E+00  0.0000000E+00
5125741.  0.4704906E-04 -0.1238188E-02 -0.4292454E-06 -0.6116014E-05  0.0000000E+00  0.0000000E+00
5089259.  0.5389822E-04 -0.1154603E-02 -0.3947044E-06 -0.5871374E-05  0.0000000E+00  0.0000000E+00
5052778.  0.6028524E-04 -0.1078026E-02 -0.3628394E-06 -0.5189007E-05  0.0000000E+00  0.0000000E+00
5016296.  0.6627068E-04 -0.1015397E-02 -0.3360389E-06 -0.4109279E-05  0.0000000E+00  0.0000000E+00
4979815.  0.7195271E-04 -0.9731422E-03 -0.3164507E-06 -0.2676935E-05  0.0000000E+00  0.0000000E+00
4943333.  0.7746587E-04 -0.9573668E-03 -0.3059990E-06 -0.9208453E-06  0.0000000E+00  0.0000000E+00
4906852.  0.8297878E-04 -0.9741095E-03 -0.3065044E-06  0.1148266E-05  0.0000000E+00  0.0000000E+00
4870370.  0.8869528E-04 -0.1029472E-02 -0.3197326E-06  0.3524731E-05  0.0000000E+00  0.0000000E+00
4833889.  0.9485496E-04 -0.1130153E-02 -0.3475241E-06  0.6243468E-05  0.0000000E+00  0.0000000E+00
4797407.  0.1017393E-03 -0.1283916E-02 -0.3919978E-06  0.9360944E-05  0.0000000E+00  0.0000000E+00
4760926.  0.1096774E-03 -0.1499971E-02 -0.4556291E-06  0.1295327E-04  0.0000000E+00  0.0000000E+00
4724444.  0.1190584E-03 -0.1790019E-02 -0.5415243E-06  0.1716317E-04  0.0000000E+00  0.0000000E+00
4687963.  0.1303465E-03 -0.2168966E-02 -0.6536916E-06  0.2216221E-04  0.0000000E+00  0.0000000E+00
4651482.  0.1441036E-03 -0.2656054E-02 -0.7972735E-06  0.2818282E-04  0.0000000E+00  0.0000000E+00
4615000.  0.1610188E-03 -0.3276676E-02 -0.9790373E-06  0.3555689E-04  0.0000000E+00  0.0000000E+00
4578518.  0.1819468E-03 -0.4063889E-02 -0.1207826E-05  0.4468352E-04  0.0000000E+00  0.0000000E+00
4542037.  0.2079595E-03 -0.5061215E-02 -0.1495152E-05  0.5611163E-04  0.0000000E+00  0.0000000E+00
4505556.  0.2404183E-03 -0.6326297E-02 -0.1856200E-05  0.7056454E-04  0.0000000E+00  0.0000000E+00
4469074.  0.2810635E-03 -0.7934567E-02 -0.2310744E-05  0.8893834E-04  0.0000000E+00  0.0000000E+00
4432593.  0.3321310E-03 -0.9986151E-02 -0.2884609E-05  0.1124823E-03  0.0000000E+00  0.0000000E+00
4396111.  0.3965247E-03 -0.1261380E-01 -0.3611837E-05  0.1427936E-03  0.0000000E+00  0.0000000E+00
4359630.  0.4780164E-03 -0.1599221E-01 -0.4536709E-05  0.1819230E-03  0.0000000E+00  0.0000000E+00
4323148.  0.5815469E-03 -0.2035533E-01 -0.5717503E-05  0.2327008E-03  0.0000000E+00  0.0000000E+00
4286667.  0.7135951E-03 -0.2601307E-01 -0.7230692E-05  0.2987096E-03  0.0000000E+00  0.0000000E+00
4250185.  0.8827069E-03 -0.3337859E-01 -0.9176490E-05  0.3847008E-03  0.0000000E+00  0.0000000E+00
4213704.  0.1100159E-02 -0.4300494E-01 -0.1168661E-04  0.4970175E-03  0.0000000E+00  0.0000000E+00
4177222.  0.1380918E-02 -0.5562901E-01 -0.1493399E-04  0.6437083E-03  0.0000000E+00  0.0000000E+00
4140741.  0.1744817E-02 -0.7223593E-01 -0.1914440E-04  0.8354518E-03  0.0000000E+00  0.0000000E+00
4104259.  0.2218283E-02 -0.9414705E-01 -0.2461418E-04  0.1086056E-02  0.0000000E+00  0.0000000E+00
4067778.  0.2836438E-02 -0.1231127E+00 -0.3172673E-04  0.1412519E-02  0.0000000E+00  0.0000000E+00
4031296.  0.3646097E-02 -0.1614764E+00 -0.4097793E-04  0.1837035E-02  0.0000000E+00  0.0000000E+00
3994815.  0.4709499E-02 -0.2123367E+00 -0.5300247E-04  0.2385924E-02  0.0000000E+00  0.0000000E+00
3958333.  0.6109360E-02 -0.2797528E+00 -0.6859657E-04  0.3089061E-02  0.0000000E+00  0.0000000E+00
3921852.  0.7954930E-02 -0.3690288E+00 -0.8873902E-04  0.3980189E-02  0.0000000E+00  0.0000000E+00
3885370.  0.1039014E-01 -0.4869401E+00 -0.1145935E-03  0.5087770E-02  0.0000000E+00  0.0000000E+00
3848889.  0.1360213E-01 -0.6419225E+00 -0.1474471E-03  0.6425276E-02  0.0000000E+00  0.0000000E+00
3812407.  0.1783177E-01 -0.8441672E+00 -0.1885779E-03  0.7968714E-02  0.0000000E+00  0.0000000E+00
3775926.  0.2338157E-01 -0.1105004E+01 -0.2388922E-03  0.9603390E-02  0.0000000E+00  0.0000000E+00
3739444.  0.3061992E-01 -0.1435574E+01 -0.2982142E-03  0.1104612E-01  0.0000000E+00  0.0000000E+00
3702963.  0.3997000E-01 -0.1843247E+01 -0.3638940E-03  0.1168023E-01  0.0000000E+00  0.0000000E+00
3666482.  0.5186965E-01 -0.2323788E+01 -0.4281161E-03  0.1025458E-01  0.0000000E+00  0.0000000E+00
3630000.  0.6666667E-01 -0.2846507E+01 -0.4729767E-03  0.4381796E-02  0.0000000E+00  0.0000000E+00
3630000.  0.6666667E-01 -0.2846507E+01 -0.4729767E-03  0.4381796E-02  0.0000000E+00  0.0000000E+00
3592500.  0.8492145E-01 -0.3335062E+01 -0.4597285E-03 -0.1104990E-01  0.0000000E+00  0.0000000E+00
3555000.  0.1054143E+00 -0.3554389E+01 -0.3069622E-03 -0.4504452E-01  0.0000000E+00  0.0000000E+00
3517500.  0.1253426E+00 -0.3033968E+01  0.1391113E-03 -0.1144437E+00  0.0000000E+00  0.0000000E+00
3480000.  0.1378643E+00 -0.8196327E+00  0.1168966E-02 -0.2502545E+00  0.0000000E+00  0.0000000E+00
3480000.  0.1378643E+00  0.9347699E+01  0.3549708E-02  0.2458346E+00  0.0000000E+00  0.0000000E+00
3409422.  0.6408187E-01  0.4518053E+01  0.1625006E-02  0.1166906E+00  0.0000000E+00  0.0000000E+00
3338844.  0.2891075E-01  0.2116091E+01  0.7231219E-03  0.5378069E-01  0.0000000E+00  0.0000000E+00
3268266.  0.1266012E-01  0.9607571E+00  0.3127420E-03  0.2406811E-01  0.0000000E+00  0.0000000E+00
3197688.  0.5380358E-02  0.4229095E+00  0.1314155E-03  0.1045767E-01  0.0000000E+00  0.0000000E+00
3127109.  0.2218438E-02  0.1804691E+00  0.5362889E-04  0.4410476E-02  0.0000000E+00  0.0000000E+00
3056531.  0.8870875E-03  0.7464199E-01  0.2124283E-04  0.1804790E-02  0.0000000E+00  0.0000000E+00
2985953.  0.3438049E-03  0.2990905E-01  0.8161822E-05  0.7161670E-03  0.0000000E+00  0.0000000E+00
2915375.  0.1290547E-03  0.1160414E-01  0.3039311E-05  0.2753914E-03  0.0000000E+00  0.0000000E+00
2844797.  0.4687933E-04  0.4356110E-02  0.1095911E-05  0.1025365E-03  0.0000000E+00  0.0000000E+00
2774219.  0.1646285E-04  0.1580809E-02  0.3822347E-06  0.3693029E-04  0.0000000E+00  0.0000000E+00
2703641.  0.5582809E-05  0.5539971E-03  0.1288024E-06  0.1285244E-04  0.0000000E+00  0.0000000E+00
2633062.  0.1825833E-05  0.1872670E-03  0.4187673E-07  0.4316580E-05  0.0000000E+00  0.0000000E+00
2562484.  0.5750670E-06  0.6097733E-04  0.1311740E-07  0.1397175E-05  0.0000000E+00  0.0000000E+00
2491906.  0.1741487E-06  0.1909682E-04  0.3952101E-08  0.4351428E-06  0.0000000E+00  0.0000000E+00
2421328.  0.5061615E-07  0.5742467E-05  0.1143201E-08  0.1301740E-06  0.0000000E+00  0.0000000E+00
2350750.  0.1409166E-07  0.1654831E-05  0.3168521E-09  0.3733251E-07  0.0000000E+00  0.0000000E+00
2280172.  0.3749568E-08  0.4560415E-06  0.8395779E-10  0.1024201E-07  0.0000000E+00  0.0000000E+00
2209594.  0.9512272E-09  0.1199014E-06  0.2121603E-10  0.2681520E-08  0.0000000E+00  0.0000000E+00
2139016.  0.2294524E-09  0.2999657E-07  0.5098912E-11  0.6682256E-09  0.0000000E+00  0.0000000E+00
2068438.  0.5246949E-10  0.7119740E-08  0.1161915E-11  0.1580312E-09  0.0000000E+00  0.0000000E+00
1997859.  0.1134256E-10  0.1597011E-08  0.2500534E-12  0.3537275E-10  0.0000000E+00  0.0000000E+00
1927281.  0.0000000E+00  0.0000000E+00  0.0000000E+00  0.0000000E+00  0.0000000E+00  0.0000000E+00
1856703.  0.0000000E+00  0.0000000E+00  0.0000000E+00  0.0000000E+00  0.0000000E+00  0.0000000E+00
1786125.  0.0000000E+00  0.0000000E+00  0.0000000E+00  0.0000000E+00  0.0000000E+00  0.0000000E+00
1715547.  0.0000000E+00  0.0000000E+00  0.0000000E+00  0.0000000E+00  0.0000000E+00  0.0000000E+00
1644969.  0.0000000E+00  0.0000000E+00  0.0000000E+00  0.0000000E+00  0.0000000E+00  0.0000000E+00
1574391.  0.0000000E+00  0.0000000E+00  0.0000000E+00  0.0000000E+00  0.0000000E+00  0.0000000E+00
1503812.  0.0000000E+00  0.0000000E+00  0.0000000E+00  0.0000000E+00  0.0000000E+00  0.0000000E+00
1433234.  0.0000000E+00  0.0000000E+00  0.0000000E+00  0.0000000E+00  0.0000000E+00  0.0000000E+00
1362656.  0.0000000E+00  0.0000000E+00  0.0000000E+00  0.0000000E+00  0.0000000E+00  0.0000000E+00
1292078.  0.0000000E+00  0.0000000E+00  0.0000000E+00  0.0000000E+00  0.0000000E+00  0.0000000E+00
1221500.  0.0000000E+00  0.0000000E+00  0.0000000E+00  0.0000000E+00  0.0000000E+00  0.0000000E+00
1221500.  0.0000000E+00  0.0000000E+00  0.0000000E+00  0.0000000E+00  0.0000000E+00  0.0000000E+00
1183328.  0.0000000E+00  0.0000000E+00  0.0000000E+00  0.0000000E+00  0.0000000E+00  0.0000000E+00
1145156.  0.0000000E+00  0.0000000E+00  0.0000000E+00  0.0000000E+00  0.0000000E+00  0.0000000E+00
1106984.  0.0000000E+00  0.0000000E+00  0.0000000E+00  0.0000000E+00  0.0000000E+00  0.0000000E+00
1068812.  0.0000000E+00  0.0000000E+00  0.0000000E+00  0.0000000E+00  0.0000000E+00  0.0000000E+00
1030641.  0.0000000E+00  0.0000000E+00  0.0000000E+00  0.0000000E+00  0.0000000E+00  0.0000000E+00
 992469.  0.0000000E+00  0.0000000E+00  0.0000000E+00  0.0000000E+00  0.0000000E+00  0.0000000E+00
 954297.  0.0000000E+00  0.0000000E+00  0.0000000E+00  0.0000000E+00  0.0000000E+00  0.0000000E+00
 916125.  0.0000000E+00  0.0000000E+00  0.0000000E+00  0.0000000E+00  0.0000000E+00  0.0000000E+00
 877953.  0.0000000E+00  0.0000000E+00  0.0000000E+00  0.0000000E+00  0.0000000E+00  0.0000000E+00
 839781.  0.0000000E+00  0.0000000E+00  0.0000000E+00  0.0000000E+00  0.0000000E+00  0.0000000E+00
 801609.  0.0000000E+00  0.0000000E+00  0.0000000E+00  0.0000000E+00  0.0000000E+00  0.0000000E+00
 763438.  0.0000000E+00  0.0000000E+00  0.0000000E+00  0.0000000E+00  0.0000000E+00  0.0000000E+00
 725266.  0.0000000E+00  0.0000000E+00  0.0000000E+00  0.0000000E+00  0.0000000E+00  0.0000000E+00
 687094.  0.0000000E+00  0.0000000E+00  0.0000000E+00  0.0000000E+00  0.0000000E+00  0.0000000E+00
 648922.  0.0000000E+00  0.0000000E+00  0.0000000E+00  0.0000000E+00  0.0000000E+00  0.0000000E+00
 610750.  0.0000000E+00  0.0000000E+00  0.0000000E+00  0.0000000E+00  0.0000000E+00  0.0000000E+00
 572578.  0.0000000E+00  0.0000000E+00  0.0000000E+00  0.0000000E+00  0.0000000E+00  0.0000000E+00
 534406.  0.0000000E+00  0.0000000E+00  0.0000000E+00  0.0000000E+00  0.0000000E+00  0.0000000E+00
 496234.  0.0000000E+00  0.0000000E+00  0.0000000E+00  0.0000000E+00  0.0000000E+00  0.0000000E+00
 458062.  0.0000000E+00  0.0000000E+00  0.0000000E+00  0.0000000E+00  0.0000000E+00  0.0000000E+00
 419891.  0.0000000E+00  0.0000000E+00  0.0000000E+00  0.0000000E+00  0.0000000E+00  0.0000000E+00
 381719.  0.0000000E+00  0.0000000E+00  0.0000000E+00  0.0000000E+00  0.0000000E+00  0.0000000E+00
 343547.  0.0000000E+00  0.0000000E+00  0.0000000E+00  0.0000000E+00  0.0000000E+00  0.0000000E+00
 305375.  0.0000000E+00  0.0000000E+00  0.0000000E+00  0.0000000E+00  0.0000000E+00  0.0000000E+00
 267203.  0.0000000E+00  0.0000000E+00  0.0000000E+00  0.0000000E+00  0.0000000E+00  0.0000000E+00
 229031.  0.0000000E+00  0.0000000E+00  0.0000000E+00  0.0000000E+00  0.0000000E+00  0.0000000E+00
 190859.  0.0000000E+00  0.0000000E+00  0.0000000E+00  0.0000000E+00  0.0000000E+00  0.0000000E+00
 152688.  0.0000000E+00  0.0000000E+00  0.0000000E+00  0.0000000E+00  0.0000000E+00  0.0000000E+00
 114516.  0.0000000E+00  0.0000000E+00  0.0000000E+00  0.0000000E+00  0.0000000E+00  0.0000000E+00
  76344.  0.0000000E+00  0.0000000E+00  0.0000000E+00  0.0000000E+00  0.0000000E+00  0.0000000E+00
  38172.  0.0000000E+00  0.0000000E+00  0.0000000E+00  0.0000000E+00  0.0000000E+00  0.0000000E+00
      0.  0.0000000E+00  0.0000000E+00  0.0000000E+00  0.0000000E+00  0.0000000E+00  0.0000000E+00
