      14        5 S      603        168.38000         43.22494         18.93359        137.02721      185    7
6371000.  0.4057187E-01 -0.6039810E-01 -0.2416049E-02 -0.4298792E-01 -0.3801620E-04 -0.7628096E-01
6370000.  0.4058050E-01 -0.4956348E-01 -0.2409137E-02 -0.4508271E-01 -0.2604343E-04 -0.7627558E-01
6369000.  0.4058743E-01 -0.3871656E-01 -0.2401897E-02 -0.4716818E-01 -0.1407174E-04 -0.7626711E-01
6368000.  0.4059265E-01 -0.2785781E-01 -0.2394331E-02 -0.4924407E-01 -0.2101633E-05 -0.7625553E-01
6368000.  0.4059265E-01 -0.2785781E-01 -0.2394331E-02 -0.4924407E-01 -0.2101633E-05 -0.7625553E-01
6367000.  0.4059617E-01 -0.1698771E-01 -0.2386439E-02 -0.5131007E-01  0.9866417E-05 -0.7624085E-01
6366000.  0.4059799E-01 -0.6106735E-02 -0.2378224E-02 -0.5336591E-01  0.2183192E-04 -0.7622308E-01
6365000.  0.4059809E-01  0.4784634E-02 -0.2369687E-02 -0.5541129E-01  0.3379439E-04 -0.7620219E-01
6364000.  0.4059648E-01  0.1568592E-01 -0.2360829E-02 -0.5744595E-01  0.4575334E-04 -0.7617821E-01
6363000.  0.4059317E-01  0.2659664E-01 -0.2351654E-02 -0.5946959E-01  0.5770828E-04 -0.7615113E-01
6362000.  0.4058813E-01  0.3751630E-01 -0.2342161E-02 -0.6148193E-01  0.6965872E-04 -0.7612094E-01
6361000.  0.4058139E-01  0.4844444E-01 -0.2332354E-02 -0.6348270E-01  0.8160419E-04 -0.7608766E-01
6360000.  0.4057293E-01  0.5938055E-01 -0.2322233E-02 -0.6547162E-01  0.9354419E-04 -0.7605127E-01
6359000.  0.4056275E-01  0.7032416E-01 -0.2311801E-02 -0.6744842E-01  0.1054782E-03 -0.7601178E-01
6358000.  0.4055085E-01  0.8127477E-01 -0.2301060E-02 -0.6941283E-01  0.1174058E-03 -0.7596920E-01
6357000.  0.4053723E-01  0.9223189E-01 -0.2290012E-02 -0.7136457E-01  0.1293265E-03 -0.7592352E-01
6356000.  0.4052189E-01  0.1031950E+00 -0.2278658E-02 -0.7330337E-01  0.1412398E-03 -0.7587474E-01
6356000.  0.4052189E-01  0.5419577E-01 -0.2278658E-02 -0.6125196E-01  0.1412398E-03 -0.8469184E-01
6355000.  0.4051276E-01  0.6216173E-01 -0.2268943E-02 -0.6254077E-01  0.1545299E-03 -0.8465058E-01
6354000.  0.4050238E-01  0.7013242E-01 -0.2259025E-02 -0.6382179E-01  0.1678134E-03 -0.8460684E-01
6353000.  0.4049075E-01  0.7810757E-01 -0.2248908E-02 -0.6509491E-01  0.1810898E-03 -0.8456063E-01
6352000.  0.4047786E-01  0.8608694E-01 -0.2238591E-02 -0.6636000E-01  0.1943587E-03 -0.8451193E-01
6351000.  0.4046372E-01  0.9407026E-01 -0.2228076E-02 -0.6761695E-01  0.2076198E-03 -0.8446075E-01
6350000.  0.4044833E-01  0.1020572E+00 -0.2217365E-02 -0.6886564E-01  0.2208727E-03 -0.8440710E-01
6349000.  0.4043168E-01  0.1100477E+00 -0.2206458E-02 -0.7010596E-01  0.2341170E-03 -0.8435097E-01
6348000.  0.4041378E-01  0.1180412E+00 -0.2195358E-02 -0.7133778E-01  0.2473522E-03 -0.8429236E-01
6347000.  0.4039463E-01  0.1260377E+00 -0.2184064E-02 -0.7256100E-01  0.2605781E-03 -0.8423128E-01
6346600.  0.4038661E-01  0.1292370E+00 -0.2179493E-02 -0.7304785E-01  0.2658657E-03 -0.8420616E-01
6346600.  0.4038661E-01  0.5209831E-01 -0.2179493E-02 -0.6319875E-01  0.2658657E-03 -0.9828838E-01
6318800.  0.3980505E-01  0.2151423E+00 -0.1850155E-02 -0.8681015E-01  0.6907180E-03 -0.9617635E-01
6291000.  0.3850542E-01  0.3806802E+00 -0.1430997E-02 -0.1041777E+00  0.1102897E-02 -0.9248092E-01
6291000.  0.3850542E-01  0.3853462E+00 -0.1430997E-02 -0.1065268E+00  0.1102897E-02 -0.9248092E-01
6263000.  0.3644069E-01  0.5537733E+00 -0.9367721E-03 -0.1170335E+00  0.1498139E-02 -0.8711776E-01
6235000.  0.3364491E-01  0.7173822E+00 -0.4144401E-03 -0.1192651E+00  0.1866364E-02 -0.8019726E-01
6207000.  0.3014788E-01  0.8722264E+00  0.9931526E-04 -0.1131636E+00  0.2200894E-02 -0.7179996E-01
6179000.  0.2599680E-01  0.1014369E+01  0.5686753E-03 -0.9917799E-01  0.2495469E-02 -0.6203555E-01
6151000.  0.2125597E-01  0.1139990E+01  0.9608600E-03 -0.7823529E-01  0.2744375E-02 -0.5104297E-01
6151000.  0.2125597E-01  0.9175706E+00  0.9608600E-03 -0.7124433E-01  0.2744375E-02 -0.5221897E-01
6128500.  0.1792107E-01  0.9691901E+00  0.1180510E-02 -0.5274963E-01  0.2915641E-02 -0.4469854E-01
6106000.  0.1442376E-01  0.1009493E+01  0.1331082E-02 -0.3224959E-01  0.3059629E-02 -0.3678411E-01
6083500.  0.1080451E-01  0.1038215E+01  0.1406843E-02 -0.1051506E-01  0.3175081E-02 -0.2855119E-01
6061000.  0.7104439E-02  0.1055262E+01  0.1404837E-02  0.1165806E-01  0.3261009E-02 -0.2007673E-01
6038500.  0.3364685E-02  0.1060716E+01  0.1324920E-02  0.3347551E-01  0.3316695E-02 -0.1143773E-01
6016000. -0.3741891E-03  0.1054816E+01  0.1169714E-02  0.5417082E-01  0.3341694E-02 -0.2711004E-02
5993500. -0.4072729E-02  0.1037953E+01  0.9444635E-03  0.7302883E-01  0.3335830E-02  0.6027558E-02
5971000. -0.7693141E-02  0.1010673E+01  0.6568145E-03  0.8940816E-01  0.3299193E-02  0.1470367E-01
5971000. -0.7693141E-02  0.9154630E+00  0.6568145E-03  0.8053987E-01  0.3299193E-02  0.1571077E-01
5937667. -0.1228710E-01  0.8384803E+00  0.1957745E-03  0.9453841E-01  0.3185497E-02  0.2765045E-01
5904333. -0.1644786E-01  0.7504068E+00 -0.3201750E-03  0.1015148E+00  0.3011042E-02  0.3890948E-01
5871000. -0.2012618E-01  0.6546660E+00 -0.8545187E-03  0.1016399E+00  0.2779774E-02  0.4934984E-01
5837667. -0.2329050E-01  0.5544270E+00 -0.1372748E-02  0.9547605E-01  0.2496268E-02  0.5886128E-01
5804333. -0.2592498E-01  0.4525465E+00 -0.1844102E-02  0.8387686E-01  0.2165611E-02  0.6735805E-01
5771000. -0.2802757E-01  0.3515239E+00 -0.2242791E-02  0.6789016E-01  0.1793306E-02  0.7477739E-01
5771000. -0.2802757E-01  0.3515280E+00 -0.2242791E-02  0.6788887E-01  0.1793306E-02  0.7477739E-01
5701000. -0.3085802E-01  0.1634045E+00 -0.2767878E-02  0.2523274E-01  0.9092886E-03  0.8531922E-01
5701000. -0.3085802E-01  0.1340518E+00 -0.2767878E-02  0.2652617E-01  0.9092886E-03  0.9401698E-01
5667333. -0.3133775E-01  0.5010094E-01 -0.2855936E-02  0.6829350E-02  0.4037796E-03  0.9715120E-01
5633667. -0.3140384E-01 -0.2441416E-01 -0.2837190E-02 -0.1421957E-01 -0.1159908E-03  0.9940895E-01
5600000. -0.3108658E-01 -0.9487031E-01 -0.2705544E-02 -0.3551771E-01 -0.6447925E-03  0.1005331E+00
5600000. -0.3108658E-01 -0.9487031E-01 -0.2705544E-02 -0.3551771E-01 -0.6447925E-03  0.1005331E+00
5563518. -0.3033769E-01 -0.1656631E+00 -0.2437463E-02 -0.5791820E-01 -0.1220932E-02  0.1004721E+00
5527037. -0.2920188E-01 -0.2299092E+00 -0.2045426E-02 -0.7865570E-01 -0.1792913E-02  0.9909017E-01
5490556. -0.2771830E-01 -0.2870525E+00 -0.1541601E-02 -0.9681905E-01 -0.2353270E-02  0.9641864E-01
5454074. -0.2592869E-01 -0.3367556E+00 -0.9430666E-03 -0.1116110E+00 -0.2894765E-02  0.9250561E-01
5417593. -0.2387595E-01 -0.3789839E+00 -0.2710217E-03 -0.1224095E+00 -0.3410412E-02  0.8740645E-01
5381111. -0.2160254E-01 -0.4138385E+00  0.4502791E-03 -0.1287449E+00 -0.3893652E-02  0.8119514E-01
5344630. -0.1915004E-01 -0.4416310E+00  0.1194361E-02 -0.1303466E+00 -0.4338326E-02  0.7395555E-01
5308148. -0.1655736E-01 -0.4628608E+00  0.1933890E-02 -0.1271503E+00 -0.4738829E-02  0.6577967E-01
5271667. -0.1386080E-01 -0.4780360E+00  0.2641557E-02 -0.1192605E+00 -0.5090074E-02  0.5677289E-01
5235185. -0.1109298E-01 -0.4878465E+00  0.3291337E-02 -0.1069925E+00 -0.5387633E-02  0.4704427E-01
5198704. -0.8282709E-02 -0.4929914E+00  0.3859420E-02 -0.9082177E-01 -0.5627687E-02  0.3671030E-01
5162222. -0.5454871E-02 -0.4940687E+00  0.4325148E-02 -0.7135157E-01 -0.5807130E-02  0.2589349E-01
5125741. -0.2630810E-02 -0.4918127E+00  0.4671693E-02 -0.4932970E-01 -0.5923545E-02  0.1471823E-01
5089259.  0.1722411E-03 -0.4867832E+00  0.4886766E-02 -0.2557009E-01 -0.5975244E-02  0.3310515E-02
5052778.  0.2939573E-02 -0.4794438E+00  0.4962876E-02 -0.9427474E-03 -0.5961260E-02 -0.8201607E-02
5016296.  0.5659469E-02 -0.4702474E+00  0.4897598E-02  0.2366561E-01 -0.5881356E-02 -0.1969236E-01
4979815.  0.8321909E-02 -0.4594314E+00  0.4693550E-02  0.4738545E-01 -0.5736016E-02 -0.3103740E-01
4943333.  0.1091825E-01 -0.4471609E+00  0.4358180E-02  0.6940041E-01 -0.5526411E-02 -0.4211643E-01
4906852.  0.1344033E-01 -0.4335084E+00  0.3903412E-02  0.8897683E-01 -0.5254416E-02 -0.5281219E-01
4870370.  0.1588002E-01 -0.4183403E+00  0.3345067E-02  0.1054766E+00 -0.4922524E-02 -0.6301636E-01
4833889.  0.1822817E-01 -0.4015262E+00  0.2702286E-02  0.1184031E+00 -0.4533872E-02 -0.7262314E-01
4797407.  0.2047482E-01 -0.3828129E+00  0.1996580E-02  0.1273990E+00 -0.4092141E-02 -0.8153680E-01
4760926.  0.2260793E-01 -0.3618397E+00  0.1251209E-02  0.1322422E+00 -0.3601571E-02 -0.8967137E-01
4724444.  0.2461382E-01 -0.3382992E+00  0.4900972E-03  0.1328955E+00 -0.3066834E-02 -0.9694591E-01
4687963.  0.2647662E-01 -0.3118152E+00 -0.2629354E-03  0.1294549E+00 -0.2493085E-02 -0.1032922E+00
4651482.  0.2817847E-01 -0.2820336E+00 -0.9850815E-03  0.1221617E+00 -0.1885792E-02 -0.1086528E+00
4615000.  0.2969972E-01 -0.2486778E+00 -0.1655366E-02  0.1114081E+00 -0.1250733E-02 -0.1129769E+00
4578518.  0.3101914E-01 -0.2115074E+00 -0.2255298E-02  0.9767944E-01 -0.5939686E-03 -0.1162289E+00
4542037.  0.3211443E-01 -0.1703967E+00 -0.2769478E-02  0.8156952E-01  0.7826283E-04 -0.1183814E+00
4505556.  0.3296298E-01 -0.1253286E+00 -0.3186173E-02  0.6374324E-01  0.7596234E-03 -0.1194160E+00
4469074.  0.3354236E-01 -0.7640899E-01 -0.3497529E-02  0.4489341E-01  0.1443724E-02 -0.1193319E+00
4432593.  0.3383114E-01 -0.2388771E-01 -0.3699755E-02  0.2575120E-01  0.2124120E-02 -0.1181300E+00
4396111.  0.3380975E-01  0.3185106E-01 -0.3793240E-02  0.7026760E-02  0.2794485E-02 -0.1158253E+00
4359630.  0.3346128E-01  0.9025284E-01 -0.3782315E-02 -0.1060634E-01  0.3448544E-02 -0.1124463E+00
4323148.  0.3277225E-01  0.1506765E+00 -0.3675048E-02 -0.2652567E-01  0.4080262E-02 -0.1080216E+00
4286667.  0.3173335E-01  0.2123141E+00 -0.3482837E-02 -0.4019402E-01  0.4683736E-02 -0.1025958E+00
4250185.  0.3034016E-01  0.2742553E+00 -0.3219874E-02 -0.5117095E-01  0.5253411E-02 -0.9621943E-01
4213704.  0.2859372E-01  0.3355438E+00 -0.2902586E-02 -0.5912595E-01  0.5783964E-02 -0.8894672E-01
4177222.  0.2650071E-01  0.3950988E+00 -0.2548916E-02 -0.6385027E-01  0.6270476E-02 -0.8084339E-01
4140741.  0.2407427E-01  0.4518524E+00 -0.2177683E-02 -0.6526087E-01  0.6708357E-02 -0.7197714E-01
4104259.  0.2133327E-01  0.5047557E+00 -0.1807772E-02 -0.6340224E-01  0.7093461E-02 -0.6241901E-01
4067778.  0.1830318E-01  0.5526779E+00 -0.1457513E-02 -0.5843788E-01  0.7422037E-02 -0.5224977E-01
4031296.  0.1501508E-01  0.5946950E+00 -0.1143915E-02 -0.5065052E-01  0.7690822E-02 -0.4154583E-01
3994815.  0.1150554E-01  0.6299006E+00 -0.8821067E-03 -0.4042319E-01  0.7896972E-02 -0.3038909E-01
3958333.  0.7815930E-02  0.6574369E+00 -0.6847436E-03 -0.2822426E-01  0.8038145E-02 -0.1886356E-01
3921852.  0.3992044E-02  0.6767511E+00 -0.5616003E-03 -0.1459662E-01  0.8112457E-02 -0.7051051E-02
3885370.  0.8226073E-04  0.6873248E+00 -0.5191855E-03 -0.1284297E-03  0.8118503E-02  0.4966711E-02
3848889. -0.3862108E-02  0.6888450E+00 -0.5605489E-03  0.1456036E-01  0.8055342E-02  0.1710800E-01
3812407. -0.7789280E-02  0.6812793E+00 -0.6851664E-03  0.2884564E-01  0.7922488E-02  0.2929477E-01
3775926. -0.1164701E-01  0.6646566E+00 -0.8889555E-03  0.4211469E-01  0.7719907E-02  0.4145150E-01
3739444. -0.1538450E-01  0.6393235E+00 -0.1164440E-02  0.5379288E-01  0.7447965E-02  0.5350575E-01
3702963. -0.1895317E-01  0.6058208E+00 -0.1500977E-02  0.6336033E-01  0.7107470E-02  0.6538788E-01
3666482. -0.2230798E-01  0.5647593E+00 -0.1885155E-02  0.7036430E-01  0.6699572E-02  0.7703787E-01
3630000. -0.2540834E-01  0.5170792E+00 -0.2301228E-02  0.7444406E-01  0.6225766E-02  0.8839412E-01
3630000. -0.2540834E-01  0.5170792E+00 -0.2301228E-02  0.7444406E-01  0.6225766E-02  0.8839412E-01
3592500. -0.2829297E-01  0.4621893E+00 -0.2743657E-02  0.7530708E-01  0.5671983E-02  0.9970883E-01
3555000. -0.3084000E-01  0.4025918E+00 -0.3180781E-02  0.7262288E-01  0.5052797E-02  0.1106093E+00
3517500. -0.3302583E-01  0.3396927E+00 -0.3591516E-02  0.6634188E-01  0.4370789E-02  0.1210477E+00
3480000. -0.3483513E-01  0.2748873E+00 -0.3954836E-02  0.5653400E-01  0.3628782E-02  0.1309915E+00
3480000. -0.3483513E-01  0.5976741E+00 -0.1200618E-02 -0.6155615E-01  0.3628782E-02  0.2420769E+00
3409422. -0.3975383E-01  0.2862988E+00 -0.4476135E-03 -0.7344500E-01  0.7062852E-03  0.2815075E+00
3338844. -0.4114241E-01 -0.3490331E-01  0.4042156E-03 -0.7928087E-01 -0.2514910E-02  0.2957232E+00
3268266. -0.3904361E-01 -0.3391677E+00  0.1284883E-02 -0.7862022E-01 -0.5750341E-02  0.2841683E+00
3197688. -0.3377365E-01 -0.6041191E+00  0.2122298E-02 -0.7152182E-01 -0.8721284E-02  0.2483915E+00
3127109. -0.2586696E-01 -0.8128511E+00  0.2847614E-02 -0.5850079E-01 -0.1117644E-01  0.1917274E+00
3056531. -0.1601273E-01 -0.9544271E+00  0.3399872E-02 -0.4045796E-01 -0.1290938E-01  0.1188836E+00
2985953. -0.4987630E-02 -0.1023891E+01  0.3729854E-02 -0.1859075E-01 -0.1377133E-01  0.3546475E-01
2915375.  0.6407926E-02 -0.1021837E+01  0.3802793E-02  0.5704202E-02 -0.1367833E-01 -0.5250781E-01
2844797.  0.1740765E-01 -0.9536859E+00  0.3600022E-02  0.3093353E-01 -0.1261328E-01 -0.1390561E+00
2774219.  0.2732768E-01 -0.8287243E+00  0.3119505E-02  0.5560342E-01 -0.1062317E-01 -0.2186533E+00
2703641.  0.3560353E-01 -0.6590391E+00  0.2375353E-02  0.7830690E-01 -0.7812099E-02 -0.2865584E+00
2633062.  0.4181509E-01 -0.4584064E+00  0.1396402E-02  0.9780065E-01 -0.4331135E-02 -0.3390640E+00
2562484.  0.4569901E-01 -0.2412225E+00  0.2241257E-03  0.1130626E+00 -0.3660705E-03 -0.3736498E+00
2491906.  0.4715047E-01 -0.2151840E-01 -0.1090151E-02  0.1233341E+00  0.3876461E-02 -0.3890504E+00
2421328.  0.4621410E-01  0.1878677E+00 -0.2488263E-02  0.1281439E+00  0.8182613E-02 -0.3852280E+00
2350750.  0.4306697E-01  0.3759653E+00 -0.3908443E-02  0.1273121E+00  0.1234452E-01 -0.3632779E+00
2280172.  0.3799502E-01  0.5341448E+00 -0.5288501E-02  0.1209396E+00  0.1617202E-01 -0.3252709E+00
2209594.  0.3136538E-01  0.6564157E+00 -0.6568808E-02  0.1093815E+00  0.1950237E-01 -0.2740511E+00
2139016.  0.2359637E-01  0.7395341E+00 -0.7694895E-02  0.9320803E-01  0.2220759E-01 -0.2130087E+00
2068438.  0.1512709E-01  0.7829692E+00 -0.8619580E-02  0.7315299E-01  0.2419917E-01 -0.1458419E+00
1997859.  0.6388317E-02  0.7886910E+00 -0.9304441E-02  0.5005476E-01  0.2543023E-01 -0.7632855E-01
1927281. -0.2223418E-02  0.7609289E+00 -0.9720628E-02  0.2479557E-01  0.2589519E-01 -0.8123042E-02
1856703. -0.1036955E-01  0.7057906E+00 -0.9848979E-02 -0.1775760E-02  0.2562748E-01  0.5541801E-01
1786125. -0.1778802E-01  0.6309490E+00 -0.9679203E-02 -0.2891726E-01  0.2469550E-01  0.1113500E+00
1715547. -0.2430891E-01  0.5453203E+00 -0.9208255E-02 -0.5607737E-01  0.2319770E-01  0.1571978E+00
1644969. -0.2986708E-01  0.4588985E+00 -0.8437678E-02 -0.8300039E-01  0.2125740E-01  0.1909326E+00
1574391. -0.3451429E-01  0.3828236E+00 -0.7369626E-02 -0.1098543E+00  0.1901842E-01  0.2108515E+00
1503812. -0.3843397E-01  0.3298512E+00 -0.6001214E-02 -0.1374171E+00  0.1664274E-01  0.2153212E+00
1433234. -0.4196461E-01  0.3155179E+00 -0.4316337E-02 -0.1673683E+00  0.1431210E-01  0.2023229E+00
1362656. -0.4564256E-01  0.3605227E+00 -0.2273100E-02 -0.2027809E+00  0.1223604E-01  0.1686717E+00
1292078. -0.5028185E-01  0.4953474E+00  0.2159027E-03 -0.2489934E+00  0.1067174E-01  0.1086669E+00
1221500. -0.5712646E-01  0.7691434E+00  0.3316723E-02 -0.3152302E+00  0.9963855E-02  0.1168515E-01
1221500. -0.5712646E-01 -0.7461479E+01 -0.6076273E-01 -0.1896581E-01  0.9963855E-02  0.3643255E-01
1183328. -0.1073821E-01 -0.7862374E+01 -0.5750932E-01 -0.1062701E+01  0.9649253E-02  0.6728534E-01
1145156.  0.3507678E-01 -0.7259367E+01 -0.4822300E-01 -0.2009453E+01  0.9172217E-02  0.9080799E-01
1106984.  0.7423495E-01 -0.5650511E+01 -0.3388220E-01 -0.2730837E+01  0.8573977E-02  0.1078835E+00
1068812.  0.1010161E+00 -0.3158251E+01 -0.1614201E-01 -0.3131883E+01  0.7890717E-02  0.1193155E+00
1030641.  0.1107785E+00 -0.1678571E-01  0.2904697E-02 -0.3163040E+01  0.7154041E-02  0.1258366E+00
 992469.  0.1005536E+00  0.3455263E+01  0.2102028E-01 -0.2825274E+01  0.6391295E-02  0.1281181E+00
 954297.  0.6944386E-01  0.6891995E+01  0.3611908E-01 -0.2167914E+01  0.5626018E-02  0.1267811E+00
 916125.  0.1877683E-01  0.9924006E+01  0.4653612E-01 -0.1279965E+01  0.4878108E-02  0.1224166E+00
 877953. -0.4800583E-01  0.1222204E+02  0.5122526E-01 -0.2763838E+00  0.4163998E-02  0.1155912E+00
 839781. -0.1257079E+00  0.1353538E+02  0.4986572E-01  0.7185155E+00  0.3496773E-02  0.1068568E+00
 801609. -0.2079405E+00  0.1372038E+02  0.4286721E-01  0.1587932E+01  0.2886256E-02  0.9674966E-01
 763438. -0.2878146E+00  0.1275564E+02  0.3127887E-01  0.2237524E+01  0.2339123E-02  0.8578844E-01
 725266. -0.3586893E+00  0.1074222E+02  0.1661823E-01  0.2606410E+01  0.1858982E-02  0.7446018E-01
 687094. -0.4148582E+00  0.7889432E+01  0.6526890E-03  0.2672844E+01  0.1446708E-02  0.6320446E-01
 648922. -0.4521307E+00  0.4488020E+01 -0.1483928E-01  0.2454314E+01  0.1100653E-02  0.5241599E-01
 610750. -0.4682149E+00  0.8745577E+00 -0.2828950E-01  0.2002259E+01  0.8170432E-03  0.4240565E-01
 572578. -0.4628736E+00 -0.2608388E+01 -0.3851673E-01  0.1392529E+01  0.5904722E-03  0.3340951E-01
 534406. -0.4378417E+00 -0.5651267E+01 -0.4483732E-01  0.7132301E+00  0.4143568E-03  0.2558220E-01
 496234. -0.3965244E+00 -0.8010966E+01 -0.4709992E-01  0.5183003E-01  0.2814470E-03  0.1899160E-01
 458062. -0.3435219E+00 -0.9534715E+01 -0.4564545E-01 -0.5165853E+00  0.1843345E-03  0.1362584E-01
 419891. -0.2840481E+00 -0.1017185E+02 -0.4120447E-01 -0.9382865E+00  0.1158643E-03  0.9414450E-02
 381719. -0.2233097E+00 -0.9972508E+01 -0.3475100E-01 -0.1186107E+01  0.6946922E-04  0.6232969E-02
 343547. -0.1659477E+00 -0.9073749E+01 -0.2733988E-01 -0.1260143E+01  0.3942025E-04  0.3931040E-02
 305375. -0.1155774E+00 -0.7675708E+01 -0.1995037E-01 -0.1184624E+01  0.2094404E-04  0.2341789E-02
 267203. -0.7450201E-01 -0.6010785E+01 -0.1336068E-01 -0.1001098E+01  0.1026303E-04  0.1302721E-02
 229031. -0.4361779E-01 -0.4310678E+01 -0.8069288E-02 -0.7598601E+00  0.4534409E-05  0.6653539E-03
 190859. -0.2251431E-01 -0.2775131E+01 -0.4270688E-02 -0.5105546E+00  0.1742859E-05  0.3034312E-03
 152688. -0.9744510E-02 -0.1547038E+01 -0.1885111E-02 -0.2938784E+00  0.5484619E-06  0.1178793E-03
 114516. -0.3217243E-02 -0.6964334E+00 -0.6316775E-03 -0.1354174E+00  0.1258192E-06  0.3563065E-04
  76344. -0.6550035E-03 -0.2160064E+00 -0.1299407E-03 -0.4267401E-01  0.1615835E-07  0.6797146E-05
  38172. -0.4168432E-04 -0.2774467E-01 -0.8319971E-05 -0.5532046E-02  0.4975132E-09  0.4169102E-06
      0.  0.0000000E+00  0.0000000E+00  0.0000000E+00  0.0000000E+00  0.0000000E+00  0.0000000E+00
