      10        5 S      507        223.93700         32.50116          4.59756        241.15100      185    7
6371000. -0.8474541E-02  0.2529878E+00  0.2087861E-01  0.2935315E-01 -0.1812280E-03  0.1706837E-01
6370000. -0.8514145E-02  0.2516347E+00  0.2087322E-01  0.3941439E-01 -0.1838985E-03  0.1695884E-01
6369000. -0.8553533E-02  0.2502424E+00  0.2086624E-01  0.4947526E-01 -0.1865517E-03  0.1684888E-01
6368000. -0.8592700E-02  0.2488108E+00  0.2085769E-01  0.5953497E-01 -0.1891877E-03  0.1673850E-01
6368000. -0.8592700E-02  0.2488108E+00  0.2085769E-01  0.5953497E-01 -0.1891877E-03  0.1673850E-01
6367000. -0.8631638E-02  0.2473400E+00  0.2084755E-01  0.6959279E-01 -0.1918063E-03  0.1662769E-01
6366000. -0.8670343E-02  0.2458299E+00  0.2083584E-01  0.7964792E-01 -0.1944075E-03  0.1651647E-01
6365000. -0.8708808E-02  0.2442807E+00  0.2082255E-01  0.8969961E-01 -0.1969912E-03  0.1640483E-01
6364000. -0.8747026E-02  0.2426923E+00  0.2080768E-01  0.9974710E-01 -0.1995573E-03  0.1629278E-01
6363000. -0.8784993E-02  0.2410648E+00  0.2079124E-01  0.1097896E+00 -0.2021058E-03  0.1618032E-01
6362000. -0.8822700E-02  0.2393982E+00  0.2077322E-01  0.1198264E+00 -0.2046367E-03  0.1606745E-01
6361000. -0.8860143E-02  0.2376925E+00  0.2075362E-01  0.1298566E+00 -0.2071497E-03  0.1595417E-01
6360000. -0.8897315E-02  0.2359478E+00  0.2073245E-01  0.1398796E+00 -0.2096450E-03  0.1584049E-01
6359000. -0.8934210E-02  0.2341642E+00  0.2070971E-01  0.1498945E+00 -0.2121224E-03  0.1572640E-01
6358000. -0.8970822E-02  0.2323417E+00  0.2068540E-01  0.1599006E+00 -0.2145819E-03  0.1561192E-01
6357000. -0.9007146E-02  0.2304803E+00  0.2065951E-01  0.1698972E+00 -0.2170233E-03  0.1549704E-01
6356000. -0.9043173E-02  0.2285802E+00  0.2063206E-01  0.1798834E+00 -0.2194467E-03  0.1538177E-01
6356000. -0.9043173E-02  0.2051072E+00  0.2063206E-01  0.1203680E+00 -0.2194467E-03  0.1734946E-01
6355000. -0.9075264E-02  0.2038011E+00  0.2061265E-01  0.1270121E+00 -0.2221592E-03  0.1721269E-01
6354000. -0.9107149E-02  0.2024701E+00  0.2059219E-01  0.1336514E+00 -0.2248501E-03  0.1707561E-01
6353000. -0.9138823E-02  0.2011142E+00  0.2057069E-01  0.1402857E+00 -0.2275196E-03  0.1693821E-01
6352000. -0.9170283E-02  0.1997333E+00  0.2054815E-01  0.1469145E+00 -0.2301674E-03  0.1680049E-01
6351000. -0.9201523E-02  0.1983277E+00  0.2052457E-01  0.1535376E+00 -0.2327936E-03  0.1666245E-01
6350000. -0.9232541E-02  0.1968971E+00  0.2049995E-01  0.1601545E+00 -0.2353981E-03  0.1652411E-01
6349000. -0.9263332E-02  0.1954418E+00  0.2047430E-01  0.1667650E+00 -0.2379809E-03  0.1638545E-01
6348000. -0.9293893E-02  0.1939617E+00  0.2044760E-01  0.1733688E+00 -0.2405419E-03  0.1624649E-01
6347000. -0.9324220E-02  0.1924569E+00  0.2041987E-01  0.1799654E+00 -0.2430810E-03  0.1610722E-01
6346600. -0.9336284E-02  0.1918480E+00  0.2040849E-01  0.1826020E+00 -0.2440905E-03  0.1605142E-01
6346600. -0.9336284E-02  0.2371592E+00  0.2040849E-01  0.1329822E+00 -0.2440905E-03  0.1930685E-01
6318800. -0.1029789E-01  0.2009240E+00  0.1952195E-01  0.2723792E+00 -0.3193501E-03  0.1515887E-01
6291000. -0.1106681E-01  0.1489341E+00  0.1804305E-01  0.4037908E+00 -0.3761479E-03  0.1084942E-01
6291000. -0.1106681E-01  0.1558228E+00  0.1804305E-01  0.4183889E+00 -0.3761479E-03  0.1084942E-01
6263000. -0.1160349E-01  0.8588684E-01  0.1592439E-01  0.5432141E+00 -0.4141984E-03  0.6445239E-02
6235000. -0.1180082E-01  0.1707360E-02  0.1329346E-01  0.6508819E+00 -0.4326344E-03  0.1927787E-02
6207000. -0.1160085E-01 -0.9449258E-01  0.1023349E-01  0.7379313E+00 -0.4310152E-03 -0.2677015E-02
6179000. -0.1095668E-01 -0.1999337E+00  0.6841501E-02  0.8015692E+00 -0.4090147E-03 -0.7342660E-02
6151000. -0.9834699E-02 -0.3113469E+00  0.3225174E-02  0.8397468E+00 -0.3664265E-03 -0.1204104E-01
6151000. -0.9834699E-02 -0.2412656E+00  0.3225174E-02  0.7380172E+00 -0.3664265E-03 -0.1149693E-01
6128500. -0.8859751E-02 -0.3107573E+00  0.6067636E-03  0.7425370E+00 -0.3203342E-03 -0.1459374E-01
6106000. -0.7641320E-02 -0.3789303E+00 -0.2003594E-02  0.7335067E+00 -0.2634416E-03 -0.1761038E-01
6083500. -0.6186452E-02 -0.4444384E+00 -0.4558715E-02  0.7113450E+00 -0.1960616E-03 -0.2053024E-01
6061000. -0.4506874E-02 -0.5059786E+00 -0.7013291E-02  0.6766909E+00 -0.1185641E-03 -0.2333741E-01
6038500. -0.2618799E-02 -0.5623182E+00 -0.9324647E-02  0.6303974E+00 -0.3137361E-04 -0.2601718E-01
6016000. -0.5426442E-03 -0.6123117E+00 -0.1145346E-01  0.5735031E+00  0.6503563E-04 -0.2855589E-01
5993500.  0.1697310E-02 -0.6549200E+00 -0.1336437E-01  0.5072035E+00  0.1701430E-03 -0.3094107E-01
5971000.  0.4073338E-02 -0.6892348E+00 -0.1502647E-01  0.4328360E+00  0.2833862E-03 -0.3316153E-01
5971000.  0.4073338E-02 -0.6391612E+00 -0.1502647E-01  0.3829068E+00  0.2833862E-03 -0.3369477E-01
5937667.  0.7465264E-02 -0.6542132E+00 -0.1670993E-01  0.2603687E+00  0.4661993E-03 -0.3610255E-01
5904333.  0.1088604E-01 -0.6502501E+00 -0.1775240E-01  0.1386106E+00  0.6602691E-03 -0.3799490E-01
5871000.  0.1423804E-01 -0.6281522E+00 -0.1816892E-01  0.2172331E-01  0.8628864E-03 -0.3937341E-01
5837667.  0.1742991E-01 -0.5893095E+00 -0.1799403E-01 -0.8697646E-01  0.1071396E-02 -0.4025010E-01
5804333.  0.2037866E-01 -0.5355081E+00 -0.1727757E-01 -0.1849228E+00  0.1283229E-02 -0.4064555E-01
5771000.  0.2301118E-01 -0.4688242E+00 -0.1608102E-01 -0.2702529E+00  0.1495927E-02 -0.4058845E-01
5771000.  0.2301118E-01 -0.4688575E+00 -0.1608102E-01 -0.2702456E+00  0.1495927E-02 -0.4058845E-01
5701000.  0.2730915E-01 -0.3040881E+00 -0.1219583E-01 -0.4288718E+00  0.1929405E-02 -0.3807471E-01
5701000.  0.2730915E-01 -0.2726949E+00 -0.1219583E-01 -0.3478564E+00  0.1929405E-02 -0.4577218E-01
5667333.  0.2851734E-01 -0.1863424E+00 -0.1029456E-01 -0.3735245E+00  0.2164837E-02 -0.4330523E-01
5633667.  0.2928635E-01 -0.1041363E+00 -0.8225434E-02 -0.4099163E+00  0.2387009E-02 -0.4076213E-01
5600000.  0.2960761E-01 -0.1671463E-01 -0.5983026E-02 -0.4367263E+00  0.2595163E-02 -0.3797488E-01
5600000.  0.2960761E-01 -0.1671463E-01 -0.5983026E-02 -0.4367263E+00  0.2595163E-02 -0.3797488E-01
5563518.  0.2942249E-01  0.8186696E-01 -0.3425778E-02 -0.4544626E+00  0.2803386E-02 -0.3471049E-01
5527037.  0.2866639E-01  0.1823541E+00 -0.8010851E-03 -0.4603007E+00  0.2992255E-02 -0.3122310E-01
5490556.  0.2733478E-01  0.2825029E+00  0.1823122E-02 -0.4543273E+00  0.3160606E-02 -0.2755080E-01
5454074.  0.2543608E-01  0.3800383E+00  0.4380134E-02 -0.4368962E+00  0.3307501E-02 -0.2373377E-01
5417593.  0.2299159E-01  0.4727977E+00  0.6806077E-02 -0.4087038E+00  0.3432201E-02 -0.1980546E-01
5381111.  0.2003466E-01  0.5586533E+00  0.9041838E-02 -0.3706107E+00  0.3534182E-02 -0.1580444E-01
5344630.  0.1661071E-01  0.6356407E+00  0.1103365E-01 -0.3237242E+00  0.3613129E-02 -0.1176639E-01
5308148.  0.1277537E-01  0.7020271E+00  0.1273493E-01 -0.2693422E+00  0.3668926E-02 -0.7723821E-02
5271667.  0.8594282E-02  0.7562009E+00  0.1410661E-01 -0.2088635E+00  0.3701643E-02 -0.3711015E-02
5235185.  0.4140886E-02  0.7969137E+00  0.1511823E-01 -0.1438376E+00  0.3711539E-02  0.2424874E-03
5198704. -0.5045632E-03  0.8231705E+00  0.1574828E-01 -0.7586872E-01  0.3699033E-02  0.4108824E-02
5162222. -0.5257122E-02  0.8341883E+00  0.1598456E-01 -0.6573700E-02  0.3664699E-02  0.7862072E-02
5125741. -0.1002820E-01  0.8296549E+00  0.1582418E-01  0.6240657E-01  0.3609256E-02  0.1147828E-01
5089259. -0.1472864E-01  0.8094784E+00  0.1527346E-01  0.1294963E+00  0.3533545E-02  0.1493766E-01
5052778. -0.1926907E-01  0.7738830E+00  0.1434767E-01  0.1931766E+00  0.3438518E-02  0.1822284E-01
5016296. -0.2356307E-01  0.7234862E+00  0.1307030E-01  0.2520578E+00  0.3325216E-02  0.2131699E-01
4979815. -0.2752795E-01  0.6591318E+00  0.1147263E-01  0.3048587E+00  0.3194775E-02  0.2420888E-01
4943333. -0.3108715E-01  0.5819826E+00  0.9592675E-02  0.3504712E+00  0.3048372E-02  0.2688828E-01
4906852. -0.3417128E-01  0.4934817E+00  0.7474398E-02  0.3879741E+00  0.2887267E-02  0.2934516E-01
4870370. -0.3672000E-01  0.3952384E+00  0.5166424E-02  0.4165972E+00  0.2712727E-02  0.3157819E-01
4833889. -0.3868265E-01  0.2891319E+00  0.2721325E-02  0.4358237E+00  0.2526064E-02  0.3358019E-01
4797407. -0.4001999E-01  0.1771605E+00  0.1937678E-03  0.4453317E+00  0.2328601E-02  0.3534888E-01
4760926. -0.4070438E-01  0.6144429E-01 -0.2359904E-02  0.4449674E+00  0.2121671E-02  0.3688873E-01
4724444. -0.4072073E-01 -0.5580446E-01 -0.4883557E-02  0.4348586E+00  0.1906583E-02  0.3819592E-01
4687963. -0.4006666E-01 -0.1723443E+00 -0.7321985E-02  0.4152845E+00  0.1684674E-02  0.3927435E-01
4651482. -0.3875266E-01 -0.2859389E+00 -0.9622292E-02  0.3867147E+00  0.1457230E-02  0.4012955E-01
4615000. -0.3680178E-01 -0.3944175E+00 -0.1173492E-01  0.3498352E+00  0.1225524E-02  0.4076124E-01
4578518. -0.3424943E-01 -0.4956733E+00 -0.1361443E-01  0.3054439E+00  0.9908226E-03  0.4117689E-01
4542037. -0.3114276E-01 -0.5877445E+00 -0.1522048E-01  0.2545095E+00  0.7543552E-03  0.4138053E-01
4505556. -0.2753945E-01 -0.6688564E+00 -0.1651871E-01  0.1981163E+00  0.5173261E-03  0.4137414E-01
4469074. -0.2350690E-01 -0.7373807E+00 -0.1748114E-01  0.1374151E+00  0.2809065E-03  0.4116631E-01
4432593. -0.1912138E-01 -0.7919789E+00 -0.1808662E-01  0.7366125E-01  0.4625723E-04  0.4075817E-01
4396111. -0.1446565E-01 -0.8315454E+00 -0.1832134E-01  0.8129176E-02 -0.1854951E-03  0.4015322E-01
4359630. -0.9628720E-02 -0.8552023E+00 -0.1817881E-01 -0.5788060E-01 -0.4132269E-03  0.3935645E-01
4323148. -0.4702989E-02 -0.8624501E+00 -0.1766000E-01 -0.1230826E+00 -0.6358541E-03  0.3836835E-01
4286667.  0.2164127E-03 -0.8530155E+00 -0.1677318E-01 -0.1862167E+00 -0.8522744E-03  0.3719088E-01
4250185.  0.5034169E-02 -0.8269403E+00 -0.1553362E-01 -0.2460818E+00 -0.1061418E-02  0.3582479E-01
4213704.  0.9655724E-02 -0.7846153E+00 -0.1396333E-01 -0.3015667E+00 -0.1262193E-02  0.3427003E-01
4177222.  0.1398990E-01 -0.7266516E+00 -0.1209032E-01 -0.3516364E+00 -0.1453526E-02  0.3252446E-01
4140741.  0.1794948E-01 -0.6540014E+00 -0.9948348E-02 -0.3953858E+00 -0.1634309E-02  0.3058675E-01
4104259.  0.2145397E-01 -0.5678777E+00 -0.7575723E-02 -0.4320556E+00 -0.1803446E-02  0.2845446E-01
4067778.  0.2442992E-01 -0.4696890E+00 -0.5015119E-02 -0.4609704E+00 -0.1959795E-02  0.2612069E-01
4031296.  0.2681317E-01 -0.3611356E+00 -0.2312186E-02 -0.4816805E+00 -0.2102203E-02  0.2358367E-01
3994815.  0.2854951E-01 -0.2440757E+00  0.4849686E-03 -0.4938577E+00 -0.2229485E-02  0.2083748E-01
3958333.  0.2959593E-01 -0.1205015E+00  0.3326946E-02 -0.4972956E+00 -0.2340419E-02  0.1787137E-01
3921852.  0.2992127E-01  0.7408264E-02  0.6163573E-02 -0.4920322E+00 -0.2433732E-02  0.1468285E-01
3885370.  0.2950703E-01  0.1374377E+00  0.8945490E-02 -0.4781913E+00 -0.2508127E-02  0.1126106E-01
3848889.  0.2834766E-01  0.2672894E+00  0.1162416E-01 -0.4560653E+00 -0.2562232E-02  0.7595782E-02
3812407.  0.2645069E-01  0.3946661E+00  0.1415360E-01 -0.4261249E+00 -0.2594640E-02  0.3680449E-02
3775926.  0.2383696E-01  0.5172814E+00  0.1649041E-01 -0.3889109E+00 -0.2603876E-02 -0.4994932E-03
3739444.  0.2053997E-01  0.6329216E+00  0.1859501E-01 -0.3451324E+00 -0.2588394E-02 -0.4954366E-02
3702963.  0.1660595E-01  0.7394730E+00  0.2043202E-01 -0.2956039E+00 -0.2546593E-02 -0.9694827E-02
3666482.  0.1209266E-01  0.8349302E+00  0.2197096E-01 -0.2411778E+00 -0.2476787E-02 -0.1473826E-01
3630000.  0.7068741E-02  0.9174921E+00  0.2318661E-01 -0.1828388E+00 -0.2377203E-02 -0.2009740E-01
3630000.  0.7068741E-02  0.9174921E+00  0.2318661E-01 -0.1828388E+00 -0.2377203E-02 -0.2009740E-01
3592500.  0.1455376E-02  0.9871777E+00  0.2407863E-01 -0.1198399E+00 -0.2241851E-02 -0.2595332E-01
3555000. -0.4519103E-02  0.1039965E+01  0.2459357E-01 -0.5490310E-01 -0.2070949E-02 -0.3218045E-01
3517500. -0.1075147E-01  0.1074620E+01  0.2472344E-01  0.1080973E-01 -0.1862248E-02 -0.3880072E-01
3480000. -0.1713196E-01  0.1090159E+01  0.2446704E-01  0.7615723E-01 -0.1613366E-02 -0.4583756E-01
3480000. -0.1713196E-01  0.6396960E+00 -0.2792555E-02 -0.2620332E-01 -0.1613366E-02  0.8794346E-02
3409422. -0.2372308E-01  0.5469296E+00 -0.2426144E-02 -0.3976819E-01 -0.2040684E-02  0.6721611E-01
3338844. -0.2918851E-01  0.4375776E+00 -0.1916290E-02 -0.5202550E-01 -0.3074238E-02  0.1179716E+00
3268266. -0.3338102E-01  0.3181815E+00 -0.1279796E-02 -0.6257181E-01 -0.4620997E-02  0.1596802E+00
3197688. -0.3622368E-01  0.1948460E+00 -0.5374120E-03 -0.7109989E-01 -0.6575373E-02  0.1914546E+00
3127109. -0.3770380E-01  0.7304054E-01  0.2872703E-03 -0.7740080E-01 -0.8824649E-02  0.2128850E+00
3056531. -0.3786515E-01 -0.4252077E-01  0.1168835E-02 -0.8135988E-01 -0.1125396E-01  0.2240035E+00
2985953. -0.3679916E-01 -0.1479690E+00  0.2081129E-02 -0.8295155E-01 -0.1375113E-01  0.2252374E+00
2915375. -0.3463527E-01 -0.2403051E+00  0.2998166E-02 -0.8223140E-01 -0.1621060E-01  0.2173483E+00
2844797. -0.3153134E-01 -0.3173999E+00  0.3894972E-02 -0.7932568E-01 -0.1853680E-01  0.2013683E+00
2774219. -0.2766413E-01 -0.3779535E+00  0.4748317E-02 -0.7442036E-01 -0.2064679E-01  0.1785322E+00
2703641. -0.2322051E-01 -0.4214388E+00  0.5537312E-02 -0.6775082E-01 -0.2247210E-01  0.1502099E+00
2633062. -0.1838912E-01 -0.4480269E+00  0.6243899E-02 -0.5958817E-01 -0.2395992E-01  0.1178404E+00
2562484. -0.1335357E-01 -0.4584852E+00  0.6853129E-02 -0.5022650E-01 -0.2507341E-01  0.8287420E-01
2491906. -0.8285816E-02 -0.4540897E+00  0.7353431E-02 -0.3997470E-01 -0.2579169E-01  0.4671634E-01
2421328. -0.3341443E-02 -0.4365187E+00  0.7736671E-02 -0.2914346E-01 -0.2610893E-01  0.1068140E-01
2350750.  0.1344367E-02 -0.4077602E+00  0.7998100E-02 -0.1803179E-01 -0.2603320E-01 -0.2404481E-01
2280172.  0.5659651E-02 -0.3700021E+00  0.8136194E-02 -0.6922176E-02 -0.2558484E-01 -0.5643475E-01
2209594.  0.9517436E-02 -0.3255548E+00  0.8152422E-02  0.3930262E-02 -0.2479462E-01 -0.8563928E-01
2139016.  0.1285663E-01 -0.2767690E+00  0.8050883E-02  0.1430563E-01 -0.2370164E-01 -0.1109992E+00
2068438.  0.1564215E-01 -0.2259811E+00  0.7837883E-02  0.2402817E-01 -0.2235126E-01 -0.1320481E+00
1997859.  0.1786446E-01 -0.1754522E+00  0.7521386E-02  0.3297360E-01 -0.2079292E-01 -0.1485082E+00
1927281.  0.1953855E-01 -0.1273687E+00  0.7110442E-02  0.4107472E-01 -0.1907823E-01 -0.1602756E+00
1856703.  0.2070322E-01 -0.8382675E-01  0.6614444E-02  0.4833650E-01 -0.1725900E-01 -0.1674025E+00
1786125.  0.2142024E-01 -0.4689991E-01  0.6042280E-02  0.5484827E-01 -0.1538574E-01 -0.1700685E+00
1715547.  0.2177466E-01 -0.1873608E-01  0.5401293E-02  0.6080453E-01 -0.1350644E-01 -0.1685457E+00
1644969.  0.2187659E-01 -0.1757316E-02  0.4695921E-02  0.6654321E-01 -0.1166573E-01 -0.1631525E+00
1574391.  0.2186599E-01  0.9940017E-03  0.3925812E-02  0.7260257E-01 -0.9904778E-02 -0.1541945E+00
1503812.  0.2192254E-01 -0.1473271E-01  0.3083100E-02  0.7982143E-01 -0.8261742E-02 -0.1418801E+00
1433234.  0.2228409E-01 -0.5541730E-01  0.2148231E-02  0.8951490E-01 -0.6773644E-02 -0.1261973E+00
1362656.  0.2328051E-01 -0.1315814E+00  0.1083059E-02  0.1037873E+00 -0.5479656E-02 -0.1067142E+00
1292078.  0.2539482E-01 -0.2610925E+00 -0.1807090E-03  0.1261067E+00 -0.4427543E-02 -0.8224249E-01
1221500.  0.2937539E-01 -0.4753947E+00 -0.1761995E-02  0.1623905E+00 -0.3685039E-02 -0.5023069E-01
1221500.  0.2937539E-01  0.1352462E+01  0.1198071E-01 -0.9072570E-01 -0.3685039E-02 -0.6295622E-01
1183328.  0.2058740E-01  0.1572120E+01  0.1228811E-01 -0.1073209E-01 -0.3313681E-02 -0.6088015E-01
1145156.  0.1065571E-01  0.1732140E+01  0.1210193E-01  0.7294742E-01 -0.2956837E-02 -0.5813964E-01
1106984. -0.2879086E-04  0.1822018E+01  0.1141937E-01  0.1539257E+00 -0.2617998E-02 -0.5489539E-01
1068812. -0.1102543E-01  0.1835723E+01  0.1027458E-01  0.2263343E+00 -0.2299745E-02 -0.5129021E-01
1030641. -0.2187143E-01  0.1772033E+01  0.8734241E-02  0.2852523E+00 -0.2003866E-02 -0.4744890E-01
 992469. -0.3211199E-01  0.1634512E+01  0.6890712E-02  0.3270393E+00 -0.1731429E-02 -0.4347854E-01
 954297. -0.4132637E-01  0.1431172E+01  0.4853926E-02  0.3495321E+00 -0.1482939E-02 -0.3946957E-01
 916125. -0.4915392E-01  0.1173830E+01  0.2742071E-02  0.3521267E+00 -0.1258388E-02 -0.3549848E-01
 877953. -0.5531405E-01  0.8772277E+00  0.6723857E-03  0.3357249E+00 -0.1057361E-02 -0.3162662E-01
 839781. -0.5962059E-01  0.5579630E+00 -0.1247409E-02  0.3025645E+00 -0.8791078E-03 -0.2790373E-01
 801609. -0.6198958E-01  0.2333552E+00 -0.2926354E-02  0.2559532E+00 -0.7226125E-03 -0.2436941E-01
 763438. -0.6244008E-01 -0.7970931E-01 -0.4295683E-02  0.1999430E+00 -0.5866554E-03 -0.2105331E-01
 725266. -0.6108826E-01 -0.3658863E+00 -0.5312286E-02  0.1389479E+00 -0.4698533E-03 -0.1797739E-01
 687094. -0.5813533E-01 -0.6122551E+00 -0.5959598E-02  0.7739054E-01 -0.3707180E-03 -0.1515801E-01
 648922. -0.5385072E-01 -0.8090810E+00 -0.6246703E-02  0.1934212E-01 -0.2876852E-03 -0.1260331E-01
 610750. -0.4855138E-01 -0.9502754E+00 -0.6205283E-02 -0.3176624E-01 -0.2191522E-03 -0.1031831E-01
 572578. -0.4257929E-01 -0.1033593E+01 -0.5885099E-02 -0.7336153E-01 -0.1635017E-03 -0.8302536E-02
 534406. -0.3627850E-01 -0.1060552E+01 -0.5348403E-02 -0.1038605E+00 -0.1191342E-03 -0.6550828E-02
 496234. -0.2997347E-01 -0.1036086E+01 -0.4663851E-02 -0.1227090E+00 -0.8449228E-04 -0.5054313E-02
 458062. -0.2395028E-01 -0.9679746E+00 -0.3900439E-02 -0.1303307E+00 -0.5808235E-04 -0.3800547E-02
 419891. -0.1844180E-01 -0.8660954E+00 -0.3122030E-02 -0.1279946E+00 -0.3849785E-04 -0.2773166E-02
 381719. -0.1361721E-01 -0.7415448E+00 -0.2382760E-02 -0.1176213E+00 -0.2443747E-04 -0.1952966E-02
 343547. -0.9578225E-02 -0.6057432E+00 -0.1723967E-02 -0.1015408E+00 -0.1472522E-04 -0.1317892E-02
 305375. -0.6359258E-02 -0.4695326E+00 -0.1172398E-02 -0.8224396E-01 -0.8322746E-05 -0.8440508E-03
 267203. -0.3933575E-02 -0.3423662E+00 -0.7400603E-03 -0.6211903E-01 -0.4339162E-05 -0.5061927E-03
 229031. -0.2223616E-02 -0.2316579E+00 -0.4255039E-03 -0.4323592E-01 -0.2036460E-05 -0.2787369E-03
 190859. -0.1114762E-02 -0.1423057E+00 -0.2163069E-03 -0.2716216E-01 -0.8284279E-06 -0.1367317E-03
 152688. -0.4712513E-03 -0.7645323E-01 -0.9246236E-04 -0.1484981E-01 -0.2741888E-06 -0.5679716E-04
 114516. -0.1527921E-03 -0.3346936E-01 -0.3023388E-04 -0.6586417E-02 -0.6557116E-07 -0.1816751E-04
  76344. -0.3070990E-04 -0.1018002E-01 -0.6113100E-05 -0.2021590E-02 -0.8682128E-08 -0.3616377E-05
  38172. -0.1939433E-05 -0.1292520E-02 -0.3874281E-06 -0.2580453E-03 -0.2721840E-09 -0.2270027E-06
      0.  0.0000000E+00  0.0000000E+00  0.0000000E+00  0.0000000E+00  0.0000000E+00  0.0000000E+00
