       6       28 S      389        123.59220         11.36453          6.61361        255.52010      185    7
6371000. -0.4717625E-01  0.6864212E+00  0.2034623E-02  0.4921087E-01 -0.2066294E-03  0.9495562E-01
6370000. -0.4728197E-01  0.6606198E+00  0.2026688E-02  0.5189528E-01 -0.2215134E-03  0.9469598E-01
6369000. -0.4738361E-01  0.6345263E+00  0.2018333E-02  0.5456120E-01 -0.2363564E-03  0.9443229E-01
6368000. -0.4748115E-01  0.6081441E+00  0.2009561E-02  0.5720803E-01 -0.2511576E-03  0.9416459E-01
6368000. -0.4748115E-01  0.6081441E+00  0.2009561E-02  0.5720803E-01 -0.2511576E-03  0.9416459E-01
6367000. -0.4757451E-01  0.5814767E+00  0.2000375E-02  0.5983517E-01 -0.2659165E-03  0.9389286E-01
6366000. -0.4766367E-01  0.5545276E+00  0.1990778E-02  0.6244200E-01 -0.2806325E-03  0.9361714E-01
6365000. -0.4774857E-01  0.5273005E+00  0.1980774E-02  0.6502794E-01 -0.2953049E-03  0.9333743E-01
6364000. -0.4782918E-01  0.4997989E+00  0.1970366E-02  0.6759240E-01 -0.3099330E-03  0.9305375E-01
6363000. -0.4790546E-01  0.4720267E+00  0.1959556E-02  0.7013477E-01 -0.3245163E-03  0.9276611E-01
6362000. -0.4797735E-01  0.4439878E+00  0.1948350E-02  0.7265449E-01 -0.3390542E-03  0.9247451E-01
6361000. -0.4804482E-01  0.4156859E+00  0.1936750E-02  0.7515098E-01 -0.3535459E-03  0.9217899E-01
6360000. -0.4810783E-01  0.3871251E+00  0.1924760E-02  0.7762367E-01 -0.3679910E-03  0.9187955E-01
6359000. -0.4816633E-01  0.3583094E+00  0.1912383E-02  0.8007199E-01 -0.3823888E-03  0.9157621E-01
6358000. -0.4822030E-01  0.3292430E+00  0.1899625E-02  0.8249541E-01 -0.3967386E-03  0.9126898E-01
6357000. -0.4826968E-01  0.2999300E+00  0.1886487E-02  0.8489334E-01 -0.4110400E-03  0.9095788E-01
6356000. -0.4831444E-01  0.2703747E+00  0.1872976E-02  0.8726525E-01 -0.4252922E-03  0.9064292E-01
6356000. -0.4831444E-01  0.3184096E+00  0.1872976E-02  0.7261439E-01 -0.4252922E-03  0.1011556E+00
6355000. -0.4836274E-01  0.2969580E+00  0.1861468E-02  0.7402448E-01 -0.4411426E-03  0.1008106E+00
6354000. -0.4840766E-01  0.2753644E+00  0.1849739E-02  0.7541975E-01 -0.4569388E-03  0.1004636E+00
6353000. -0.4844917E-01  0.2536308E+00  0.1837792E-02  0.7679999E-01 -0.4726803E-03  0.1001143E+00
6352000. -0.4848727E-01  0.2317597E+00  0.1825630E-02  0.7816501E-01 -0.4883668E-03  0.9976294E-01
6351000. -0.4852192E-01  0.2097533E+00  0.1813255E-02  0.7951459E-01 -0.5039980E-03  0.9940943E-01
6350000. -0.4855311E-01  0.1876140E+00  0.1800670E-02  0.8084857E-01 -0.5195736E-03  0.9905381E-01
6349000. -0.4858081E-01  0.1653441E+00  0.1787876E-02  0.8216673E-01 -0.5350931E-03  0.9869607E-01
6348000. -0.4860501E-01  0.1429461E+00  0.1774877E-02  0.8346890E-01 -0.5505563E-03  0.9833623E-01
6347000. -0.4862568E-01  0.1204224E+00  0.1761674E-02  0.8475488E-01 -0.5659630E-03  0.9797430E-01
6346600. -0.4863295E-01  0.1113782E+00  0.1756337E-02  0.8526470E-01 -0.5721097E-03  0.9782895E-01
6346600. -0.4863295E-01  0.3556632E+00  0.1756337E-02  0.7399806E-01 -0.5721097E-03  0.1147866E+00
6318800. -0.4909997E-01 -0.1521633E+00  0.1388748E-02  0.9292122E-01 -0.1051554E-02  0.1048608E+00
6291000. -0.4723961E-01 -0.7047623E+00  0.9600021E-03  0.1018414E+00 -0.1486333E-02  0.9431621E-01
6291000. -0.4723961E-01 -0.7081646E+00  0.9600021E-03  0.1036733E+00 -0.1486333E-02  0.9431621E-01
6263000. -0.4285917E-01 -0.1282291E+01  0.5041786E-03  0.1018395E+00 -0.1876262E-02  0.8302020E-01
6235000. -0.3602860E-01 -0.1815432E+01  0.8125036E-04  0.8884658E-01 -0.2215158E-02  0.7110547E-01
6207000. -0.2702794E-01 -0.2262699E+01 -0.2623872E-03  0.6606904E-01 -0.2500501E-02  0.5866955E-01
6179000. -0.1632382E-01 -0.2584726E+01 -0.4885049E-03  0.3582091E-01 -0.2730297E-02  0.4585556E-01
6151000. -0.4536813E-02 -0.2751423E+01 -0.5707422E-03  0.1148084E-02 -0.2903287E-02  0.3285424E-01
6151000. -0.4536813E-02 -0.2255669E+01 -0.5707422E-03  0.1506743E-02 -0.2903287E-02  0.3310524E-01
6128500.  0.3400251E-02 -0.2225309E+01 -0.5336137E-03 -0.2243304E-01 -0.3008947E-02  0.2679104E-01
6106000.  0.1108416E-01 -0.2112950E+01 -0.4137606E-03 -0.4512984E-01 -0.3092972E-02  0.2086077E-01
6083500.  0.1823441E-01 -0.1924345E+01 -0.2177360E-03 -0.6538153E-01 -0.3156793E-02  0.1535553E-01
6061000.  0.2459704E-01 -0.1668693E+01  0.4393624E-04 -0.8214996E-01 -0.3201973E-02  0.1030984E-01
6038500.  0.2995593E-01 -0.1358137E+01  0.3574239E-03 -0.9460642E-01 -0.3230189E-02  0.5752853E-02
6016000.  0.3414207E-01 -0.1007088E+01  0.7063875E-03 -0.1021636E+00 -0.3243212E-02  0.1709116E-02
5993500.  0.3704029E-01 -0.6315009E+00  0.1072866E-02 -0.1044930E+00 -0.3242889E-02 -0.1801182E-02
5971000.  0.3859336E-01 -0.2481130E+00  0.1438210E-02 -0.1015315E+00 -0.3231139E-02 -0.4759373E-02
5971000.  0.3859336E-01 -0.1873203E+00  0.1438210E-02 -0.9471355E-01 -0.3231139E-02 -0.9811570E-02
5937667.  0.3820360E-01  0.3257506E+00  0.1902638E-02 -0.8156609E-01 -0.3168349E-02 -0.1401402E-01
5904333.  0.3532287E-01  0.7598364E+00  0.2280690E-02 -0.6209728E-01 -0.3086193E-02 -0.1724258E-01
5871000.  0.3043293E-01  0.1090781E+01  0.2545743E-02 -0.3878947E-01 -0.2989330E-02 -0.1966271E-01
5837667.  0.2411099E-01  0.1306072E+01  0.2684083E-02 -0.1403957E-01 -0.2881604E-02 -0.2141634E-01
5804333.  0.1697126E-01  0.1403789E+01  0.2693832E-02  0.1004710E-01 -0.2766196E-02 -0.2261342E-01
5771000.  0.9614551E-02  0.1390892E+01  0.2583078E-02  0.3178267E-01 -0.2645811E-02 -0.2332987E-01
5771000.  0.9614551E-02  0.1391017E+01  0.2583078E-02  0.3178138E-01 -0.2645811E-02 -0.2332987E-01
5701000. -0.4342875E-02  0.1082648E+01  0.2005888E-02  0.7103258E-01 -0.2391753E-02 -0.2243259E-01
5701000. -0.4342875E-02  0.9787765E+00  0.2005888E-02  0.5764342E-01 -0.2391753E-02 -0.2120849E-01
5667333. -0.8893508E-02  0.7468636E+00  0.1691730E-02  0.6115717E-01 -0.2275096E-02 -0.2292055E-01
5633667. -0.1225200E-01  0.5219831E+00  0.1358903E-02  0.6466446E-01 -0.2150284E-02 -0.2422429E-01
5600000. -0.1437145E-01  0.2777964E+00  0.1013178E-02  0.6570689E-01 -0.2019930E-02 -0.2503955E-01
5600000. -0.1437145E-01  0.2777964E+00  0.1013178E-02  0.6570689E-01 -0.2019930E-02 -0.2503955E-01
5563518. -0.1518324E-01  0.5623298E-02  0.6403815E-03  0.6402902E-01 -0.1875124E-02 -0.2546298E-01
5527037. -0.1444833E-01 -0.2600266E+00  0.2850222E-03  0.5966881E-01 -0.1729094E-02 -0.2547972E-01
5490556. -0.1224413E-01 -0.5054063E+00 -0.3849940E-04  0.5297571E-01 -0.1583984E-02 -0.2515101E-01
5454074. -0.8722104E-02 -0.7184628E+00 -0.3180671E-03  0.4439559E-01 -0.1441617E-02 -0.2452854E-01
5417593. -0.4096468E-02 -0.8894995E+00 -0.5443217E-03  0.3444658E-01 -0.1303542E-02 -0.2366068E-01
5381111.  0.1370520E-02 -0.1011301E+01 -0.7109827E-03  0.2367076E-01 -0.1171036E-02 -0.2258887E-01
5344630.  0.7382594E-02 -0.1079452E+01 -0.8148768E-03  0.1261483E-01 -0.1045163E-02 -0.2135132E-01
5308148.  0.1362713E-01 -0.1092387E+01 -0.8559096E-03  0.1796542E-02 -0.9267620E-03 -0.1998353E-01
5271667.  0.1978914E-01 -0.1051072E+01 -0.8367968E-03 -0.8319953E-02 -0.8164860E-03 -0.1852024E-01
5235185.  0.2556731E-01 -0.9590389E+00 -0.7627286E-03 -0.1733798E-01 -0.7147868E-03 -0.1699154E-01
5198704.  0.3068605E-01 -0.8218741E+00 -0.6409357E-03 -0.2494564E-01 -0.6219628E-03 -0.1542668E-01
5162222.  0.3490703E-01 -0.6467499E+00 -0.4801591E-03 -0.3092311E-01 -0.5381216E-03 -0.1385763E-01
5125741.  0.3803664E-01 -0.4422198E+00 -0.2901623E-03 -0.3513918E-01 -0.4632302E-03 -0.1230492E-01
5089259.  0.3993282E-01 -0.2174874E+00 -0.8117290E-04 -0.3755552E-01 -0.3971226E-03 -0.1079352E-01
5052778.  0.4050702E-01  0.1791437E-01  0.1365801E-03 -0.3821555E-01 -0.3394941E-03 -0.9346771E-02
5016296.  0.3972521E-01  0.2546033E+00  0.3533471E-03 -0.3723351E-01 -0.2899321E-03 -0.7978084E-02
4979815.  0.3760580E-01  0.4837067E+00  0.5601903E-03 -0.3478498E-01 -0.2479431E-03 -0.6704842E-02
4943333.  0.3421547E-01  0.6972355E+00  0.7493368E-03 -0.3109024E-01 -0.2129416E-03 -0.5538201E-02
4906852.  0.2966383E-01  0.8883168E+00  0.9143462E-03 -0.2639985E-01 -0.1843046E-03 -0.4483478E-02
4870370.  0.2409590E-01  0.1051336E+01  0.1050290E-02 -0.2098259E-01 -0.1613632E-03 -0.3549386E-02
4833889.  0.1768522E-01  0.1182162E+01  0.1153778E-02 -0.1510950E-01 -0.1434264E-03 -0.2735271E-02
4797407.  0.1062413E-01  0.1278109E+01  0.1222959E-02 -0.9041560E-02 -0.1298121E-03 -0.2039356E-02
4760926.  0.3117255E-02  0.1337837E+01  0.1257424E-02 -0.3023032E-02 -0.1198478E-03 -0.1459744E-02
4724444. -0.4628221E-02  0.1361504E+01  0.1258089E-02  0.2730315E-02 -0.1128852E-03 -0.9896250E-03
4687963. -0.1240857E-01  0.1350393E+01  0.1227014E-02  0.8036019E-02 -0.1083198E-03 -0.6209884E-03
4651482. -0.2003107E-01  0.1306849E+01  0.1167196E-02  0.1274785E-01 -0.1055978E-03 -0.3442598E-03
4615000. -0.2731930E-01  0.1234172E+01  0.1082365E-02  0.1675733E-01 -0.1042173E-03 -0.1506915E-03
4578518. -0.3411704E-01  0.1136230E+01  0.9767563E-03  0.1999628E-01 -0.1037381E-03 -0.2725215E-04
4542037. -0.4029185E-01  0.1017420E+01  0.8548994E-03  0.2243056E-01 -0.1037918E-03  0.3675320E-04
4505556. -0.4573770E-01  0.8824031E+00  0.7214179E-03  0.2405936E-01 -0.1040600E-03  0.4996880E-04
4469074. -0.5037528E-01  0.7358394E+00  0.5808392E-03  0.2491528E-01 -0.1043014E-03  0.2943994E-04
4432593. -0.5415158E-01  0.5823777E+00  0.4374614E-03  0.2504838E-01 -0.1043410E-03 -0.1986081E-04
4396111. -0.5703997E-01  0.4263753E+00  0.2952185E-03  0.2453168E-01 -0.1040371E-03 -0.8781240E-04
4359630. -0.5903733E-01  0.2718170E+00  0.1575821E-03  0.2345588E-01 -0.1033316E-03 -0.1590431E-03
4323148. -0.6016241E-01  0.1222390E+00  0.2749024E-04  0.2191124E-01 -0.1022067E-03 -0.2336607E-03
4286667. -0.6045255E-01 -0.1934288E-01 -0.9265437E-04  0.2000025E-01 -0.1006728E-03 -0.2995943E-03
4250185. -0.5996080E-01 -0.1504986E+00 -0.2010540E-03  0.1782370E-01 -0.9880947E-04 -0.3484678E-03
4213704. -0.5875250E-01 -0.2693652E+00 -0.2964443E-03  0.1547284E-01 -0.9671360E-04 -0.3797347E-03
4177222. -0.5690192E-01 -0.3746451E+00 -0.3781017E-03  0.1304101E-01 -0.9451869E-04 -0.3814430E-03
4140741. -0.5448935E-01 -0.4655981E+00 -0.4457906E-03  0.1060622E-01 -0.9240725E-04 -0.3507581E-03
4104259. -0.5159757E-01 -0.5419894E+00 -0.4996859E-03  0.8233734E-02 -0.9056705E-04 -0.2848440E-03
4067778. -0.4830986E-01 -0.6039846E+00 -0.5403310E-03  0.5987464E-02 -0.8924229E-04 -0.1694066E-03
4031296. -0.4470686E-01 -0.6522101E+00 -0.5685706E-03  0.3905663E-02 -0.8872194E-04 -0.3641888E-05
3994815. -0.4086518E-01 -0.6875495E+00 -0.5854341E-03  0.2019475E-02 -0.8931346E-04  0.2217511E-03
3958333. -0.3685536E-01 -0.7111117E+00 -0.5921217E-03  0.3533559E-03 -0.9141113E-04  0.5243687E-03
3921852. -0.3274124E-01 -0.7242472E+00 -0.5899019E-03 -0.1092118E-02 -0.9548051E-04  0.9126539E-03
3885370. -0.2857839E-01 -0.7283198E+00 -0.5800317E-03 -0.2319811E-02 -0.1020685E-03  0.1408383E-02
3848889. -0.2441495E-01 -0.7247325E+00 -0.5637222E-03 -0.3345644E-02 -0.1118658E-03  0.2037947E-02
3812407. -0.2029055E-01 -0.7148514E+00 -0.5420393E-03 -0.4202304E-02 -0.1257177E-03  0.2830657E-02
3775926. -0.1623810E-01 -0.6998202E+00 -0.5158467E-03 -0.4928858E-02 -0.1446819E-03  0.3832038E-02
3739444. -0.1228402E-01 -0.6805872E+00 -0.4857308E-03 -0.5583762E-02 -0.1701047E-03  0.5096321E-02
3702963. -0.8450727E-02 -0.6577153E+00 -0.4518903E-03 -0.6244220E-02 -0.2036815E-03  0.6694054E-02
3666482. -0.4758762E-02 -0.6311724E+00 -0.4140285E-03 -0.7007131E-02 -0.2475836E-03  0.8720460E-02
3630000. -0.1230635E-02 -0.6002607E+00 -0.3711959E-03 -0.8005334E-02 -0.3045967E-03  0.1129562E-01
3630000. -0.1230635E-02 -0.6002607E+00 -0.3711959E-03 -0.8005334E-02 -0.3045967E-03  0.1129562E-01
3592500.  0.2193847E-02 -0.5620147E+00 -0.3200616E-03 -0.9460867E-02 -0.3806292E-03  0.1468025E-01
3555000.  0.5365743E-02 -0.5136756E+00 -0.2584694E-03 -0.1160926E-01 -0.4793092E-03  0.1903308E-01
3517500.  0.8209734E-02 -0.4493681E+00 -0.1813413E-03 -0.1481002E-01 -0.6071524E-03  0.2464447E-01
3480000.  0.1060643E-01 -0.3597885E+00 -0.8108663E-04 -0.1956615E-01 -0.7726285E-03  0.3189180E-01
3480000.  0.1060643E-01  0.3107179E+00  0.5598674E-03  0.1838296E-01 -0.7726285E-03 -0.1930931E-02
3409422.  0.7561989E-02  0.2401695E+00  0.3848327E-03  0.1340700E-01 -0.6865198E-03 -0.1176858E-01
3338844.  0.5250188E-02  0.1790016E+00  0.2587818E-03  0.9522375E-02 -0.5405850E-03 -0.1371768E-01
3268266.  0.3554062E-02  0.1291303E+00  0.1703146E-03  0.6595416E-02 -0.3950171E-03 -0.1223263E-01
3197688.  0.2347889E-02  0.9040283E-01  0.1097342E-03  0.4459077E-02 -0.2735142E-03 -0.9637016E-02
3127109.  0.1514613E-02  0.6153717E-01  0.6922391E-04  0.2944774E-02 -0.1814523E-03 -0.7032498E-02
3056531.  0.9545019E-03  0.4078292E-01  0.4275656E-04  0.1900498E-02 -0.1160810E-03 -0.4855959E-02
2985953.  0.5877481E-03  0.2633915E-01  0.2585418E-04  0.1198952E-02 -0.7189233E-04 -0.3208587E-02
2915375.  0.3536422E-03  0.1658704E-01  0.1530192E-04  0.7394223E-03 -0.4321087E-04 -0.2041925E-02
2844797.  0.2078977E-03  0.1018886E-01  0.8861551E-05  0.4457732E-03 -0.2524362E-04 -0.1256492E-02
2774219.  0.1193831E-03  0.6105542E-02  0.5019249E-05  0.2626516E-03 -0.1434629E-04 -0.7494207E-03
2703641.  0.6693945E-04  0.3568881E-02  0.2779112E-05  0.1511982E-03 -0.7934843E-05 -0.4338828E-03
2633062.  0.3663093E-04  0.2034416E-02  0.1503271E-05  0.8499873E-04 -0.4271426E-05 -0.2440306E-03
2562484.  0.1955139E-04  0.1130522E-02  0.7938224E-06  0.4663757E-04 -0.2237474E-05 -0.1333797E-03
2491906.  0.1017052E-04  0.6120736E-03  0.4088791E-06  0.2495789E-04 -0.1139968E-05 -0.7084155E-04
2421328.  0.5151856E-05  0.3226320E-03  0.2052282E-06  0.1301571E-04 -0.5645311E-06 -0.3655019E-04
2350750.  0.2538630E-05  0.1654310E-03  0.1002721E-06  0.6608449E-05 -0.2714991E-06 -0.1830769E-04
2280172.  0.1215480E-05  0.8243120E-04  0.4763164E-07  0.3263056E-05 -0.1266706E-06 -0.8895239E-05
2209594.  0.5647264E-06  0.3986755E-04  0.2196797E-07  0.1564940E-05 -0.5726210E-07 -0.4187958E-05
2139016.  0.2542297E-06  0.1869013E-04  0.9821972E-08  0.7279523E-06 -0.2504452E-07 -0.1908149E-05
2068438.  0.1107099E-06  0.8480065E-05  0.4249903E-08  0.3279027E-06 -0.1058009E-07 -0.8401035E-06
1997859.  0.4654752E-07  0.3717175E-05  0.1776204E-08  0.1427697E-06 -0.4308928E-08 -0.3567805E-06
1927281.  0.1885592E-07  0.1571086E-05  0.7155140E-09  0.5996579E-07 -0.1688221E-08 -0.1458670E-06
1856703.  0.7341768E-08  0.6388196E-06  0.2771424E-09  0.2424093E-07 -0.6347556E-09 -0.5727972E-07
1786125.  0.2740236E-08  0.2492530E-06  0.1029365E-09  0.9407021E-08 -0.2284040E-09 -0.2154763E-07
1715547.  0.9774412E-09  0.9305310E-07  0.3655015E-10  0.3494166E-08 -0.7840851E-10 -0.7742171E-08
1644969.  0.3320575E-09  0.3313011E-07  0.1236396E-10  0.1238186E-08 -0.2558835E-10 -0.2648004E-08
1574391.  0.1070173E-09  0.1120698E-07  0.3968854E-11  0.4170053E-09 -0.7906472E-11 -0.8587884E-09
1503812.  0.3257319E-10  0.3586393E-08  0.1203514E-11  0.1329024E-09 -0.2302315E-11 -0.2629246E-09
1433234.  0.9315873E-11  0.1080413E-08  0.3429885E-12  0.3988733E-10 -0.6284626E-12 -0.7560692E-10
1362656.  0.2489640E-11  0.3045081E-09  0.9128118E-13  0.1121376E-10 -0.1597542E-12 -0.2030974E-10
1292078.  0.0000000E+00  0.0000000E+00  0.0000000E+00  0.0000000E+00  0.0000000E+00  0.0000000E+00
1221500.  0.0000000E+00  0.0000000E+00  0.0000000E+00  0.0000000E+00  0.0000000E+00  0.0000000E+00
1221500.  0.0000000E+00  0.0000000E+00  0.0000000E+00  0.0000000E+00  0.0000000E+00  0.0000000E+00
1183328.  0.0000000E+00  0.0000000E+00  0.0000000E+00  0.0000000E+00  0.0000000E+00  0.0000000E+00
1145156.  0.0000000E+00  0.0000000E+00  0.0000000E+00  0.0000000E+00  0.0000000E+00  0.0000000E+00
1106984.  0.0000000E+00  0.0000000E+00  0.0000000E+00  0.0000000E+00  0.0000000E+00  0.0000000E+00
1068812.  0.0000000E+00  0.0000000E+00  0.0000000E+00  0.0000000E+00  0.0000000E+00  0.0000000E+00
1030641.  0.0000000E+00  0.0000000E+00  0.0000000E+00  0.0000000E+00  0.0000000E+00  0.0000000E+00
 992469.  0.0000000E+00  0.0000000E+00  0.0000000E+00  0.0000000E+00  0.0000000E+00  0.0000000E+00
 954297.  0.0000000E+00  0.0000000E+00  0.0000000E+00  0.0000000E+00  0.0000000E+00  0.0000000E+00
 916125.  0.0000000E+00  0.0000000E+00  0.0000000E+00  0.0000000E+00  0.0000000E+00  0.0000000E+00
 877953.  0.0000000E+00  0.0000000E+00  0.0000000E+00  0.0000000E+00  0.0000000E+00  0.0000000E+00
 839781.  0.0000000E+00  0.0000000E+00  0.0000000E+00  0.0000000E+00  0.0000000E+00  0.0000000E+00
 801609.  0.0000000E+00  0.0000000E+00  0.0000000E+00  0.0000000E+00  0.0000000E+00  0.0000000E+00
 763438.  0.0000000E+00  0.0000000E+00  0.0000000E+00  0.0000000E+00  0.0000000E+00  0.0000000E+00
 725266.  0.0000000E+00  0.0000000E+00  0.0000000E+00  0.0000000E+00  0.0000000E+00  0.0000000E+00
 687094.  0.0000000E+00  0.0000000E+00  0.0000000E+00  0.0000000E+00  0.0000000E+00  0.0000000E+00
 648922.  0.0000000E+00  0.0000000E+00  0.0000000E+00  0.0000000E+00  0.0000000E+00  0.0000000E+00
 610750.  0.0000000E+00  0.0000000E+00  0.0000000E+00  0.0000000E+00  0.0000000E+00  0.0000000E+00
 572578.  0.0000000E+00  0.0000000E+00  0.0000000E+00  0.0000000E+00  0.0000000E+00  0.0000000E+00
 534406.  0.0000000E+00  0.0000000E+00  0.0000000E+00  0.0000000E+00  0.0000000E+00  0.0000000E+00
 496234.  0.0000000E+00  0.0000000E+00  0.0000000E+00  0.0000000E+00  0.0000000E+00  0.0000000E+00
 458062.  0.0000000E+00  0.0000000E+00  0.0000000E+00  0.0000000E+00  0.0000000E+00  0.0000000E+00
 419891.  0.0000000E+00  0.0000000E+00  0.0000000E+00  0.0000000E+00  0.0000000E+00  0.0000000E+00
 381719.  0.0000000E+00  0.0000000E+00  0.0000000E+00  0.0000000E+00  0.0000000E+00  0.0000000E+00
 343547.  0.0000000E+00  0.0000000E+00  0.0000000E+00  0.0000000E+00  0.0000000E+00  0.0000000E+00
 305375.  0.0000000E+00  0.0000000E+00  0.0000000E+00  0.0000000E+00  0.0000000E+00  0.0000000E+00
 267203.  0.0000000E+00  0.0000000E+00  0.0000000E+00  0.0000000E+00  0.0000000E+00  0.0000000E+00
 229031.  0.0000000E+00  0.0000000E+00  0.0000000E+00  0.0000000E+00  0.0000000E+00  0.0000000E+00
 190859.  0.0000000E+00  0.0000000E+00  0.0000000E+00  0.0000000E+00  0.0000000E+00  0.0000000E+00
 152688.  0.0000000E+00  0.0000000E+00  0.0000000E+00  0.0000000E+00  0.0000000E+00  0.0000000E+00
 114516.  0.0000000E+00  0.0000000E+00  0.0000000E+00  0.0000000E+00  0.0000000E+00  0.0000000E+00
  76344.  0.0000000E+00  0.0000000E+00  0.0000000E+00  0.0000000E+00  0.0000000E+00  0.0000000E+00
  38172.  0.0000000E+00  0.0000000E+00  0.0000000E+00  0.0000000E+00  0.0000000E+00  0.0000000E+00
      0.  0.0000000E+00  0.0000000E+00  0.0000000E+00  0.0000000E+00  0.0000000E+00  0.0000000E+00
