       2       26 S      190        179.35970          8.42203          6.52022        193.39661      185    7
6371000. -0.4780952E-01 -0.1562459E+01 -0.5797091E-02  0.4201243E-01  0.4725918E-02 -0.3744223E-01
6370000. -0.4756327E-01 -0.1575236E+01 -0.5803457E-02  0.3910649E-01  0.4731781E-02 -0.3726238E-01
6369000. -0.4731503E-01 -0.1587744E+01 -0.5809367E-02  0.3619319E-01  0.4737616E-02 -0.3708541E-01
6368000. -0.4706485E-01 -0.1599982E+01 -0.5814819E-02  0.3327280E-01  0.4743423E-02 -0.3691135E-01
6368000. -0.4706485E-01 -0.1599982E+01 -0.5814819E-02  0.3327280E-01  0.4743423E-02 -0.3691135E-01
6367000. -0.4681278E-01 -0.1611948E+01 -0.5819811E-02  0.3034560E-01  0.4749204E-02 -0.3674021E-01
6366000. -0.4655884E-01 -0.1623642E+01 -0.5824345E-02  0.2741187E-01  0.4754957E-02 -0.3657198E-01
6365000. -0.4630309E-01 -0.1635063E+01 -0.5828416E-02  0.2447190E-01  0.4760684E-02 -0.3640670E-01
6364000. -0.4604557E-01 -0.1646210E+01 -0.5832027E-02  0.2152596E-01  0.4766386E-02 -0.3624437E-01
6363000. -0.4578632E-01 -0.1657081E+01 -0.5835174E-02  0.1857436E-01  0.4772062E-02 -0.3608499E-01
6362000. -0.4552539E-01 -0.1667677E+01 -0.5837857E-02  0.1561735E-01  0.4777714E-02 -0.3592859E-01
6361000. -0.4526282E-01 -0.1677996E+01 -0.5840077E-02  0.1265524E-01  0.4783341E-02 -0.3577517E-01
6360000. -0.4499865E-01 -0.1688037E+01 -0.5841830E-02  0.9688307E-02  0.4788945E-02 -0.3562476E-01
6359000. -0.4473292E-01 -0.1697799E+01 -0.5843117E-02  0.6716836E-02  0.4794525E-02 -0.3547735E-01
6358000. -0.4446568E-01 -0.1707283E+01 -0.5843938E-02  0.3741117E-02  0.4800082E-02 -0.3533297E-01
6357000. -0.4419698E-01 -0.1716486E+01 -0.5844292E-02  0.7614351E-03  0.4805617E-02 -0.3519161E-01
6356000. -0.4392685E-01 -0.1725409E+01 -0.5844177E-02 -0.2221921E-02  0.4811130E-02 -0.3505331E-01
6356000. -0.4392685E-01 -0.1478324E+01 -0.5844177E-02  0.1379062E-01  0.4811130E-02 -0.2549534E-01
6355000. -0.4369424E-01 -0.1485582E+01 -0.5846221E-02  0.1225321E-01  0.4815108E-02 -0.2519651E-01
6354000. -0.4346050E-01 -0.1492696E+01 -0.5848023E-02  0.1071326E-01  0.4819040E-02 -0.2489975E-01
6353000. -0.4322566E-01 -0.1499667E+01 -0.5849584E-02  0.9170867E-02  0.4822925E-02 -0.2460507E-01
6352000. -0.4298973E-01 -0.1506493E+01 -0.5850902E-02  0.7626113E-02  0.4826764E-02 -0.2431247E-01
6351000. -0.4275274E-01 -0.1513176E+01 -0.5851978E-02  0.6079091E-02  0.4830557E-02 -0.2402196E-01
6350000. -0.4251472E-01 -0.1519713E+01 -0.5852811E-02  0.4529890E-02  0.4834305E-02 -0.2373355E-01
6349000. -0.4227568E-01 -0.1526105E+01 -0.5853400E-02  0.2978599E-02  0.4838008E-02 -0.2344722E-01
6348000. -0.4203565E-01 -0.1532352E+01 -0.5853745E-02  0.1425308E-02  0.4841666E-02 -0.2316299E-01
6347000. -0.4179465E-01 -0.1538453E+01 -0.5853847E-02 -0.1298925E-03  0.4845279E-02 -0.2288087E-01
6346600. -0.4169798E-01 -0.1540852E+01 -0.5853819E-02 -0.7524875E-03  0.4846712E-02 -0.2276861E-01
6346600. -0.4169798E-01 -0.1708331E+01 -0.5853819E-02  0.1118101E-01  0.4846712E-02 -0.8229128E-02
6318800. -0.3394954E-01 -0.1832413E+01 -0.5855202E-02 -0.1072681E-01  0.4861943E-02  0.1070917E-02
6291000. -0.2580399E-01 -0.1889523E+01 -0.5759168E-02 -0.3334682E-01  0.4838839E-02  0.9358515E-02
6291000. -0.2580399E-01 -0.1948691E+01 -0.5759168E-02 -0.3534952E-01  0.4838839E-02  0.9358515E-02
6263000. -0.1725562E-01 -0.1928153E+01 -0.5548626E-02 -0.6037057E-01  0.4782496E-02  0.1612937E-01
6235000. -0.8973492E-02 -0.1827557E+01 -0.5229996E-02 -0.8438625E-01  0.4698331E-02  0.2203582E-01
6207000. -0.1306646E-02 -0.1648698E+01 -0.4809661E-02 -0.1065093E+00  0.4589931E-02  0.2717394E-01
6179000.  0.5410569E-02 -0.1396463E+01 -0.4297794E-02 -0.1259070E+00  0.4460460E-02  0.3164072E-01
6151000.  0.1087196E-01 -0.1078759E+01 -0.3708051E-02 -0.1418335E+00  0.4312657E-02  0.3553191E-01
6151000.  0.1087196E-01 -0.1084387E+01 -0.3708051E-02 -0.1263219E+00  0.4312657E-02  0.3493042E-01
6128500.  0.1428506E-01 -0.8457569E+00 -0.3252144E-02 -0.1314908E+00  0.4184113E-02  0.3780273E-01
6106000.  0.1682838E-01 -0.5927183E+00 -0.2781939E-02 -0.1344188E+00  0.4046071E-02  0.4031417E-01
6083500.  0.1846079E-01 -0.3307949E+00 -0.2305325E-02 -0.1351279E+00  0.3899755E-02  0.4249252E-01
6061000.  0.1916062E-01 -0.6547444E-01 -0.1830036E-02 -0.1336819E+00  0.3746297E-02  0.4436348E-01
6038500.  0.1892537E-01  0.1978937E+00 -0.1363512E-02 -0.1301853E+00  0.3586737E-02  0.4595188E-01
6016000.  0.1777107E-01  0.4541876E+00 -0.9127555E-03 -0.1247776E+00  0.3422031E-02  0.4728148E-01
5993500.  0.1573127E-01  0.6986111E+00 -0.4842279E-03 -0.1176275E+00  0.3253054E-02  0.4837489E-01
5971000.  0.1285577E-01  0.9267762E+00 -0.8374438E-04 -0.1089301E+00  0.3080599E-02  0.4925483E-01
5971000.  0.1285577E-01  0.8354933E+00 -0.8374438E-04 -0.9845062E-01  0.3080599E-02  0.4757190E-01
5937667.  0.7833564E-02  0.1075306E+01  0.3901657E-03 -0.8255536E-01  0.2831356E-02  0.4760303E-01
5904333.  0.1699282E-02  0.1260287E+01  0.7792818E-03 -0.6617158E-01  0.2583499E-02  0.4704695E-01
5871000. -0.5258579E-02  0.1390407E+01  0.1083058E-02 -0.5004764E-01  0.2339991E-02  0.4595200E-01
5837667. -0.1275845E-01  0.1468034E+01  0.1304447E-02 -0.3476081E-01  0.2103498E-02  0.4437555E-01
5804333. -0.2053610E-01  0.1497300E+01  0.1448992E-02 -0.2072768E-01  0.1876366E-02  0.4238217E-01
5771000. -0.2835153E-01  0.1483530E+01  0.1524012E-02 -0.8219873E-02  0.1660608E-02  0.4004264E-01
5771000. -0.2835153E-01  0.1483607E+01  0.1524012E-02 -0.8218528E-02  0.1660608E-02  0.4004264E-01
5701000. -0.4435391E-01  0.1403983E+01  0.1502517E-02  0.1146145E-01  0.1257573E-02  0.3331207E-01
5701000. -0.4435391E-01  0.1218964E+01  0.1502517E-02  0.1982181E-01  0.1257573E-02  0.4581384E-01
5667333. -0.5040633E-01  0.1079975E+01  0.1382421E-02  0.2487987E-01  0.1031916E-02  0.3964476E-01
5633667. -0.5584297E-01  0.9798829E+00  0.1245773E-02  0.2656225E-01  0.8370497E-03  0.3426610E-01
5600000. -0.6074340E-01  0.8732539E+00  0.1102115E-02  0.2775754E-01  0.6686564E-03  0.2955535E-01
5600000. -0.6074340E-01  0.8732539E+00  0.1102115E-02  0.2775754E-01  0.6686564E-03  0.2955535E-01
5563518. -0.6539984E-01  0.7524236E+00  0.9409045E-03  0.2844824E-01  0.5125198E-03  0.2507990E-01
5527037. -0.6935467E-01  0.6286410E+00  0.7774106E-03  0.2856578E-01  0.3803445E-03  0.2117481E-01
5490556. -0.7259782E-01  0.5042154E+00  0.6147460E-03  0.2816938E-01  0.2690667E-03  0.1777120E-01
5454074. -0.7513179E-01  0.3812426E+00  0.4556585E-03  0.2732510E-01  0.1759672E-03  0.1481440E-01
5417593. -0.7697032E-01  0.2616282E+00  0.3025538E-03  0.2609187E-01  0.9868043E-04  0.1224016E-01
5381111. -0.7813750E-01  0.1469947E+00  0.1574528E-03  0.2454001E-01  0.3513261E-04  0.1000913E-01
5344630. -0.7866587E-01  0.3872244E-01  0.2199577E-04  0.2273461E-01 -0.1652486E-04  0.8080185E-02
5308148. -0.7859521E-01 -0.6207615E-01 -0.1025376E-03  0.2073411E-01 -0.5790000E-04  0.6412373E-02
5271667. -0.7797094E-01 -0.1545160E+00 -0.2152168E-03  0.1860544E-01 -0.9042009E-04  0.4983497E-02
5235185. -0.7684276E-01 -0.2379885E+00 -0.3154634E-03  0.1639813E-01 -0.1153648E-03  0.3760269E-02
5198704. -0.7526334E-01 -0.3120861E+00 -0.4029542E-03  0.1416012E-01 -0.1338217E-03  0.2715385E-02
5162222. -0.7328700E-01 -0.3765892E+00 -0.4776771E-03  0.1194472E-01 -0.1467881E-03  0.1838992E-02
5125741. -0.7096881E-01 -0.4315256E+00 -0.5398465E-03  0.9780841E-02 -0.1551423E-03  0.1100160E-02
5089259. -0.6836306E-01 -0.4770355E+00 -0.5898555E-03  0.7703052E-02 -0.1596233E-03  0.4848761E-03
5052778. -0.6552316E-01 -0.5133997E+00 -0.6282905E-03  0.5742142E-02 -0.1609133E-03 -0.1730340E-04
5016296. -0.6250007E-01 -0.5410683E+00 -0.6558655E-03  0.3912319E-02 -0.1595992E-03 -0.4272303E-03
4979815. -0.5934240E-01 -0.5605266E+00 -0.6733850E-03  0.2233064E-02 -0.1561822E-03 -0.7529687E-03
4943333. -0.5609532E-01 -0.5723718E+00 -0.6817462E-03  0.7139108E-03 -0.1511160E-03 -0.1005851E-02
4906852. -0.5280073E-01 -0.5772603E+00 -0.6818692E-03 -0.6432153E-03 -0.1447723E-03 -0.1200373E-02
4870370. -0.4949647E-01 -0.5758311E+00 -0.6747071E-03 -0.1830284E-02 -0.1374781E-03 -0.1338850E-02
4833889. -0.4621684E-01 -0.5688111E+00 -0.6612208E-03 -0.2853705E-02 -0.1295211E-03 -0.1434226E-02
4797407. -0.4299165E-01 -0.5568917E+00 -0.6423256E-03 -0.3719543E-02 -0.1211181E-03 -0.1494906E-02
4760926. -0.3984730E-01 -0.5407256E+00 -0.6189233E-03 -0.4429560E-02 -0.1124668E-03 -0.1522149E-02
4724444. -0.3680590E-01 -0.5210091E+00 -0.5918650E-03 -0.4998528E-02 -0.1037275E-03 -0.1527078E-02
4687963. -0.3388618E-01 -0.4983507E+00 -0.5619308E-03 -0.5435563E-02 -0.9501336E-04 -0.1513629E-02
4651482. -0.3110326E-01 -0.4733263E+00 -0.5298504E-03 -0.5750521E-02 -0.8642377E-04 -0.1484668E-02
4615000. -0.2846897E-01 -0.4464950E+00 -0.4962748E-03 -0.5959699E-02 -0.7802426E-04 -0.1447983E-02
4578518. -0.2599239E-01 -0.4183206E+00 -0.4617808E-03 -0.6073051E-02 -0.6985309E-04 -0.1405162E-02
4542037. -0.2367998E-01 -0.3892433E+00 -0.4268813E-03 -0.6104312E-02 -0.6193620E-04 -0.1360295E-02
4505556. -0.2153573E-01 -0.3596424E+00 -0.3920012E-03 -0.6068067E-02 -0.5426748E-04 -0.1318803E-02
4469074. -0.1956171E-01 -0.3298115E+00 -0.3575007E-03 -0.5973299E-02 -0.4682713E-04 -0.1280875E-02
4432593. -0.1775854E-01 -0.3000288E+00 -0.3236772E-03 -0.5834246E-02 -0.3958054E-04 -0.1252163E-02
4396111. -0.1612525E-01 -0.2704878E+00 -0.2907479E-03 -0.5662052E-02 -0.3246271E-04 -0.1236032E-02
4359630. -0.1466013E-01 -0.2413234E+00 -0.2588823E-03 -0.5464726E-02 -0.2539879E-04 -0.1234111E-02
4323148. -0.1336063E-01 -0.2126395E+00 -0.2281891E-03 -0.5253947E-02 -0.1828994E-04 -0.1252511E-02
4286667. -0.1222395E-01 -0.1844661E+00 -0.1987242E-03 -0.5037013E-02 -0.1100977E-04 -0.1294538E-02
4250185. -0.1124713E-01 -0.1567900E+00 -0.1705027E-03 -0.4820680E-02 -0.3410773E-05 -0.1364863E-02
4213704. -0.1042749E-01 -0.1295589E+00 -0.1434999E-03 -0.4612534E-02  0.4688817E-05 -0.1470512E-02
4177222. -0.9762752E-02 -0.1026607E+00 -0.1176563E-03 -0.4416107E-02  0.1350844E-04 -0.1617441E-02
4140741. -0.9251419E-02 -0.7595611E-01 -0.9289516E-04 -0.4235379E-02  0.2330813E-04 -0.1814659E-02
4104259. -0.8892865E-02 -0.4926115E-01 -0.6911578E-04 -0.4072941E-02  0.3440755E-04 -0.2073061E-02
4067778. -0.8687656E-02 -0.2236133E-01 -0.4621974E-04 -0.3926772E-02  0.4718724E-04 -0.2403935E-02
4031296. -0.8637617E-02  0.4977865E-02 -0.2411622E-04 -0.3795431E-02  0.6210848E-04 -0.2823964E-02
3994815. -0.8745982E-02  0.3300777E-01 -0.2736514E-05 -0.3672467E-02  0.7973435E-04 -0.3352006E-02
3958333. -0.9017416E-02  0.6197054E-01  0.1793371E-04 -0.3545135E-02  0.1007442E-03 -0.4010004E-02
3921852. -0.9457878E-02  0.9208105E-01  0.3782595E-04 -0.3397440E-02  0.1259629E-03 -0.4827591E-02
3885370. -0.1007444E-01  0.1234866E+00  0.5675085E-04 -0.3201378E-02  0.1564000E-03 -0.5838416E-02
3848889. -0.1087459E-01  0.1562015E+00  0.7432118E-04 -0.2916737E-02  0.1932729E-03 -0.7083570E-02
3812407. -0.1186549E-01  0.1900475E+00  0.8987948E-04 -0.2486872E-02  0.2380690E-03 -0.8614440E-02
3775926. -0.1305223E-01  0.2244899E+00  0.1023636E-03 -0.1826422E-02  0.2925837E-03 -0.1048914E-01
3739444. -0.1443562E-01  0.2584924E+00  0.1101329E-03 -0.8166807E-03  0.3589872E-03 -0.1277945E-01
3702963. -0.1600833E-01  0.2902396E+00  0.1107318E-03  0.7119484E-03  0.4398914E-03 -0.1556908E-01
3666482. -0.1774949E-01  0.3167000E+00  0.1005261E-03  0.3004982E-02  0.5384153E-03 -0.1895046E-01
3630000. -0.1961629E-01  0.3331311E+00  0.7421467E-04  0.6404858E-02  0.6582581E-03 -0.2303312E-01
3630000. -0.1961629E-01  0.3331311E+00  0.7421467E-04  0.6404858E-02  0.6582581E-03 -0.2303312E-01
3592500. -0.2158469E-01  0.3317774E+00  0.2229861E-04  0.1157222E-01  0.8082289E-03 -0.2807897E-01
3555000. -0.2346227E-01  0.2997853E+00 -0.6679860E-04  0.1918866E-01  0.9907434E-03 -0.3411207E-01
3517500. -0.2501796E-01  0.2186495E+00 -0.2104997E-03  0.3034176E-01  0.1211971E-02 -0.4125010E-01
3480000. -0.2588594E-01  0.6046766E-01 -0.4339498E-03  0.4659616E-01  0.1478661E-02 -0.4956696E-01
3480000. -0.2588594E-01 -0.9565656E+00 -0.1182823E-02 -0.4520519E-01  0.1478661E-02  0.3298042E-01
3409422. -0.1705091E-01 -0.6550792E+00 -0.7687993E-03 -0.3041666E-01  0.1116128E-02  0.3138901E-01
3338844. -0.1105086E-01 -0.4406987E+00 -0.4922790E-03 -0.2014371E-01  0.7974891E-03  0.2582166E-01
3268266. -0.7047200E-02 -0.2913455E+00 -0.3104932E-03 -0.1313098E-01  0.5464205E-03  0.1954569E-01
3197688. -0.4421570E-02 -0.1893116E+00 -0.1928615E-03 -0.8424888E-02  0.3617052E-03  0.1397816E-01
3127109. -0.2729003E-02 -0.1209137E+00 -0.1179428E-03 -0.5319658E-02  0.2323739E-03  0.9572797E-02
3056531. -0.1656540E-02 -0.7590805E-01 -0.7098903E-04 -0.3305011E-02  0.1453078E-03  0.6326437E-02
2985953. -0.9886239E-03 -0.4683232E-01 -0.4203689E-04 -0.2019791E-02  0.8860617E-04  0.4053575E-02
2915375. -0.5798602E-03 -0.2838852E-01 -0.2447883E-04 -0.1213748E-02  0.5274940E-04  0.2525513E-02
2844797. -0.3341011E-03 -0.1690181E-01 -0.1401022E-04 -0.7168926E-03  0.3067917E-04  0.1532843E-02
2774219. -0.1889999E-03 -0.9879451E-02 -0.7876576E-05 -0.4159724E-03  0.1743729E-04  0.9073484E-03
2703641. -0.1049076E-03 -0.5666553E-02 -0.4346914E-05 -0.2369776E-03  0.9685850E-05  0.5241436E-03
2633062. -0.5709640E-04 -0.3187335E-02 -0.2353168E-05 -0.1324626E-03  0.5256908E-05  0.2955481E-03
2562484. -0.3044629E-04 -0.1756977E-02 -0.1248550E-05 -0.7259528E-04  0.2786716E-05  0.1626642E-03
2491906. -0.1589283E-04 -0.9483917E-03 -0.6486987E-06 -0.3897512E-04  0.1442025E-05  0.8735932E-04
2421328. -0.8113101E-05 -0.5008499E-03 -0.3297090E-06 -0.2047987E-04  0.7278624E-06  0.4575683E-04
2350750. -0.4045968E-05 -0.2585189E-03 -0.1637532E-06 -0.1052159E-04  0.3580405E-06  0.2335738E-04
2280172. -0.1968735E-05 -0.1302737E-03 -0.7937616E-07 -0.5279011E-05  0.1714593E-06  0.1160983E-04
2209594. -0.9334778E-06 -0.6401185E-04 -0.3750126E-07 -0.2583377E-05  0.7983670E-07  0.5612967E-05
2139016. -0.4306574E-06 -0.3062662E-04 -0.1724283E-07 -0.1231328E-05  0.3609501E-07  0.2636180E-05
2068438. -0.1930008E-06 -0.1424625E-04 -0.7703011E-08 -0.5707270E-06  0.1581985E-07  0.1200984E-05
1997859. -0.8386640E-07 -0.6431437E-05 -0.3337318E-08 -0.2567963E-06  0.6709350E-08  0.5298434E-06
1927281. -0.3526514E-07 -0.2812494E-05 -0.1399399E-08 -0.1119481E-06  0.2747947E-08  0.2259372E-06
1856703. -0.1431659E-07 -0.1188793E-05 -0.5666246E-09 -0.4718038E-07  0.1084387E-08  0.9292080E-07
1786125. -0.5597089E-08 -0.4845015E-06 -0.2209771E-09 -0.1917613E-07  0.4112286E-09  0.3676692E-07
1715547. -0.2101205E-08 -0.1898752E-06 -0.8276516E-10 -0.7495832E-08  0.1494284E-09  0.1395760E-07
1644969. -0.7550067E-09 -0.7133141E-07 -0.2967468E-10 -0.2809239E-08  0.5185499E-10  0.5067543E-08
1574391. -0.2587101E-09 -0.2559791E-07 -0.1014758E-10 -0.1005856E-08  0.1712037E-10  0.1753270E-08
1503812. -0.8418413E-10 -0.8739550E-08 -0.3295696E-11 -0.3426963E-09  0.5354462E-11  0.5756561E-09
1433234. -0.2589061E-10 -0.2825755E-08 -0.1011701E-11 -0.1105948E-09  0.1578484E-11  0.1785285E-09
1362656. -0.7487262E-11 -0.8602422E-09 -0.2917990E-12 -0.3364312E-10  0.4358618E-12  0.5204038E-10
1292078.  0.0000000E+00  0.0000000E+00  0.0000000E+00  0.0000000E+00  0.0000000E+00  0.0000000E+00
1221500.  0.0000000E+00  0.0000000E+00  0.0000000E+00  0.0000000E+00  0.0000000E+00  0.0000000E+00
1221500.  0.0000000E+00  0.0000000E+00  0.0000000E+00  0.0000000E+00  0.0000000E+00  0.0000000E+00
1183328.  0.0000000E+00  0.0000000E+00  0.0000000E+00  0.0000000E+00  0.0000000E+00  0.0000000E+00
1145156.  0.0000000E+00  0.0000000E+00  0.0000000E+00  0.0000000E+00  0.0000000E+00  0.0000000E+00
1106984.  0.0000000E+00  0.0000000E+00  0.0000000E+00  0.0000000E+00  0.0000000E+00  0.0000000E+00
1068812.  0.0000000E+00  0.0000000E+00  0.0000000E+00  0.0000000E+00  0.0000000E+00  0.0000000E+00
1030641.  0.0000000E+00  0.0000000E+00  0.0000000E+00  0.0000000E+00  0.0000000E+00  0.0000000E+00
 992469.  0.0000000E+00  0.0000000E+00  0.0000000E+00  0.0000000E+00  0.0000000E+00  0.0000000E+00
 954297.  0.0000000E+00  0.0000000E+00  0.0000000E+00  0.0000000E+00  0.0000000E+00  0.0000000E+00
 916125.  0.0000000E+00  0.0000000E+00  0.0000000E+00  0.0000000E+00  0.0000000E+00  0.0000000E+00
 877953.  0.0000000E+00  0.0000000E+00  0.0000000E+00  0.0000000E+00  0.0000000E+00  0.0000000E+00
 839781.  0.0000000E+00  0.0000000E+00  0.0000000E+00  0.0000000E+00  0.0000000E+00  0.0000000E+00
 801609.  0.0000000E+00  0.0000000E+00  0.0000000E+00  0.0000000E+00  0.0000000E+00  0.0000000E+00
 763438.  0.0000000E+00  0.0000000E+00  0.0000000E+00  0.0000000E+00  0.0000000E+00  0.0000000E+00
 725266.  0.0000000E+00  0.0000000E+00  0.0000000E+00  0.0000000E+00  0.0000000E+00  0.0000000E+00
 687094.  0.0000000E+00  0.0000000E+00  0.0000000E+00  0.0000000E+00  0.0000000E+00  0.0000000E+00
 648922.  0.0000000E+00  0.0000000E+00  0.0000000E+00  0.0000000E+00  0.0000000E+00  0.0000000E+00
 610750.  0.0000000E+00  0.0000000E+00  0.0000000E+00  0.0000000E+00  0.0000000E+00  0.0000000E+00
 572578.  0.0000000E+00  0.0000000E+00  0.0000000E+00  0.0000000E+00  0.0000000E+00  0.0000000E+00
 534406.  0.0000000E+00  0.0000000E+00  0.0000000E+00  0.0000000E+00  0.0000000E+00  0.0000000E+00
 496234.  0.0000000E+00  0.0000000E+00  0.0000000E+00  0.0000000E+00  0.0000000E+00  0.0000000E+00
 458062.  0.0000000E+00  0.0000000E+00  0.0000000E+00  0.0000000E+00  0.0000000E+00  0.0000000E+00
 419891.  0.0000000E+00  0.0000000E+00  0.0000000E+00  0.0000000E+00  0.0000000E+00  0.0000000E+00
 381719.  0.0000000E+00  0.0000000E+00  0.0000000E+00  0.0000000E+00  0.0000000E+00  0.0000000E+00
 343547.  0.0000000E+00  0.0000000E+00  0.0000000E+00  0.0000000E+00  0.0000000E+00  0.0000000E+00
 305375.  0.0000000E+00  0.0000000E+00  0.0000000E+00  0.0000000E+00  0.0000000E+00  0.0000000E+00
 267203.  0.0000000E+00  0.0000000E+00  0.0000000E+00  0.0000000E+00  0.0000000E+00  0.0000000E+00
 229031.  0.0000000E+00  0.0000000E+00  0.0000000E+00  0.0000000E+00  0.0000000E+00  0.0000000E+00
 190859.  0.0000000E+00  0.0000000E+00  0.0000000E+00  0.0000000E+00  0.0000000E+00  0.0000000E+00
 152688.  0.0000000E+00  0.0000000E+00  0.0000000E+00  0.0000000E+00  0.0000000E+00  0.0000000E+00
 114516.  0.0000000E+00  0.0000000E+00  0.0000000E+00  0.0000000E+00  0.0000000E+00  0.0000000E+00
  76344.  0.0000000E+00  0.0000000E+00  0.0000000E+00  0.0000000E+00  0.0000000E+00  0.0000000E+00
  38172.  0.0000000E+00  0.0000000E+00  0.0000000E+00  0.0000000E+00  0.0000000E+00  0.0000000E+00
      0.  0.0000000E+00  0.0000000E+00  0.0000000E+00  0.0000000E+00  0.0000000E+00  0.0000000E+00
