       0        5 S        4       1188.86499          6.12198          7.88881        355.81171      185    7
6371000.  0.3000502E+00 -0.7660692E+00 -0.4482461E-01 -0.3448748E+00 -0.5759471E-01 -0.2202563E+00
6370000.  0.3001703E+00 -0.7637144E+00 -0.4477045E-01 -0.3452841E+00 -0.5756018E-01 -0.2197051E+00
6369000.  0.3002900E+00 -0.7613572E+00 -0.4471622E-01 -0.3456925E+00 -0.5752574E-01 -0.2191534E+00
6368000.  0.3004093E+00 -0.7589976E+00 -0.4466192E-01 -0.3460998E+00 -0.5749138E-01 -0.2186013E+00
6368000.  0.3004093E+00 -0.7589976E+00 -0.4466192E-01 -0.3460998E+00 -0.5749138E-01 -0.2186013E+00
6367000.  0.3005282E+00 -0.7566356E+00 -0.4460757E-01 -0.3465061E+00 -0.5745712E-01 -0.2180487E+00
6366000.  0.3006468E+00 -0.7542712E+00 -0.4455315E-01 -0.3469114E+00 -0.5742294E-01 -0.2174956E+00
6365000.  0.3007650E+00 -0.7519044E+00 -0.4449866E-01 -0.3473157E+00 -0.5738884E-01 -0.2169421E+00
6364000.  0.3008828E+00 -0.7495351E+00 -0.4444412E-01 -0.3477190E+00 -0.5735483E-01 -0.2163882E+00
6363000.  0.3010003E+00 -0.7471636E+00 -0.4438951E-01 -0.3481213E+00 -0.5732091E-01 -0.2158337E+00
6362000.  0.3011174E+00 -0.7447896E+00 -0.4433484E-01 -0.3485226E+00 -0.5728708E-01 -0.2152788E+00
6361000.  0.3012341E+00 -0.7424132E+00 -0.4428010E-01 -0.3489229E+00 -0.5725333E-01 -0.2147234E+00
6360000.  0.3013504E+00 -0.7400345E+00 -0.4422530E-01 -0.3493221E+00 -0.5721967E-01 -0.2141676E+00
6359000.  0.3014664E+00 -0.7376534E+00 -0.4417044E-01 -0.3497204E+00 -0.5718610E-01 -0.2136113E+00
6358000.  0.3015820E+00 -0.7352700E+00 -0.4411552E-01 -0.3501176E+00 -0.5715261E-01 -0.2130545E+00
6357000.  0.3016973E+00 -0.7328841E+00 -0.4406053E-01 -0.3505138E+00 -0.5711922E-01 -0.2124973E+00
6356000.  0.3018121E+00 -0.7304959E+00 -0.4400548E-01 -0.3509090E+00 -0.5708591E-01 -0.2119396E+00
6356000.  0.3018121E+00 -0.6460828E+00 -0.4400548E-01 -0.3492142E+00 -0.5708591E-01 -0.2776104E+00
6355000.  0.3019134E+00 -0.6443689E+00 -0.4395066E-01 -0.3492937E+00 -0.5704238E-01 -0.2770042E+00
6354000.  0.3020144E+00 -0.6426542E+00 -0.4389583E-01 -0.3493726E+00 -0.5699895E-01 -0.2763978E+00
6353000.  0.3021151E+00 -0.6409386E+00 -0.4384099E-01 -0.3494509E+00 -0.5695561E-01 -0.2757911E+00
6352000.  0.3022156E+00 -0.6392220E+00 -0.4378613E-01 -0.3495286E+00 -0.5691237E-01 -0.2751842E+00
6351000.  0.3023158E+00 -0.6375044E+00 -0.4373126E-01 -0.3496056E+00 -0.5686922E-01 -0.2745771E+00
6350000.  0.3024157E+00 -0.6357859E+00 -0.4367638E-01 -0.3496822E+00 -0.5682617E-01 -0.2739697E+00
6349000.  0.3025154E+00 -0.6340665E+00 -0.4362149E-01 -0.3497580E+00 -0.5678322E-01 -0.2733620E+00
6348000.  0.3026147E+00 -0.6323462E+00 -0.4356658E-01 -0.3498333E+00 -0.5674036E-01 -0.2727541E+00
6347000.  0.3027139E+00 -0.6306249E+00 -0.4351167E-01 -0.3499081E+00 -0.5669760E-01 -0.2721460E+00
6346600.  0.3027534E+00 -0.6299362E+00 -0.4348970E-01 -0.3499378E+00 -0.5668052E-01 -0.2719027E+00
6346600.  0.3027534E+00 -0.7487715E+00 -0.4348970E-01 -0.3491700E+00 -0.5668052E-01 -0.3774683E+00
6318800.  0.3059479E+00 -0.7152584E+00 -0.4197344E-01 -0.3457743E+00 -0.5507126E-01 -0.3601248E+00
6291000.  0.3089943E+00 -0.6808822E+00 -0.4047235E-01 -0.3422101E+00 -0.5353772E-01 -0.3427604E+00
6291000.  0.3089943E+00 -0.7143688E+00 -0.4047235E-01 -0.3416046E+00 -0.5353772E-01 -0.3427604E+00
6263000.  0.3120536E+00 -0.6777238E+00 -0.3897808E-01 -0.3383622E+00 -0.5206904E-01 -0.3255848E+00
6235000.  0.3149498E+00 -0.6401516E+00 -0.3749854E-01 -0.3348969E+00 -0.5067598E-01 -0.3083430E+00
6207000.  0.3176790E+00 -0.6016787E+00 -0.3603474E-01 -0.3311970E+00 -0.4935889E-01 -0.2910153E+00
6179000.  0.3202372E+00 -0.5623313E+00 -0.3458773E-01 -0.3272512E+00 -0.4811817E-01 -0.2735814E+00
6151000.  0.3226206E+00 -0.5221435E+00 -0.3315863E-01 -0.3230487E+00 -0.4695433E-01 -0.2560277E+00
6151000.  0.3226206E+00 -0.5527268E+00 -0.3315863E-01 -0.3288971E+00 -0.4695433E-01 -0.2738768E+00
6128500.  0.3245338E+00 -0.5308993E+00 -0.3200458E-01 -0.3246231E+00 -0.4600523E-01 -0.2636109E+00
6106000.  0.3263705E+00 -0.5094649E+00 -0.3086594E-01 -0.3201768E+00 -0.4509236E-01 -0.2533596E+00
6083500.  0.3281324E+00 -0.4884393E+00 -0.2974329E-01 -0.3155653E+00 -0.4421567E-01 -0.2431192E+00
6061000.  0.3298207E+00 -0.4678321E+00 -0.2863721E-01 -0.3107960E+00 -0.4337513E-01 -0.2328924E+00
6038500.  0.3314369E+00 -0.4476508E+00 -0.2754823E-01 -0.3058755E+00 -0.4257068E-01 -0.2226751E+00
6016000.  0.3329827E+00 -0.4279107E+00 -0.2647690E-01 -0.3008104E+00 -0.4180231E-01 -0.2124627E+00
5993500.  0.3344596E+00 -0.4086211E+00 -0.2542370E-01 -0.2956078E+00 -0.4107000E-01 -0.2022578E+00
5971000.  0.3358692E+00 -0.3897885E+00 -0.2438910E-01 -0.2902735E+00 -0.4037372E-01 -0.1920532E+00
5971000.  0.3358692E+00 -0.4009129E+00 -0.2438910E-01 -0.3006423E+00 -0.4037372E-01 -0.2360213E+00
5937667.  0.3379007E+00 -0.3758957E+00 -0.2283017E-01 -0.2952601E+00 -0.3916451E-01 -0.2262336E+00
5904333.  0.3398058E+00 -0.3525787E+00 -0.2129965E-01 -0.2897699E+00 -0.3800618E-01 -0.2165597E+00
5871000.  0.3415931E+00 -0.3308619E+00 -0.1979806E-01 -0.2842288E+00 -0.3689817E-01 -0.2070163E+00
5837667.  0.3432708E+00 -0.3106476E+00 -0.1832549E-01 -0.2786864E+00 -0.3583971E-01 -0.1976197E+00
5804333.  0.3448465E+00 -0.2918409E+00 -0.1688178E-01 -0.2731860E+00 -0.3482998E-01 -0.1883781E+00
5771000.  0.3463272E+00 -0.2743576E+00 -0.1546669E-01 -0.2677675E+00 -0.3386819E-01 -0.1793080E+00
5771000.  0.3463272E+00 -0.2744206E+00 -0.1546669E-01 -0.2677718E+00 -0.3386819E-01 -0.1793080E+00
5701000.  0.3490814E+00 -0.2278311E+00 -0.1263901E-01 -0.2469320E+00 -0.3210035E-01 -0.1425370E+00
5701000.  0.3490814E+00 -0.2420533E+00 -0.1263901E-01 -0.2805758E+00 -0.3210035E-01 -0.2409304E+00
5667333.  0.3502977E+00 -0.2193646E+00 -0.1115488E-01 -0.2794999E+00 -0.3087495E-01 -0.2234695E+00
5633667.  0.3514103E+00 -0.2022152E+00 -0.9701058E-02 -0.2700697E+00 -0.2973193E-01 -0.2094560E+00
5600000.  0.3524356E+00 -0.1859865E+00 -0.8298753E-02 -0.2608418E+00 -0.2866135E-01 -0.1957229E+00
5600000.  0.3524356E+00 -0.1859865E+00 -0.8298753E-02 -0.2608418E+00 -0.2866135E-01 -0.1957229E+00
5563518.  0.3534527E+00 -0.1694484E+00 -0.6833268E-02 -0.2510378E+00 -0.2758238E-01 -0.1811758E+00
5527037.  0.3543780E+00 -0.1539440E+00 -0.5423398E-02 -0.2414323E+00 -0.2658590E-01 -0.1669164E+00
5490556.  0.3552175E+00 -0.1394843E+00 -0.4067936E-02 -0.2320381E+00 -0.2567026E-01 -0.1529505E+00
5454074.  0.3559774E+00 -0.1260976E+00 -0.2765567E-02 -0.2228754E+00 -0.2483363E-01 -0.1393051E+00
5417593.  0.3566634E+00 -0.1137226E+00 -0.1515075E-02 -0.2139312E+00 -0.2407441E-01 -0.1259182E+00
5381111.  0.3572817E+00 -0.1023883E+00 -0.3150936E-03 -0.2052255E+00 -0.2339103E-01 -0.1128126E+00
5344630.  0.3578379E+00 -0.9208319E-01  0.8357120E-03 -0.1967649E+00 -0.2278193E-01 -0.9997472E-01
5308148.  0.3583380E+00 -0.8277319E-01  0.1938773E-02 -0.1885414E+00 -0.2224566E-01 -0.8736756E-01
5271667.  0.3587877E+00 -0.7448887E-01  0.2995477E-02 -0.1805866E+00 -0.2178085E-01 -0.7502073E-01
5235185.  0.3591928E+00 -0.6719356E-01  0.4007405E-02 -0.1728892E+00 -0.2138607E-01 -0.6289437E-01
5198704.  0.3595590E+00 -0.6086830E-01  0.4975953E-02 -0.1654503E+00 -0.2106020E-01 -0.5096246E-01
5162222.  0.3598918E+00 -0.5554375E-01  0.5902779E-02 -0.1583088E+00 -0.2080196E-01 -0.3926776E-01
5125741.  0.3601968E+00 -0.5116326E-01  0.6789473E-02 -0.1514390E+00 -0.2061019E-01 -0.2773980E-01
5089259.  0.3604794E+00 -0.4772772E-01  0.7637663E-02 -0.1448580E+00 -0.2048395E-01 -0.1638095E-01
5052778.  0.3607451E+00 -0.4523725E-01  0.8449045E-02 -0.1385907E+00 -0.2042223E-01 -0.5203492E-02
5016296.  0.3609992E+00 -0.4364854E-01  0.9225413E-02 -0.1326211E+00 -0.2042413E-01  0.5845478E-02
4979815.  0.3612467E+00 -0.4296450E-01  0.9968494E-02 -0.1269765E+00 -0.2048890E-01  0.1675490E-01
4943333.  0.3614928E+00 -0.4316035E-01  0.1068023E-01 -0.1216637E+00 -0.2061577E-01  0.2754169E-01
4906852.  0.3617425E+00 -0.4419956E-01  0.1136245E-01 -0.1166770E+00 -0.2080418E-01  0.3824819E-01
4870370.  0.3620006E+00 -0.4608274E-01  0.1201717E-01 -0.1120591E+00 -0.2105358E-01  0.4884529E-01
4833889.  0.3622717E+00 -0.4876211E-01  0.1264647E-01 -0.1077986E+00 -0.2136347E-01  0.5938387E-01
4797407.  0.3625605E+00 -0.5220770E-01  0.1325241E-01 -0.1039036E+00 -0.2173362E-01  0.6988880E-01
4760926.  0.3628711E+00 -0.5640502E-01  0.1383721E-01 -0.1004209E+00 -0.2216373E-01  0.8033343E-01
4724444.  0.3632077E+00 -0.6129400E-01  0.1440321E-01 -0.9733202E-01 -0.2265364E-01  0.9078288E-01
4687963.  0.3635742E+00 -0.6684193E-01  0.1495270E-01 -0.9466662E-01 -0.2320342E-01  0.1012412E+00
4651482.  0.3639743E+00 -0.7300599E-01  0.1548823E-01 -0.9245756E-01 -0.2381309E-01  0.1117088E+00
4615000.  0.3644113E+00 -0.7972427E-01  0.1601240E-01 -0.9069669E-01 -0.2448289E-01  0.1222451E+00
4578518.  0.3648883E+00 -0.8694622E-01  0.1652789E-01 -0.8943217E-01 -0.2521321E-01  0.1328409E+00
4542037.  0.3654079E+00 -0.9460310E-01  0.1703759E-01 -0.8868071E-01 -0.2600440E-01  0.1435248E+00
4505556.  0.3659723E+00 -0.1026193E+00  0.1754446E-01 -0.8845223E-01 -0.2685717E-01  0.1543489E+00
4469074.  0.3665836E+00 -0.1109199E+00  0.1805171E-01 -0.8881277E-01 -0.2777226E-01  0.1652865E+00
4432593.  0.3672430E+00 -0.1194059E+00  0.1856270E-01 -0.8976513E-01 -0.2875044E-01  0.1764061E+00
4396111.  0.3679512E+00 -0.1279784E+00  0.1908093E-01 -0.9134517E-01 -0.2979293E-01  0.1877350E+00
4359630.  0.3687085E+00 -0.1365218E+00  0.1961016E-01 -0.9362295E-01 -0.3090081E-01  0.1992592E+00
4323148.  0.3695144E+00 -0.1449060E+00  0.2015447E-01 -0.9660602E-01 -0.3207548E-01  0.2110643E+00
4286667.  0.3703674E+00 -0.1529873E+00  0.2071800E-01 -0.1003607E+00 -0.3331853E-01  0.2231533E+00
4250185.  0.3712655E+00 -0.1606000E+00  0.2130543E-01 -0.1049489E+00 -0.3463169E-01  0.2355510E+00
4213704.  0.3722054E+00 -0.1675674E+00  0.2192156E-01 -0.1104029E+00 -0.3601688E-01  0.2483283E+00
4177222.  0.3731829E+00 -0.1736785E+00  0.2257164E-01 -0.1168163E+00 -0.3747635E-01  0.2614844E+00
4140741.  0.3741924E+00 -0.1787035E+00  0.2326133E-01 -0.1242501E+00 -0.3901233E-01  0.2750782E+00
4104259.  0.3752269E+00 -0.1823935E+00  0.2399666E-01 -0.1327678E+00 -0.4062762E-01  0.2891734E+00
4067778.  0.3762780E+00 -0.1844369E+00  0.2478416E-01 -0.1424985E+00 -0.4232496E-01  0.3037579E+00
4031296.  0.3773354E+00 -0.1845223E+00  0.2563103E-01 -0.1535054E+00 -0.4410750E-01  0.3189334E+00
3994815.  0.3783868E+00 -0.1822844E+00  0.2654480E-01 -0.1658978E+00 -0.4597873E-01  0.3347486E+00
3958333.  0.3794177E+00 -0.1772816E+00  0.2753391E-01 -0.1798319E+00 -0.4794237E-01  0.3512052E+00
3921852.  0.3804110E+00 -0.1690751E+00  0.2860741E-01 -0.1954009E+00 -0.5000233E-01  0.3684242E+00
3885370.  0.3813469E+00 -0.1571238E+00  0.2977517E-01 -0.2127756E+00 -0.5216322E-01  0.3864402E+00
3848889.  0.3822021E+00 -0.1408223E+00  0.3104797E-01 -0.2321283E+00 -0.5442958E-01  0.4053027E+00
3812407.  0.3829501E+00 -0.1195266E+00  0.3243766E-01 -0.2536205E+00 -0.5680676E-01  0.4251328E+00
3775926.  0.3835600E+00 -0.9244598E-01  0.3395706E-01 -0.2774863E+00 -0.5930023E-01  0.4459513E+00
3739444.  0.3839962E+00 -0.5873867E-01  0.3562048E-01 -0.3039435E+00 -0.6191605E-01  0.4678679E+00
3702963.  0.3842183E+00 -0.1745934E-01  0.3744332E-01 -0.3332347E+00 -0.6466076E-01  0.4910017E+00
3666482.  0.3841796E+00  0.3253720E-01  0.3944277E-01 -0.3656766E+00 -0.6754144E-01  0.5153773E+00
3630000.  0.3838268E+00  0.9244797E-01  0.4163776E-01 -0.4015670E+00 -0.7056576E-01  0.5411637E+00
3630000.  0.3838268E+00  0.9244797E-01  0.4163776E-01 -0.4015670E+00 -0.7056576E-01  0.5411637E+00
3592500.  0.3830729E+00  0.1658785E+00  0.4411963E-01 -0.4424478E+00 -0.7383280E-01  0.5692037E+00
3555000.  0.3818472E+00  0.2530355E+00  0.4685507E-01 -0.4878011E+00 -0.7726979E-01  0.5989375E+00
3517500.  0.3800635E+00  0.3558404E+00  0.4987179E-01 -0.5381098E+00 -0.8088727E-01  0.6305603E+00
3480000.  0.3776232E+00  0.4765739E+00  0.5320057E-01 -0.5939357E+00 -0.8469672E-01  0.6641859E+00
3480000.  0.3776232E+00  0.2524752E+01  0.7870463E-01  0.5464663E+00 -0.8469672E-01 -0.5400124E+00
3409422.  0.3502967E+00  0.2408610E+01  0.7280879E-01  0.5180387E+00 -0.7876880E-01 -0.5295630E+00
3338844.  0.3242589E+00  0.2292217E+01  0.6722488E-01  0.4901722E+00 -0.7297664E-01 -0.5156103E+00
3268266.  0.2995085E+00  0.2176301E+01  0.6194614E-01  0.4629496E+00 -0.6735555E-01 -0.4987783E+00
3197688.  0.2760366E+00  0.2061482E+01  0.5696518E-01  0.4364226E+00 -0.6193427E-01 -0.4796229E+00
3127109.  0.2538280E+00  0.1948283E+01  0.5227393E-01  0.4106414E+00 -0.5673568E-01 -0.4586420E+00
3056531.  0.2328625E+00  0.1837152E+01  0.4786402E-01  0.3856492E+00 -0.5177760E-01 -0.4362820E+00
2985953.  0.2131150E+00  0.1728456E+01  0.4372646E-01  0.3614752E+00 -0.4707301E-01 -0.4129421E+00
2915375.  0.1945566E+00  0.1622508E+01  0.3985207E-01  0.3381399E+00 -0.4263077E-01 -0.3889730E+00
2844797.  0.1771556E+00  0.1519568E+01  0.3623146E-01  0.3156623E+00 -0.3845610E-01 -0.3646842E+00
2774219.  0.1608772E+00  0.1419851E+01  0.3285504E-01  0.2940557E+00 -0.3455099E-01 -0.3403479E+00
2703641.  0.1456848E+00  0.1323529E+01  0.2971312E-01  0.2733245E+00 -0.3091464E-01 -0.3162012E+00
2633062.  0.1315397E+00  0.1230745E+01  0.2679597E-01  0.2534712E+00 -0.2754374E-01 -0.2924455E+00
2562484.  0.1184027E+00  0.1141612E+01  0.2409391E-01  0.2344987E+00 -0.2443307E-01 -0.2692564E+00
2491906.  0.1062324E+00  0.1056215E+01  0.2159719E-01  0.2163996E+00 -0.2157545E-01 -0.2467810E+00
2421328.  0.9498709E-01  0.9746208E+00  0.1929617E-01  0.1991647E+00 -0.1896230E-01 -0.2251395E+00
2350750.  0.8462442E-01  0.8968798E+00  0.1718133E-01  0.1827854E+00 -0.1658381E-01 -0.2044300E+00
2280172.  0.7510144E-01  0.8230283E+00  0.1524327E-01  0.1672465E+00 -0.1442921E-01 -0.1847309E+00
2209594.  0.6637491E-01  0.7530966E+00  0.1347278E-01  0.1525298E+00 -0.1248696E-01 -0.1661002E+00
2139016.  0.5840125E-01  0.6871126E+00  0.1186086E-01  0.1386130E+00 -0.1074499E-01 -0.1485795E+00
2068438.  0.5113653E-01  0.6251113E+00  0.1039881E-01  0.1254696E+00 -0.9190839E-02 -0.1321938E+00
1997859.  0.4453629E-01  0.5671428E+00  0.9078201E-02  0.1130668E+00 -0.7811842E-02 -0.1169552E+00
1927281.  0.3855560E-01  0.5132927E+00  0.7891099E-02  0.1013623E+00 -0.6595321E-02 -0.1028633E+00
1856703.  0.3314805E-01  0.4637003E+00  0.6830032E-02  0.9030254E-01 -0.5528610E-02 -0.8990613E-01
1786125.  0.2826529E-01  0.4185981E+00  0.5888236E-02  0.7981551E-01 -0.4599246E-02 -0.7806262E-01
1715547.  0.2385562E-01  0.3783696E+00  0.5059889E-02  0.6980088E-01 -0.3795048E-02 -0.6730346E-01
1644969.  0.1986184E-01  0.3436460E+00  0.4340502E-02  0.6011554E-01 -0.3104199E-02 -0.5759209E-01
1574391.  0.1621771E-01  0.3154638E+00  0.3727526E-02  0.5054610E-01 -0.2515320E-02 -0.4888702E-01
1503812.  0.1284202E-01  0.2955396E+00  0.3221361E-02  0.4076301E-01 -0.2017504E-02 -0.4114247E-01
1433234.  0.9628811E-02  0.2867494E+00  0.2827059E-02  0.3024159E-01 -0.1600387E-02 -0.3431118E-01
1362656.  0.6430016E-02  0.2939912E+00  0.2557178E-02  0.1811625E-01 -0.1254106E-02 -0.2834617E-01
1292078.  0.3025257E-02  0.3257852E+00  0.2436904E-02  0.2914327E-02 -0.9693063E-03 -0.2320535E-01
1221500. -0.9334101E-03  0.3973353E+00  0.2513299E-02 -0.1795712E-01 -0.7370400E-03 -0.1885825E-01
1221500. -0.9334101E-03 -0.6148529E-03 -0.2902696E-04  0.4717008E-02 -0.7370400E-03 -0.1845389E-01
1183328. -0.9201560E-03 -0.3691616E-02 -0.5326567E-04  0.3411328E-02 -0.6327212E-03 -0.1639617E-01
1145156. -0.8905018E-03 -0.6102899E-02 -0.7032905E-04  0.2317990E-02 -0.5402354E-03 -0.1450288E-01
1106984. -0.8481936E-03 -0.7928345E-02 -0.8142118E-04  0.1414466E-02 -0.4586172E-03 -0.1276741E-01
1068812. -0.7965162E-03 -0.9242250E-02 -0.8761527E-04  0.6795899E-03 -0.3869415E-03 -0.1118287E-01
1030641. -0.7383268E-03 -0.1011369E-01 -0.8986169E-04  0.9354134E-04 -0.3243265E-03 -0.9742227E-02
 992469. -0.6760788E-03 -0.1060669E-01 -0.8899605E-04 -0.3622167E-03 -0.2699287E-03 -0.8438177E-02
 954297. -0.6118625E-03 -0.1078020E-01 -0.8574685E-04 -0.7048570E-03 -0.2229532E-03 -0.7263392E-02
 916125. -0.5474272E-03 -0.1068837E-01 -0.8074362E-04 -0.9502704E-03 -0.1826478E-03 -0.6210442E-02
 877953. -0.4842125E-03 -0.1038064E-01 -0.7452425E-04 -0.1113148E-02 -0.1483048E-03 -0.5271831E-02
 839781. -0.4233754E-03 -0.9901822E-02 -0.6754259E-04 -0.1206862E-02 -0.1192618E-03 -0.4440059E-02
 801609. -0.3658177E-03 -0.9292357E-02 -0.6017571E-04 -0.1243678E-02 -0.9490093E-04 -0.3707658E-02
 763438. -0.3122133E-03 -0.8588384E-02 -0.5273114E-04 -0.1234608E-02 -0.7464958E-04 -0.3067229E-02
 725266. -0.2630276E-03 -0.7821933E-02 -0.4545302E-04 -0.1189618E-02 -0.5797771E-04 -0.2511425E-02
 687094. -0.2185502E-03 -0.7021099E-02 -0.3852982E-04 -0.1117519E-02 -0.4440036E-04 -0.2033080E-02
 648922. -0.1789124E-03 -0.6210233E-02 -0.3210008E-04 -0.1026115E-02 -0.3347456E-04 -0.1625167E-02
 610750. -0.1441104E-03 -0.5410086E-02 -0.2625861E-04 -0.9222071E-03 -0.2479889E-04 -0.1280855E-02
 572578. -0.1140263E-03 -0.4637995E-02 -0.2106237E-04 -0.8116352E-03 -0.1801220E-04 -0.9935363E-03
 534406. -0.8844819E-04 -0.3908072E-02 -0.1653606E-04 -0.6993338E-03 -0.1279219E-04 -0.7568514E-03
 496234. -0.6708877E-04 -0.3231395E-02 -0.1267740E-04 -0.5893809E-03 -0.8853848E-05 -0.5647200E-03
 458062. -0.4960300E-04 -0.2616193E-02 -0.9462137E-05 -0.4850501E-03 -0.5947696E-05 -0.4113659E-03
 419891. -0.3560484E-04 -0.2068058E-02 -0.6848732E-05 -0.3888617E-03 -0.3857936E-05 -0.2913426E-03
 381719. -0.2468133E-04 -0.1590077E-02 -0.4782487E-05 -0.3026316E-03 -0.2400231E-05 -0.1995459E-03
 343547. -0.1640878E-04 -0.1183126E-02 -0.3199987E-05 -0.2275317E-03 -0.1419855E-05 -0.1312518E-03
 305375. -0.1036421E-04 -0.8460085E-03 -0.2032495E-05 -0.1641524E-03 -0.7891815E-06 -0.8212427E-04
 267203. -0.6137509E-05 -0.5756617E-03 -0.1209393E-05 -0.1125409E-03 -0.4053497E-06 -0.4823517E-04
 229031. -0.3341956E-05 -0.3673743E-03 -0.6612120E-06 -0.7227575E-04 -0.1877698E-06 -0.2608077E-04
 190859. -0.1623523E-05 -0.2149778E-03 -0.3223018E-06 -0.4251382E-04 -0.7553820E-07 -0.1259573E-04
 152688. -0.6689791E-06 -0.1110654E-03 -0.1331667E-06 -0.2205529E-04 -0.2477391E-07 -0.5165432E-05
 114516. -0.2126441E-06 -0.4718179E-04 -0.4241716E-07 -0.9398978E-05 -0.5882816E-08 -0.1635877E-05
  76344. -0.4214071E-07 -0.1404852E-04 -0.8418387E-08 -0.2804802E-05 -0.7750527E-09 -0.3233474E-06
  38172. -0.2638924E-08 -0.1761172E-05 -0.5276284E-09 -0.3520777E-06 -0.2422712E-10 -0.2021702E-07
      0.  0.0000000E+00  0.0000000E+00  0.0000000E+00  0.0000000E+00  0.0000000E+00  0.0000000E+00
