       5       24 S      340        147.06419         11.11001          6.54597        265.44479      185    7
6371000. -0.2508468E-01  0.8231224E+00  0.3406256E-02  0.2849093E-01 -0.9018306E-03  0.6984960E-01
6370000. -0.2521310E-01  0.8132086E+00  0.3401538E-02  0.3162376E-01 -0.9127731E-03  0.6957966E-01
6369000. -0.2533995E-01  0.8030460E+00  0.3396329E-02  0.3474954E-01 -0.9236732E-03  0.6930844E-01
6368000. -0.2546518E-01  0.7926354E+00  0.3390630E-02  0.3786777E-01 -0.9345305E-03  0.6903594E-01
6368000. -0.2546518E-01  0.7926354E+00  0.3390630E-02  0.3786777E-01 -0.9345305E-03  0.6903594E-01
6367000. -0.2558876E-01  0.7819777E+00  0.3384442E-02  0.4097795E-01 -0.9453450E-03  0.6876217E-01
6366000. -0.2571065E-01  0.7710739E+00  0.3377766E-02  0.4407959E-01 -0.9561165E-03  0.6848715E-01
6365000. -0.2583081E-01  0.7599250E+00  0.3370605E-02  0.4717220E-01 -0.9668446E-03  0.6821088E-01
6364000. -0.2594919E-01  0.7485321E+00  0.3362959E-02  0.5025527E-01 -0.9775293E-03  0.6793339E-01
6363000. -0.2606577E-01  0.7368962E+00  0.3354829E-02  0.5332831E-01 -0.9881704E-03  0.6765467E-01
6362000. -0.2618051E-01  0.7250184E+00  0.3346218E-02  0.5639084E-01 -0.9987676E-03  0.6737474E-01
6361000. -0.2629336E-01  0.7129002E+00  0.3337127E-02  0.5944236E-01 -0.1009321E-02  0.6709362E-01
6360000. -0.2640429E-01  0.7005424E+00  0.3327558E-02  0.6248240E-01 -0.1019830E-02  0.6681132E-01
6359000. -0.2651327E-01  0.6879466E+00  0.3317513E-02  0.6551045E-01 -0.1030294E-02  0.6652783E-01
6358000. -0.2662024E-01  0.6751140E+00  0.3306994E-02  0.6852605E-01 -0.1040714E-02  0.6624319E-01
6357000. -0.2672519E-01  0.6620460E+00  0.3296002E-02  0.7152870E-01 -0.1051089E-02  0.6595740E-01
6356000. -0.2682806E-01  0.6487440E+00  0.3284540E-02  0.7451793E-01 -0.1061420E-02  0.6567047E-01
6356000. -0.2682806E-01  0.6010194E+00  0.3284540E-02  0.5694363E-01 -0.1061420E-02  0.7150794E-01
6355000. -0.2692166E-01  0.5915729E+00  0.3275463E-02  0.5872096E-01 -0.1072616E-02  0.7115913E-01
6354000. -0.2701376E-01  0.5819902E+00  0.3266107E-02  0.6049106E-01 -0.1083758E-02  0.7080983E-01
6353000. -0.2710435E-01  0.5722719E+00  0.3256473E-02  0.6225375E-01 -0.1094845E-02  0.7046004E-01
6352000. -0.2719340E-01  0.5624188E+00  0.3246564E-02  0.6400886E-01 -0.1105877E-02  0.7010977E-01
6351000. -0.2728090E-01  0.5524317E+00  0.3236380E-02  0.6575622E-01 -0.1116854E-02  0.6975903E-01
6350000. -0.2736682E-01  0.5423113E+00  0.3225922E-02  0.6749563E-01 -0.1127776E-02  0.6940781E-01
6349000. -0.2745114E-01  0.5320584E+00  0.3215192E-02  0.6922694E-01 -0.1138643E-02  0.6905615E-01
6348000. -0.2753383E-01  0.5216737E+00  0.3204191E-02  0.7094996E-01 -0.1149454E-02  0.6870402E-01
6347000. -0.2761490E-01  0.5111582E+00  0.3192920E-02  0.7266454E-01 -0.1160210E-02  0.6835146E-01
6346600. -0.2764685E-01  0.5069156E+00  0.3188336E-02  0.7334795E-01 -0.1164497E-02  0.6821031E-01
6346600. -0.2764685E-01  0.6832914E+00  0.3188336E-02  0.5957583E-01 -0.1164497E-02  0.7785037E-01
6318800. -0.3010433E-01  0.4312683E+00  0.2863297E-02  0.8856067E-01 -0.1482124E-02  0.6774177E-01
6291000. -0.3131684E-01  0.1149875E+00  0.2423971E-02  0.1117081E+00 -0.1755764E-02  0.5768913E-01
6291000. -0.3131684E-01  0.1279841E+00  0.2423971E-02  0.1144874E+00 -0.1755764E-02  0.5768913E-01
6263000. -0.3106237E-01 -0.2507119E+00  0.1880429E-02  0.1314691E+00 -0.1987443E-02  0.4774623E-01
6235000. -0.2906902E-01 -0.6593844E+00  0.1281247E-02  0.1396871E+00 -0.2175495E-02  0.3783751E-01
6207000. -0.2525914E-01 -0.1073021E+01  0.6661090E-03  0.1387064E+00 -0.2320100E-02  0.2797807E-01
6179000. -0.1966896E-01 -0.1465083E+01  0.7530981E-04  0.1286879E+00 -0.2421531E-02  0.1819694E-01
6151000. -0.1245167E-01 -0.1809181E+01 -0.4528665E-03  0.1103810E+00 -0.2480232E-02  0.8542490E-02
6151000. -0.1245167E-01 -0.1478530E+01 -0.4528665E-03  0.9845569E-01 -0.2480232E-02  0.9231385E-02
6128500. -0.6931436E-02 -0.1640774E+01 -0.7711566E-03  0.8132479E-01 -0.2504351E-02  0.4493092E-02
6106000. -0.9147903E-03 -0.1758807E+01 -0.1024409E-02  0.6175311E-01 -0.2512448E-02  0.1614880E-03
6083500.  0.5434030E-02 -0.1828318E+01 -0.1205398E-02  0.4053660E-01 -0.2505991E-02 -0.3745802E-02
6061000.  0.1193857E-01 -0.1846713E+01 -0.1309763E-02  0.1849825E-01 -0.2486506E-02 -0.7215071E-02
6038500.  0.1841635E-01 -0.1813177E+01 -0.1336057E-02 -0.3541154E-02 -0.2455557E-02 -0.1023638E-01
6016000.  0.2468513E-01 -0.1728643E+01 -0.1285683E-02 -0.2479216E-01 -0.2414739E-02 -0.1280324E-01
5993500.  0.3056891E-01 -0.1595717E+01 -0.1162738E-02 -0.4452236E-01 -0.2365663E-02 -0.1491285E-01
5971000.  0.3590373E-01 -0.1418568E+01 -0.9737739E-03 -0.6207865E-01 -0.2309946E-02 -0.1656451E-01
5971000.  0.3590373E-01 -0.1305600E+01 -0.9737739E-03 -0.5957448E-01 -0.2309946E-02 -0.2126461E-01
5937667.  0.4188564E-01 -0.9731398E+00 -0.6144927E-03 -0.7661039E-01 -0.2195384E-02 -0.2234937E-01
5904333.  0.4602514E-01 -0.6052383E+00 -0.1842221E-03 -0.8671932E-01 -0.2077812E-02 -0.2244067E-01
5871000.  0.4819762E-01 -0.2249748E+00  0.2814010E-03 -0.9021951E-01 -0.1962013E-02 -0.2169995E-01
5837667.  0.4839433E-01  0.1467766E+00  0.7495339E-03 -0.8782286E-01 -0.1851914E-02 -0.2028769E-01
5804333.  0.4670766E-01  0.4922763E+00  0.1191788E-02 -0.8049800E-01 -0.1750631E-02 -0.1835294E-01
5771000.  0.4331359E-01  0.7974429E+00  0.1585205E-02 -0.6934911E-01 -0.1660545E-02 -0.1602856E-01
5771000.  0.4331359E-01  0.7974977E+00  0.1585205E-02 -0.6934835E-01 -0.1660545E-02 -0.1602856E-01
5701000.  0.3151081E-01  0.1313214E+01  0.2183674E-02 -0.3749712E-01 -0.1528970E-02 -0.7590089E-02
5701000.  0.3151081E-01  0.1149436E+01  0.2183674E-02 -0.3650639E-01 -0.1528970E-02 -0.1647185E-01
5667333.  0.2517534E-01  0.1249191E+01  0.2345349E-02 -0.2495790E-01 -0.1445393E-02 -0.1533451E-01
5633667.  0.1828861E-01  0.1354841E+01  0.2447956E-02 -0.1377019E-01 -0.1365890E-02 -0.1476419E-01
5600000.  0.1093882E-01  0.1418932E+01  0.2490114E-02 -0.2178271E-02 -0.1289514E-02 -0.1414106E-01
5600000.  0.1093882E-01  0.1418932E+01  0.2490114E-02 -0.2178271E-02 -0.1289514E-02 -0.1414106E-01
5563518.  0.2728893E-02  0.1440248E+01  0.2466870E-02  0.1023620E-01 -0.1210422E-02 -0.1348738E-01
5527037. -0.5460818E-02  0.1412193E+01  0.2374020E-02  0.2205951E-01 -0.1134982E-02 -0.1286950E-01
5490556. -0.1335356E-01  0.1337028E+01  0.2216161E-02  0.3287908E-01 -0.1062939E-02 -0.1230258E-01
5454074. -0.2068987E-01  0.1218529E+01  0.2000059E-02  0.4234910E-01 -0.9939761E-03 -0.1179408E-01
5417593. -0.2723555E-01  0.1061891E+01  0.1734255E-02  0.5020349E-01 -0.9277459E-03 -0.1134900E-01
5381111. -0.3278963E-01  0.8732189E+00  0.1428557E-02  0.5625554E-01 -0.8638911E-03 -0.1096262E-01
5344630. -0.3718784E-01  0.6594220E+00  0.1093647E-02  0.6039825E-01 -0.8020963E-03 -0.1062938E-01
5308148. -0.4030750E-01  0.4278528E+00  0.7405553E-03  0.6260405E-01 -0.7420687E-03 -0.1034288E-01
5271667. -0.4206813E-01  0.1860254E+00  0.3803078E-03  0.6291331E-01 -0.6835857E-03 -0.1008832E-01
5235185. -0.4243248E-01 -0.5863118E-01  0.2347104E-04  0.6143175E-01 -0.6264881E-03 -0.9857451E-02
5198704. -0.4140485E-01 -0.2990183E+00 -0.3201130E-03  0.5831785E-01 -0.5706666E-03 -0.9640488E-02
5162222. -0.3902877E-01 -0.5285567E+00 -0.6416687E-03  0.5377116E-01 -0.5160911E-03 -0.9419947E-02
5125741. -0.3538358E-01 -0.7414215E+00 -0.9336305E-03  0.4802509E-01 -0.4627983E-03 -0.9192265E-02
5089259. -0.3057925E-01 -0.9326082E+00 -0.1189859E-02  0.4133084E-01 -0.4108514E-03 -0.8947334E-02
5052778. -0.2475246E-01 -0.1097998E+01 -0.1405658E-02  0.3395060E-01 -0.3603821E-03 -0.8675882E-02
5016296. -0.1805974E-01 -0.1234572E+01 -0.1577864E-02  0.2614564E-01 -0.3115464E-03 -0.8375833E-02
4979815. -0.1067300E-01 -0.1340202E+01 -0.1704760E-02  0.1816778E-01 -0.2645230E-03 -0.8042738E-02
4943333. -0.2772616E-02 -0.1413810E+01 -0.1786049E-02  0.1025237E-01 -0.2195046E-03 -0.7675228E-02
4906852.  0.5456912E-02 -0.1455285E+01 -0.1822703E-02  0.2611921E-02 -0.1766873E-03 -0.7274596E-02
4870370.  0.1383347E-01 -0.1465266E+01 -0.1816839E-02 -0.4570149E-02 -0.1362526E-03 -0.6843166E-02
4833889.  0.2218030E-01 -0.1445304E+01 -0.1771541E-02 -0.1113791E-01 -0.9837162E-04 -0.6383454E-02
4797407.  0.3033239E-01 -0.1397565E+01 -0.1690689E-02 -0.1697096E-01 -0.6319343E-04 -0.5900104E-02
4760926.  0.3813750E-01 -0.1324678E+01 -0.1578755E-02 -0.2198217E-01 -0.3082925E-04 -0.5401838E-02
4724444.  0.4546100E-01 -0.1229837E+01 -0.1440625E-02 -0.2611278E-01 -0.1356001E-05 -0.4890657E-02
4687963.  0.5218646E-01 -0.1116441E+01 -0.1281432E-02 -0.2933873E-01  0.2517159E-04 -0.4375211E-02
4651482.  0.5821796E-01 -0.9880605E+00 -0.1106353E-02 -0.3166376E-01  0.4876069E-04 -0.3864939E-02
4615000.  0.6348041E-01 -0.8483907E+00 -0.9204846E-03 -0.3311198E-01  0.6944416E-04 -0.3361096E-02
4578518.  0.6791935E-01 -0.7010165E+00 -0.7287127E-03 -0.3373570E-01  0.8728928E-04 -0.2875526E-02
4542037.  0.7150061E-01 -0.5494274E+00 -0.5355823E-03 -0.3359979E-01  0.1024213E-03 -0.2413481E-02
4505556.  0.7420966E-01 -0.3968947E+00 -0.3452263E-03 -0.3278144E-01  0.1149721E-03 -0.1975678E-02
4469074.  0.7604978E-01 -0.2463777E+00 -0.1612765E-03 -0.3137622E-01  0.1251268E-03 -0.1577755E-02
4432593.  0.7704020E-01 -0.1005427E+00  0.1315569E-04 -0.2947400E-01  0.1331084E-03 -0.1215939E-02
4396111.  0.7721451E-01  0.3832890E-01  0.1755065E-03 -0.2717226E-01  0.1391284E-03 -0.8948396E-03
4359630.  0.7661822E-01  0.1683286E+00  0.3237795E-03 -0.2457421E-01  0.1434620E-03 -0.6271543E-03
4323148.  0.7530653E-01  0.2879742E+00  0.4565359E-03 -0.2176582E-01  0.1463950E-03 -0.4052490E-03
4286667.  0.7334222E-01  0.3961357E+00  0.5728244E-03 -0.1883870E-01  0.1482089E-03 -0.2382808E-03
4250185.  0.7079320E-01  0.4920853E+00  0.6722154E-03 -0.1587491E-01  0.1492405E-03 -0.1315661E-03
4213704.  0.6773075E-01  0.5754614E+00  0.7546844E-03 -0.1294021E-01  0.1498219E-03 -0.8176389E-04
4177222.  0.6422701E-01  0.6461926E+00  0.8205971E-03 -0.1010160E-01  0.1503087E-03 -0.9998650E-04
4140741.  0.6035405E-01  0.7045338E+00  0.8706505E-03 -0.7408063E-02  0.1510999E-03 -0.1876964E-03
4104259.  0.5618118E-01  0.7509945E+00  0.9057813E-03 -0.4895559E-02  0.1525935E-03 -0.3473068E-03
4067778.  0.5177491E-01  0.7862319E+00  0.9271373E-03 -0.2601435E-02  0.1552482E-03 -0.5948998E-03
4031296.  0.4719671E-01  0.8111663E+00  0.9360129E-03 -0.5373201E-03  0.1595776E-03 -0.9327249E-03
3994815.  0.4250302E-01  0.8267760E+00  0.9337444E-03  0.1289454E-02  0.1661250E-03 -0.1373165E-02
3958333.  0.3774411E-01  0.8340860E+00  0.9217089E-03  0.2875367E-02  0.1755441E-03 -0.1938413E-02
3921852.  0.3296448E-01  0.8342415E+00  0.9012371E-03  0.4239832E-02  0.1885867E-03 -0.2642054E-02
3885370.  0.2820184E-01  0.8282766E+00  0.8735381E-03  0.5403385E-02  0.2061205E-03 -0.3512518E-02
3848889.  0.2348864E-01  0.8171778E+00  0.8396792E-03  0.6398662E-02  0.2291974E-03 -0.4583984E-02
3812407.  0.1885137E-01  0.8018348E+00  0.8004857E-03  0.7274975E-02  0.2590733E-03 -0.5894756E-02
3775926.  0.1431273E-01  0.7828608E+00  0.7564864E-03  0.8088373E-02  0.2972686E-03 -0.7500096E-02
3739444.  0.9891999E-02  0.7606501E+00  0.7078300E-03  0.8915807E-02  0.3456529E-03 -0.9465032E-02
3702963.  0.5607691E-02  0.7352040E+00  0.6541671E-03  0.9855398E-02  0.4065059E-03 -0.1187117E-01
3666482.  0.1479641E-02  0.7059287E+00  0.5945221E-03  0.1102837E-01  0.4826460E-03 -0.1482378E-01
3630000. -0.2467243E-02  0.6716133E+00  0.5271171E-03  0.1259553E-01  0.5775618E-03 -0.1845237E-01
3630000. -0.2467243E-02  0.6716133E+00  0.5271171E-03  0.1259553E-01  0.5775618E-03 -0.1845237E-01
3592500. -0.6298662E-02  0.6287074E+00  0.4467638E-03  0.1483580E-01  0.6992429E-03 -0.2305773E-01
3555000. -0.9845816E-02  0.5742349E+00  0.3506428E-03  0.1801044E-01  0.8511688E-03 -0.2877057E-01
3517500. -0.1302457E-01  0.5023419E+00  0.2321331E-03  0.2252037E-01  0.1040650E-02 -0.3587031E-01
3480000. -0.1570832E-01  0.4042936E+00  0.8186028E-04  0.2890783E-01  0.1276836E-02 -0.4470507E-01
3480000. -0.1570832E-01 -0.4040871E+00 -0.9367706E-03 -0.2702673E-01  0.1276836E-02  0.5387005E-02
3409422. -0.1168044E-01 -0.3240806E+00 -0.6743381E-03 -0.2055856E-01  0.1141483E-02  0.1708950E-01
3338844. -0.8497860E-02 -0.2521326E+00 -0.4767905E-03 -0.1530179E-01  0.9301376E-03  0.2004883E-01
3268266. -0.6054513E-02 -0.1908635E+00 -0.3312057E-03 -0.1115539E-01  0.7129687E-03  0.1869852E-01
3197688. -0.4227235E-02 -0.1408866E+00 -0.2260756E-03 -0.7971467E-02  0.5221659E-03  0.1560021E-01
3127109. -0.2893584E-02 -0.1015644E+00 -0.1516397E-03 -0.5586322E-02  0.3685919E-03  0.1213648E-01
3056531. -0.1942424E-02 -0.7158462E-01 -0.9994469E-04 -0.3840596E-02  0.2520983E-03  0.8976134E-02
2985953. -0.1278893E-02 -0.4936664E-01 -0.6471886E-04 -0.2590787E-02  0.1676166E-03  0.6377428E-02
2915375. -0.8258591E-03 -0.3332727E-01 -0.4116515E-04 -0.1714917E-02  0.1085695E-03  0.4379475E-02
2844797. -0.5230054E-03 -0.2203128E-01 -0.2571129E-04 -0.1113780E-02  0.6860022E-04  0.2917849E-02
2774219. -0.3247383E-03 -0.1426252E-01 -0.1576321E-04 -0.7096080E-03  0.4231741E-04  0.1890624E-02
2703641. -0.1976244E-03 -0.9041510E-02 -0.9481749E-05 -0.4433741E-03  0.2549563E-04  0.1193152E-02
2633062. -0.1178235E-03 -0.5611527E-02 -0.5592575E-05 -0.2715679E-03  0.1500402E-04  0.7340229E-03
2562484. -0.6878233E-04 -0.3408584E-02 -0.3232534E-05 -0.1629794E-03  0.8623616E-05  0.4403898E-03
2491906. -0.3929068E-04 -0.2025402E-02 -0.1829618E-05 -0.9577818E-04  0.4838996E-05  0.2576984E-03
2421328. -0.2194524E-04 -0.1176613E-02 -0.1013220E-05 -0.5507702E-04  0.2649544E-05  0.1470437E-03
2350750. -0.1197430E-04 -0.6677680E-03 -0.5484890E-06 -0.3096629E-04  0.1414580E-05  0.8178096E-04
2280172. -0.6376552E-05 -0.3699251E-03 -0.2899322E-06 -0.1700646E-04  0.7357697E-06  0.4430452E-04
2209594. -0.3310234E-05 -0.1998320E-03 -0.1494788E-06 -0.9113421E-05  0.3724415E-06  0.2335957E-04
2139016. -0.1673078E-05 -0.1051433E-03 -0.7506670E-07 -0.4759561E-05  0.1832500E-06  0.1197425E-04
2068438. -0.8221242E-06 -0.5381408E-04 -0.3666595E-07 -0.2419247E-05  0.8751582E-07  0.5960139E-05
1997859. -0.3921198E-06 -0.2675214E-04 -0.1739038E-07 -0.1194959E-05  0.4050251E-07  0.2876423E-05
1927281. -0.1812110E-06 -0.1289576E-04 -0.7994608E-08 -0.5725906E-06  0.1813193E-07  0.1343742E-05
1856703. -0.8097417E-07 -0.6016307E-05 -0.3554908E-08 -0.2656490E-06  0.7835490E-08  0.6064624E-06
1786125. -0.3490669E-07 -0.2710633E-05 -0.1525447E-08 -0.1190679E-06  0.3260813E-08  0.2638515E-06
1715547. -0.1447924E-07 -0.1176540E-05 -0.6300405E-09 -0.5143144E-07  0.1303355E-08  0.1103802E-06
1644969. -0.5762112E-08 -0.4906032E-06 -0.2497239E-09 -0.2134970E-07  0.4988356E-09  0.4427415E-07
1574391. -0.2192613E-08 -0.1959152E-06 -0.9467080E-10 -0.8489743E-08  0.1821823E-09  0.1697111E-07
1503812. -0.7946845E-09 -0.7465663E-07 -0.3419726E-10 -0.3221930E-08  0.6323884E-10  0.6193329E-08
1433234. -0.2729678E-09 -0.2705471E-07 -0.1172612E-10 -0.1161308E-08  0.2077082E-10  0.2142377E-08
1362656. -0.8776294E-10 -0.9355483E-08 -0.3824158E-11 -0.3924665E-09  0.6424661E-11  0.6986919E-09
1292078. -0.2365871E-10 -0.3393614E-08 -0.1285374E-11 -0.1103262E-09  0.1866991E-11  0.2132745E-09
1221500.  0.6161669E-11 -0.2730415E-08 -0.8902260E-12  0.3677424E-10  0.5110914E-12  0.6201384E-10
1221500.  0.6161669E-11 -0.2901523E-10 -0.3126822E-13 -0.3230062E-10  0.5110914E-12  0.5934458E-10
1183328.  0.5323851E-11  0.2427384E-09  0.7311775E-13 -0.6642839E-11  0.2514261E-12  0.3035235E-10
1145156.  0.3747475E-11  0.2601699E-09  0.8148879E-13  0.2080461E-11  0.1202449E-12  0.1509460E-10
1106984.  0.2355462E-11  0.1995756E-09  0.6175206E-13  0.3836506E-11  0.5585313E-13  0.7282955E-11
1068812.  0.0000000E+00  0.0000000E+00  0.0000000E+00  0.0000000E+00  0.0000000E+00  0.0000000E+00
1030641.  0.0000000E+00  0.0000000E+00  0.0000000E+00  0.0000000E+00  0.0000000E+00  0.0000000E+00
 992469.  0.0000000E+00  0.0000000E+00  0.0000000E+00  0.0000000E+00  0.0000000E+00  0.0000000E+00
 954297.  0.0000000E+00  0.0000000E+00  0.0000000E+00  0.0000000E+00  0.0000000E+00  0.0000000E+00
 916125.  0.0000000E+00  0.0000000E+00  0.0000000E+00  0.0000000E+00  0.0000000E+00  0.0000000E+00
 877953.  0.0000000E+00  0.0000000E+00  0.0000000E+00  0.0000000E+00  0.0000000E+00  0.0000000E+00
 839781.  0.0000000E+00  0.0000000E+00  0.0000000E+00  0.0000000E+00  0.0000000E+00  0.0000000E+00
 801609.  0.0000000E+00  0.0000000E+00  0.0000000E+00  0.0000000E+00  0.0000000E+00  0.0000000E+00
 763438.  0.0000000E+00  0.0000000E+00  0.0000000E+00  0.0000000E+00  0.0000000E+00  0.0000000E+00
 725266.  0.0000000E+00  0.0000000E+00  0.0000000E+00  0.0000000E+00  0.0000000E+00  0.0000000E+00
 687094.  0.0000000E+00  0.0000000E+00  0.0000000E+00  0.0000000E+00  0.0000000E+00  0.0000000E+00
 648922.  0.0000000E+00  0.0000000E+00  0.0000000E+00  0.0000000E+00  0.0000000E+00  0.0000000E+00
 610750.  0.0000000E+00  0.0000000E+00  0.0000000E+00  0.0000000E+00  0.0000000E+00  0.0000000E+00
 572578.  0.0000000E+00  0.0000000E+00  0.0000000E+00  0.0000000E+00  0.0000000E+00  0.0000000E+00
 534406.  0.0000000E+00  0.0000000E+00  0.0000000E+00  0.0000000E+00  0.0000000E+00  0.0000000E+00
 496234.  0.0000000E+00  0.0000000E+00  0.0000000E+00  0.0000000E+00  0.0000000E+00  0.0000000E+00
 458062.  0.0000000E+00  0.0000000E+00  0.0000000E+00  0.0000000E+00  0.0000000E+00  0.0000000E+00
 419891.  0.0000000E+00  0.0000000E+00  0.0000000E+00  0.0000000E+00  0.0000000E+00  0.0000000E+00
 381719.  0.0000000E+00  0.0000000E+00  0.0000000E+00  0.0000000E+00  0.0000000E+00  0.0000000E+00
 343547.  0.0000000E+00  0.0000000E+00  0.0000000E+00  0.0000000E+00  0.0000000E+00  0.0000000E+00
 305375.  0.0000000E+00  0.0000000E+00  0.0000000E+00  0.0000000E+00  0.0000000E+00  0.0000000E+00
 267203.  0.0000000E+00  0.0000000E+00  0.0000000E+00  0.0000000E+00  0.0000000E+00  0.0000000E+00
 229031.  0.0000000E+00  0.0000000E+00  0.0000000E+00  0.0000000E+00  0.0000000E+00  0.0000000E+00
 190859.  0.0000000E+00  0.0000000E+00  0.0000000E+00  0.0000000E+00  0.0000000E+00  0.0000000E+00
 152688.  0.0000000E+00  0.0000000E+00  0.0000000E+00  0.0000000E+00  0.0000000E+00  0.0000000E+00
 114516.  0.0000000E+00  0.0000000E+00  0.0000000E+00  0.0000000E+00  0.0000000E+00  0.0000000E+00
  76344.  0.0000000E+00  0.0000000E+00  0.0000000E+00  0.0000000E+00  0.0000000E+00  0.0000000E+00
  38172.  0.0000000E+00  0.0000000E+00  0.0000000E+00  0.0000000E+00  0.0000000E+00  0.0000000E+00
      0.  0.0000000E+00  0.0000000E+00  0.0000000E+00  0.0000000E+00  0.0000000E+00  0.0000000E+00
