      19       13 S      691         95.25269         31.12981         15.85307        180.51610      185    7
6371000. -0.3223790E-01 -0.1673238E-01 -0.5882356E-03  0.3164967E-01  0.0000000E+00  0.0000000E+00
6370000. -0.3223316E-01 -0.4369862E-01 -0.5930816E-03  0.3009490E-01  0.0000000E+00  0.0000000E+00
6369000. -0.3222419E-01 -0.7063650E-01 -0.5976819E-03  0.2851754E-01  0.0000000E+00  0.0000000E+00
6368000. -0.3221099E-01 -0.9754210E-01 -0.6020328E-03  0.2691824E-01  0.0000000E+00  0.0000000E+00
6368000. -0.3221099E-01 -0.9754210E-01 -0.6020328E-03  0.2691824E-01  0.0000000E+00  0.0000000E+00
6367000. -0.3219357E-01 -0.1244115E+00 -0.6061309E-03  0.2529766E-01  0.0000000E+00  0.0000000E+00
6366000. -0.3217193E-01 -0.1512409E+00 -0.6099732E-03  0.2365648E-01  0.0000000E+00  0.0000000E+00
6365000. -0.3214609E-01 -0.1780263E+00 -0.6135562E-03  0.2199538E-01  0.0000000E+00  0.0000000E+00
6364000. -0.3211605E-01 -0.2047640E+00 -0.6168770E-03  0.2031505E-01  0.0000000E+00  0.0000000E+00
6363000. -0.3208182E-01 -0.2314501E+00 -0.6199326E-03  0.1861619E-01  0.0000000E+00  0.0000000E+00
6362000. -0.3204340E-01 -0.2580808E+00 -0.6227201E-03  0.1689951E-01  0.0000000E+00  0.0000000E+00
6361000. -0.3200080E-01 -0.2846523E+00 -0.6252368E-03  0.1516574E-01  0.0000000E+00  0.0000000E+00
6360000. -0.3195404E-01 -0.3111608E+00 -0.6274801E-03  0.1341560E-01  0.0000000E+00  0.0000000E+00
6359000. -0.3190313E-01 -0.3376027E+00 -0.6294475E-03  0.1164983E-01  0.0000000E+00  0.0000000E+00
6358000. -0.3184806E-01 -0.3639741E+00 -0.6311365E-03  0.9869169E-02  0.0000000E+00  0.0000000E+00
6357000. -0.3178887E-01 -0.3902714E+00 -0.6325449E-03  0.8074380E-02  0.0000000E+00  0.0000000E+00
6356000. -0.3172555E-01 -0.4164910E+00 -0.6336705E-03  0.6266216E-02  0.0000000E+00  0.0000000E+00
6356000. -0.3172555E-01 -0.2762519E+00 -0.6336705E-03  0.1613631E-01  0.0000000E+00  0.0000000E+00
6355000. -0.3168069E-01 -0.2953956E+00 -0.6361089E-03  0.1493196E-01  0.0000000E+00  0.0000000E+00
6354000. -0.3163282E-01 -0.3144945E+00 -0.6383574E-03  0.1371701E-01  0.0000000E+00  0.0000000E+00
6353000. -0.3158196E-01 -0.3335467E+00 -0.6404144E-03  0.1249177E-01  0.0000000E+00  0.0000000E+00
6352000. -0.3152812E-01 -0.3525501E+00 -0.6422783E-03  0.1125661E-01  0.0000000E+00  0.0000000E+00
6351000. -0.3147129E-01 -0.3715030E+00 -0.6439476E-03  0.1001187E-01  0.0000000E+00  0.0000000E+00
6350000. -0.3141150E-01 -0.3904032E+00 -0.6454208E-03  0.8757900E-02  0.0000000E+00  0.0000000E+00
6349000. -0.3134874E-01 -0.4092488E+00 -0.6466965E-03  0.7495065E-02  0.0000000E+00  0.0000000E+00
6348000. -0.3128303E-01 -0.4280379E+00 -0.6477733E-03  0.6223721E-02  0.0000000E+00  0.0000000E+00
6347000. -0.3121437E-01 -0.4467685E+00 -0.6486498E-03  0.4944232E-02  0.0000000E+00  0.0000000E+00
6346600. -0.3118609E-01 -0.4542440E+00 -0.6489441E-03  0.4430238E-02  0.0000000E+00  0.0000000E+00
6346600. -0.3118609E-01 -0.2904344E+00 -0.6489441E-03  0.1294943E-01  0.0000000E+00  0.0000000E+00
6318800. -0.2911085E-01 -0.6553912E+00 -0.6419170E-03 -0.1676811E-01  0.0000000E+00  0.0000000E+00
6291000. -0.2552830E-01 -0.9779837E+00 -0.5012731E-03 -0.4739200E-01  0.0000000E+00  0.0000000E+00
6291000. -0.2552830E-01 -0.9909954E+00 -0.5012731E-03 -0.4976378E-01  0.0000000E+00  0.0000000E+00
6263000. -0.2056250E-01 -0.1257138E+01 -0.2202784E-03 -0.7678550E-01  0.0000000E+00  0.0000000E+00
6235000. -0.1458834E-01 -0.1448380E+01  0.1584331E-03 -0.9347012E-01  0.0000000E+00  0.0000000E+00
6207000. -0.7949957E-02 -0.1558964E+01  0.5807727E-03 -0.9621508E-01  0.0000000E+00  0.0000000E+00
6179000. -0.1003616E-02 -0.1588956E+01  0.9816703E-03 -0.8370379E-01  0.0000000E+00  0.0000000E+00
6151000.  0.5905293E-02 -0.1543007E+01  0.1295846E-02 -0.5716484E-01  0.0000000E+00  0.0000000E+00
6151000.  0.5905293E-02 -0.1226147E+01  0.1295846E-02 -0.5086103E-01  0.0000000E+00  0.0000000E+00
6128500.  0.1007401E-01 -0.1131174E+01  0.1429584E-02 -0.2420826E-01  0.0000000E+00  0.0000000E+00
6106000.  0.1387361E-01 -0.1018019E+01  0.1463591E-02  0.5192369E-02  0.0000000E+00  0.0000000E+00
6083500.  0.1724900E-01 -0.8916875E+00  0.1392759E-02  0.3472129E-01  0.0000000E+00  0.0000000E+00
6061000.  0.2016100E-01 -0.7561674E+00  0.1221258E-02  0.6178503E-01  0.0000000E+00  0.0000000E+00
6038500.  0.2258259E-01 -0.6143512E+00  0.9620099E-03  0.8406144E-01  0.0000000E+00  0.0000000E+00
6016000.  0.2449507E-01 -0.4680866E+00  0.6353391E-03  0.9970944E-01  0.0000000E+00  0.0000000E+00
5993500.  0.2588473E-01 -0.3183773E+00  0.2669863E-03  0.1075248E+00  0.0000000E+00  0.0000000E+00
5971000.  0.2674031E-01 -0.1656751E+00 -0.1143282E-03  0.1070337E+00  0.0000000E+00  0.0000000E+00
5971000.  0.2674031E-01 -0.1523948E+00 -0.1143282E-03  0.9208547E-01  0.0000000E+00  0.0000000E+00
5937667.  0.2694819E-01  0.7168224E-01 -0.5582093E-03  0.7577974E-01  0.0000000E+00  0.0000000E+00
5904333.  0.2600621E-01  0.2865351E+00 -0.8925619E-03  0.5104678E-01  0.0000000E+00  0.0000000E+00
5871000.  0.2397359E-01  0.4877312E+00 -0.1086641E-02  0.2301486E-01  0.0000000E+00  0.0000000E+00
5837667.  0.2093682E-01  0.6692619E+00 -0.1136049E-02 -0.3528185E-02  0.0000000E+00  0.0000000E+00
5804333.  0.1701703E-01  0.8239865E+00 -0.1058909E-02 -0.2485156E-01  0.0000000E+00  0.0000000E+00
5771000.  0.1237419E-01  0.9445123E+00 -0.8891742E-03 -0.3867396E-01  0.0000000E+00  0.0000000E+00
5771000.  0.1237419E-01  0.9445156E+00 -0.8891742E-03 -0.3867317E-01  0.0000000E+00  0.0000000E+00
5701000.  0.7825087E-03  0.1132055E+01 -0.4059159E-03 -0.4363459E-01  0.0000000E+00  0.0000000E+00
5701000.  0.7825087E-03  0.9328473E+00 -0.4059159E-03 -0.3479688E-01  0.0000000E+00  0.0000000E+00
5667333. -0.4043486E-02  0.8957592E+00 -0.2415730E-03 -0.2730296E-01  0.0000000E+00  0.0000000E+00
5633667. -0.8700197E-02  0.8637394E+00 -0.1179200E-03 -0.1929709E-01  0.0000000E+00  0.0000000E+00
5600000. -0.1309871E-01  0.7942497E+00 -0.4056683E-04 -0.9839553E-02  0.0000000E+00  0.0000000E+00
5600000. -0.1309871E-01  0.7942497E+00 -0.4056683E-04 -0.9839553E-02  0.0000000E+00  0.0000000E+00
5563518. -0.1733685E-01  0.6796380E+00 -0.1359181E-04  0.2355170E-03  0.0000000E+00  0.0000000E+00
5527037. -0.2081608E-01  0.5305068E+00 -0.3948937E-04  0.8346786E-02  0.0000000E+00  0.0000000E+00
5490556. -0.2336331E-01  0.3557782E+00 -0.1026309E-03  0.1304622E-01  0.0000000E+00  0.0000000E+00
5454074. -0.2486220E-01  0.1662437E+00 -0.1806837E-03  0.1346430E-01  0.0000000E+00  0.0000000E+00
5417593. -0.2526142E-01 -0.2633095E-01 -0.2482544E-03  0.9413769E-02  0.0000000E+00  0.0000000E+00
5381111. -0.2457691E-01 -0.2104125E+00 -0.2808931E-03  0.1402051E-02  0.0000000E+00  0.0000000E+00
5344630. -0.2288793E-01 -0.3755988E+00 -0.2588459E-03 -0.9458968E-02  0.0000000E+00  0.0000000E+00
5308148. -0.2032750E-01 -0.5135851E+00 -0.1700643E-03 -0.2162181E-01  0.0000000E+00  0.0000000E+00
5271667. -0.1706930E-01 -0.6186276E+00 -0.1213498E-04 -0.3331012E-01  0.0000000E+00  0.0000000E+00
5235185. -0.1331090E-01 -0.6880804E+00  0.2071586E-03 -0.4277632E-01  0.0000000E+00  0.0000000E+00
5198704. -0.9256687E-02 -0.7222511E+00  0.4706244E-03 -0.4852143E-01  0.0000000E+00  0.0000000E+00
5162222. -0.5101550E-02 -0.7239779E+00  0.7536700E-03 -0.4948124E-01  0.0000000E+00  0.0000000E+00
5125741. -0.1017590E-02 -0.6984214E+00  0.1027222E-02 -0.4518095E-01  0.0000000E+00  0.0000000E+00
5089259.  0.2856993E-02 -0.6519235E+00  0.1261297E-02 -0.3576690E-01  0.0000000E+00  0.0000000E+00
5052778.  0.6421537E-02 -0.5913200E+00  0.1428487E-02 -0.2199464E-01  0.0000000E+00  0.0000000E+00
5016296.  0.9614828E-02 -0.5232519E+00  0.1507270E-02 -0.5134547E-02  0.0000000E+00  0.0000000E+00
4979815.  0.1241032E-01 -0.4532073E+00  0.1484491E-02  0.1318701E-01  0.0000000E+00  0.0000000E+00
4943333.  0.1480909E-01 -0.3851889E+00  0.1356876E-02  0.3118010E-01  0.0000000E+00  0.0000000E+00
4906852.  0.1682986E-01 -0.3214011E+00  0.1131381E-02  0.4709850E-01  0.0000000E+00  0.0000000E+00
4870370.  0.1849853E-01 -0.2620990E+00  0.8243644E-03  0.5942739E-01  0.0000000E+00  0.0000000E+00
4833889.  0.1983773E-01 -0.2060068E+00  0.4597909E-03  0.6706161E-01  0.0000000E+00  0.0000000E+00
4797407.  0.2085914E-01 -0.1506027E+00  0.6648139E-04  0.6940589E-01  0.0000000E+00  0.0000000E+00
4760926.  0.2155776E-01 -0.9273015E-01 -0.3248508E-03  0.6641611E-01  0.0000000E+00  0.0000000E+00
4724444.  0.2191040E-01 -0.2927091E-01 -0.6849253E-03  0.5861358E-01  0.0000000E+00  0.0000000E+00
4687963.  0.2187749E-01  0.4225842E-01 -0.9887801E-03  0.4697956E-01  0.0000000E+00  0.0000000E+00
4651482.  0.2140846E-01  0.1231573E+00 -0.1218155E-02  0.3284311E-01  0.0000000E+00  0.0000000E+00
4615000.  0.2044944E-01  0.2132063E+00 -0.1363047E-02  0.1773025E-01  0.0000000E+00  0.0000000E+00
4578518.  0.1895293E-01  0.3104095E+00 -0.1422284E-02  0.3174874E-02  0.0000000E+00  0.0000000E+00
4542037.  0.1688774E-01  0.4111240E+00 -0.1403140E-02 -0.9435326E-02  0.0000000E+00  0.0000000E+00
4505556.  0.1424744E-01  0.5103341E+00 -0.1320048E-02 -0.1901049E-01  0.0000000E+00  0.0000000E+00
4469074.  0.1105770E-01  0.6019478E+00 -0.1192558E-02 -0.2486405E-01  0.0000000E+00  0.0000000E+00
4432593.  0.7380313E-02  0.6796405E+00 -0.1042864E-02 -0.2676871E-01  0.0000000E+00  0.0000000E+00
4396111.  0.3312480E-02  0.7373096E+00 -0.8930989E-03 -0.2496418E-01  0.0000000E+00  0.0000000E+00
4359630. -0.1015187E-02  0.7696843E+00 -0.7628082E-03 -0.2010940E-01  0.0000000E+00  0.0000000E+00
4323148. -0.5447019E-02  0.7731990E+00 -0.6667390E-03 -0.1319730E-01  0.0000000E+00  0.0000000E+00
4286667. -0.9811489E-02  0.7460750E+00 -0.6133080E-03 -0.5427755E-02  0.0000000E+00  0.0000000E+00
4250185. -0.1393351E-01  0.6887535E+00 -0.6037896E-03  0.1930676E-02  0.0000000E+00  0.0000000E+00
4213704. -0.1764688E-01  0.6040114E+00 -0.6323369E-03  0.7682128E-02  0.0000000E+00  0.0000000E+00
4177222. -0.2080735E-01  0.4965524E+00 -0.6867970E-03  0.1083940E-01  0.0000000E+00  0.0000000E+00
4140741. -0.2330253E-01  0.3728708E+00 -0.7502015E-03  0.1072358E-01  0.0000000E+00  0.0000000E+00
4104259. -0.2506115E-01  0.2405936E+00 -0.8027614E-03  0.7035317E-02  0.0000000E+00  0.0000000E+00
4067778. -0.2605692E-01  0.1078008E+00 -0.8241438E-03 -0.1133395E-03  0.0000000E+00  0.0000000E+00
4031296. -0.2630999E-01 -0.1754730E-01 -0.7957849E-03 -0.1022502E-01  0.0000000E+00  0.0000000E+00
3994815. -0.2588378E-01 -0.1283804E+00 -0.7029679E-03 -0.2246350E-01  0.0000000E+00  0.0000000E+00
3958333. -0.2487830E-01 -0.2190705E+00 -0.5365347E-03 -0.3574051E-01  0.0000000E+00  0.0000000E+00
3921852. -0.2342062E-01 -0.2858892E+00 -0.2939851E-03 -0.4884377E-01  0.0000000E+00  0.0000000E+00
3885370. -0.2165293E-01 -0.3272523E+00  0.2014874E-04 -0.6053938E-01  0.0000000E+00  0.0000000E+00
3848889. -0.1972034E-01 -0.3437949E+00  0.3944833E-03 -0.6970263E-01  0.0000000E+00  0.0000000E+00
3812407. -0.1775785E-01 -0.3382929E+00  0.8118467E-03 -0.7543637E-01  0.0000000E+00  0.0000000E+00
3775926. -0.1587978E-01 -0.3151912E+00  0.1250667E-02 -0.7712813E-01  0.0000000E+00  0.0000000E+00
3739444. -0.1417071E-01 -0.2803008E+00  0.1686941E-02 -0.7453416E-01  0.0000000E+00  0.0000000E+00
3702963. -0.1267972E-01 -0.2401307E+00  0.2096308E-02 -0.6778460E-01  0.0000000E+00  0.0000000E+00
3666482. -0.1141841E-01 -0.2011350E+00  0.2456171E-02 -0.5735128E-01  0.0000000E+00  0.0000000E+00
3630000. -0.1036233E-01 -0.1693698E+00  0.2747593E-02 -0.4403158E-01  0.0000000E+00  0.0000000E+00
3630000. -0.1036233E-01 -0.1693698E+00  0.2747593E-02 -0.4403158E-01  0.0000000E+00  0.0000000E+00
3592500. -0.9431779E-02 -0.1492825E+00  0.2961430E-02 -0.2839973E-01  0.0000000E+00  0.0000000E+00
3555000. -0.8572917E-02 -0.1454462E+00  0.3080502E-02 -0.1204750E-01  0.0000000E+00  0.0000000E+00
3517500. -0.7684409E-02 -0.1594230E+00  0.3104374E-02  0.3737776E-02  0.0000000E+00  0.0000000E+00
3480000. -0.6662571E-02 -0.1904433E+00  0.3039967E-02  0.1776289E-01  0.0000000E+00  0.0000000E+00
3480000. -0.6662571E-02 -0.8635511E+00  0.7659958E-03 -0.1361355E-01  0.0000000E+00  0.0000000E+00
3409422.  0.3230026E-02 -0.8849421E+00  0.8179167E-03  0.4497495E-02  0.0000000E+00  0.0000000E+00
3338844.  0.1218206E-01 -0.7014129E+00  0.6687932E-03  0.2196389E-01  0.0000000E+00  0.0000000E+00
3268266.  0.1824749E-01 -0.3769309E+00  0.3482105E-03  0.3489058E-01  0.0000000E+00  0.0000000E+00
3197688.  0.2032654E-01  0.3624577E-02 -0.7757664E-04  0.4065284E-01  0.0000000E+00  0.0000000E+00
3127109.  0.1827071E-01  0.3567843E+00 -0.5222813E-03  0.3828767E-01  0.0000000E+00  0.0000000E+00
3056531.  0.1276600E-01  0.6176487E+00 -0.8982394E-03  0.2848016E-01  0.0000000E+00  0.0000000E+00
2985953.  0.5066152E-02  0.7495311E+00 -0.1133073E-02  0.1322419E-01  0.0000000E+00  0.0000000E+00
2915375. -0.3336530E-02  0.7457698E+00 -0.1181312E-02 -0.4713282E-02  0.0000000E+00  0.0000000E+00
2844797. -0.1102392E-01  0.6252671E+00 -0.1029670E-02 -0.2238553E-01  0.0000000E+00  0.0000000E+00
2774219. -0.1689108E-01  0.4240679E+00 -0.6960046E-03 -0.3719410E-01  0.0000000E+00  0.0000000E+00
2703641. -0.2028209E-01  0.1855714E+00 -0.2231949E-03 -0.4726839E-01  0.0000000E+00  0.0000000E+00
2633062. -0.2102009E-01 -0.4848318E-01  0.3301773E-03 -0.5165869E-01  0.0000000E+00  0.0000000E+00
2562484. -0.1934903E-01 -0.2447405E+00  0.9001959E-03 -0.5034318E-01  0.0000000E+00  0.0000000E+00
2491906. -0.1581702E-01 -0.3820239E+00  0.1427267E-02 -0.4408620E-01  0.0000000E+00  0.0000000E+00
2421328. -0.1113426E-01 -0.4521703E+00  0.1863531E-02 -0.3419852E-01  0.0000000E+00  0.0000000E+00
2350750. -0.6035377E-02 -0.4585132E+00  0.2177389E-02 -0.2225791E-01  0.0000000E+00  0.0000000E+00
2280172. -0.1168262E-02 -0.4127922E+00  0.2354960E-02 -0.9844893E-02  0.0000000E+00  0.0000000E+00
2209594.  0.2978774E-02 -0.3314445E+00  0.2398872E-02  0.1670451E-02  0.0000000E+00  0.0000000E+00
2139016.  0.6108675E-02 -0.2320110E+00  0.2325086E-02  0.1126699E-01  0.0000000E+00  0.0000000E+00
2068438.  0.8111095E-02 -0.1302488E+00  0.2158639E-02  0.1833150E-01  0.0000000E+00  0.0000000E+00
1997859.  0.9030839E-02 -0.3817879E-01  0.1929131E-02  0.2264430E-01  0.0000000E+00  0.0000000E+00
1927281.  0.9020707E-02  0.3679782E-01  0.1666738E-02  0.2430792E-01  0.0000000E+00  0.0000000E+00
1856703.  0.8289027E-02  0.9201755E-01  0.1399184E-02  0.2363999E-01  0.0000000E+00  0.0000000E+00
1786125.  0.7049429E-02  0.1290918E+00  0.1150090E-02  0.2104183E-01  0.0000000E+00  0.0000000E+00
1715547.  0.5476421E-02  0.1534088E+00  0.9388337E-03  0.1685100E-01  0.0000000E+00  0.0000000E+00
1644969.  0.3664375E-02  0.1741306E+00  0.7822076E-03  0.1116305E-01  0.0000000E+00  0.0000000E+00
1574391.  0.1579663E-02  0.2056434E+00  0.6984358E-03  0.3566921E-02  0.0000000E+00  0.0000000E+00
1503812. -0.1019284E-02  0.2723353E+00  0.7151937E-03 -0.7346600E-02  0.0000000E+00  0.0000000E+00
1433234. -0.4751101E-02  0.4210443E+00  0.8857753E-03 -0.2505396E-01  0.0000000E+00  0.0000000E+00
1362656. -0.1100744E-01  0.7523710E+00  0.1324035E-02 -0.5764882E-01  0.0000000E+00  0.0000000E+00
1292078. -0.2292442E-01  0.1501352E+01  0.2285673E-02 -0.1242927E+00  0.0000000E+00  0.0000000E+00
1221500. -0.4787865E-01  0.3255701E+01  0.4370654E-02 -0.2724861E+00  0.0000000E+00  0.0000000E+00
1221500. -0.4787865E-01 -0.8258569E+01 -0.9806790E-02  0.1985721E+00  0.0000000E+00  0.0000000E+00
1183328.  0.5459102E-02 -0.9117233E+01 -0.9658491E-02 -0.2513108E+00  0.0000000E+00  0.0000000E+00
1145156.  0.5602451E-01 -0.7327594E+01 -0.6921671E-02 -0.6392474E+00  0.0000000E+00  0.0000000E+00
1106984.  0.8872797E-01 -0.3289449E+01 -0.2383746E-02 -0.8368964E+00  0.0000000E+00  0.0000000E+00
1068812.  0.9312613E-01  0.1898251E+01  0.2619806E-02 -0.7935597E+00  0.0000000E+00  0.0000000E+00
1030641.  0.6649762E-01  0.6833207E+01  0.6706537E-02 -0.5425883E+00  0.0000000E+00  0.0000000E+00
 992469.  0.1428089E-01  0.1026505E+02  0.8893065E-02 -0.1779413E+00  0.0000000E+00  0.0000000E+00
 954297. -0.5197742E-01  0.1145040E+02  0.8842047E-02  0.1857147E+00  0.0000000E+00  0.0000000E+00
 916125. -0.1182410E+00  0.1030801E+02  0.6863745E-02  0.4526835E+00  0.0000000E+00  0.0000000E+00
 877953. -0.1718532E+00  0.7352076E+01  0.3715584E-02  0.5721178E+00  0.0000000E+00  0.0000000E+00
 839781. -0.2044697E+00  0.3460709E+01  0.3049635E-03  0.5441890E+00  0.0000000E+00  0.0000000E+00
 801609. -0.2133587E+00 -0.4197858E+00 -0.2589511E-02  0.4087349E+00  0.0000000E+00  0.0000000E+00
 763438. -0.2009962E+00 -0.3532874E+01 -0.4495227E-02  0.2242591E+00  0.0000000E+00  0.0000000E+00
 725266. -0.1734128E+00 -0.5462430E+01 -0.5291111E-02  0.4636026E-01  0.0000000E+00  0.0000000E+00
 687094. -0.1380304E+00 -0.6154231E+01 -0.5141167E-02 -0.8704225E-01  0.0000000E+00  0.0000000E+00
 648922. -0.1016955E+00 -0.5834604E+01 -0.4368045E-02 -0.1610164E+00  0.0000000E+00  0.0000000E+00
 610750. -0.6939165E-01 -0.4875254E+01 -0.3321503E-02 -0.1803662E+00  0.0000000E+00  0.0000000E+00
 572578. -0.4378167E-01 -0.3659102E+01 -0.2283026E-02 -0.1615596E+00  0.0000000E+00  0.0000000E+00
 534406. -0.2545051E-01 -0.2485537E+01 -0.1422703E-02 -0.1239850E+00  0.0000000E+00  0.0000000E+00
 496234. -0.1355393E-01 -0.1529906E+01 -0.8025339E-03 -0.8355457E-01  0.0000000E+00  0.0000000E+00
 458062. -0.6560252E-02 -0.8505325E+00 -0.4076124E-03 -0.4983950E-01  0.0000000E+00  0.0000000E+00
 419891. -0.2854499E-02 -0.4239863E+00 -0.1847302E-03 -0.2628352E-01  0.0000000E+00  0.0000000E+00
 381719. -0.1100204E-02 -0.1873271E+00 -0.7370380E-04 -0.1215763E-01  0.0000000E+00  0.0000000E+00
 343547. -0.3681900E-03 -0.7212494E-01 -0.2540058E-04 -0.4861074E-02  0.0000000E+00  0.0000000E+00
 305375. -0.1040709E-03 -0.2361903E-01 -0.7360705E-05 -0.1642406E-02  0.0000000E+00  0.0000000E+00
 267203. -0.2389002E-04 -0.6351226E-02 -0.1725543E-05 -0.4532092E-03  0.0000000E+00  0.0000000E+00
 229031. -0.4203401E-05 -0.1330749E-02 -0.3089697E-06 -0.9699648E-04  0.0000000E+00  0.0000000E+00
 190859. -0.5180027E-06 -0.2001187E-03 -0.3862597E-07 -0.1483930E-04  0.0000000E+00  0.0000000E+00
 152688. -0.3843081E-07 -0.1880750E-04 -0.2898638E-08 -0.1413686E-05  0.0000000E+00  0.0000000E+00
 114516. -0.1291572E-08 -0.8513582E-06 -0.9826927E-10 -0.6465397E-07  0.0000000E+00  0.0000000E+00
  76344. -0.1038248E-10 -0.1033863E-07 -0.7947856E-12 -0.7907818E-09  0.0000000E+00  0.0000000E+00
  38172.  0.0000000E+00  0.0000000E+00  0.0000000E+00  0.0000000E+00  0.0000000E+00  0.0000000E+00
      0.  0.0000000E+00  0.0000000E+00  0.0000000E+00  0.0000000E+00  0.0000000E+00  0.0000000E+00
