       3       15 S      235        262.73920          9.82949          6.18576        232.12270      185    7
6371000. -0.1343695E-02  0.1216294E+01  0.1287364E-01  0.1421734E-01 -0.5664684E-02  0.9316885E-01
6370000. -0.1534571E-02  0.1215827E+01  0.1287114E-01  0.1767329E-01 -0.5679284E-02  0.9285634E-01
6369000. -0.1725365E-02  0.1215250E+01  0.1286810E-01  0.2112904E-01 -0.5693834E-02  0.9254414E-01
6368000. -0.1916060E-02  0.1214564E+01  0.1286451E-01  0.2458445E-01 -0.5708335E-02  0.9223226E-01
6368000. -0.1916060E-02  0.1214564E+01  0.1286451E-01  0.2458445E-01 -0.5708335E-02  0.9223226E-01
6367000. -0.2106638E-02  0.1213768E+01  0.1286038E-01  0.2803934E-01 -0.5722788E-02  0.9192069E-01
6366000. -0.2297083E-02  0.1212863E+01  0.1285571E-01  0.3149354E-01 -0.5737192E-02  0.9160944E-01
6365000. -0.2487377E-02  0.1211848E+01  0.1285049E-01  0.3494690E-01 -0.5751546E-02  0.9129853E-01
6364000. -0.2677504E-02  0.1210724E+01  0.1284473E-01  0.3839923E-01 -0.5765852E-02  0.9098794E-01
6363000. -0.2867445E-02  0.1209490E+01  0.1283844E-01  0.4185038E-01 -0.5780110E-02  0.9067770E-01
6362000. -0.3057184E-02  0.1208147E+01  0.1283160E-01  0.4530019E-01 -0.5794318E-02  0.9036779E-01
6361000. -0.3246703E-02  0.1206694E+01  0.1282422E-01  0.4874848E-01 -0.5808478E-02  0.9005824E-01
6360000. -0.3435987E-02  0.1205132E+01  0.1281629E-01  0.5219509E-01 -0.5822589E-02  0.8974904E-01
6359000. -0.3625016E-02  0.1203460E+01  0.1280783E-01  0.5563985E-01 -0.5836652E-02  0.8944019E-01
6358000. -0.3813774E-02  0.1201679E+01  0.1279883E-01  0.5908260E-01 -0.5850667E-02  0.8913171E-01
6357000. -0.4002244E-02  0.1199788E+01  0.1278928E-01  0.6252317E-01 -0.5864633E-02  0.8882359E-01
6356000. -0.4190409E-02  0.1197788E+01  0.1277920E-01  0.6596140E-01 -0.5878550E-02  0.8851585E-01
6356000. -0.4190409E-02  0.1051758E+01  0.1277920E-01  0.4655671E-01 -0.5878550E-02  0.8942764E-01
6355000. -0.4355401E-02  0.1050571E+01  0.1277174E-01  0.4851573E-01 -0.5892554E-02  0.8900798E-01
6354000. -0.4520203E-02  0.1049323E+01  0.1276397E-01  0.5047355E-01 -0.5906492E-02  0.8858874E-01
6353000. -0.4684804E-02  0.1048013E+01  0.1275589E-01  0.5243013E-01 -0.5920364E-02  0.8816990E-01
6352000. -0.4849195E-02  0.1046643E+01  0.1274751E-01  0.5438541E-01 -0.5934170E-02  0.8775147E-01
6351000. -0.5013366E-02  0.1045212E+01  0.1273882E-01  0.5633933E-01 -0.5947911E-02  0.8733346E-01
6350000. -0.5177307E-02  0.1043719E+01  0.1272982E-01  0.5829183E-01 -0.5961587E-02  0.8691586E-01
6349000. -0.5341009E-02  0.1042166E+01  0.1272052E-01  0.6024285E-01 -0.5975196E-02  0.8649867E-01
6348000. -0.5504463E-02  0.1040551E+01  0.1271091E-01  0.6219234E-01 -0.5988740E-02  0.8608191E-01
6347000. -0.5667659E-02  0.1038876E+01  0.1270100E-01  0.6414024E-01 -0.6002219E-02  0.8566557E-01
6346600. -0.5732862E-02  0.1038188E+01  0.1269695E-01  0.6491894E-01 -0.6007593E-02  0.8549915E-01
6346600. -0.5732862E-02  0.1216445E+01  0.1269695E-01  0.4983957E-01 -0.6007593E-02  0.8749811E-01
6318800. -0.1096591E-01  0.1176716E+01  0.1240788E-01  0.8249646E-01 -0.6361882E-02  0.7495505E-01
6291000. -0.1595502E-01  0.1104649E+01  0.1197877E-01  0.1139385E+00 -0.6662294E-02  0.6280070E-01
6291000. -0.1595502E-01  0.1146631E+01  0.1197877E-01  0.1173821E+00 -0.6662294E-02  0.6280070E-01
6263000. -0.2076506E-01  0.1036571E+01  0.1139140E-01  0.1495389E+00 -0.6913070E-02  0.5137960E-01
6235000. -0.2501662E-01  0.8927219E+00  0.1066805E-01  0.1791677E+00 -0.7114417E-02  0.4030308E-01
6207000. -0.2856513E-01  0.7170136E+00  0.9821056E-02  0.2057183E+00 -0.7267790E-02  0.2954298E-01
6179000. -0.3127618E-01  0.5121074E+00  0.8865060E-02  0.2286944E+00 -0.7374512E-02  0.1906832E-01
6151000. -0.3302861E-01  0.2813826E+00  0.7816749E-02  0.2476617E+00 -0.7435769E-02  0.8846993E-02
6151000. -0.3302861E-01  0.3854878E+00  0.7816749E-02  0.2222689E+00 -0.7435769E-02  0.1067432E-01
6128500. -0.3411949E-01  0.2312790E+00  0.7017903E-02  0.2297215E+00 -0.7461012E-02  0.3669962E-02
6106000. -0.3465526E-01  0.7142451E-01  0.6197019E-02  0.2347529E+00 -0.7462030E-02 -0.3045313E-02
6083500. -0.3461933E-01 -0.9217950E-01  0.5362600E-02  0.2373933E+00 -0.7439841E-02 -0.9473101E-02
6061000. -0.3400179E-01 -0.2576497E+00  0.4523004E-02  0.2376952E+00 -0.7395456E-02 -0.1561480E-01
6038500. -0.3279933E-01 -0.4231353E+00  0.3686362E-02  0.2357356E+00 -0.7329883E-02 -0.2147326E-01
6016000. -0.3101510E-01 -0.5868232E+00  0.2860492E-02  0.2316120E+00 -0.7244114E-02 -0.2705195E-01
5993500. -0.2865858E-01 -0.7469660E+00  0.2052841E-02  0.2254389E+00 -0.7139133E-02 -0.3235443E-01
5971000. -0.2574522E-01 -0.9019062E+00  0.1270416E-02  0.2173495E+00 -0.7015905E-02 -0.3738599E-01
5971000. -0.2574522E-01 -0.8037114E+00  0.1270416E-02  0.1965804E+00 -0.7015905E-02 -0.3401572E-01
5937667. -0.2109860E-01 -0.9687077E+00  0.2904492E-03  0.1777198E+00 -0.6822159E-02 -0.3991423E-01
5904333. -0.1564943E-01 -0.1110229E+01 -0.5867513E-03  0.1574137E+00 -0.6599615E-02 -0.4502271E-01
5871000. -0.9523304E-02 -0.1227468E+01 -0.1355469E-02  0.1363694E+00 -0.6352387E-02 -0.4935644E-01
5837667. -0.2847595E-02 -0.1320353E+01 -0.2013478E-02  0.1151847E+00 -0.6084458E-02 -0.5294099E-01
5804333.  0.4251647E-02 -0.1389413E+01 -0.2561396E-02  0.9435343E-01 -0.5799651E-02 -0.5581092E-01
5771000.  0.1165174E-01 -0.1435636E+01 -0.3002118E-02  0.7427177E-01 -0.5501618E-02 -0.5800827E-01
5771000.  0.1165174E-01 -0.1435693E+01 -0.3002118E-02  0.7426881E-01 -0.5501618E-02 -0.5800827E-01
5701000.  0.2808714E-01 -0.1541264E+01 -0.3627214E-02  0.3954014E-01 -0.4848640E-02 -0.6061987E-01
5701000.  0.2808714E-01 -0.1320938E+01 -0.3627214E-02  0.2372683E-01 -0.4848640E-02 -0.6853662E-01
5667333.  0.3491680E-01 -0.1272606E+01 -0.3712999E-02  0.9919579E-02 -0.4492834E-02 -0.6600017E-01
5633667.  0.4162238E-01 -0.1267936E+01 -0.3741345E-02  0.1168260E-02 -0.4151293E-02 -0.6329639E-01
5600000.  0.4828969E-01 -0.1252945E+01 -0.3725488E-02 -0.7129987E-02 -0.3823872E-02 -0.6061209E-01
5600000.  0.4828969E-01 -0.1252945E+01 -0.3725488E-02 -0.7129987E-02 -0.3823872E-02 -0.6061209E-01
5563518.  0.5539096E-01 -0.1225475E+01 -0.3660492E-02 -0.1545156E-01 -0.3485167E-02 -0.5768463E-01
5527037.  0.6230343E-01 -0.1187203E+01 -0.3549947E-02 -0.2303260E-01 -0.3163262E-02 -0.5474927E-01
5490556.  0.6896778E-01 -0.1138945E+01 -0.3398202E-02 -0.2983773E-01 -0.2858157E-02 -0.5182013E-01
5454074.  0.7532939E-01 -0.1081562E+01 -0.3209757E-02 -0.3584533E-01 -0.2569751E-02 -0.4891526E-01
5417593.  0.8133863E-01 -0.1016098E+01 -0.2989250E-02 -0.4103649E-01 -0.2297918E-02 -0.4603542E-01
5381111.  0.8695231E-01 -0.9435043E+00 -0.2741344E-02 -0.4541475E-01 -0.2042453E-02 -0.4319896E-01
5344630.  0.9213217E-01 -0.8648085E+00 -0.2470681E-02 -0.4898875E-01 -0.1803086E-02 -0.4041546E-01
5308148.  0.9684662E-01 -0.7810629E+00 -0.2181815E-02 -0.5177415E-01 -0.1579496E-02 -0.3768850E-01
5271667.  0.1010693E+00 -0.6932438E+00 -0.1879185E-02 -0.5380493E-01 -0.1371314E-02 -0.3503810E-01
5235185.  0.1047799E+00 -0.6023753E+00 -0.1567007E-02 -0.5511070E-01 -0.1178080E-02 -0.3246503E-01
5198704.  0.1079638E+00 -0.5094365E+00 -0.1249348E-02 -0.5573097E-01 -0.9993617E-03 -0.2997328E-01
5162222.  0.1106118E+00 -0.4153218E+00 -0.9299566E-03 -0.5572083E-01 -0.8346100E-03 -0.2758619E-01
5125741.  0.1127197E+00 -0.3209434E+00 -0.6123428E-03 -0.5512045E-01 -0.6832606E-03 -0.2529253E-01
5089259.  0.1142884E+00 -0.2271179E+00 -0.2997174E-03 -0.5398600E-01 -0.5447529E-03 -0.2310278E-01
5052778.  0.1153232E+00 -0.1346129E+00  0.5021402E-05 -0.5237752E-01 -0.4184532E-03 -0.2102964E-01
5016296.  0.1158338E+00 -0.4412650E-01  0.2993146E-03 -0.5034386E-01 -0.3037108E-03 -0.1906487E-01
4979815.  0.1158336E+00  0.4369975E-01  0.5808860E-03 -0.4794728E-01 -0.1998854E-03 -0.1721975E-01
4943333.  0.1153395E+00  0.1283098E+00  0.8478378E-03 -0.4524308E-01 -0.1062702E-03 -0.1549633E-01
4906852.  0.1143713E+00  0.2092167E+00  0.1098532E-02 -0.4228139E-01 -0.2220050E-04 -0.1388782E-01
4870370.  0.1129514E+00  0.2859882E+00  0.1331691E-02 -0.3912525E-01  0.5303178E-04 -0.1240988E-01
4833889.  0.1111046E+00  0.3582939E+00  0.1546322E-02 -0.3581874E-01  0.1201509E-03 -0.1105255E-01
4797407.  0.1088571E+00  0.4258655E+00  0.1741701E-02 -0.3240846E-01  0.1798333E-03 -0.9813828E-02
4760926.  0.1062370E+00  0.4884653E+00  0.1917387E-02 -0.2894991E-01  0.2327993E-03 -0.8707073E-02
4724444.  0.1032728E+00  0.5459945E+00  0.2073211E-02 -0.2547473E-01  0.2797720E-03 -0.7718361E-02
4687963.  0.9999399E-01  0.5983584E+00  0.2209183E-02 -0.2202496E-01  0.3214253E-03 -0.6851349E-02
4651482.  0.9643024E-01  0.6455293E+00  0.2325571E-02 -0.1863950E-01  0.3584799E-03 -0.6111070E-02
4615000.  0.9261098E-01  0.6875812E+00  0.2422812E-02 -0.1534059E-01  0.3916295E-03 -0.5486600E-02
4578518.  0.8856545E-01  0.7245721E+00  0.2501492E-02 -0.1216212E-01  0.4215523E-03 -0.4985320E-02
4542037.  0.8432239E-01  0.7566508E+00  0.2562368E-02 -0.9124934E-02  0.4489566E-03 -0.4605591E-02
4505556.  0.7990921E-01  0.7840176E+00  0.2606287E-02 -0.6242743E-02  0.4745127E-03 -0.4340755E-02
4469074.  0.7535231E-01  0.8068421E+00  0.2634208E-02 -0.3539664E-02  0.4989149E-03 -0.4202937E-02
4432593.  0.7067716E-01  0.8254138E+00  0.2647174E-02 -0.1019446E-02  0.5228723E-03 -0.4184263E-02
4396111.  0.6590706E-01  0.8400040E+00  0.2646244E-02  0.1311468E-02  0.5470646E-03 -0.4286631E-02
4359630.  0.6106436E-01  0.8508681E+00  0.2632540E-02  0.3442456E-02  0.5722189E-03 -0.4520608E-02
4323148.  0.5616912E-01  0.8583685E+00  0.2607184E-02  0.5381848E-02  0.5990746E-03 -0.4880660E-02
4286667.  0.5123997E-01  0.8627992E+00  0.2571272E-02  0.7130016E-02  0.6283734E-03 -0.5376190E-02
4250185.  0.4629339E-01  0.8644769E+00  0.2525885E-02  0.8692626E-02  0.6609199E-03 -0.6015195E-02
4213704.  0.4134433E-01  0.8637607E+00  0.2472044E-02  0.1008567E-01  0.6975404E-03 -0.6801011E-02
4177222.  0.3640543E-01  0.8609294E+00  0.2410687E-02  0.1131926E-01  0.7391170E-03 -0.7748208E-02
4140741.  0.3148818E-01  0.8563026E+00  0.2342680E-02  0.1241327E-01  0.7866034E-03 -0.8867052E-02
4104259.  0.2660167E-01  0.8501809E+00  0.2268743E-02  0.1339305E-01  0.8410169E-03 -0.1017033E-01
4067778.  0.2175418E-01  0.8427629E+00  0.2189477E-02  0.1428008E-01  0.9034726E-03 -0.1167983E-01
4031296.  0.1695211E-01  0.8343082E+00  0.2105311E-02  0.1511017E-01  0.9752054E-03 -0.1341316E-01
3994815.  0.1220113E-01  0.8249748E+00  0.2016467E-02  0.1592116E-01  0.1057558E-02 -0.1539461E-01
3958333.  0.7505878E-02  0.8148141E+00  0.1922937E-02  0.1675393E-01  0.1152044E-02 -0.1765508E-01
3921852.  0.2871094E-02  0.8038976E+00  0.1824450E-02  0.1766331E-01  0.1260343E-02 -0.2022624E-01
3885370. -0.1698908E-02  0.7921119E+00  0.1720391E-02  0.1870985E-01  0.1384350E-02 -0.2314739E-01
3848889. -0.6198302E-02  0.7792379E+00  0.1609780E-02  0.1996583E-01  0.1526189E-02 -0.2646363E-01
3812407. -0.1062026E-01  0.7649440E+00  0.1491169E-02  0.2151919E-01  0.1688277E-02 -0.3022774E-01
3775926. -0.1495478E-01  0.7486236E+00  0.1362571E-02  0.2347404E-01  0.1873334E-02 -0.3449848E-01
3739444. -0.1918834E-01  0.7294878E+00  0.1221331E-02  0.2595625E-01  0.2084467E-02 -0.3934642E-01
3702963. -0.2330165E-01  0.7064425E+00  0.1064015E-02  0.2911878E-01  0.2325199E-02 -0.4485231E-01
3666482. -0.2726816E-01  0.6779240E+00  0.8862028E-03  0.3314937E-01  0.2599546E-02 -0.5110387E-01
3630000. -0.3105129E-01  0.6419814E+00  0.6822895E-03  0.3827539E-01  0.2912092E-02 -0.5821041E-01
3630000. -0.3105129E-01  0.6419814E+00  0.6822895E-03  0.3827539E-01  0.2912092E-02 -0.5821041E-01
3592500. -0.3469628E-01  0.5944926E+00  0.4380548E-03  0.4498414E-01  0.3278663E-02 -0.6652813E-01
3555000. -0.3802153E-01  0.5326316E+00  0.1491391E-03  0.5352742E-01  0.3697570E-02 -0.7602091E-01
3517500. -0.4092893E-01  0.4515991E+00 -0.1965909E-03  0.6437673E-01  0.4176237E-02 -0.8686350E-01
3480000. -0.4328786E-01  0.3450764E+00 -0.6143863E-03  0.7812434E-01  0.4723152E-02 -0.9924486E-01
3480000. -0.4328786E-01 -0.7783452E+00 -0.3661427E-02 -0.7248455E-01  0.4723152E-02  0.3879530E-01
3409422. -0.3526813E-01 -0.6702642E+00 -0.2926716E-02 -0.6040125E-01  0.4221845E-02  0.5009119E-01
3338844. -0.2841453E-01 -0.5683457E+00 -0.2317770E-02 -0.4977957E-01  0.3642420E-02  0.5347323E-01
3268266. -0.2264374E-01 -0.4750844E+00 -0.1818511E-02 -0.4058852E-01  0.3055316E-02  0.5189194E-01
3197688. -0.1785152E-01 -0.3918217E+00 -0.1413497E-02 -0.3274860E-01  0.2503190E-02  0.4744885E-01
3127109. -0.1392372E-01 -0.3190333E+00 -0.1088341E-02 -0.2615034E-01  0.2009175E-02  0.4159671E-01
3056531. -0.1074477E-01 -0.2565716E+00 -0.8299851E-03 -0.2066749E-01  0.1583156E-02  0.3530200E-01
2985953. -0.8203076E-02 -0.2038614E+00 -0.6268054E-03 -0.1616662E-01  0.1226377E-02  0.2917382E-01
2915375. -0.6195081E-02 -0.1600643E+00 -0.4686608E-03 -0.1251529E-01  0.9348399E-03  0.2356527E-01
2844797. -0.4627390E-02 -0.1241999E+00 -0.3468463E-03 -0.9587385E-02  0.7016836E-03  0.1865168E-01
2774219. -0.3417819E-02 -0.9523816E-01 -0.2540027E-03 -0.7266426E-02  0.5188084E-03  0.1448968E-01
2703641. -0.2495557E-02 -0.7216454E-01 -0.1839988E-03 -0.5447543E-02  0.3779380E-03  0.1106069E-01
2633062. -0.1800726E-02 -0.5402391E-01 -0.1317945E-03 -0.4038447E-02  0.2712671E-03  0.8302349E-02
2562484. -0.1283594E-02 -0.3994823E-01 -0.9330434E-04 -0.2959524E-02  0.1918224E-03  0.6130639E-02
2491906. -0.9034720E-03 -0.2916903E-01 -0.6525522E-04 -0.2143129E-02  0.1336075E-03  0.4454320E-02
2421328. -0.6276130E-03 -0.2102304E-01 -0.4506129E-04 -0.1532839E-02  0.9163260E-04  0.3184418E-02
2350750. -0.4300447E-03 -0.1494933E-01 -0.3070481E-04 -0.1082295E-02  0.6185413E-04  0.2239670E-02
2280172. -0.2904716E-03 -0.1048268E-01 -0.2063164E-04 -0.7539507E-03  0.4107279E-04  0.1549221E-02
2209594. -0.1932648E-03 -0.7244087E-02 -0.1366042E-04 -0.5178510E-03  0.2681190E-04  0.1053486E-02
2139016. -0.1265652E-03 -0.4930099E-02 -0.8905133E-05 -0.3504389E-03  0.1719344E-04  0.7038568E-03
2068438. -0.8150812E-04 -0.3301773E-02 -0.5710394E-05 -0.2334581E-03  0.1082138E-04  0.4617170E-03
1997859. -0.5156750E-04 -0.2174051E-02 -0.3598288E-05 -0.1529654E-03  0.6678107E-05  0.2971252E-03
1927281. -0.3201547E-04 -0.1406022E-02 -0.2225577E-05 -0.9847369E-04  0.4036349E-05  0.1873941E-03
1856703. -0.1948068E-04 -0.8921133E-03 -0.1349438E-05 -0.6221332E-04  0.2386312E-05  0.1156990E-03
1786125. -0.1160096E-04 -0.5546241E-03 -0.8009583E-06 -0.3852247E-04  0.1377955E-05  0.6983834E-04
1715547. -0.6750422E-05 -0.3373700E-03 -0.4646489E-06 -0.2334329E-04  0.7758749E-06  0.4115250E-04
1644969. -0.3830919E-05 -0.2004767E-03 -0.2629905E-06 -0.1381877E-04  0.4251877E-06  0.2363120E-04
1574391. -0.2115443E-05 -0.1161986E-03 -0.1449693E-06 -0.7973981E-05  0.2262963E-06  0.1319764E-04
1503812. -0.1132648E-05 -0.6564505E-04 -0.7773076E-07 -0.4469389E-05  0.1166932E-06  0.7151707E-05
1433234. -0.5832609E-06 -0.3629224E-04 -0.4063630E-07 -0.2412199E-05  0.5815587E-07  0.3749885E-05
1362656. -0.2800558E-06 -0.2018653E-04 -0.2114886E-07 -0.1210591E-05  0.2794618E-07  0.1896020E-05
1292078. -0.1039297E-06 -0.1287686E-04 -0.1218351E-07 -0.4524523E-06  0.1293267E-07  0.9218277E-06
1221500.  0.3366907E-07 -0.1344753E-04 -0.1083034E-07  0.2320171E-06  0.5736709E-08  0.4371906E-06
1221500.  0.3366907E-07 -0.2338505E-07 -0.1300535E-09 -0.1762867E-06  0.5736709E-08  0.4226051E-06
1183328.  0.3128794E-07  0.7122332E-06  0.5716716E-09 -0.6858128E-07  0.3659771E-08  0.2796010E-06
1145156.  0.2609816E-07  0.9610953E-06  0.7924419E-09 -0.1162179E-07  0.2295803E-08  0.1820308E-06
1106984.  0.2028399E-07  0.9502193E-06  0.7711907E-09  0.1492666E-07  0.1414716E-08  0.1165096E-06
1068812.  0.1494700E-07  0.8195037E-06  0.6475659E-09  0.2428608E-07  0.8554029E-09  0.7323970E-07
1030641.  0.1053838E-07  0.6502198E-06  0.4977357E-09  0.2473611E-07  0.5068751E-09  0.4516564E-07
 992469.  0.7144620E-08  0.4855748E-06  0.3589286E-09  0.2121796E-07  0.2939254E-09  0.2728825E-07
 954297.  0.4670253E-08  0.3452151E-06  0.2457934E-09  0.1649310E-07  0.1665324E-09  0.1612949E-07
 916125.  0.2947045E-08  0.2350648E-06  0.1608550E-09  0.1195758E-07  0.9202628E-10  0.9311725E-08
 877953.  0.1795569E-08  0.1537837E-06  0.1009248E-09  0.8197076E-08  0.4949941E-10  0.5240727E-08
 839781.  0.1055670E-08  0.9679071E-07  0.6078926E-10  0.5349680E-08  0.2585635E-10  0.2869332E-08
 801609.  0.5981594E-09  0.5861324E-07  0.3514946E-10  0.3335016E-08  0.1308202E-10  0.1524552E-08
 763438.  0.3260351E-09  0.3412033E-07  0.1949084E-10  0.1988185E-08  0.6391783E-11  0.7839143E-09
 725266.  0.1705283E-09  0.1905965E-07  0.1034463E-10  0.1132988E-08  0.3005218E-11  0.3888099E-09
 687094.  0.8533761E-10  0.1019027E-07  0.5240671E-11  0.6160646E-09  0.1354195E-11  0.1853062E-09
 648922.  0.4072022E-10  0.5200111E-08  0.2526923E-11  0.3181736E-09  0.5822680E-12  0.8441717E-10
 610750.  0.0000000E+00  0.0000000E+00  0.0000000E+00  0.0000000E+00  0.0000000E+00  0.0000000E+00
 572578.  0.0000000E+00  0.0000000E+00  0.0000000E+00  0.0000000E+00  0.0000000E+00  0.0000000E+00
 534406.  0.0000000E+00  0.0000000E+00  0.0000000E+00  0.0000000E+00  0.0000000E+00  0.0000000E+00
 496234.  0.0000000E+00  0.0000000E+00  0.0000000E+00  0.0000000E+00  0.0000000E+00  0.0000000E+00
 458062.  0.0000000E+00  0.0000000E+00  0.0000000E+00  0.0000000E+00  0.0000000E+00  0.0000000E+00
 419891.  0.0000000E+00  0.0000000E+00  0.0000000E+00  0.0000000E+00  0.0000000E+00  0.0000000E+00
 381719.  0.0000000E+00  0.0000000E+00  0.0000000E+00  0.0000000E+00  0.0000000E+00  0.0000000E+00
 343547.  0.0000000E+00  0.0000000E+00  0.0000000E+00  0.0000000E+00  0.0000000E+00  0.0000000E+00
 305375.  0.0000000E+00  0.0000000E+00  0.0000000E+00  0.0000000E+00  0.0000000E+00  0.0000000E+00
 267203.  0.0000000E+00  0.0000000E+00  0.0000000E+00  0.0000000E+00  0.0000000E+00  0.0000000E+00
 229031.  0.0000000E+00  0.0000000E+00  0.0000000E+00  0.0000000E+00  0.0000000E+00  0.0000000E+00
 190859.  0.0000000E+00  0.0000000E+00  0.0000000E+00  0.0000000E+00  0.0000000E+00  0.0000000E+00
 152688.  0.0000000E+00  0.0000000E+00  0.0000000E+00  0.0000000E+00  0.0000000E+00  0.0000000E+00
 114516.  0.0000000E+00  0.0000000E+00  0.0000000E+00  0.0000000E+00  0.0000000E+00  0.0000000E+00
  76344.  0.0000000E+00  0.0000000E+00  0.0000000E+00  0.0000000E+00  0.0000000E+00  0.0000000E+00
  38172.  0.0000000E+00  0.0000000E+00  0.0000000E+00  0.0000000E+00  0.0000000E+00  0.0000000E+00
      0.  0.0000000E+00  0.0000000E+00  0.0000000E+00  0.0000000E+00  0.0000000E+00  0.0000000E+00
