       9        0 S       10        120.20730        666.01929         -1.00000        848.46283      185    3
6371000. -0.4397490E-01  0.3456636E-01
6370000. -0.4397853E-01  0.1173348E-01
6369000. -0.4397858E-01 -0.1110754E-01
6368000. -0.4397505E-01 -0.3395483E-01
6368000. -0.4397505E-01 -0.3395483E-01
6367000. -0.4396793E-01 -0.5680654E-01
6366000. -0.4395721E-01 -0.7966080E-01
6365000. -0.4394292E-01 -0.1025158E+00
6364000. -0.4392503E-01 -0.1253696E+00
6363000. -0.4390356E-01 -0.1482204E+00
6362000. -0.4387850E-01 -0.1710663E+00
6361000. -0.4384986E-01 -0.1939054E+00
6360000. -0.4381763E-01 -0.2167359E+00
6359000. -0.4378182E-01 -0.2395560E+00
6358000. -0.4374243E-01 -0.2623637E+00
6357000. -0.4369946E-01 -0.2851573E+00
6356000. -0.4365291E-01 -0.3079348E+00
6356000. -0.4365291E-01 -0.1932174E+00
6355000. -0.4362129E-01 -0.2097680E+00
6354000. -0.4358706E-01 -0.2263113E+00
6353000. -0.4355024E-01 -0.2428464E+00
6352000. -0.4351083E-01 -0.2593723E+00
6351000. -0.4346882E-01 -0.2758881E+00
6350000. -0.4342422E-01 -0.2923927E+00
6349000. -0.4337703E-01 -0.3088852E+00
6348000. -0.4332726E-01 -0.3253645E+00
6347000. -0.4327489E-01 -0.3418298E+00
6346600. -0.4325322E-01 -0.3484118E+00
6346600. -0.4325322E-01 -0.1984149E+00
6318800. -0.4166834E-01 -0.5274004E+00
6291000. -0.3866401E-01 -0.8471506E+00
6291000. -0.3866401E-01 -0.8582016E+00
6263000. -0.3421146E-01 -0.1163500E+01
6235000. -0.2848523E-01 -0.1435942E+01
6207000. -0.2165380E-01 -0.1664729E+01
6179000. -0.1393078E-01 -0.1840173E+01
6151000. -0.5569261E-02 -0.1954068E+01
6151000. -0.5569261E-02 -0.1574641E+01
6128500.  0.8180212E-05 -0.1578987E+01
6106000.  0.5548705E-02 -0.1553899E+01
6083500.  0.1095041E-01 -0.1500616E+01
6061000.  0.1611659E-01 -0.1420846E+01
6038500.  0.2095739E-01 -0.1316729E+01
6016000.  0.2539112E-01 -0.1190758E+01
5993500.  0.2934545E-01 -0.1045723E+01
5971000.  0.3275835E-01 -0.8846616E+00
5971000.  0.3275835E-01 -0.8024979E+00
5937667.  0.3627390E-01 -0.5405276E+00
5904333.  0.3841456E-01 -0.2785234E+00
5871000.  0.3920415E-01 -0.2546014E-01
5837667.  0.3870964E-01  0.2112288E+00
5804333.  0.3703273E-01  0.4256463E+00
5771000.  0.3430226E-01  0.6133637E+00
5771000.  0.3430226E-01  0.6133685E+00
5701000.  0.2551140E-01  0.9683694E+00
5701000.  0.2551140E-01  0.7984838E+00
5667333.  0.2116751E-01  0.8512589E+00
5633667.  0.1644897E-01  0.9357263E+00
5600000.  0.1132966E-01  0.9967479E+00
5600000.  0.1132966E-01  0.9967479E+00
5563518.  0.5498027E-02  0.1035262E+01
5527037. -0.4713240E-03  0.1044915E+01
5490556. -0.6414102E-02  0.1026095E+01
5454074. -0.1217009E-01  0.9798805E+00
5417593. -0.1758744E-01  0.9082340E+00
5381111. -0.2252730E-01  0.8134882E+00
5344630. -0.2686525E-01  0.6985878E+00
5308148. -0.3049571E-01  0.5669188E+00
5271667. -0.3333259E-01  0.4220720E+00
5235185. -0.3531170E-01  0.2679607E+00
5198704. -0.3639130E-01  0.1085731E+00
5162222. -0.3655262E-01 -0.5210826E-01
5125741. -0.3579960E-01 -0.2101467E+00
5089259. -0.3415813E-01 -0.3617982E+00
5052778. -0.3167517E-01 -0.5035203E+00
5016296. -0.2841659E-01 -0.6321796E+00
4979815. -0.2446569E-01 -0.7449181E+00
4943333. -0.1992048E-01 -0.8393723E+00
4906852. -0.1489140E-01 -0.9136859E+00
4870370. -0.9498038E-02 -0.9663555E+00
4833889. -0.3867297E-02 -0.9965633E+00
4797407.  0.1871348E-02 -0.1003951E+01
4760926.  0.7586656E-02 -0.9885349E+00
4724444.  0.1315027E-01 -0.9510706E+00
4687963.  0.1843848E-01 -0.8925986E+00
4651482.  0.2333513E-01 -0.8146030E+00
4615000.  0.2773406E-01 -0.7190602E+00
4578518.  0.3154078E-01 -0.6081527E+00
4542037.  0.3467434E-01 -0.4844247E+00
4505556.  0.3706928E-01 -0.3506360E+00
4469074.  0.3867614E-01 -0.2096470E+00
4432593.  0.3946228E-01 -0.6449293E-01
4396111.  0.3941252E-01  0.8180991E-01
4359630.  0.3852898E-01  0.2262303E+00
4323148.  0.3683076E-01  0.3658725E+00
4286667.  0.3435338E-01  0.4979372E+00
4250185.  0.3114768E-01  0.6198164E+00
4213704.  0.2727890E-01  0.7291998E+00
4177222.  0.2282458E-01  0.8239588E+00
4140741.  0.1787395E-01  0.9023455E+00
4104259.  0.1252449E-01  0.9629893E+00
4067778.  0.6881712E-02  0.1004692E+01
4031296.  0.1055701E-02  0.1026870E+01
3994815. -0.4840438E-02  0.1029199E+01
3958333. -0.1069295E-01  0.1011624E+01
3921852. -0.1638895E-01  0.9746990E+00
3885370. -0.2181990E-01  0.9191352E+00
3848889. -0.2688165E-01  0.8460230E+00
3812407. -0.3147816E-01  0.7568505E+00
3775926. -0.3552173E-01  0.6532328E+00
3739444. -0.3893535E-01  0.5371411E+00
3702963. -0.4165357E-01  0.4107383E+00
3666482. -0.4362377E-01  0.2762712E+00
3630000. -0.4480679E-01  0.1361935E+00
3630000. -0.4480679E-01  0.1361935E+00
3592500. -0.4517611E-01 -0.1102029E-01
3555000. -0.4467601E-01 -0.1587669E+00
3517500. -0.4331135E-01 -0.3043389E+00
3480000. -0.4110285E-01 -0.4450524E+00
3480000. -0.4110285E-01 -0.7299296E+00
3409422. -0.2913451E-01 -0.1391144E+01
3338844. -0.1134377E-01 -0.1766551E+01
3268266.  0.8739020E-02 -0.1801246E+01
3197688.  0.2733422E-01 -0.1504638E+01
3127109.  0.4109059E-01 -0.9425463E+00
3056531.  0.4762747E-01 -0.2213413E+00
2985953.  0.4587398E-01  0.5325885E+00
2915375.  0.3617099E-01  0.1194180E+01
2844797.  0.2014736E-01  0.1658820E+01
2774219.  0.4085225E-03  0.1856722E+01
2703641. -0.1990093E-01  0.1761151E+01
2633062. -0.3758896E-01  0.1389930E+01
2562484. -0.4988780E-01  0.8007177E+00
2491906. -0.5484629E-01  0.8116806E-01
2421328. -0.5159025E-01 -0.6642890E+00
2350750. -0.4042736E-01 -0.1329170E+01
2280172. -0.2278993E-01 -0.1819172E+01
2209594. -0.1030321E-02 -0.2064235E+01
2139016.  0.2189849E-01 -0.2027065E+01
2068438.  0.4283343E-01 -0.1707335E+01
1997859.  0.5881252E-01 -0.1141179E+01
1927281.  0.6745533E-01 -0.3964428E+00
1856703.  0.6727127E-01  0.4358523E+00
1786125.  0.5785652E-01  0.1252457E+01
1715547.  0.3996259E-01  0.1950099E+01
1644969.  0.1542931E-01  0.2437479E+01
1574391. -0.1300781E-01  0.2645754E+01
1503812. -0.4201335E-01  0.2536431E+01
1433234. -0.6801467E-01  0.2105839E+01
1362656. -0.8759753E-01  0.1385810E+01
1292078. -0.9788386E-01  0.4405724E+00
1221500. -0.9685802E-01 -0.6397324E+00
1221500. -0.9685802E-01 -0.5840363E+00
1183328. -0.9174774E-01 -0.1122480E+01
1145156. -0.8341292E-01 -0.1658083E+01
1106984. -0.7191219E-01 -0.2176956E+01
1068812. -0.5738710E-01 -0.2665368E+01
1030641. -0.4006055E-01 -0.3110107E+01
 992469. -0.2023064E-01 -0.3498877E+01
 954297.  0.1732643E-02 -0.3820485E+01
 916125.  0.2539715E-01 -0.4065277E+01
 877953.  0.5027783E-01 -0.4225271E+01
 839781.  0.7584754E-01 -0.4294446E+01
 801609.  0.1015493E+00 -0.4268878E+01
 763438.  0.1268085E+00 -0.4146838E+01
 725266.  0.1510490E+00 -0.3928880E+01
 687094.  0.1737027E+00 -0.3617826E+01
 648922.  0.1942258E+00 -0.3218720E+01
 610750.  0.2121113E+00 -0.2738729E+01
 572578.  0.2269010E+00 -0.2186978E+01
 534406.  0.2381965E+00 -0.1574354E+01
 496234.  0.2456698E+00 -0.9132662E+00
 458062.  0.2490708E+00 -0.2173421E+00
 419891.  0.2482340E+00  0.4988252E+00
 381719.  0.2430831E+00  0.1220162E+01
 343547.  0.2336334E+00  0.1931221E+01
 305375.  0.2199922E+00  0.2616769E+01
 267203.  0.2023572E+00  0.3261980E+01
 229031.  0.1810124E+00  0.3852852E+01
 190859.  0.1563225E+00  0.4376557E+01
 152688.  0.1287258E+00  0.4821651E+01
 114516.  0.9872182E-01  0.5178369E+01
  76344.  0.6686544E-01  0.5438874E+01
  38172.  0.3375136E-01  0.5597346E+01
      0.  0.0000000E+00  0.0000000E+00
