       1        0 S        2        608.39191        131.59340         -1.00000       1555.09094      185    3
6371000. -0.1810964E+00  0.1425745E+00
6370000. -0.1811185E+00  0.1387957E+00
6369000. -0.1811400E+00  0.1350152E+00
6368000. -0.1811609E+00  0.1312330E+00
6368000. -0.1811609E+00  0.1312330E+00
6367000. -0.1811812E+00  0.1274491E+00
6366000. -0.1812009E+00  0.1236637E+00
6365000. -0.1812200E+00  0.1198765E+00
6364000. -0.1812385E+00  0.1160878E+00
6363000. -0.1812565E+00  0.1122975E+00
6362000. -0.1812738E+00  0.1085056E+00
6361000. -0.1812905E+00  0.1047121E+00
6360000. -0.1813066E+00  0.1009170E+00
6359000. -0.1813222E+00  0.9712037E-01
6358000. -0.1813371E+00  0.9332219E-01
6357000. -0.1813515E+00  0.8952247E-01
6356000. -0.1813652E+00  0.8572124E-01
6356000. -0.1813652E+00  0.8785122E-01
6355000. -0.1813788E+00  0.8510768E-01
6354000. -0.1813920E+00  0.8236305E-01
6353000. -0.1814047E+00  0.7961736E-01
6352000. -0.1814170E+00  0.7687060E-01
6351000. -0.1814288E+00  0.7412277E-01
6350000. -0.1814402E+00  0.7137389E-01
6349000. -0.1814512E+00  0.6862396E-01
6348000. -0.1814618E+00  0.6587298E-01
6347000. -0.1814719E+00  0.6312097E-01
6346600. -0.1814758E+00  0.6201988E-01
6346600. -0.1814758E+00  0.1066949E+00
6318800. -0.1818232E+00  0.5225303E-01
6291000. -0.1819296E+00 -0.3725762E-02
6291000. -0.1819296E+00 -0.2799127E-03
6263000. -0.1817994E+00 -0.5924183E-01
6235000. -0.1814066E+00 -0.1197203E+00
6207000. -0.1807449E+00 -0.1816706E+00
6179000. -0.1798077E+00 -0.2450449E+00
6151000. -0.1785890E+00 -0.3097839E+00
6151000. -0.1785890E+00 -0.2200488E+00
6128500. -0.1777519E+00 -0.2538732E+00
6106000. -0.1767967E+00 -0.2869234E+00
6083500. -0.1757261E+00 -0.3191959E+00
6061000. -0.1745430E+00 -0.3506885E+00
6038500. -0.1732500E+00 -0.3814040E+00
6016000. -0.1718500E+00 -0.4113413E+00
5993500. -0.1703455E+00 -0.4405002E+00
5971000. -0.1687395E+00 -0.4688879E+00
5971000. -0.1687395E+00 -0.4126029E+00
5937667. -0.1665186E+00 -0.4359368E+00
5904333. -0.1641823E+00 -0.4566862E+00
5871000. -0.1617439E+00 -0.4750670E+00
5837667. -0.1592150E+00 -0.4912796E+00
5804333. -0.1566065E+00 -0.5055123E+00
5771000. -0.1539284E+00 -0.5179278E+00
5771000. -0.1539284E+00 -0.5179189E+00
5701000. -0.1478737E+00 -0.5835899E+00
5701000. -0.1478737E+00 -0.4671634E+00
5667333. -0.1454572E+00 -0.4543057E+00
5633667. -0.1430057E+00 -0.4763140E+00
5600000. -0.1404302E+00 -0.4977322E+00
5600000. -0.1404302E+00 -0.4977322E+00
5563518. -0.1375155E+00 -0.5202036E+00
5527037. -0.1344739E+00 -0.5420257E+00
5490556. -0.1313094E+00 -0.5631746E+00
5454074. -0.1280257E+00 -0.5836027E+00
5417593. -0.1246269E+00 -0.6034149E+00
5381111. -0.1211165E+00 -0.6225567E+00
5344630. -0.1174984E+00 -0.6410430E+00
5308148. -0.1137761E+00 -0.6589470E+00
5271667. -0.1099533E+00 -0.6761789E+00
5235185. -0.1060334E+00 -0.6928209E+00
5198704. -0.1020199E+00 -0.7089043E+00
5162222. -0.9791612E-01 -0.7243247E+00
5125741. -0.9372570E-01 -0.7392135E+00
5089259. -0.8945148E-01 -0.7535409E+00
5052778. -0.8509709E-01 -0.7672675E+00
5016296. -0.8066543E-01 -0.7804912E+00
4979815. -0.7615975E-01 -0.7931523E+00
4943333. -0.7158304E-01 -0.8052747E+00
4906852. -0.6693838E-01 -0.8169225E+00
4870370. -0.6222850E-01 -0.8280063E+00
4833889. -0.5745670E-01 -0.8386120E+00
4797407. -0.5262530E-01 -0.8487641E+00
4760926. -0.4773749E-01 -0.8583645E+00
4724444. -0.4279582E-01 -0.8675446E+00
4687963. -0.3780299E-01 -0.8762659E+00
4651482. -0.3276166E-01 -0.8844991E+00
4615000. -0.2767416E-01 -0.8923396E+00
4578518. -0.2254306E-01 -0.8997238E+00
4542037. -0.1737108E-01 -0.9066839E+00
4505556. -0.1216026E-01 -0.9132810E+00
4469074. -0.6912818E-02 -0.9194213E+00
4432593. -0.1631446E-02 -0.9252016E+00
4396111.  0.3682223E-02 -0.9306368E+00
4359630.  0.9025630E-02 -0.9356447E+00
4323148.  0.1439694E-01 -0.9403430E+00
4286667.  0.1979406E-01 -0.9447001E+00
4250185.  0.2521521E-01 -0.9486970E+00
4213704.  0.3065831E-01 -0.9524191E+00
4177222.  0.3612193E-01 -0.9558049E+00
4140741.  0.4160390E-01 -0.9588971E+00
4104259.  0.4710308E-01 -0.9617561E+00
4067778.  0.5261753E-01 -0.9642815E+00
4031296.  0.5814591E-01 -0.9665858E+00
3994815.  0.6368676E-01 -0.9686791E+00
3958333.  0.6923891E-01 -0.9704839E+00
3921852.  0.7480074E-01 -0.9721245E+00
3885370.  0.8037156E-01 -0.9735628E+00
3848889.  0.8594983E-01 -0.9747919E+00
3812407.  0.9153496E-01 -0.9759037E+00
3775926.  0.9712577E-01 -0.9768269E+00
3739444.  0.1027216E+00 -0.9776235E+00
3702963.  0.1083217E+00 -0.9783524E+00
3666482.  0.1139255E+00 -0.9789283E+00
3630000.  0.1195326E+00 -0.9794666E+00
3630000.  0.1195326E+00 -0.9794666E+00
3592500.  0.1252991E+00 -0.9799232E+00
3555000.  0.1310681E+00 -0.9803181E+00
3517500.  0.1368395E+00 -0.9807474E+00
3480000.  0.1426135E+00 -0.9811829E+00
3480000.  0.1426135E+00 -0.1775626E+01
3409422.  0.1617980E+00 -0.1687400E+01
3338844.  0.1799891E+00 -0.1596359E+01
3268266.  0.1971585E+00 -0.1503024E+01
3197688.  0.2132834E+00 -0.1407859E+01
3127109.  0.2283460E+00 -0.1311261E+01
3056531.  0.2423320E+00 -0.1213586E+01
2985953.  0.2552314E+00 -0.1115148E+01
2915375.  0.2670374E+00 -0.1016228E+01
2844797.  0.2777461E+00 -0.9170803E+00
2774219.  0.2873563E+00 -0.8179394E+00
2703641.  0.2958692E+00 -0.7190208E+00
2633062.  0.3032886E+00 -0.6205212E+00
2562484.  0.3096199E+00 -0.5226346E+00
2491906.  0.3148710E+00 -0.4255409E+00
2421328.  0.3190518E+00 -0.3294144E+00
2350750.  0.3221737E+00 -0.2344164E+00
2280172.  0.3242503E+00 -0.1407140E+00
2209594.  0.3252967E+00 -0.4846634E-01
2139016.  0.3253301E+00  0.4216410E-01
2068438.  0.3243690E+00  0.1310323E+00
1997859.  0.3224340E+00  0.2179699E+00
1927281.  0.3195473E+00  0.3028343E+00
1856703.  0.3157327E+00  0.3854615E+00
1786125.  0.3110158E+00  0.4657085E+00
1715547.  0.3054238E+00  0.5434248E+00
1644969.  0.2989856E+00  0.6184601E+00
1574391.  0.2917317E+00  0.6906641E+00
1503812.  0.2836941E+00  0.7598955E+00
1433234.  0.2749068E+00  0.8260093E+00
1362656.  0.2654050E+00  0.8888719E+00
1292078.  0.2552254E+00  0.9483541E+00
1221500.  0.2444062E+00  0.1004323E+01
1221500.  0.2444062E+00  0.9593729E+00
1183328.  0.2385725E+00  0.9878373E+00
1145156.  0.2325706E+00  0.1015496E+01
1106984.  0.2264054E+00  0.1042351E+01
1068812.  0.2200818E+00  0.1068384E+01
1030641.  0.2136048E+00  0.1093583E+01
 992469.  0.2069792E+00  0.1117954E+01
 954297.  0.2002101E+00  0.1141461E+01
 916125.  0.1933027E+00  0.1164127E+01
 877953.  0.1862621E+00  0.1185919E+01
 839781.  0.1790936E+00  0.1206843E+01
 801609.  0.1718023E+00  0.1226888E+01
 763438.  0.1643937E+00  0.1246042E+01
 725266.  0.1568729E+00  0.1264300E+01
 687094.  0.1492454E+00  0.1281668E+01
 648922.  0.1415165E+00  0.1298122E+01
 610750.  0.1336917E+00  0.1313667E+01
 572578.  0.1257766E+00  0.1328300E+01
 534406.  0.1177765E+00  0.1342013E+01
 496234.  0.1096971E+00  0.1354794E+01
 458062.  0.1015438E+00  0.1366648E+01
 419891.  0.9332258E-01  0.1377561E+01
 381719.  0.8503851E-01  0.1387547E+01
 343547.  0.7669745E-01  0.1396583E+01
 305375.  0.6830506E-01  0.1404682E+01
 267203.  0.5986699E-01  0.1411831E+01
 229031.  0.5138893E-01  0.1418028E+01
 190859.  0.4287658E-01  0.1423281E+01
 152688.  0.3433581E-01  0.1427586E+01
 114516.  0.2577189E-01  0.1430929E+01
  76344.  0.1719084E-01  0.1433309E+01
  38172.  0.8598440E-02  0.1434697E+01
      0.  0.0000000E+00  0.0000000E+00
