       8        0 S        9        133.77760        598.45831         -1.00000        859.92249      185    3
6371000.  0.4678491E-01 -0.3677898E-01
6370000.  0.4678914E-01 -0.1715902E-01
6369000.  0.4679030E-01  0.2468242E-02
6368000.  0.4678837E-01  0.2210151E-01
6368000.  0.4678837E-01  0.2210151E-01
6367000.  0.4678336E-01  0.4173950E-01
6366000.  0.4677527E-01  0.6138093E-01
6365000.  0.4676409E-01  0.8102449E-01
6364000.  0.4674983E-01  0.1006689E+00
6363000.  0.4673249E-01  0.1203129E+00
6362000.  0.4671206E-01  0.1399551E+00
6361000.  0.4668855E-01  0.1595943E+00
6360000.  0.4666196E-01  0.1792292E+00
6359000.  0.4663229E-01  0.1988585E+00
6358000.  0.4659953E-01  0.2184809E+00
6357000.  0.4656370E-01  0.2380951E+00
6356000.  0.4652479E-01  0.2576998E+00
6356000.  0.4652479E-01  0.1599413E+00
6355000.  0.4649857E-01  0.1741882E+00
6354000.  0.4647011E-01  0.1884312E+00
6353000.  0.4643942E-01  0.2026696E+00
6352000.  0.4640649E-01  0.2169029E+00
6351000.  0.4637133E-01  0.2311303E+00
6350000.  0.4633393E-01  0.2453511E+00
6349000.  0.4629431E-01  0.2595646E+00
6348000.  0.4625245E-01  0.2737702E+00
6347000.  0.4620836E-01  0.2879672E+00
6346600.  0.4619011E-01  0.2936434E+00
6346600.  0.4619011E-01  0.1635544E+00
6318800.  0.4485516E-01  0.4481530E+00
6291000.  0.4228607E-01  0.7279213E+00
6291000.  0.4228607E-01  0.7374994E+00
6263000.  0.3843953E-01  0.1010049E+01
6235000.  0.3343951E-01  0.1261054E+01
6207000.  0.2739834E-01  0.1482564E+01
6179000.  0.2046217E-01  0.1667149E+01
6151000.  0.1280833E-01  0.1808116E+01
6151000.  0.1280833E-01  0.1455533E+01
6128500.  0.7600683E-02  0.1489818E+01
6106000.  0.2312524E-02  0.1501171E+01
6083500. -0.2975836E-02  0.1490031E+01
6061000. -0.8186195E-02  0.1457149E+01
6038500. -0.1324355E-01  0.1403581E+01
6016000. -0.1807709E-01  0.1330635E+01
5993500. -0.2262102E-01  0.1239849E+01
5971000. -0.2681539E-01  0.1132976E+01
5971000. -0.2681539E-01  0.1026724E+01
5937667. -0.3167913E-01  0.8303639E+00
5904333. -0.3548855E-01  0.6248358E+00
5871000. -0.3821332E-01  0.4168348E+00
5837667. -0.3985628E-01  0.2122066E+00
5804333. -0.4044849E-01  0.1592655E-01
5771000. -0.4004476E-01 -0.1678886E+00
5771000. -0.4004476E-01 -0.1678867E+00
5701000. -0.3615614E-01 -0.5324946E+00
5701000. -0.3615614E-01 -0.4367866E+00
5667333. -0.3358838E-01 -0.5371344E+00
5633667. -0.3044109E-01 -0.6551455E+00
5600000. -0.2669598E-01 -0.7590036E+00
5600000. -0.2669598E-01 -0.7590036E+00
5563518. -0.2206970E-01 -0.8535862E+00
5527037. -0.1695883E-01 -0.9280827E+00
5490556. -0.1148172E-01 -0.9813440E+00
5454074. -0.5762153E-02 -0.1012654E+01
5417593.  0.7354336E-04 -0.1021981E+01
5381111.  0.5900258E-02 -0.1009530E+01
5344630.  0.1159477E-01 -0.9760329E+00
5308148.  0.1704019E-01 -0.9226837E+00
5271667.  0.2212628E-01 -0.8508509E+00
5235185.  0.2675267E-01 -0.7624114E+00
5198704.  0.3082994E-01 -0.6594507E+00
5162222.  0.3428131E-01 -0.5441687E+00
5125741.  0.3704330E-01 -0.4191218E+00
5089259.  0.3906741E-01 -0.2868556E+00
5052778.  0.4031973E-01 -0.1500182E+00
5016296.  0.4078183E-01 -0.1128579E-01
4979815.  0.4045041E-01  0.1267037E+00
4943333.  0.3933707E-01  0.2613939E+00
4906852.  0.3746777E-01  0.3903607E+00
4870370.  0.3488189E-01  0.5112883E+00
4833889.  0.3163162E-01  0.6221228E+00
4797407.  0.2777990E-01  0.7210275E+00
4760926.  0.2340027E-01  0.8062991E+00
4724444.  0.1857427E-01  0.8767045E+00
4687963.  0.1339048E-01  0.9311433E+00
4651482.  0.7942716E-02  0.9688156E+00
4615000.  0.2328008E-02  0.9893482E+00
4578518. -0.3354547E-02  0.9924992E+00
4542037. -0.9005494E-02  0.9784237E+00
4505556. -0.1452762E-01  0.9475872E+00
4469074. -0.1982661E-01  0.9005669E+00
4432593. -0.2481226E-01  0.8383871E+00
4396111. -0.2940135E-01  0.7622093E+00
4359630. -0.3351706E-01  0.6733391E+00
4323148. -0.3709151E-01  0.5734055E+00
4286667. -0.4006596E-01  0.4640878E+00
4250185. -0.4239191E-01  0.3471979E+00
4213704. -0.4403146E-01  0.2246878E+00
4177222. -0.4495807E-01  0.9851124E-01
4140741. -0.4515651E-01 -0.2930781E-01
4104259. -0.4462307E-01 -0.1567805E+00
4067778. -0.4336552E-01 -0.2818994E+00
4031296. -0.4140272E-01 -0.4027860E+00
3994815. -0.3876425E-01 -0.5176170E+00
3958333. -0.3548976E-01 -0.6246226E+00
3921852. -0.3162866E-01 -0.7223023E+00
3885370. -0.2723831E-01 -0.8091986E+00
3848889. -0.2238452E-01 -0.8840340E+00
3812407. -0.1713892E-01 -0.9458397E+00
3775926. -0.1157923E-01 -0.9936492E+00
3739444. -0.5787184E-02 -0.1026871E+01
3702963.  0.1522717E-03 -0.1045124E+01
3666482.  0.6152412E-02 -0.1048047E+01
3630000.  0.1212584E-01 -0.1035771E+01
3630000.  0.1212584E-01 -0.1035771E+01
3592500.  0.1814671E-01 -0.1007424E+01
3555000.  0.2395488E-01 -0.9636043E+00
3517500.  0.2946148E-01 -0.9050850E+00
3480000.  0.3458229E-01 -0.8326747E+00
3480000.  0.3458229E-01 -0.1446274E+01
3409422.  0.4734069E-01 -0.8288836E+00
3338844.  0.5252879E-01 -0.9848056E-01
3268266.  0.4952816E-01  0.6307305E+00
3197688.  0.3895065E-01  0.1253361E+01
3127109.  0.2246382E-01  0.1686013E+01
3056531.  0.2495199E-02  0.1876090E+01
2985953. -0.1813738E-01  0.1805866E+01
2915375. -0.3661183E-01  0.1491900E+01
2844797. -0.5046026E-01  0.9805388E+00
2774219. -0.5785951E-01  0.3403941E+00
2703641. -0.5782717E-01 -0.3470130E+00
2633062. -0.5030885E-01 -0.9973094E+00
2562484. -0.3615635E-01 -0.1532840E+01
2491906. -0.1700493E-01 -0.1890973E+01
2421328.  0.4928774E-02 -0.2030234E+01
2350750.  0.2710406E-01 -0.1933971E+01
2280172.  0.4693874E-01 -0.1611278E+01
2209594.  0.6208757E-01 -0.1095366E+01
2139016.  0.7068949E-01 -0.4396082E+00
2068438.  0.7156059E-01  0.2881892E+00
1997859.  0.6431637E-01  0.1012701E+01
1927281.  0.4941483E-01  0.1658442E+01
1856703.  0.2811706E-01  0.2157001E+01
1786125.  0.2373127E-02  0.2453385E+01
1715547. -0.2535585E-01  0.2511014E+01
1644969. -0.5232142E-01  0.2314984E+01
1574391. -0.7573699E-01  0.1873355E+01
1503812. -0.9303028E-01  0.1216429E+01
1433234. -0.1020760E+00  0.3941550E+00
1362656. -0.1013925E+00 -0.5281683E+00
1292078. -0.9028170E-01 -0.1475330E+01
1221500. -0.6890512E-01 -0.2368413E+01
1221500. -0.6890512E-01 -0.2034891E+01
1183328. -0.5553488E-01 -0.2423300E+01
1145156. -0.3993276E-01 -0.2778520E+01
1106984. -0.2232173E-01 -0.3092607E+01
1068812. -0.2970349E-02 -0.3358318E+01
1030641.  0.1781144E-01 -0.3569283E+01
 992469.  0.3968021E-01 -0.3720165E+01
 954297.  0.6226201E-01 -0.3806686E+01
 916125.  0.8516154E-01 -0.3825824E+01
 877953.  0.1079691E+00 -0.3775791E+01
 839781.  0.1302682E+00 -0.3656123E+01
 801609.  0.1516435E+00 -0.3467685E+01
 763438.  0.1716883E+00 -0.3212651E+01
 725266.  0.1900143E+00 -0.2894472E+01
 687094.  0.2062563E+00 -0.2517820E+01
 648922.  0.2200805E+00 -0.2088513E+01
 610750.  0.2311917E+00 -0.1613388E+01
 572578.  0.2393379E+00 -0.1100190E+01
 534406.  0.2443164E+00 -0.5574299E+00
 496234.  0.2459770E+00  0.5763121E-02
 458062.  0.2442257E+00  0.5798444E+00
 419891.  0.2390269E+00  0.1154960E+01
 381719.  0.2304035E+00  0.1721274E+01
 343547.  0.2184382E+00  0.2268925E+01
 305375.  0.2032712E+00  0.2788432E+01
 267203.  0.1850987E+00  0.3270713E+01
 229031.  0.1641694E+00  0.3707325E+01
 190859.  0.1407802E+00  0.4090643E+01
 152688.  0.1152717E+00  0.4413925E+01
 114516.  0.8801995E-01  0.4671457E+01
  76344.  0.5943387E-01  0.4858689E+01
  38172.  0.2994523E-01  0.4972227E+01
      0.  0.0000000E+00  0.0000000E+00
