       3        0 S        4        303.51791        263.77469         -1.00000       1091.61597      185    3
6371000. -0.1214155E+00  0.9552412E-01
6370000. -0.1214297E+00  0.8556969E-01
6369000. -0.1214423E+00  0.7561101E-01
6368000. -0.1214534E+00  0.6564821E-01
6368000. -0.1214534E+00  0.6564821E-01
6367000. -0.1214629E+00  0.5568140E-01
6366000. -0.1214709E+00  0.4571074E-01
6365000. -0.1214773E+00  0.3573632E-01
6364000. -0.1214821E+00  0.2575829E-01
6363000. -0.1214854E+00  0.1577676E-01
6362000. -0.1214871E+00  0.5791875E-02
6361000. -0.1214872E+00 -0.4196250E-02
6360000. -0.1214857E+00 -0.1418748E-01
6359000. -0.1214827E+00 -0.2418170E-01
6358000. -0.1214781E+00 -0.3417878E-01
6357000. -0.1214720E+00 -0.4417858E-01
6356000. -0.1214643E+00 -0.5418099E-01
6356000. -0.1214643E+00 -0.1398644E-01
6355000. -0.1214615E+00 -0.2124825E-01
6354000. -0.1214576E+00 -0.2851217E-01
6353000. -0.1214526E+00 -0.3577812E-01
6352000. -0.1214464E+00 -0.4304603E-01
6351000. -0.1214390E+00 -0.5031585E-01
6350000. -0.1214306E+00 -0.5758749E-01
6349000. -0.1214210E+00 -0.6486090E-01
6348000. -0.1214102E+00 -0.7213601E-01
6347000. -0.1213983E+00 -0.7941274E-01
6346600. -0.1213932E+00 -0.8232388E-01
6346600. -0.1213932E+00 -0.4953396E-02
6318800. -0.1210526E+00 -0.1517190E+00
6291000. -0.1200648E+00 -0.3014895E+00
6291000. -0.1200648E+00 -0.3043708E+00
6263000. -0.1183858E+00 -0.4600133E+00
6235000. -0.1160192E+00 -0.6171710E+00
6207000. -0.1129600E+00 -0.7749862E+00
6179000. -0.1092075E+00 -0.9325639E+00
6151000. -0.1047647E+00 -0.1088955E+01
6151000. -0.1047647E+00 -0.8596388E+00
6128500. -0.1015867E+00 -0.9394279E+00
6106000. -0.9813412E-01 -0.1015173E+01
6083500. -0.9442129E-01 -0.1086763E+01
6061000. -0.9046312E-01 -0.1154105E+01
6038500. -0.8627474E-01 -0.1217128E+01
6016000. -0.8187151E-01 -0.1275770E+01
5993500. -0.7726899E-01 -0.1329982E+01
5971000. -0.7248287E-01 -0.1379744E+01
5971000. -0.7248287E-01 -0.1243199E+01
5937667. -0.6590673E-01 -0.1269013E+01
5904333. -0.5921943E-01 -0.1285764E+01
5871000. -0.5246653E-01 -0.1294301E+01
5837667. -0.4568869E-01 -0.1295434E+01
5804333. -0.3892240E-01 -0.1289929E+01
5771000. -0.3220095E-01 -0.1278486E+01
5771000. -0.3220095E-01 -0.1278500E+01
5701000. -0.1788447E-01 -0.1323196E+01
5701000. -0.1788447E-01 -0.1091856E+01
5667333. -0.1232790E-01 -0.1025622E+01
5633667. -0.6912374E-02 -0.1029084E+01
5600000. -0.1470075E-02 -0.1028986E+01
5600000. -0.1470075E-02 -0.1028986E+01
5563518.  0.4412187E-02 -0.1024854E+01
5527037.  0.1025937E-01 -0.1016809E+01
5490556.  0.1604948E-01 -0.1004923E+01
5454074.  0.2176075E-01 -0.9892479E+00
5417593.  0.2737194E-01 -0.9700533E+00
5381111.  0.3286345E-01 -0.9474010E+00
5344630.  0.3821554E-01 -0.9214544E+00
5308148.  0.4341037E-01 -0.8924383E+00
5271667.  0.4843022E-01 -0.8604109E+00
5235185.  0.5325874E-01 -0.8256133E+00
5198704.  0.5788045E-01 -0.7882322E+00
5162222.  0.6228096E-01 -0.7483397E+00
5125741.  0.6644641E-01 -0.7062149E+00
5089259.  0.7036472E-01 -0.6619974E+00
5052778.  0.7402407E-01 -0.6158372E+00
5016296.  0.7741418E-01 -0.5679620E+00
4979815.  0.8052550E-01 -0.5185131E+00
4943333.  0.8334967E-01 -0.4676753E+00
4906852.  0.8587918E-01 -0.4156474E+00
4870370.  0.8810775E-01 -0.3625683E+00
4833889.  0.9002979E-01 -0.3086393E+00
4797407.  0.9164105E-01 -0.2540281E+00
4760926.  0.9293798E-01 -0.1988924E+00
4724444.  0.9391814E-01 -0.1434099E+00
4687963.  0.9457998E-01 -0.8774218E-01
4651482.  0.9492292E-01 -0.3205157E-01
4615000.  0.9494726E-01  0.2351459E-01
4578518.  0.9465415E-01  0.7879224E-01
4542037.  0.9404572E-01  0.1336337E+00
4505556.  0.9312481E-01  0.1879115E+00
4469074.  0.9189510E-01  0.2414528E+00
4432593.  0.9036121E-01  0.2941498E+00
4396111.  0.8852821E-01  0.3458818E+00
4359630.  0.8640225E-01  0.3964718E+00
4323148.  0.8398996E-01  0.4458600E+00
4286667.  0.8129868E-01  0.4939076E+00
4250185.  0.7833637E-01  0.5404850E+00
4213704.  0.7511175E-01  0.5855402E+00
4177222.  0.7163377E-01  0.6289231E+00
4140741.  0.6791246E-01  0.6705625E+00
4104259.  0.6395765E-01  0.7104192E+00
4067778.  0.5978031E-01  0.7483064E+00
4031296.  0.5539150E-01  0.7842461E+00
3994815.  0.5080271E-01  0.8181683E+00
3958333.  0.4602576E-01  0.8499147E+00
3921852.  0.4107322E-01  0.8795487E+00
3885370.  0.3595714E-01  0.9069623E+00
3848889.  0.3069080E-01  0.9320841E+00
3812407.  0.2528684E-01  0.9549702E+00
3775926.  0.1975875E-01  0.9754779E+00
3739444.  0.1411984E-01  0.9936398E+00
3702963.  0.8383657E-02  0.1009491E+01
3666482.  0.2563757E-02  0.1022876E+01
3630000. -0.3326203E-02  0.1033921E+01
3630000. -0.3326203E-02  0.1033921E+01
3592500. -0.9439043E-02  0.1042720E+01
3555000. -0.1559607E-01  0.1048951E+01
3517500. -0.2178254E-01  0.1052728E+01
3480000. -0.2798386E-01  0.1053990E+01
3480000. -0.2798386E-01  0.1818129E+01
3409422. -0.4759046E-01  0.1713876E+01
3338844. -0.6579577E-01  0.1566107E+01
3268266. -0.8215050E-01  0.1380794E+01
3197688. -0.9627285E-01  0.1164116E+01
3127109. -0.1078500E+00  0.9223039E+00
3056531. -0.1166377E+00  0.6615688E+00
2985953. -0.1224603E+00  0.3879760E+00
2915375. -0.1252079E+00  0.1073882E+00
2844797. -0.1248344E+00 -0.1746053E+00
2774219. -0.1213537E+00 -0.4527383E+00
2703641. -0.1148359E+00 -0.7221149E+00
2633062. -0.1054033E+00 -0.9782549E+00
2562484. -0.9322553E-01 -0.1217094E+01
2491906. -0.7851455E-01 -0.1435037E+01
2421328. -0.6151958E-01 -0.1628963E+01
2350750. -0.4252167E-01 -0.1796245E+01
2280172. -0.2182832E-01 -0.1934736E+01
2209594.  0.2319470E-03 -0.2042793E+01
2139016.  0.2331511E-01 -0.2119257E+01
2068438.  0.4706712E-01 -0.2163475E+01
1997859.  0.7112955E-01 -0.2175243E+01
1927281.  0.9514336E-01 -0.2154846E+01
1856703.  0.1187562E+00 -0.2102996E+01
1786125.  0.1416254E+00 -0.2020840E+01
1715547.  0.1634237E+00 -0.1909919E+01
1644969.  0.1838424E+00 -0.1772143E+01
1574391.  0.2025964E+00 -0.1609765E+01
1503812.  0.2194272E+00 -0.1425347E+01
1433234.  0.2341058E+00 -0.1221731E+01
1362656.  0.2464364E+00 -0.1001995E+01
1292078.  0.2562585E+00 -0.7694229E+00
1221500.  0.2634491E+00 -0.5274841E+00
1221500.  0.2634491E+00 -0.3309998E+00
1183328.  0.2650641E+00 -0.2078320E+00
1145156.  0.2659375E+00 -0.8352420E-01
1106984.  0.2660637E+00  0.4152558E-01
1068812.  0.2654394E+00  0.1669061E+00
1030641.  0.2640640E+00  0.2922069E+00
 992469.  0.2619390E+00  0.4170459E+00
 954297.  0.2590685E+00  0.5409962E+00
 916125.  0.2554588E+00  0.6636966E+00
 877953.  0.2511188E+00  0.7847324E+00
 839781.  0.2460595E+00  0.9037384E+00
 801609.  0.2402942E+00  0.1020337E+01
 763438.  0.2338385E+00  0.1134160E+01
 725266.  0.2267100E+00  0.1244858E+01
 687094.  0.2189283E+00  0.1352103E+01
 648922.  0.2105154E+00  0.1455540E+01
 610750.  0.2014948E+00  0.1554868E+01
 572578.  0.1918922E+00  0.1649784E+01
 534406.  0.1817348E+00  0.1739995E+01
 496234.  0.1710517E+00  0.1825217E+01
 458062.  0.1598736E+00  0.1905204E+01
 419891.  0.1482329E+00  0.1979698E+01
 381719.  0.1361625E+00  0.2048504E+01
 343547.  0.1236975E+00  0.2111380E+01
 305375.  0.1108739E+00  0.2168164E+01
 267203.  0.9772880E-01  0.2218671E+01
 229031.  0.8430030E-01  0.2262747E+01
 190859.  0.7062728E-01  0.2300276E+01
 152688.  0.5674966E-01  0.2331144E+01
 114516.  0.4270697E-01  0.2355238E+01
  76344.  0.2854040E-01  0.2372484E+01
  38172.  0.1429120E-01  0.2382786E+01
      0.  0.0000000E+00  0.0000000E+00
