       7        0 S        8        150.88110        530.61877         -1.00000        896.85999      185    3
6371000. -0.5583174E-01  0.4389608E-01
6370000. -0.5583718E-01  0.2548135E-01
6369000. -0.5583974E-01  0.7059508E-02
6368000. -0.5583940E-01 -0.1136849E-01
6368000. -0.5583940E-01 -0.1136849E-01
6367000. -0.5583617E-01 -0.2980171E-01
6366000. -0.5583004E-01 -0.4823918E-01
6365000. -0.5582102E-01 -0.6667996E-01
6364000. -0.5580911E-01 -0.8512309E-01
6363000. -0.5579430E-01 -0.1035676E+00
6362000. -0.5577660E-01 -0.1220126E+00
6361000. -0.5575600E-01 -0.1404571E+00
6360000. -0.5573251E-01 -0.1589001E+00
6359000. -0.5570612E-01 -0.1773407E+00
6358000. -0.5567684E-01 -0.1957780E+00
6357000. -0.5564466E-01 -0.2142109E+00
6356000. -0.5560959E-01 -0.2326385E+00
6356000. -0.5560959E-01 -0.1419956E+00
6355000. -0.5558625E-01 -0.1553880E+00
6354000. -0.5556081E-01 -0.1687788E+00
6353000. -0.5553327E-01 -0.1821675E+00
6352000. -0.5550363E-01 -0.1955535E+00
6351000. -0.5547188E-01 -0.2089364E+00
6350000. -0.5543803E-01 -0.2223157E+00
6349000. -0.5540209E-01 -0.2356908E+00
6348000. -0.5536405E-01 -0.2490612E+00
6347000. -0.5532391E-01 -0.2624266E+00
6346600. -0.5530726E-01 -0.2677711E+00
6346600. -0.5530726E-01 -0.1441718E+00
6318800. -0.5409233E-01 -0.4128485E+00
6291000. -0.5170706E-01 -0.6796318E+00
6291000. -0.5170706E-01 -0.6886139E+00
6263000. -0.4809533E-01 -0.9531054E+00
6235000. -0.4335053E-01 -0.1203207E+01
6207000. -0.3754948E-01 -0.1432758E+01
6179000. -0.3079568E-01 -0.1635810E+01
6151000. -0.2321807E-01 -0.1806747E+01
6151000. -0.2321807E-01 -0.1452454E+01
6128500. -0.1797702E-01 -0.1512525E+01
6106000. -0.1255705E-01 -0.1553762E+01
6083500. -0.7024711E-02 -0.1576182E+01
6061000. -0.1446118E-02 -0.1580015E+01
6038500.  0.4113831E-02 -0.1565714E+01
6016000.  0.9592159E-02 -0.1533911E+01
5993500.  0.1492842E-01 -0.1485409E+01
5971000.  0.2006533E-01 -0.1421189E+01
5971000.  0.2006533E-01 -0.1286989E+01
5937667.  0.2642460E-01 -0.1141017E+01
5904333.  0.3197964E-01 -0.9803894E+00
5871000.  0.3666701E-01 -0.8102137E+00
5837667.  0.4044922E-01 -0.6351147E+00
5804333.  0.4331162E-01 -0.4592139E+00
5771000.  0.4525949E-01 -0.2861175E+00
5771000.  0.4525949E-01 -0.2861260E+00
5701000.  0.4651078E-01  0.5860915E-01
5701000.  0.4651078E-01  0.4375372E-01
5667333.  0.4592276E-01  0.1767176E+00
5633667.  0.4464040E-01  0.3091010E+00
5600000.  0.4266985E-01  0.4350678E+00
5600000.  0.4266985E-01  0.4350678E+00
5563518.  0.3980929E-01  0.5622851E+00
5527037.  0.3625222E-01  0.6780792E+00
5490556.  0.3206883E-01  0.7807754E+00
5454074.  0.2733837E-01  0.8689163E+00
5417593.  0.2214743E-01  0.9414979E+00
5381111.  0.1658751E-01  0.9976150E+00
5344630.  0.1075495E-01  0.1036723E+01
5308148.  0.4747431E-02  0.1058641E+01
5271667. -0.1335805E-02  0.1063241E+01
5235185. -0.7396757E-02  0.1050888E+01
5198704. -0.1333957E-01  0.1022121E+01
5162222. -0.1907214E-01  0.9775459E+00
5125741. -0.2450668E-01  0.9182687E+00
5089259. -0.2956243E-01  0.8453852E+00
5052778. -0.3416472E-01  0.7601727E+00
5016296. -0.3824754E-01  0.6641599E+00
4979815. -0.4175317E-01  0.5588746E+00
4943333. -0.4463342E-01  0.4459946E+00
4906852. -0.4684971E-01  0.3272826E+00
4870370. -0.4837371E-01  0.2044758E+00
4833889. -0.4918710E-01  0.7939567E-01
4797407. -0.4928198E-01 -0.4618916E-01
4760926. -0.4866055E-01 -0.1705076E+00
4724444. -0.4733486E-01 -0.2918878E+00
4687963. -0.4532651E-01 -0.4086921E+00
4651482. -0.4266616E-01 -0.5193707E+00
4615000. -0.3939279E-01 -0.6225562E+00
4578518. -0.3555324E-01 -0.7169038E+00
4542037. -0.3120166E-01 -0.8012695E+00
4505556. -0.2639784E-01 -0.8746973E+00
4469074. -0.2120707E-01 -0.9362406E+00
4432593. -0.1569955E-01 -0.9852973E+00
4396111. -0.9947918E-02 -0.1021363E+01
4359630. -0.4028296E-02 -0.1043987E+01
4323148.  0.1982417E-02 -0.1053119E+01
4286667.  0.8006480E-02 -0.1048705E+01
4250185.  0.1396687E-01 -0.1030873E+01
4213704.  0.1978754E-01 -0.1000027E+01
4177222.  0.2539536E-01 -0.9565578E+00
4140741.  0.3071948E-01 -0.9011192E+00
4104259.  0.3569392E-01 -0.8345018E+00
4067778.  0.4025655E-01 -0.7574794E+00
4031296.  0.4435098E-01 -0.6711153E+00
3994815.  0.4792659E-01 -0.5764816E+00
3958333.  0.5093930E-01 -0.4746794E+00
3921852.  0.5335156E-01 -0.3669991E+00
3885370.  0.5513342E-01 -0.2546866E+00
3848889.  0.5626199E-01 -0.1390640E+00
3812407.  0.5672223E-01 -0.2146734E-01
3775926.  0.5650666E-01  0.9674975E-01
3739444.  0.5561556E-01  0.2142597E+00
3702963.  0.5405671E-01  0.3297657E+00
3666482.  0.5184541E-01  0.4419372E+00
3630000.  0.4900406E-01  0.5496085E+00
3630000.  0.4900406E-01  0.5496085E+00
3592500.  0.4545768E-01  0.6542968E+00
3555000.  0.4131589E-01  0.7517386E+00
3517500.  0.3662435E-01  0.8409255E+00
3480000.  0.3143476E-01  0.9208035E+00
3480000.  0.3143476E-01  0.1548781E+01
3409422.  0.1262368E-01  0.1810172E+01
3338844. -0.7828398E-02  0.1844178E+01
3268266. -0.2742258E-01  0.1658695E+01
3197688. -0.4388091E-01  0.1284898E+01
3127109. -0.5537474E-01  0.7716808E+00
3056531. -0.6068519E-01  0.1791900E+00
2985953. -0.5929072E-01 -0.4280367E+00
2915375. -0.5137894E-01 -0.9874995E+00
2844797. -0.3779199E-01 -0.1444376E+01
2774219. -0.1991577E-01 -0.1755945E+01
2703641.  0.4721970E-03 -0.1894607E+01
2633062.  0.2138051E-01 -0.1849418E+01
2562484.  0.4078860E-01 -0.1626113E+01
2491906.  0.5682747E-01 -0.1245846E+01
2421328.  0.6793690E-01 -0.7427782E+00
2350750.  0.7299242E-01 -0.1608172E+00
2280172.  0.7139240E-01  0.4502136E+00
2209594.  0.6310125E-01  0.1038633E+01
2139016.  0.4864755E-01  0.1554913E+01
2068438.  0.2907933E-01  0.1955379E+01
1997859.  0.5881143E-02  0.2205297E+01
1927281. -0.1913774E-01  0.2281283E+01
1856703. -0.4398007E-01  0.2172778E+01
1786125. -0.6660556E-01  0.1882650E+01
1715547. -0.8507869E-01  0.1426807E+01
1644969. -0.9770721E-01  0.8329877E+00
1574391. -0.1031628E+00  0.1387703E+00
1503812. -0.1005760E+00 -0.6110218E+00
1433234. -0.8960091E-01 -0.1367283E+01
1362656. -0.7044386E-01 -0.2079908E+01
1292078. -0.4385721E-01 -0.2700961E+01
1221500. -0.1109839E-01 -0.3187670E+01
1221500. -0.1109839E-01 -0.2703276E+01
1183328.  0.5640117E-02 -0.2878002E+01
1145156.  0.2331308E-01 -0.3014689E+01
1106984.  0.4168401E-01 -0.3110570E+01
1068812.  0.6050157E-01 -0.3163465E+01
1030641.  0.7950278E-01 -0.3171839E+01
 992469.  0.9841898E-01 -0.3134830E+01
 954297.  0.1169768E+00 -0.3052228E+01
 916125.  0.1349041E+00 -0.2924531E+01
 877953.  0.1519341E+00 -0.2752898E+01
 839781.  0.1678084E+00 -0.2539147E+01
 801609.  0.1822818E+00 -0.2285738E+01
 763438.  0.1951252E+00 -0.1995725E+01
 725266.  0.2061306E+00 -0.1672705E+01
 687094.  0.2151118E+00 -0.1320780E+01
 648922.  0.2219091E+00 -0.9445117E+00
 610750.  0.2263913E+00 -0.5488168E+00
 572578.  0.2284574E+00 -0.1389235E+00
 534406.  0.2280387E+00  0.2797076E+00
 496234.  0.2250995E+00  0.7014543E+00
 458062.  0.2196383E+00  0.1120649E+01
 419891.  0.2116875E+00  0.1531593E+01
 381719.  0.2013129E+00  0.1928763E+01
 343547.  0.1886136E+00  0.2306701E+01
 305375.  0.1737203E+00  0.2660286E+01
 267203.  0.1567937E+00  0.2984664E+01
 229031.  0.1380222E+00  0.3275391E+01
 190859.  0.1176197E+00  0.3528507E+01
 152688.  0.9582262E-01  0.3740530E+01
 114516.  0.7288525E-01  0.3908525E+01
  76344.  0.4907920E-01  0.4030171E+01
  38172.  0.2468754E-01  0.4103721E+01
      0.  0.0000000E+00  0.0000000E+00
