      10        0 S       11        109.66680        730.03229         -1.00000        833.29761      185    3
6371000.  0.4158159E-01 -0.3268219E-01
6370000.  0.4158469E-01 -0.6748521E-02
6369000.  0.4158371E-01  0.1919396E-01
6368000.  0.4157866E-01  0.4514272E-01
6368000.  0.4157866E-01  0.4514272E-01
6367000.  0.4156954E-01  0.7109522E-01
6366000.  0.4155634E-01  0.9704892E-01
6365000.  0.4153907E-01  0.1230013E+00
6364000.  0.4151773E-01  0.1489498E+00
6363000.  0.4149231E-01  0.1748919E+00
6362000.  0.4146283E-01  0.2008250E+00
6361000.  0.4142927E-01  0.2267466E+00
6360000.  0.4139164E-01  0.2526542E+00
6359000.  0.4134996E-01  0.2785452E+00
6358000.  0.4130420E-01  0.3044171E+00
6357000.  0.4125439E-01  0.3302674E+00
6356000.  0.4120053E-01  0.3560935E+00
6356000.  0.4120053E-01  0.2250650E+00
6355000.  0.4116373E-01  0.2438278E+00
6354000.  0.4112399E-01  0.2625792E+00
6353000.  0.4108130E-01  0.2813177E+00
6352000.  0.4103567E-01  0.3000422E+00
6351000.  0.4098711E-01  0.3187511E+00
6350000.  0.4093561E-01  0.3374433E+00
6349000.  0.4088118E-01  0.3561173E+00
6348000.  0.4082382E-01  0.3747719E+00
6347000.  0.4076353E-01  0.3934057E+00
6346600.  0.4073860E-01  0.4008531E+00
6346600.  0.4073860E-01  0.2316820E+00
6318800.  0.3891563E-01  0.6026728E+00
6291000.  0.3550048E-01  0.9589274E+00
6291000.  0.3550048E-01  0.9713094E+00
6263000.  0.3048607E-01  0.1304138E+01
6235000.  0.2410514E-01  0.1590748E+01
6207000.  0.1659170E-01  0.1817354E+01
6179000.  0.8236220E-02  0.1972168E+01
6151000. -0.6244826E-03  0.2045975E+01
6151000. -0.6244826E-03  0.1649994E+01
6128500. -0.6403027E-02  0.1616409E+01
6106000. -0.1199954E-01  0.1547261E+01
6083500. -0.1729260E-01  0.1445022E+01
6061000. -0.2217063E-01  0.1312796E+01
6038500. -0.2653407E-01  0.1154243E+01
6016000. -0.3029704E-01  0.9734498E+00
5993500. -0.3338871E-01  0.7748336E+00
5971000. -0.3575429E-01  0.5630400E+00
5971000. -0.3575429E-01  0.5117593E+00
5937667. -0.3760121E-01  0.1955891E+00
5904333. -0.3782598E-01 -0.1063175E+00
5871000. -0.3653267E-01 -0.3831116E+00
5837667. -0.3387556E-01 -0.6264601E+00
5804333. -0.3004600E-01 -0.8304615E+00
5771000. -0.2526058E-01 -0.9914631E+00
5771000. -0.2526058E-01 -0.9914739E+00
5701000. -0.1271046E-01 -0.1262558E+01
5701000. -0.1271046E-01 -0.1043238E+01
5667333. -0.7265209E-02 -0.1025957E+01
5633667. -0.1787480E-02 -0.1047848E+01
5600000.  0.3743547E-02 -0.1039354E+01
5600000.  0.3743547E-02 -0.1039354E+01
5563518.  0.9589410E-02 -0.9968352E+00
5527037.  0.1509793E-01 -0.9220370E+00
5490556.  0.2009303E-01 -0.8180947E+00
5454074.  0.2441878E-01 -0.6889429E+00
5417593.  0.2794398E-01 -0.5393397E+00
5381111.  0.3056605E-01 -0.3743551E+00
5344630.  0.3221228E-01 -0.1994546E+00
5308148.  0.3284196E-01 -0.2021565E-01
5271667.  0.3244611E-01  0.1578206E+00
5235185.  0.3104702E-01  0.3293237E+00
5198704.  0.2869660E-01  0.4893118E+00
5162222.  0.2547403E-01  0.6332055E+00
5125741.  0.2148305E-01  0.7571465E+00
5089259.  0.1684732E-01  0.8578627E+00
5052778.  0.1170786E-01  0.9327888E+00
5016296.  0.6217082E-02  0.9802997E+00
4979815.  0.5354492E-03  0.9994078E+00
4943333. -0.5174005E-02  0.9900267E+00
4906852. -0.1074966E-01  0.9528968E+00
4870370. -0.1603634E-01  0.8893346E+00
4833889. -0.2088829E-01  0.8015261E+00
4797407. -0.2517452E-01  0.6921794E+00
4760926. -0.2878020E-01  0.5644464E+00
4724444. -0.3161071E-01  0.4220418E+00
4687963. -0.3359303E-01  0.2688916E+00
4651482. -0.3467748E-01  0.1091389E+00
4615000. -0.3483841E-01 -0.5296757E-01
4578518. -0.3407444E-01 -0.2132026E+00
4542037. -0.3240818E-01 -0.3674617E+00
4505556. -0.2988495E-01 -0.5119007E+00
4469074. -0.2657140E-01 -0.6429043E+00
4432593. -0.2255385E-01 -0.7573494E+00
4396111. -0.1793474E-01 -0.8525458E+00
4359630. -0.1283141E-01 -0.9262074E+00
4323148. -0.7371550E-02 -0.9768050E+00
4286667. -0.1690892E-02 -0.1003240E+01
4250185.  0.4070748E-02 -0.1005018E+01
4213704.  0.9772228E-02 -0.9823532E+00
4177222.  0.1527545E-01 -0.9358725E+00
4140741.  0.2044711E-01 -0.8668691E+00
4104259.  0.2516354E-01 -0.7771462E+00
4067778.  0.2931170E-01 -0.6688334E+00
4031296.  0.3279287E-01 -0.5446272E+00
3994815.  0.3552423E-01 -0.4074739E+00
3958333.  0.3744068E-01 -0.2605397E+00
3921852.  0.3849592E-01 -0.1072644E+00
3885370.  0.3866360E-01  0.4887751E-01
3848889.  0.3793746E-01  0.2043443E+00
3812407.  0.3633122E-01  0.3556950E+00
3775926.  0.3387829E-01  0.4995371E+00
3739444.  0.3063065E-01  0.6327490E+00
3702963.  0.2665759E-01  0.7524778E+00
3666482.  0.2204405E-01  0.8560491E+00
3630000.  0.1688867E-01  0.9413669E+00
3630000.  0.1688867E-01  0.9413669E+00
3592500.  0.1114066E-01  0.1008049E+01
3555000.  0.5066557E-02  0.1051984E+01
3517500. -0.1197068E-02  0.1072333E+01
3480000. -0.7509673E-02  0.1068590E+01
3480000. -0.7509673E-02  0.1829612E+01
3409422. -0.2604689E-01  0.1450721E+01
3338844. -0.3843554E-01  0.7445747E+00
3268266. -0.4197545E-01 -0.1148022E+00
3197688. -0.3604494E-01 -0.9335172E+00
3127109. -0.2208506E-01 -0.1539385E+01
3056531. -0.3169278E-02 -0.1814331E+01
2985953.  0.1671422E-01 -0.1712980E+01
2915375.  0.3349801E-01 -0.1265702E+01
2844797.  0.4382556E-01 -0.5676048E+00
2774219.  0.4565605E-01  0.2431171E+00
2703641.  0.3859301E-01  0.1012574E+01
2633062.  0.2390082E-01  0.1599230E+01
2562484.  0.4230561E-02  0.1897833E+01
2491906. -0.1688258E-01  0.1855882E+01
2421328. -0.3564970E-01  0.1480399E+01
2350750. -0.4867936E-01  0.8348090E+00
2280172. -0.5354337E-01  0.2697527E-01
2209594. -0.4917198E-01 -0.8091576E+00
2139016. -0.3602413E-01 -0.1535263E+01
2068438. -0.1601447E-01 -0.2030281E+01
1997859.  0.7784357E-02 -0.2208799E+01
1927281.  0.3161182E-01 -0.2033770E+01
1856703.  0.5159409E-01 -0.1521833E+01
1786125.  0.6433097E-01 -0.7408717E+00
1715547.  0.6741616E-01  0.1997116E+00
1644969.  0.5981629E-01  0.1164385E+01
1574391.  0.4205795E-01  0.2010348E+01
1503812.  0.1619803E-01  0.2607269E+01
1433234. -0.1441483E-01  0.2855188E+01
1362656. -0.4556067E-01  0.2698422E+01
1292078. -0.7268739E-01  0.2133539E+01
1221500. -0.9150336E-01  0.1210636E+01
1221500. -0.9150336E-01  0.9840290E+00
1183328. -0.9579107E-01  0.4381866E+00
1145156. -0.9666217E-01 -0.1537067E+00
1106984. -0.9389164E-01 -0.7743977E+00
1068812. -0.8736203E-01 -0.1405328E+01
1030641. -0.7706989E-01 -0.2027182E+01
 992469. -0.6312727E-01 -0.2620558E+01
 954297. -0.4576248E-01 -0.3166411E+01
 916125. -0.2531468E-01 -0.3646797E+01
 877953. -0.2226188E-02 -0.4045309E+01
 839781.  0.2296848E-01 -0.4347665E+01
 801609.  0.4965669E-01 -0.4542135E+01
 763438.  0.7716335E-01 -0.4619903E+01
 725266.  0.1047723E+00 -0.4575397E+01
 687094.  0.1317421E+00 -0.4406457E+01
 648922.  0.1573293E+00 -0.4114435E+01
 610750.  0.1808095E+00 -0.3704214E+01
 572578.  0.2014976E+00 -0.3184082E+01
 534406.  0.2187680E+00 -0.2565527E+01
 496234.  0.2320727E+00 -0.1862951E+01
 458062.  0.2409578E+00 -0.1093260E+01
 419891.  0.2450772E+00 -0.2754618E+00
 381719.  0.2442034E+00  0.5700083E+00
 343547.  0.2382346E+00  0.1421610E+01
 305375.  0.2271996E+00  0.2257519E+01
 267203.  0.2112574E+00  0.3056094E+01
 229031.  0.1906945E+00  0.3796536E+01
 190859.  0.1659182E+00  0.4459509E+01
 152688.  0.1374465E+00  0.5027587E+01
 114516.  0.1058928E+00  0.5485780E+01
  76344.  0.7195401E-01  0.5821965E+01
  38172.  0.3638965E-01  0.6027137E+01
      0.  0.0000000E+00  0.0000000E+00
