       2        0 S        3        395.34811        202.50591         -1.00000       1256.00403      185    3
6371000.  0.1487248E+00 -0.1170399E+00
6370000.  0.1487426E+00 -0.1098153E+00
6369000.  0.1487593E+00 -0.1025876E+00
6368000.  0.1487748E+00 -0.9535674E-01
6368000.  0.1487748E+00 -0.9535674E-01
6367000.  0.1487893E+00 -0.8812289E-01
6366000.  0.1488025E+00 -0.8088607E-01
6365000.  0.1488146E+00 -0.7364633E-01
6364000.  0.1488256E+00 -0.6640372E-01
6363000.  0.1488355E+00 -0.5915831E-01
6362000.  0.1488442E+00 -0.5191014E-01
6361000.  0.1488518E+00 -0.4465927E-01
6360000.  0.1488582E+00 -0.3740574E-01
6359000.  0.1488635E+00 -0.3014963E-01
6358000.  0.1488677E+00 -0.2289097E-01
6357000.  0.1488707E+00 -0.1562983E-01
6356000.  0.1488726E+00 -0.8366249E-02
6356000.  0.1488726E+00 -0.3164832E-01
6355000.  0.1488771E+00 -0.2638195E-01
6354000.  0.1488809E+00 -0.2111377E-01
6353000.  0.1488838E+00 -0.1584380E-01
6352000.  0.1488858E+00 -0.1057208E-01
6351000.  0.1488871E+00 -0.5298617E-02
6350000.  0.1488875E+00 -0.2345318E-04
6349000.  0.1488871E+00  0.5253386E-02
6348000.  0.1488859E+00  0.1053187E-01
6347000.  0.1488838E+00  0.1581198E-01
6346600.  0.1488827E+00  0.1792447E-01
6346600.  0.1488827E+00 -0.4511160E-01
6318800.  0.1488491E+00  0.6097791E-01
6291000.  0.1483468E+00  0.1696536E+00
6291000.  0.1483468E+00  0.1698978E+00
6263000.  0.1473511E+00  0.2835994E+00
6235000.  0.1458510E+00  0.3993668E+00
6207000.  0.1438382E+00  0.5168651E+00
6179000.  0.1413058E+00  0.6357416E+00
6151000.  0.1382487E+00  0.7556100E+00
6151000.  0.1382487E+00  0.5855525E+00
6128500.  0.1360698E+00  0.6480488E+00
6106000.  0.1336739E+00  0.7083957E+00
6083500.  0.1310688E+00  0.7665483E+00
6061000.  0.1282623E+00  0.8224673E+00
6038500.  0.1252622E+00  0.8761262E+00
6016000.  0.1220767E+00  0.9274966E+00
5993500.  0.1187139E+00  0.9765543E+00
5971000.  0.1151819E+00  0.1023292E+01
5971000.  0.1151819E+00  0.9178206E+00
5937667.  0.1102904E+00  0.9510089E+00
5904333.  0.1052404E+00  0.9784310E+00
5871000.  0.1000611E+00  0.1000578E+01
5837667.  0.9477866E-01  0.1017913E+01
5804333.  0.8941703E-01  0.1030872E+01
5771000.  0.8399834E-01  0.1039847E+01
5771000.  0.8399834E-01  0.1039852E+01
5701000.  0.7210749E-01  0.1122366E+01
5701000.  0.7210749E-01  0.9201680E+00
5667333.  0.6737699E-01  0.8825935E+00
5633667.  0.6266250E-01  0.9064413E+00
5600000.  0.5781125E-01  0.9282801E+00
5600000.  0.5781125E-01  0.9282801E+00
5563518.  0.5243363E-01  0.9495836E+00
5527037.  0.4694069E-01  0.9686103E+00
5490556.  0.4134536E-01  0.9853339E+00
5454074.  0.3566091E-01  0.9996961E+00
5417593.  0.2990071E-01  0.1011862E+01
5381111.  0.2407710E-01  0.1021774E+01
5344630.  0.1820330E-01  0.1029472E+01
5308148.  0.1229125E-01  0.1035077E+01
5271667.  0.6353521E-02  0.1038495E+01
5235185.  0.4020099E-03  0.1039863E+01
5198704. -0.5551528E-02  0.1039246E+01
5162222. -0.1149571E-01  0.1036548E+01
5125741. -0.1741880E-01  0.1031962E+01
5089259. -0.2331042E-01  0.1025485E+01
5052778. -0.2915930E-01  0.1017111E+01
5016296. -0.3495535E-01  0.1006986E+01
4979815. -0.4068818E-01  0.9950842E+00
4943333. -0.4634806E-01  0.9814715E+00
4906852. -0.5192523E-01  0.9662551E+00
4870370. -0.5741070E-01  0.9493882E+00
4833889. -0.6279500E-01  0.9309996E+00
4797407. -0.6806999E-01  0.9111530E+00
4760926. -0.7322688E-01  0.8898084E+00
4724444. -0.7825780E-01  0.8671250E+00
4687963. -0.8315491E-01  0.8431171E+00
4651482. -0.8791078E-01  0.8178096E+00
4615000. -0.9251845E-01  0.7913209E+00
4578518. -0.9697106E-01  0.7636535E+00
4542037. -0.1012619E+00  0.7348803E+00
4505556. -0.1053851E+00  0.7050872E+00
4469074. -0.1093348E+00  0.6742662E+00
4432593. -0.1131052E+00  0.6425252E+00
4396111. -0.1166915E+00  0.6099158E+00
4359630. -0.1200885E+00  0.5764527E+00
4323148. -0.1232917E+00  0.5422363E+00
4286667. -0.1262969E+00  0.5073025E+00
4250185. -0.1291002E+00  0.4716949E+00
4213704. -0.1316978E+00  0.4354908E+00
4177222. -0.1340864E+00  0.3987205E+00
4140741. -0.1362630E+00  0.3614467E+00
4104259. -0.1382250E+00  0.3237236E+00
4067778. -0.1399696E+00  0.2855930E+00
4031296. -0.1414949E+00  0.2471105E+00
3994815. -0.1427990E+00  0.2083237E+00
3958333. -0.1438802E+00  0.1692853E+00
3921852. -0.1447373E+00  0.1300336E+00
3885370. -0.1453691E+00  0.9062000E-01
3848889. -0.1457748E+00  0.5109727E-01
3812407. -0.1459540E+00  0.1148647E-01
3775926. -0.1459063E+00 -0.2813863E-01
3739444. -0.1456318E+00 -0.6775476E-01
3702963. -0.1451304E+00 -0.1073412E+00
3666482. -0.1444027E+00 -0.1468060E+00
3630000. -0.1434493E+00 -0.1861674E+00
3630000. -0.1434493E+00 -0.1861674E+00
3592500. -0.1422349E+00 -0.2264297E+00
3555000. -0.1407842E+00 -0.2664590E+00
3517500. -0.1390985E+00 -0.3062802E+00
3480000. -0.1371792E+00 -0.3458178E+00
3480000. -0.1371792E+00 -0.4908316E+00
3409422. -0.1305527E+00 -0.7028988E+00
3338844. -0.1216659E+00 -0.8986928E+00
3268266. -0.1107055E+00 -0.1077110E+01
3197688. -0.9786862E-01 -0.1237335E+01
3127109. -0.8336020E-01 -0.1378783E+01
3056531. -0.6739081E-01 -0.1501083E+01
2985953. -0.5017355E-01 -0.1604056E+01
2915375. -0.3192279E-01 -0.1687680E+01
2844797. -0.1285222E-01 -0.1752095E+01
2774219.  0.6826654E-02 -0.1797557E+01
2703641.  0.2690590E-01 -0.1824451E+01
2633062.  0.4718277E-01 -0.1833273E+01
2562484.  0.6745962E-01 -0.1824605E+01
2491906.  0.8754665E-01 -0.1799123E+01
2421328.  0.1072617E+00 -0.1757582E+01
2350750.  0.1264315E+00 -0.1700819E+01
2280172.  0.1448922E+00 -0.1629727E+01
2209594.  0.1624903E+00 -0.1545263E+01
2139016.  0.1790834E+00 -0.1448440E+01
2068438.  0.1945403E+00 -0.1340321E+01
1997859.  0.2087421E+00 -0.1222009E+01
1927281.  0.2215820E+00 -0.1094653E+01
1856703.  0.2329662E+00 -0.9594284E+00
1786125.  0.2428145E+00 -0.8175405E+00
1715547.  0.2510596E+00 -0.6702157E+00
1644969.  0.2576483E+00 -0.5186983E+00
1574391.  0.2625410E+00 -0.3642466E+00
1503812.  0.2657124E+00 -0.2081209E+00
1433234.  0.2671507E+00 -0.5159319E-01
1362656.  0.2668587E+00  0.1040738E+00
1292078.  0.2648527E+00  0.2576176E+00
1221500.  0.2611634E+00  0.4077673E+00
1221500.  0.2611634E+00  0.4605834E+00
1183328.  0.2581808E+00  0.5349005E+00
1145156.  0.2547558E+00  0.6082317E+00
1106984.  0.2508947E+00  0.6804614E+00
1068812.  0.2466044E+00  0.7514600E+00
1030641.  0.2418928E+00  0.8211029E+00
 992469.  0.2367682E+00  0.8892916E+00
 954297.  0.2312397E+00  0.9558836E+00
 916125.  0.2253172E+00  0.1020802E+01
 877953.  0.2190111E+00  0.1083912E+01
 839781.  0.2123325E+00  0.1145126E+01
 801609.  0.2052930E+00  0.1204339E+01
 763438.  0.1979052E+00  0.1261452E+01
 725266.  0.1901816E+00  0.1316375E+01
 687094.  0.1821356E+00  0.1369033E+01
 648922.  0.1737812E+00  0.1419320E+01
 610750.  0.1651327E+00  0.1467172E+01
 572578.  0.1562051E+00  0.1512513E+01
 534406.  0.1470134E+00  0.1555269E+01
 496234.  0.1375736E+00  0.1595364E+01
 458062.  0.1279015E+00  0.1632747E+01
 419891.  0.1180141E+00  0.1667346E+01
 381719.  0.1079275E+00  0.1699133E+01
 343547.  0.9765914E-01  0.1728028E+01
 305375.  0.8722632E-01  0.1754012E+01
 267203.  0.7664667E-01  0.1777029E+01
 229031.  0.6593810E-01  0.1797045E+01
 190859.  0.5511864E-01  0.1814040E+01
 152688.  0.4420674E-01  0.1827988E+01
 114516.  0.3322022E-01  0.1838850E+01
  76344.  0.2217792E-01  0.1846608E+01
  38172.  0.1109848E-01  0.1851217E+01
      0.  0.0000000E+00  0.0000000E+00
