       4        0 S        5        242.19130        330.56659         -1.00000        970.49707      185    3
6371000.  0.1002635E+00 -0.7886546E-01
6370000.  0.1002749E+00 -0.6599107E-01
6369000.  0.1002842E+00 -0.5311129E-01
6368000.  0.1002916E+00 -0.4022637E-01
6368000.  0.1002916E+00 -0.4022637E-01
6367000.  0.1002968E+00 -0.2733658E-01
6366000.  0.1003001E+00 -0.1444217E-01
6365000.  0.1003014E+00 -0.1543396E-02
6364000.  0.1003006E+00  0.1135948E-01
6363000.  0.1002978E+00  0.2426621E-01
6362000.  0.1002930E+00  0.3717652E-01
6361000.  0.1002861E+00  0.5009016E-01
6360000.  0.1002773E+00  0.6300687E-01
6359000.  0.1002664E+00  0.7592640E-01
6358000.  0.1002534E+00  0.8884848E-01
6357000.  0.1002385E+00  0.1017729E+00
6356000.  0.1002215E+00  0.1146993E+00
6356000.  0.1002215E+00  0.5720824E-01
6355000.  0.1002118E+00  0.6659894E-01
6354000.  0.1002006E+00  0.7599164E-01
6353000.  0.1001879E+00  0.8538619E-01
6352000.  0.1001738E+00  0.9478245E-01
6351000.  0.1001582E+00  0.1041803E+00
6350000.  0.1001411E+00  0.1135796E+00
6349000.  0.1001225E+00  0.1229802E+00
6348000.  0.1001025E+00  0.1323820E+00
6347000.  0.1000809E+00  0.1417848E+00
6346600.  0.1000719E+00  0.1455462E+00
6346600.  0.1000719E+00  0.5196209E-01
6318800.  0.9943234E-01  0.2417950E+00
6291000.  0.9795755E-01  0.4345247E+00
6291000.  0.9795755E-01  0.4397487E+00
6263000.  0.9558886E-01  0.6382628E+00
6235000.  0.9234790E-01  0.8363954E+00
6207000.  0.8824027E-01  0.1032359E+01
6179000.  0.8327951E-01  0.1224314E+01
6151000.  0.7748742E-01  0.1410355E+01
6151000.  0.7748742E-01  0.1123255E+01
6128500.  0.7335756E-01  0.1214408E+01
6106000.  0.6891815E-01  0.1298516E+01
6083500.  0.6419446E-01  0.1375384E+01
6061000.  0.5921230E-01  0.1444858E+01
6038500.  0.5399802E-01  0.1506834E+01
6016000.  0.4857821E-01  0.1561235E+01
5993500.  0.4297974E-01  0.1608019E+01
5971000.  0.3722947E-01  0.1647196E+01
5971000.  0.3722947E-01  0.1487547E+01
5937667.  0.2943978E-01  0.1487850E+01
5904333.  0.2168291E-01  0.1475171E+01
5871000.  0.1402330E-01  0.1450999E+01
5837667.  0.6517122E-02  0.1416752E+01
5804333. -0.7866828E-03  0.1373772E+01
5771000. -0.7845267E-02  0.1323300E+01
5771000. -0.7845267E-02  0.1323318E+01
5701000. -0.2217596E-01  0.1278775E+01
5701000. -0.2217596E-01  0.1059414E+01
5667333. -0.2746726E-01  0.9573894E+00
5633667. -0.3241755E-01  0.9204696E+00
5600000. -0.3717634E-01  0.8789092E+00
5600000. -0.3717634E-01  0.8789092E+00
5563518. -0.4206838E-01  0.8289398E+00
5527037. -0.4666083E-01  0.7743835E+00
5490556. -0.5092871E-01  0.7156334E+00
5454074. -0.5484917E-01  0.6530819E+00
5417593. -0.5840178E-01  0.5872684E+00
5381111. -0.6156924E-01  0.5185945E+00
5344630. -0.6433629E-01  0.4475291E+00
5308148. -0.6669082E-01  0.3745524E+00
5271667. -0.6862290E-01  0.3000798E+00
5235185. -0.7012544E-01  0.2245811E+00
5198704. -0.7119375E-01  0.1484956E+00
5162222. -0.7182570E-01  0.7223882E-01
5125741. -0.7202153E-01 -0.3761553E-02
5089259. -0.7178384E-01 -0.7910794E-01
5052778. -0.7111758E-01 -0.1533944E+00
5016296. -0.7002979E-01 -0.2262721E+00
4979815. -0.6852967E-01 -0.2973588E+00
4943333. -0.6662838E-01 -0.3663203E+00
4906852. -0.6433906E-01 -0.4328610E+00
4870370. -0.6167642E-01 -0.4966273E+00
4833889. -0.5865727E-01 -0.5573785E+00
4797407. -0.5529935E-01 -0.6148708E+00
4760926. -0.5162245E-01 -0.6687819E+00
4724444. -0.4764729E-01 -0.7189897E+00
4687963. -0.4339588E-01 -0.7652594E+00
4651482. -0.3889135E-01 -0.8073833E+00
4615000. -0.3415750E-01 -0.8452892E+00
4578518. -0.2921915E-01 -0.8787788E+00
4542037. -0.2410206E-01 -0.9077656E+00
4505556. -0.1883191E-01 -0.9322179E+00
4469074. -0.1343502E-01 -0.9519668E+00
4432593. -0.7938570E-02 -0.9670593E+00
4396111. -0.2368862E-02 -0.9774810E+00
4359630.  0.3246698E-02 -0.9831334E+00
4323148.  0.8881460E-02 -0.9841501E+00
4286667.  0.1450862E-01 -0.9805258E+00
4250185.  0.2010191E-01 -0.9722867E+00
4213704.  0.2563505E-01 -0.9595867E+00
4177222.  0.3108288E-01 -0.9424434E+00
4140741.  0.3641999E-01 -0.9209998E+00
4104259.  0.4162259E-01 -0.8954260E+00
4067778.  0.4666682E-01 -0.8657575E+00
4031296.  0.5153017E-01 -0.8322398E+00
3994815.  0.5619086E-01 -0.7950367E+00
3958333.  0.6062829E-01 -0.7542511E+00
3921852.  0.6482249E-01 -0.7101635E+00
3885370.  0.6875528E-01 -0.6629310E+00
3848889.  0.7240894E-01 -0.6127532E+00
3812407.  0.7576758E-01 -0.5598904E+00
3775926.  0.7881617E-01 -0.5045224E+00
3739444.  0.8154121E-01 -0.4469010E+00
3702963.  0.8393040E-01 -0.3872773E+00
3666482.  0.8597291E-01 -0.3258573E+00
3630000.  0.8765928E-01 -0.2629068E+00
3630000.  0.8765928E-01 -0.2629068E+00
3592500.  0.8901294E-01 -0.1968523E+00
3555000.  0.8997447E-01 -0.1297051E+00
3517500.  0.9053818E-01 -0.6172531E-01
3480000.  0.9069997E-01  0.6818883E-02
3480000.  0.9069997E-01 -0.5389740E-01
3409422.  0.8905729E-01  0.3473127E+00
3338844.  0.8310336E-01  0.7219440E+00
3268266.  0.7321105E-01  0.1056267E+01
3197688.  0.5989090E-01  0.1339168E+01
3127109.  0.4376164E-01  0.1562186E+01
3056531.  0.2552179E-01  0.1719500E+01
2985953.  0.5919351E-02  0.1807845E+01
2915375. -0.1427471E-01  0.1826358E+01
2844797. -0.3429240E-01  0.1776403E+01
2774219. -0.5339207E-01  0.1661337E+01
2703641. -0.7087928E-01  0.1486278E+01
2633062. -0.8612503E-01  0.1257843E+01
2562484. -0.9858005E-01  0.9838782E+00
2491906. -0.1077881E+00  0.6731741E+00
2421328. -0.1133942E+00  0.3352039E+00
2350750. -0.1151507E+00 -0.2015382E-01
2280172. -0.1129205E+00 -0.3828719E+00
2209594. -0.1066773E+00 -0.7430232E+00
2139016. -0.9650305E-01 -0.1091007E+01
2068438. -0.8258331E-01 -0.1417778E+01
1997859. -0.6519970E-01 -0.1715006E+01
1927281. -0.4472197E-01 -0.1975274E+01
1856703. -0.2159570E-01 -0.2192196E+01
1786125.  0.3668907E-02 -0.2360558E+01
1715547.  0.3051070E-01 -0.2476381E+01
1644969.  0.5833159E-01 -0.2536985E+01
1574391.  0.8651115E-01 -0.2541022E+01
1503812.  0.1144218E+00 -0.2488480E+01
1433234.  0.1414420E+00 -0.2380652E+01
1362656.  0.1669727E+00 -0.2220091E+01
1292078.  0.1904494E+00 -0.2010529E+01
1221500.  0.2113548E+00 -0.1756783E+01
1221500.  0.2113548E+00 -0.1395081E+01
1183328.  0.2192962E+00 -0.1254392E+01
1145156.  0.2263708E+00 -0.1105853E+01
1106984.  0.2325338E+00 -0.9502387E+00
1068812.  0.2377453E+00 -0.7883647E+00
1030641.  0.2419702E+00 -0.6210825E+00
 992469.  0.2451787E+00 -0.4492450E+00
 954297.  0.2473464E+00 -0.2737665E+00
 916125.  0.2484540E+00 -0.9553215E-01
 877953.  0.2484877E+00  0.8451482E-01
 839781.  0.2474396E+00  0.2654595E+00
 801609.  0.2453069E+00  0.4463658E+00
 763438.  0.2420929E+00  0.6262984E+00
 725266.  0.2378059E+00  0.8043435E+00
 687094.  0.2324601E+00  0.9796031E+00
 648922.  0.2260748E+00  0.1151159E+01
 610750.  0.2186749E+00  0.1318154E+01
 572578.  0.2102902E+00  0.1479741E+01
 534406.  0.2009556E+00  0.1635097E+01
 496234.  0.1907108E+00  0.1783424E+01
 458062.  0.1796003E+00  0.1923987E+01
 419891.  0.1676729E+00  0.2056055E+01
 381719.  0.1549810E+00  0.2179002E+01
 343547.  0.1415814E+00  0.2292166E+01
 305375.  0.1275345E+00  0.2395009E+01
 267203.  0.1129036E+00  0.2486998E+01
 229031.  0.9775531E-01  0.2567669E+01
 190859.  0.8215852E-01  0.2636635E+01
 152688.  0.6618489E-01  0.2693548E+01
 114516.  0.4990672E-01  0.2738100E+01
  76344.  0.3339924E-01  0.2770065E+01
  38172.  0.1673841E-01  0.2789231E+01
      0.  0.0000000E+00  0.0000000E+00
