       0        0 S        1       1201.70703         66.62218         -1.00000       5301.72314      185    3
6371000.  0.4085225E+00 -0.3218362E+00
6370000.  0.4085728E+00 -0.3194666E+00
6369000.  0.4086228E+00 -0.3170958E+00
6368000.  0.4086724E+00 -0.3147240E+00
6368000.  0.4086724E+00 -0.3147240E+00
6367000.  0.4087216E+00 -0.3123510E+00
6366000.  0.4087704E+00 -0.3099770E+00
6365000.  0.4088189E+00 -0.3076018E+00
6364000.  0.4088670E+00 -0.3052255E+00
6363000.  0.4089147E+00 -0.3028482E+00
6362000.  0.4089620E+00 -0.3004697E+00
6361000.  0.4090090E+00 -0.2980901E+00
6360000.  0.4090556E+00 -0.2957095E+00
6359000.  0.4091018E+00 -0.2933277E+00
6358000.  0.4091477E+00 -0.2909449E+00
6357000.  0.4091932E+00 -0.2885609E+00
6356000.  0.4092383E+00 -0.2861759E+00
6356000.  0.4092383E+00 -0.2588191E+00
6355000.  0.4092788E+00 -0.2571339E+00
6354000.  0.4093190E+00 -0.2554479E+00
6353000.  0.4093590E+00 -0.2537612E+00
6352000.  0.4093987E+00 -0.2520737E+00
6351000.  0.4094381E+00 -0.2503856E+00
6350000.  0.4094773E+00 -0.2486967E+00
6349000.  0.4095162E+00 -0.2470071E+00
6348000.  0.4095548E+00 -0.2453167E+00
6347000.  0.4095932E+00 -0.2436257E+00
6346600.  0.4096085E+00 -0.2429491E+00
6346600.  0.4096085E+00 -0.3043568E+00
6318800.  0.4108695E+00 -0.2734861E+00
6291000.  0.4119936E+00 -0.2415623E+00
6291000.  0.4119936E+00 -0.2553242E+00
6263000.  0.4130417E+00 -0.2214227E+00
6235000.  0.4139382E+00 -0.1863830E+00
6207000.  0.4146782E+00 -0.1501845E+00
6179000.  0.4152565E+00 -0.1128048E+00
6151000.  0.4156680E+00 -0.7422663E-01
6151000.  0.4156680E+00 -0.1271593E+00
6128500.  0.4160842E+00 -0.1086496E+00
6106000.  0.4164357E+00 -0.9053681E-01
6083500.  0.4167239E+00 -0.7281742E-01
6061000.  0.4169503E+00 -0.5548496E-01
6038500.  0.4171161E+00 -0.3853029E-01
6016000.  0.4172227E+00 -0.2195006E-01
5993500.  0.4172715E+00 -0.5738205E-02
5971000.  0.4172636E+00  0.1011555E-01
5971000.  0.4172636E+00 -0.1956295E-01
5937667.  0.4173286E+00 -0.5554400E-02
5904333.  0.4173246E+00  0.6881225E-02
5871000.  0.4172593E+00  0.1787139E-01
5837667.  0.4171400E+00  0.2753292E-01
5804333.  0.4169734E+00  0.3597457E-01
5771000.  0.4167657E+00  0.4328772E-01
5771000.  0.4167657E+00  0.4324553E-01
5701000.  0.4160712E+00  0.8292281E-01
5701000.  0.4160712E+00  0.2675637E-01
5667333.  0.4159430E+00  0.2448276E-01
5633667.  0.4157862E+00  0.3597599E-01
5600000.  0.4155655E+00  0.4722255E-01
5600000.  0.4155655E+00  0.4722255E-01
5563518.  0.4152610E+00  0.5905640E-01
5527037.  0.4148896E+00  0.7062461E-01
5490556.  0.4144526E+00  0.8190419E-01
5454074.  0.4139521E+00  0.9286146E-01
5417593.  0.4133895E+00  0.1035802E+00
5381111.  0.4127663E+00  0.1140137E+00
5344630.  0.4120842E+00  0.1241752E+00
5308148.  0.4113445E+00  0.1341224E+00
5271667.  0.4105486E+00  0.1437826E+00
5235185.  0.4096981E+00  0.1532173E+00
5198704.  0.4087942E+00  0.1624532E+00
5162222.  0.4078381E+00  0.1714021E+00
5125741.  0.4068314E+00  0.1801694E+00
5089259.  0.4057751E+00  0.1887260E+00
5052778.  0.4046705E+00  0.1970349E+00
5016296.  0.4035188E+00  0.2051779E+00
4979815.  0.4023211E+00  0.2130991E+00
4943333.  0.4010786E+00  0.2208128E+00
4906852.  0.3997924E+00  0.2283729E+00
4870370.  0.3984636E+00  0.2356932E+00
4833889.  0.3970934E+00  0.2428456E+00
4797407.  0.3956826E+00  0.2498453E+00
4760926.  0.3942325E+00  0.2566004E+00
4724444.  0.3927441E+00  0.2632206E+00
4687963.  0.3912182E+00  0.2696643E+00
4651482.  0.3896562E+00  0.2758987E+00
4615000.  0.3880587E+00  0.2820041E+00
4578518.  0.3864268E+00  0.2879140E+00
4542037.  0.3847617E+00  0.2936513E+00
4505556.  0.3830640E+00  0.2992622E+00
4469074.  0.3813348E+00  0.3046513E+00
4432593.  0.3795752E+00  0.3098992E+00
4396111.  0.3777859E+00  0.3150150E+00
4359630.  0.3759679E+00  0.3199041E+00
4323148.  0.3741224E+00  0.3246725E+00
4286667.  0.3722499E+00  0.3292819E+00
4250185.  0.3703516E+00  0.3336963E+00
4213704.  0.3684284E+00  0.3379926E+00
4177222.  0.3664811E+00  0.3420955E+00
4140741.  0.3645109E+00  0.3460346E+00
4104259.  0.3625183E+00  0.3498644E+00
4067778.  0.3605045E+00  0.3534546E+00
4031296.  0.3584706E+00  0.3569188E+00
3994815.  0.3564171E+00  0.3602520E+00
3958333.  0.3543453E+00  0.3633417E+00
3921852.  0.3522561E+00  0.3663247E+00
3885370.  0.3501503E+00  0.3691286E+00
3848889.  0.3480291E+00  0.3717269E+00
3812407.  0.3458933E+00  0.3742154E+00
3775926.  0.3437439E+00  0.3764735E+00
3739444.  0.3415820E+00  0.3785632E+00
3702963.  0.3394085E+00  0.3805399E+00
3666482.  0.3372245E+00  0.3822522E+00
3630000.  0.3350310E+00  0.3838390E+00
3630000.  0.3350310E+00  0.3838390E+00
3592500.  0.3327675E+00  0.3852186E+00
3555000.  0.3304966E+00  0.3863578E+00
3517500.  0.3282194E+00  0.3873708E+00
3480000.  0.3259368E+00  0.3881689E+00
3480000.  0.3259368E+00  0.4271791E+00
3409422.  0.3211223E+00  0.4418296E+00
3338844.  0.3161515E+00  0.4554251E+00
3268266.  0.3110353E+00  0.4680983E+00
3197688.  0.3057833E+00  0.4799768E+00
3127109.  0.3004035E+00  0.4911551E+00
3056531.  0.2949034E+00  0.5017215E+00
2985953.  0.2892893E+00  0.5117468E+00
2915375.  0.2835669E+00  0.5212890E+00
2844797.  0.2777412E+00  0.5304042E+00
2774219.  0.2718167E+00  0.5391302E+00
2703641.  0.2657975E+00  0.5475019E+00
2633062.  0.2596873E+00  0.5555552E+00
2562484.  0.2534897E+00  0.5633076E+00
2491906.  0.2472077E+00  0.5707754E+00
2421328.  0.2408446E+00  0.5779714E+00
2350750.  0.2344031E+00  0.5849143E+00
2280172.  0.2278861E+00  0.5916047E+00
2209594.  0.2212964E+00  0.5980475E+00
2139016.  0.2146367E+00  0.6042393E+00
2068438.  0.2079097E+00  0.6101895E+00
1997859.  0.2011182E+00  0.6158820E+00
1927281.  0.1942651E+00  0.6213242E+00
1856703.  0.1873531E+00  0.6265008E+00
1786125.  0.1803853E+00  0.6314127E+00
1715547.  0.1733645E+00  0.6360534E+00
1644969.  0.1662939E+00  0.6404161E+00
1574391.  0.1591765E+00  0.6444941E+00
1503812.  0.1520154E+00  0.6482863E+00
1433234.  0.1448140E+00  0.6517920E+00
1362656.  0.1375753E+00  0.6550186E+00
1292078.  0.1303024E+00  0.6579804E+00
1221500.  0.1229980E+00  0.6606972E+00
1221500.  0.1229980E+00  0.6150158E+00
1183328.  0.1193056E+00  0.6175178E+00
1145156.  0.1155985E+00  0.6199284E+00
1106984.  0.1118772E+00  0.6222546E+00
1068812.  0.1081422E+00  0.6244934E+00
1030641.  0.1043941E+00  0.6266445E+00
 992469.  0.1006334E+00  0.6287162E+00
 954297.  0.9686042E-01  0.6306958E+00
 916125.  0.9307586E-01  0.6325999E+00
 877953.  0.8928014E-01  0.6344169E+00
 839781.  0.8547378E-01  0.6361536E+00
 801609.  0.8165725E-01  0.6378092E+00
 763438.  0.7783116E-01  0.6393822E+00
 725266.  0.7399578E-01  0.6408738E+00
 687094.  0.7015170E-01  0.6422902E+00
 648922.  0.6629937E-01  0.6436231E+00
 610750.  0.6243930E-01  0.6448787E+00
 572578.  0.5857192E-01  0.6460577E+00
 534406.  0.5469771E-01  0.6471596E+00
 496234.  0.5081715E-01  0.6481808E+00
 458062.  0.4693069E-01  0.6491267E+00
 419891.  0.4303891E-01  0.6499923E+00
 381719.  0.3914205E-01  0.6507868E+00
 343547.  0.3524067E-01  0.6515000E+00
 305375.  0.3133524E-01  0.6521407E+00
 267203.  0.2742619E-01  0.6527043E+00
 229031.  0.2351401E-01  0.6531907E+00
 190859.  0.1959913E-01  0.6536044E+00
 152688.  0.1568209E-01  0.6539451E+00
 114516.  0.1176313E-01  0.6542070E+00
  76344.  0.7842852E-02  0.6543896E+00
  38172.  0.3921722E-02  0.6544811E+00
      0.  0.0000000E+00  0.0000000E+00
