       6        0 S        7        173.14999        462.37561         -1.00000        923.11969      185    3
6371000.  0.6422002E-01 -0.5049786E-01
6370000.  0.6422668E-01 -0.3440406E-01
6369000.  0.6423081E-01 -0.1830384E-01
6368000.  0.6423242E-01 -0.2197829E-02
6368000.  0.6423242E-01 -0.2197829E-02
6367000.  0.6423151E-01  0.1391334E-01
6366000.  0.6422806E-01  0.3002903E-01
6365000.  0.6422208E-01  0.4614862E-01
6364000.  0.6421357E-01  0.6227147E-01
6363000.  0.6420253E-01  0.7839695E-01
6362000.  0.6418896E-01  0.9452444E-01
6361000.  0.6417286E-01  0.1106533E+00
6360000.  0.6415422E-01  0.1267829E+00
6359000.  0.6413306E-01  0.1429126E+00
6358000.  0.6410936E-01  0.1590417E+00
6357000.  0.6408313E-01  0.1751697E+00
6356000.  0.6405437E-01  0.1912959E+00
6356000.  0.6405437E-01  0.1135400E+00
6355000.  0.6403563E-01  0.1252598E+00
6354000.  0.6401505E-01  0.1369797E+00
6353000.  0.6399263E-01  0.1486994E+00
6352000.  0.6396837E-01  0.1604185E+00
6351000.  0.6394227E-01  0.1721368E+00
6350000.  0.6391433E-01  0.1838538E+00
6349000.  0.6388456E-01  0.1955693E+00
6348000.  0.6385294E-01  0.2072829E+00
6347000.  0.6381948E-01  0.2189942E+00
6346600.  0.6380559E-01  0.2236781E+00
6346600.  0.6380559E-01  0.1137928E+00
6318800.  0.6279509E-01  0.3497474E+00
6291000.  0.6075273E-01  0.5861075E+00
6291000.  0.6075273E-01  0.5938198E+00
6263000.  0.5761803E-01  0.8317286E+00
6235000.  0.5345360E-01  0.1061712E+01
6207000.  0.4830361E-01  0.1279524E+01
6179000.  0.4223081E-01  0.1480957E+01
6151000.  0.3531630E-01  0.1661886E+01
6151000.  0.3531630E-01  0.1333430E+01
6128500.  0.3046964E-01  0.1409037E+01
6106000.  0.2538037E-01  0.1470786E+01
6083500.  0.2009778E-01  0.1518494E+01
6061000.  0.1467160E-01  0.1552110E+01
6038500.  0.9151481E-02  0.1571718E+01
6016000.  0.3586575E-02  0.1577514E+01
5993500. -0.1974837E-02  0.1569800E+01
5971000. -0.7485768E-02  0.1549004E+01
5971000. -0.7485768E-02  0.1401760E+01
5937667. -0.1460078E-01  0.1315088E+01
5904333. -0.2121955E-01  0.1212584E+01
5871000. -0.2726792E-01  0.1097673E+01
5837667. -0.3268960E-01  0.9735377E+00
5804333. -0.3744426E-01  0.8431060E+00
5771000. -0.4150572E-01  0.7090266E+00
5771000. -0.4150572E-01  0.7090404E+00
5701000. -0.4792339E-01  0.4541484E+00
5701000. -0.4792339E-01  0.3804230E+00
5667333. -0.4955950E-01  0.2453354E+00
5633667. -0.5055729E-01  0.1331631E+00
5600000. -0.5096451E-01  0.2099615E-01
5600000. -0.5096451E-01  0.2099615E-01
5563518. -0.5073984E-01 -0.9909210E-01
5527037. -0.4983529E-01 -0.2162407E+00
5490556. -0.4827167E-01 -0.3290632E+00
5454074. -0.4607755E-01 -0.4362361E+00
5417593. -0.4328870E-01 -0.5366277E+00
5381111. -0.3994698E-01 -0.6291354E+00
5344630. -0.3610053E-01 -0.7128150E+00
5308148. -0.3180184E-01 -0.7869222E+00
5271667. -0.2710826E-01 -0.8506783E+00
5235185. -0.2208026E-01 -0.9036216E+00
5198704. -0.1678106E-01 -0.9453732E+00
5162222. -0.1127573E-01 -0.9755365E+00
5125741. -0.5631011E-02 -0.9941175E+00
5089259.  0.8699014E-04 -0.1001067E+01
5052778.  0.5811404E-02 -0.9964530E+00
5016296.  0.1147726E-01 -0.9806139E+00
4979815.  0.1702077E-01 -0.9538296E+00
4943333.  0.2238080E-01 -0.9165765E+00
4906852.  0.2749889E-01 -0.8694673E+00
4870370.  0.3232040E-01 -0.8130543E+00
4833889.  0.3679401E-01 -0.7481377E+00
4797407.  0.4087359E-01 -0.6755173E+00
4760926.  0.4451701E-01 -0.5959820E+00
4724444.  0.4768763E-01 -0.5105134E+00
4687963.  0.5035399E-01 -0.4200331E+00
4651482.  0.5249017E-01 -0.3255044E+00
4615000.  0.5407597E-01 -0.2279481E+00
4578518.  0.5509683E-01 -0.1283563E+00
4542037.  0.5554400E-01 -0.2774560E-01
4505556.  0.5541452E-01  0.7289331E-01
4469074.  0.5471103E-01  0.1725690E+00
4432593.  0.5344184E-01  0.2703367E+00
4396111.  0.5162039E-01  0.3652913E+00
4359630.  0.4926557E-01  0.4565051E+00
4323148.  0.4640093E-01  0.5432080E+00
4286667.  0.4305473E-01  0.6246000E+00
4250185.  0.3925937E-01  0.6999454E+00
4213704.  0.3505139E-01  0.7686516E+00
4177222.  0.3047043E-01  0.8300794E+00
4140741.  0.2555989E-01  0.8837447E+00
4104259.  0.2036501E-01  0.9292709E+00
4067778.  0.1493409E-01  0.9661784E+00
4031296.  0.9316777E-02  0.9943035E+00
3994815.  0.3564149E-02  0.1013448E+01
3958333. -0.2271920E-02  0.1023385E+01
3921852. -0.8138611E-02  0.1024211E+01
3885370. -0.1398405E-01  0.1015900E+01
3848889. -0.1975572E-01  0.9985421E+00
3812407. -0.2540295E-01  0.9724163E+00
3775926. -0.3087566E-01  0.9376791E+00
3739444. -0.3612581E-01  0.8947081E+00
3702963. -0.4110727E-01  0.8439364E+00
3666482. -0.4577642E-01  0.7857036E+00
3630000. -0.5009229E-01  0.7206045E+00
3630000. -0.5009229E-01  0.7206045E+00
3592500. -0.5412044E-01  0.6470445E+00
3555000. -0.5769738E-01  0.5674094E+00
3517500. -0.6078953E-01  0.4824359E+00
3480000. -0.6336749E-01  0.3928131E+00
3480000. -0.6336749E-01  0.7161749E+00
3409422. -0.6808312E-01  0.1312833E+00
3338844. -0.6628965E-01 -0.4501346E+00
3268266. -0.5830786E-01 -0.9782302E+00
3197688. -0.4496801E-01 -0.1411337E+01
3127109. -0.2750562E-01 -0.1718202E+01
3056531. -0.7439219E-02 -0.1879243E+01
2985953.  0.1356304E-01 -0.1886884E+01
2915375.  0.3381344E-01 -0.1745067E+01
2844797.  0.5172667E-01 -0.1468106E+01
2774219.  0.6592585E-01 -0.1078992E+01
2703641.  0.7532761E-01 -0.6073672E+00
2633062.  0.7920340E-01 -0.8724605E-01
2562484.  0.7721491E-01  0.4452865E+00
2491906.  0.6942443E-01  0.9543913E+00
2421328.  0.5628019E-01  0.1406552E+01
2350750.  0.3858011E-01  0.1772438E+01
2280172.  0.1741682E-01  0.2028388E+01
2209594. -0.5891768E-02  0.2157547E+01
2139016. -0.2988216E-01  0.2150570E+01
2068438. -0.5303053E-01  0.2005922E+01
1997859. -0.7383898E-01  0.1729709E+01
1927281. -0.9091683E-01  0.1335233E+01
1856703. -0.1030574E+00  0.8420786E+00
1786125. -0.1093006E+00  0.2750219E+00
1715547. -0.1089832E+00 -0.3373399E+00
1644969. -0.1017733E+00 -0.9640742E+00
1574391. -0.8768725E-01 -0.1573476E+01
1503812. -0.6708942E-01 -0.2134640E+01
1433234. -0.4067628E-01 -0.2618898E+01
1362656. -0.9442111E-02 -0.3001208E+01
1292078.  0.2536632E-01 -0.3261239E+01
1221500.  0.6230719E-01 -0.3384243E+01
1221500.  0.6230719E-01 -0.2837909E+01
1183328.  0.7934105E-01 -0.2842863E+01
1145156.  0.9631143E-01 -0.2816674E+01
1106984.  0.1130313E+00 -0.2759266E+01
1068812.  0.1293143E+00 -0.2670906E+01
1030641.  0.1449762E+00 -0.2552222E+01
 992469.  0.1598389E+00 -0.2404171E+01
 954297.  0.1737297E+00 -0.2228050E+01
 916125.  0.1864851E+00 -0.2025467E+01
 877953.  0.1979522E+00 -0.1798338E+01
 839781.  0.2079902E+00 -0.1548839E+01
 801609.  0.2164724E+00 -0.1279414E+01
 763438.  0.2232870E+00 -0.9927277E+00
 725266.  0.2283395E+00 -0.6916278E+00
 687094.  0.2315523E+00 -0.3791286E+00
 648922.  0.2328664E+00 -0.5840055E-01
 610750.  0.2322422E+00  0.2673180E+00
 572578.  0.2296598E+00  0.5947171E+00
 534406.  0.2251191E+00  0.9204569E+00
 496234.  0.2186401E+00  0.1241196E+01
 458062.  0.2102624E+00  0.1553665E+01
 419891.  0.2000457E+00  0.1854634E+01
 381719.  0.1880676E+00  0.2141062E+01
 343547.  0.1744244E+00  0.2409956E+01
 305375.  0.1592295E+00  0.2658584E+01
 267203.  0.1426121E+00  0.2884366E+01
 229031.  0.1247163E+00  0.3084975E+01
 190859.  0.1056991E+00  0.3258366E+01
 152688.  0.8572966E-01  0.3402747E+01
 114516.  0.6498536E-01  0.3516603E+01
  76344.  0.4365338E-01  0.3598755E+01
  38172.  0.2192642E-01  0.3648286E+01
      0.  0.0000000E+00  0.0000000E+00
