       5        0 S        6        203.43730        393.53821         -1.00000        932.24261      185    3
6371000. -0.8384518E-01  0.6593994E-01
6370000. -0.8385433E-01  0.5070360E-01
6369000. -0.8386109E-01  0.3546101E-01
6368000. -0.8386546E-01  0.2021260E-01
6368000. -0.8386546E-01  0.2021260E-01
6367000. -0.8386743E-01  0.4958818E-02
6366000. -0.8386701E-01 -0.1029992E-01
6365000. -0.8386420E-01 -0.2556317E-01
6364000. -0.8385899E-01 -0.4083051E-01
6363000. -0.8385138E-01 -0.5610149E-01
6362000. -0.8384138E-01 -0.7137570E-01
6361000. -0.8382898E-01 -0.8665269E-01
6360000. -0.8381417E-01 -0.1019320E+00
6359000. -0.8379698E-01 -0.1172133E+00
6358000. -0.8377738E-01 -0.1324960E+00
6357000. -0.8375538E-01 -0.1477798E+00
6356000. -0.8373099E-01 -0.1630642E+00
6356000. -0.8373099E-01 -0.9166235E-01
6355000. -0.8371573E-01 -0.1027691E+00
6354000. -0.8369873E-01 -0.1138772E+00
6353000. -0.8367998E-01 -0.1249865E+00
6352000. -0.8365949E-01 -0.1360967E+00
6351000. -0.8363726E-01 -0.1472076E+00
6350000. -0.8361328E-01 -0.1583189E+00
6349000. -0.8358756E-01 -0.1694305E+00
6348000. -0.8356009E-01 -0.1805421E+00
6347000. -0.8353088E-01 -0.1916534E+00
6346600. -0.8351871E-01 -0.1960978E+00
6346600. -0.8351871E-01 -0.8936097E-01
6318800. -0.8264083E-01 -0.3135701E+00
6291000. -0.8077911E-01 -0.5398735E+00
6291000. -0.8077911E-01 -0.5468074E+00
6263000. -0.7786808E-01 -0.7775742E+00
6235000. -0.7394961E-01 -0.1004772E+01
6207000. -0.6904592E-01 -0.1225420E+01
6179000. -0.6319241E-01 -0.1436494E+01
6151000. -0.5643788E-01 -0.1634944E+01
6151000. -0.5643788E-01 -0.1307936E+01
6128500. -0.5165381E-01 -0.1399633E+01
6106000. -0.4656450E-01 -0.1480753E+01
6083500. -0.4120776E-01 -0.1551054E+01
6061000. -0.3562210E-01 -0.1610373E+01
6038500. -0.2984646E-01 -0.1658634E+01
6016000. -0.2391994E-01 -0.1695824E+01
5993500. -0.1788156E-01 -0.1721997E+01
5971000. -0.1177001E-01 -0.1737292E+01
5971000. -0.1177001E-01 -0.1570781E+01
5937667. -0.3646709E-02 -0.1531576E+01
5904333.  0.4229034E-02 -0.1476471E+01
5871000.  0.1177985E-01 -0.1407847E+01
5837667.  0.1894119E-01 -0.1327952E+01
5804333.  0.2565986E-01 -0.1238896E+01
5771000.  0.3189269E-01 -0.1142622E+01
5771000.  0.3189269E-01 -0.1142641E+01
5701000.  0.4362932E-01 -0.9865103E+00
5701000.  0.4362932E-01 -0.8201045E+00
5667333.  0.4758792E-01 -0.6896563E+00
5633667.  0.5100975E-01 -0.6082016E+00
5600000.  0.5400149E-01 -0.5229328E+00
5600000.  0.5400149E-01 -0.5229328E+00
5563518.  0.5672292E-01 -0.4270697E+00
5527037.  0.5888741E-01 -0.3285876E+00
5490556.  0.6048265E-01 -0.2283900E+00
5454074.  0.6150142E-01 -0.1273781E+00
5417593.  0.6194161E-01 -0.2646370E-01
5381111.  0.6180627E-01  0.7350133E-01
5344630.  0.6110327E-01  0.1716803E+00
5308148.  0.5984497E-01  0.2673125E+00
5271667.  0.5804830E-01  0.3596128E+00
5235185.  0.5573418E-01  0.4479219E+00
5198704.  0.5292736E-01  0.5316120E+00
5162222.  0.4965610E-01  0.6100185E+00
5125741.  0.4595217E-01  0.6826943E+00
5089259.  0.4184956E-01  0.7491411E+00
5052778.  0.3738558E-01  0.8088955E+00
5016296.  0.3259910E-01  0.8616896E+00
4979815.  0.2753125E-01  0.9071606E+00
4943333.  0.2222442E-01  0.9450914E+00
4906852.  0.1672236E-01  0.9753675E+00
4870370.  0.1106928E-01  0.9977699E+00
4833889.  0.5310569E-02  0.1012327E+01
4797407. -0.5092890E-03  0.1019060E+01
4760926. -0.6344910E-02  0.1017907E+01
4724444. -0.1215210E-01  0.1009112E+01
4687963. -0.1788718E-01  0.9927857E+00
4651482. -0.2350755E-01  0.9690980E+00
4615000. -0.2897220E-01  0.9383900E+00
4578518. -0.3424143E-01  0.9008875E+00
4542037. -0.3927715E-01  0.8569525E+00
4505556. -0.4404391E-01  0.8069999E+00
4469074. -0.4850824E-01  0.7513499E+00
4432593. -0.5263869E-01  0.6905105E+00
4396111. -0.5640713E-01  0.6249377E+00
4359630. -0.5978744E-01  0.5550659E+00
4323148. -0.6275678E-01  0.4814541E+00
4286667. -0.6529500E-01  0.4046005E+00
4250185. -0.6738516E-01  0.3250238E+00
4213704. -0.6901316E-01  0.2432866E+00
4177222. -0.7016820E-01  0.1599125E+00
4140741. -0.7084246E-01  0.7545803E-01
4104259. -0.7103130E-01 -0.9544035E-02
4067778. -0.7073317E-01 -0.9453587E-01
4031296. -0.6994961E-01 -0.1790081E+00
3994815. -0.6868509E-01 -0.2624426E+00
3958333. -0.6694706E-01 -0.3442961E+00
3921852. -0.6474594E-01 -0.4241294E+00
3885370. -0.6209458E-01 -0.5014470E+00
3848889. -0.5900893E-01 -0.5757757E+00
3812407. -0.5550696E-01 -0.6467561E+00
3775926. -0.5160942E-01 -0.7139028E+00
3739444. -0.4733906E-01 -0.7768867E+00
3702963. -0.4272075E-01 -0.8354078E+00
3666482. -0.3778123E-01 -0.8890265E+00
3630000. -0.3254898E-01 -0.9375787E+00
3630000. -0.3254898E-01 -0.9375787E+00
3592500. -0.2689726E-01 -0.9818299E+00
3555000. -0.2100254E-01 -0.1020124E+01
3517500. -0.1490015E-01 -0.1052369E+01
3480000. -0.8626386E-02 -0.1078320E+01
3480000. -0.8626386E-02 -0.1833724E+01
3409422.  0.1175381E-01 -0.1824952E+01
3338844.  0.3136668E-01 -0.1697072E+01
3268266.  0.4896594E-01 -0.1464210E+01
3197688.  0.6348915E-01 -0.1145175E+01
3127109.  0.7410147E-01 -0.7619843E+00
3056531.  0.8022304E-01 -0.3385108E+00
2985953.  0.8154292E-01  0.1008558E+00
2915375.  0.7801774E-01  0.5323517E+00
2844797.  0.6985915E-01  0.9338614E+00
2774219.  0.5751071E-01  0.1285752E+01
2703641.  0.4161654E-01  0.1571543E+01
2633062.  0.2298329E-01  0.1778394E+01
2562484.  0.2539110E-02  0.1897383E+01
2491906. -0.1871235E-01  0.1923671E+01
2421328. -0.3973606E-01  0.1856466E+01
2350750. -0.5951001E-01  0.1698867E+01
2280172. -0.7706665E-01  0.1457547E+01
2209594. -0.9153040E-01  0.1142372E+01
2139016. -0.1021505E+00  0.7659088E+00
2068438. -0.1083277E+00  0.3428644E+00
1997859. -0.1096349E+00 -0.1105200E+00
1927281. -0.1058304E+00 -0.5770764E+00
1856703. -0.9686492E-01 -0.1039369E+01
1786125. -0.8288106E-01 -0.1480304E+01
1715547. -0.6420607E-01 -0.1883706E+01
1644969. -0.4133881E-01 -0.2234858E+01
1574391. -0.1493099E-01 -0.2520964E+01
1503812.  0.1423696E-01 -0.2731555E+01
1433234.  0.4528160E-01 -0.2858775E+01
1362656.  0.7724930E-01 -0.2897613E+01
1292078.  0.1091468E+00 -0.2846001E+01
1221500.  0.1399743E+00 -0.2704824E+01
1221500.  0.1399743E+00 -0.2228994E+01
1183328.  0.1530310E+00 -0.2126312E+01
1145156.  0.1654186E+00 -0.2005782E+01
1106984.  0.1770326E+00 -0.1868237E+01
1068812.  0.1877740E+00 -0.1714638E+01
1030641.  0.1975494E+00 -0.1546085E+01
 992469.  0.2062733E+00 -0.1363772E+01
 954297.  0.2138669E+00 -0.1169028E+01
 916125.  0.2202600E+00 -0.9632535E+00
 877953.  0.2253908E+00 -0.7479613E+00
 839781.  0.2292071E+00 -0.5247136E+00
 801609.  0.2316660E+00 -0.2951494E+00
 763438.  0.2327348E+00 -0.6095767E-01
 725266.  0.2323908E+00  0.1761526E+00
 687094.  0.2306217E+00  0.4144498E+00
 648922.  0.2274257E+00  0.6521623E+00
 610750.  0.2228115E+00  0.8875575E+00
 572578.  0.2167982E+00  0.1118907E+01
 534406.  0.2094152E+00  0.1344510E+01
 496234.  0.2007018E+00  0.1562696E+01
 458062.  0.1907074E+00  0.1771879E+01
 419891.  0.1794908E+00  0.1970500E+01
 381719.  0.1671190E+00  0.2157143E+01
 343547.  0.1536684E+00  0.2330395E+01
 305375.  0.1392230E+00  0.2489017E+01
 267203.  0.1238740E+00  0.2631829E+01
 229031.  0.1077194E+00  0.2757780E+01
 190859.  0.9086290E-01  0.2865968E+01
 152688.  0.7341390E-01  0.2955595E+01
 114516.  0.5548476E-01  0.3025984E+01
  76344.  0.3719287E-01  0.3076612E+01
  38172.  0.1865784E-01  0.3107052E+01
      0.  0.0000000E+00  0.0000000E+00
