      11        0 S       12        100.50300        796.59637         -1.00000        830.55103      185    3
6371000. -0.3865203E-01  0.3037705E-01
6370000. -0.3865454E-01  0.1679672E-02
6369000. -0.3865255E-01 -0.2702692E-01
6368000. -0.3864606E-01 -0.5573938E-01
6368000. -0.3864606E-01 -0.5573938E-01
6367000. -0.3863506E-01 -0.8445438E-01
6366000. -0.3861954E-01 -0.1131686E+00
6365000. -0.3859953E-01 -0.1418786E+00
6364000. -0.3857500E-01 -0.1705811E+00
6363000. -0.3854598E-01 -0.1992728E+00
6362000. -0.3851245E-01 -0.2279503E+00
6361000. -0.3847442E-01 -0.2566102E+00
6360000. -0.3843190E-01 -0.2852493E+00
6359000. -0.3838488E-01 -0.3138642E+00
6358000. -0.3833337E-01 -0.3424515E+00
6357000. -0.3827738E-01 -0.3710078E+00
6356000. -0.3821690E-01 -0.3995300E+00
6356000. -0.3821690E-01 -0.2539250E+00
6355000. -0.3817542E-01 -0.2746425E+00
6354000. -0.3813069E-01 -0.2953432E+00
6353000. -0.3808271E-01 -0.3160255E+00
6352000. -0.3803148E-01 -0.3366874E+00
6351000. -0.3797701E-01 -0.3573273E+00
6350000. -0.3791931E-01 -0.3779435E+00
6349000. -0.3785837E-01 -0.3985341E+00
6348000. -0.3779420E-01 -0.4190974E+00
6347000. -0.3772681E-01 -0.4396317E+00
6346600. -0.3769895E-01 -0.4478369E+00
6346600. -0.3769895E-01 -0.2617835E+00
6318800. -0.3566410E-01 -0.6689251E+00
6291000. -0.3189262E-01 -0.1054480E+01
6291000. -0.3189262E-01 -0.1067938E+01
6263000. -0.2640846E-01 -0.1418977E+01
6235000. -0.1951084E-01 -0.1708142E+01
6207000. -0.1150956E-01 -0.1918680E+01
6179000. -0.2781068E-02 -0.2037148E+01
6151000.  0.6247863E-02 -0.2054236E+01
6151000.  0.6247863E-02 -0.1657802E+01
6128500.  0.1197238E-01 -0.1577023E+01
6106000.  0.1733878E-01 -0.1455627E+01
6083500.  0.2221089E-01 -0.1297884E+01
6061000.  0.2646909E-01 -0.1108862E+01
6038500.  0.3001283E-01 -0.8942649E+00
6016000.  0.3276255E-01 -0.6602444E+00
5993500.  0.3466093E-01 -0.4132263E+00
5971000.  0.3567361E-01 -0.1597422E+00
5971000.  0.3567361E-01 -0.1469288E+00
5937667.  0.3551592E-01  0.2026269E+00
5904333.  0.3361371E-01  0.5176504E+00
5871000.  0.3017992E-01  0.7864936E+00
5837667.  0.2547821E-01  0.1001328E+01
5804333.  0.1980363E-01  0.1157880E+01
5771000.  0.1346569E-01  0.1255028E+01
5771000.  0.1346569E-01  0.1255044E+01
5701000. -0.1125206E-02  0.1359702E+01
5701000. -0.1125206E-02  0.1125104E+01
5667333. -0.6765754E-02  0.1019455E+01
5633667. -0.1197978E-01  0.9537847E+00
5600000. -0.1677823E-01  0.8563234E+00
5600000. -0.1677823E-01  0.8563234E+00
5563518. -0.2130389E-01  0.7194137E+00
5527037. -0.2496670E-01  0.5560846E+00
5490556. -0.2763492E-01  0.3732202E+00
5454074. -0.2921773E-01  0.1782284E+00
5417593. -0.2966760E-01 -0.2120390E-01
5381111. -0.2898080E-01 -0.2175397E+00
5344630. -0.2719603E-01 -0.4035510E+00
5308148. -0.2439146E-01 -0.5726720E+00
5271667. -0.2068118E-01 -0.7190222E+00
5235185. -0.1620960E-01 -0.8378370E+00
5198704. -0.1114568E-01 -0.9254231E+00
5162222. -0.5676145E-02 -0.9791380E+00
5125741.  0.8211873E-06 -0.9978353E+00
5089259.  0.5684284E-02 -0.9814270E+00
5052778.  0.1117542E-01 -0.9310132E+00
5016296.  0.1628608E-01 -0.8489529E+00
4979815.  0.2084354E-01 -0.7384534E+00
4943333.  0.2469664E-01 -0.6036627E+00
4906852.  0.2771981E-01 -0.4494576E+00
4870370.  0.2981698E-01 -0.2811403E+00
4833889.  0.3092355E-01 -0.1044523E+00
4797407.  0.3100831E-01  0.7478470E-01
4760926.  0.3007337E-01  0.2507493E+00
4724444.  0.2815347E-01  0.4178956E+00
4687963.  0.2531430E-01  0.5710185E+00
4651482.  0.2164982E-01  0.7054438E+00
4615000.  0.1727852E-01  0.8172526E+00
4578518.  0.1233975E-01  0.9031653E+00
4542037.  0.6989182E-02  0.9608278E+00
4505556.  0.1392864E-02  0.9888195E+00
4469074. -0.4277080E-02  0.9864686E+00
4432593. -0.9847371E-02  0.9542165E+00
4396111. -0.1515029E-01  0.8932893E+00
4359630. -0.2002654E-01  0.8056511E+00
4323148. -0.2433135E-01  0.6941871E+00
4286667. -0.2793758E-01  0.5623041E+00
4250185. -0.3073955E-01  0.4139563E+00
4213704. -0.3265537E-01  0.2535729E+00
4177222. -0.3362938E-01  0.8578788E-01
4140741. -0.3363295E-01 -0.8456582E-01
4104259. -0.3266514E-01 -0.2526897E+00
4067778. -0.3075242E-01 -0.4138425E+00
4031296. -0.2794739E-01 -0.5636210E+00
3994815. -0.2432717E-01 -0.6979443E+00
3958333. -0.1999090E-01 -0.8131245E+00
3921852. -0.1505723E-01 -0.9061984E+00
3885370. -0.9659791E-02 -0.9746877E+00
3848889. -0.3945193E-02 -0.1016810E+01
3812407.  0.1932912E-02 -0.1031626E+01
3775926.  0.7816326E-02 -0.1018720E+01
3739444.  0.1354756E-01 -0.9785689E+00
3702963.  0.1897345E-01 -0.9123500E+00
3666482.  0.2394927E-01 -0.8217264E+00
3630000.  0.2834229E-01 -0.7091991E+00
3630000.  0.2834229E-01 -0.7091991E+00
3592500.  0.3212693E-01 -0.5737211E+00
3555000.  0.3506394E-01 -0.4218452E+00
3517500.  0.3706883E-01 -0.2577046E+00
3480000.  0.3808210E-01 -0.8565239E-01
3480000.  0.3808210E-01 -0.1738154E+00
3409422.  0.3443597E-01  0.8113202E+00
3338844.  0.2103704E-01  0.1547473E+01
3268266.  0.1762499E-02  0.1851261E+01
3197688. -0.1814786E-01  0.1663364E+01
3127109. -0.3351200E-01  0.1051192E+01
3056531. -0.4048102E-01  0.1815359E+00
2985953. -0.3739174E-01 -0.7267703E+00
2915375. -0.2504276E-01 -0.1456993E+01
2844797. -0.6391885E-02 -0.1843114E+01
2774219.  0.1420784E-01 -0.1803198E+01
2703641.  0.3203087E-01 -0.1352263E+01
2633062.  0.4302590E-01 -0.5939746E+00
2562484.  0.4466773E-01  0.3051866E+00
2491906.  0.3645614E-01  0.1152851E+01
2421328.  0.1998024E-01  0.1770632E+01
2350750. -0.1438594E-02  0.2029269E+01
2280172. -0.2343651E-01  0.1872653E+01
2209594. -0.4148317E-01  0.1327045E+01
2139016. -0.5177218E-01  0.4945492E+00
2068438. -0.5195999E-01 -0.4671758E+00
1997859. -0.4162215E-01 -0.1374773E+01
1927281. -0.2235265E-01 -0.2052918E+01
1856703.  0.2506532E-02 -0.2366084E+01
1786125.  0.2844900E-01 -0.2242799E+01
1715547.  0.5059714E-01 -0.1688593E+01
1644969.  0.6456611E-01 -0.7857459E+00
1574391.  0.6725244E-01  0.3198503E+00
1503812.  0.5741569E-01  0.1442345E+01
1433234.  0.3595876E-01  0.2386025E+01
1362656.  0.5858865E-02  0.2977201E+01
1292078. -0.2823809E-01  0.3092518E+01
1221500. -0.6069818E-01  0.2679569E+01
1221500. -0.6069818E-01  0.2240215E+01
1183328. -0.7302974E-01  0.1858039E+01
1145156. -0.8275890E-01  0.1373642E+01
1106984. -0.8931539E-01  0.8017818E+00
1068812. -0.9222890E-01  0.1609789E+00
1030641. -0.9114995E-01 -0.5270983E+00
 992469. -0.8586605E-01 -0.1238477E+01
 954297. -0.7631367E-01 -0.1947598E+01
 916125. -0.6258447E-01 -0.2628361E+01
 877953. -0.4492600E-01 -0.3254986E+01
 839781. -0.2373677E-01 -0.3803018E+01
 801609.  0.4443442E-03 -0.4250206E+01
 763438.  0.2695309E-01 -0.4577314E+01
 725266.  0.5502316E-01 -0.4768923E+01
 687094.  0.8380653E-01 -0.4813956E+01
 648922.  0.1124037E+00 -0.4706148E+01
 610750.  0.1398929E+00 -0.4444367E+01
 572578.  0.1653613E+00 -0.4032680E+01
 534406.  0.1879356E+00 -0.3480287E+01
 496234.  0.2068128E+00 -0.2801274E+01
 458062.  0.2212875E+00 -0.2014172E+01
 419891.  0.2307774E+00 -0.1141411E+01
 381719.  0.2348446E+00 -0.2084638E+00
 343547.  0.2332110E+00  0.7567656E+00
 305375.  0.2257702E+00  0.1725063E+01
 267203.  0.2125927E+00  0.2666745E+01
 229031.  0.1939259E+00  0.3552702E+01
 190859.  0.1701870E+00  0.4355405E+01
 152688.  0.1419523E+00  0.5049731E+01
 114516.  0.1099369E+00  0.5613862E+01
  76344.  0.7497704E-01  0.6029998E+01
  38172.  0.3800138E-01  0.6284886E+01
      0.  0.0000000E+00  0.0000000E+00
