       8        0 S        9        134.11659        596.94568         -1.00000        858.94202      185    3
6371000.  0.4693694E-01 -0.3689858E-01
6370000.  0.4694119E-01 -0.1731400E-01
6369000.  0.4694237E-01  0.2277873E-02
6368000.  0.4694048E-01  0.2187576E-01
6368000.  0.4694048E-01  0.2187576E-01
6367000.  0.4693550E-01  0.4147838E-01
6366000.  0.4692746E-01  0.6108445E-01
6365000.  0.4691633E-01  0.8069269E-01
6364000.  0.4690212E-01  0.1003018E+00
6363000.  0.4688484E-01  0.1199105E+00
6362000.  0.4686448E-01  0.1395176E+00
6361000.  0.4684104E-01  0.1591217E+00
6360000.  0.4681453E-01  0.1787215E+00
6359000.  0.4678494E-01  0.1983159E+00
6358000.  0.4675227E-01  0.2179034E+00
6357000.  0.4671653E-01  0.2374828E+00
6356000.  0.4667772E-01  0.2570528E+00
6356000.  0.4667772E-01  0.1594924E+00
6355000.  0.4665157E-01  0.1737140E+00
6354000.  0.4662319E-01  0.1879320E+00
6353000.  0.4659258E-01  0.2021454E+00
6352000.  0.4655973E-01  0.2163537E+00
6351000.  0.4652466E-01  0.2305561E+00
6350000.  0.4648736E-01  0.2447521E+00
6349000.  0.4644782E-01  0.2589409E+00
6348000.  0.4640607E-01  0.2731218E+00
6347000.  0.4636209E-01  0.2872942E+00
6346600.  0.4634387E-01  0.2929606E+00
6346600.  0.4634387E-01  0.1630756E+00
6318800.  0.4501207E-01  0.4472008E+00
6291000.  0.4244804E-01  0.7265704E+00
6291000.  0.4244804E-01  0.7361321E+00
6263000.  0.3860816E-01  0.1008407E+01
6235000.  0.3361565E-01  0.1259320E+01
6207000.  0.2758188E-01  0.1480966E+01
6179000.  0.2065196E-01  0.1665951E+01
6151000.  0.1300198E-01  0.1807605E+01
6151000.  0.1300198E-01  0.1455084E+01
6128500.  0.7794871E-02  0.1489981E+01
6106000.  0.2504906E-02  0.1502047E+01
6083500. -0.2787937E-02  0.1491708E+01
6061000. -0.8005741E-02  0.1459700E+01
6038500. -0.1307373E-01  0.1407062E+01
6016000. -0.1792126E-01  0.1335083E+01
5993500. -0.2248264E-01  0.1245283E+01
5971000. -0.2669794E-01  0.1139392E+01
5971000. -0.2669794E-01  0.1032520E+01
5937667. -0.3159506E-01  0.8373022E+00
5904333. -0.3544343E-01  0.6327591E+00
5871000. -0.3821181E-01  0.4255473E+00
5837667. -0.3990194E-01  0.2214847E+00
5804333. -0.4054366E-01  0.2552910E-01
5771000. -0.4019047E-01 -0.1582109E+00
5771000. -0.4019047E-01 -0.1582090E+00
5701000. -0.3640901E-01 -0.5228634E+00
5701000. -0.3640901E-01 -0.4287935E+00
5667333. -0.3384469E-01 -0.5422194E+00
5633667. -0.3066054E-01 -0.6629192E+00
5600000. -0.2686895E-01 -0.7689695E+00
5600000. -0.2686895E-01 -0.7689695E+00
5563518. -0.2218021E-01 -0.8653309E+00
5527037. -0.1699855E-01 -0.9409518E+00
5490556. -0.1144610E-01 -0.9946762E+00
5454074. -0.5650463E-02 -0.1025786E+01
5417593.  0.2583707E-03 -0.1034295E+01
5381111.  0.6151867E-02 -0.1020450E+01
5344630.  0.1190368E-01 -0.9850477E+00
5308148.  0.1739421E-01 -0.9293598E+00
5271667.  0.2251099E-01 -0.8548424E+00
5235185.  0.2715191E-01 -0.7634640E+00
5198704.  0.3122642E-01 -0.6574146E+00
5162222.  0.3465714E-01 -0.5389894E+00
5125741.  0.3738056E-01 -0.4108479E+00
5089259.  0.3934876E-01 -0.2756325E+00
5052778.  0.4052891E-01 -0.1360796E+00
5016296.  0.4090415E-01  0.5052047E-02
4979815.  0.4047322E-01  0.1450501E+00
4943333.  0.3925015E-01  0.2812966E+00
4906852.  0.3726361E-01  0.4113198E+00
4870370.  0.3455597E-01  0.5327637E+00
4833889.  0.3118259E-01  0.6435545E+00
4797407.  0.2720962E-01  0.7418466E+00
4760926.  0.2271388E-01  0.8259432E+00
4724444.  0.1778008E-01  0.8946230E+00
4687963.  0.1249986E-01  0.9468229E+00
4651482.  0.6969861E-02  0.9817839E+00
4615000.  0.1289678E-02  0.9991834E+00
4578518. -0.4439363E-02  0.9988463E+00
4542037. -0.1011596E-01  0.9809954E+00
4505556. -0.1564149E-01  0.9461752E+00
4469074. -0.2092066E-01  0.8950433E+00
4432593. -0.2586280E-01  0.8287113E+00
4396111. -0.3038467E-01  0.7484223E+00
4359630. -0.3440995E-01  0.6555708E+00
4323148. -0.3787176E-01  0.5518700E+00
4286667. -0.4071277E-01  0.4390751E+00
4250185. -0.4288640E-01  0.3190757E+00
4213704. -0.4435704E-01  0.1938899E+00
4177222. -0.4510081E-01  0.6553305E-01
4140741. -0.4510546E-01 -0.6392011E-01
4104259. -0.4437053E-01 -0.1924409E+00
4067778. -0.4290726E-01 -0.3179866E+00
4031296. -0.4073812E-01 -0.4386627E+00
3994815. -0.3789635E-01 -0.5526364E+00
3958333. -0.3442535E-01 -0.6581358E+00
3921852. -0.3037817E-01 -0.7536784E+00
3885370. -0.2581573E-01 -0.8378305E+00
3848889. -0.2080722E-01 -0.9093480E+00
3812407. -0.1542743E-01 -0.9673088E+00
3775926. -0.9756960E-02 -0.1010800E+01
3739444. -0.3880073E-02 -0.1039291E+01
3702963.  0.2116132E-02 -0.1052474E+01
3666482.  0.8143200E-02 -0.1050064E+01
3630000.  0.1411244E-01 -0.1032267E+01
3630000.  0.1411244E-01 -0.1032267E+01
3592500.  0.2009571E-01 -0.9981416E+00
3555000.  0.2583219E-01 -0.9485349E+00
3517500.  0.3123325E-01 -0.8843125E+00
3480000.  0.3621542E-01 -0.8063751E+00
3480000.  0.3621542E-01 -0.1392188E+01
3409422.  0.4827448E-01 -0.7586565E+00
3338844.  0.5265038E-01 -0.2407319E-01
3268266.  0.4885567E-01  0.6979212E+00
3197688.  0.3761794E-01  0.1304059E+01
3127109.  0.2069068E-01  0.1714106E+01
3056531.  0.5491520E-03  0.1879108E+01
2985953. -0.1998153E-01  0.1784914E+01
2915375. -0.3810918E-01  0.1451151E+01
2844797. -0.5142537E-01  0.9263987E+00
2774219. -0.5818561E-01  0.2804863E+00
2703641. -0.5749387E-01 -0.4048918E+00
2633062. -0.4937857E-01 -0.1046146E+01
2562484. -0.3476125E-01 -0.1567170E+01
2491906. -0.1532662E-01 -0.1907394E+01
2421328.  0.6683580E-02 -0.2027632E+01
2350750.  0.2872892E-01 -0.1913476E+01
2280172.  0.4825091E-01 -0.1575973E+01
2209594.  0.6294710E-01 -0.1049804E+01
2139016.  0.7101232E-01 -0.3892181E+00
2068438.  0.7132465E-01  0.3377485E+00
1997859.  0.6356069E-01  0.1056157E+01
1927281.  0.4823220E-01  0.1691441E+01
1856703.  0.2664153E-01  0.2176500E+01
1786125.  0.7639970E-03  0.2457890E+01
1715547. -0.2693161E-01  0.2500633E+01
1644969. -0.5370648E-01  0.2291317E+01
1574391. -0.7679892E-01  0.1839246E+01
1503812. -0.9367340E-01  0.1175599E+01
1433234. -0.1022488E+00  0.3507829E+00
1362656. -0.1010902E+00 -0.5698932E+00
1292078. -0.8954406E-01 -0.1511621E+01
1221500. -0.6780998E-01 -0.2396237E+01
1221500. -0.6780998E-01 -0.2057965E+01
1183328. -0.5431596E-01 -0.2441474E+01
1145156. -0.3862051E-01 -0.2791455E+01
1106984. -0.2094821E-01 -0.3100104E+01
1068812. -0.1568364E-02 -0.3360325E+01
1030641.  0.1920919E-01 -0.3565890E+01
 992469.  0.4104199E-01 -0.3711600E+01
 954297.  0.6355784E-01 -0.3793306E+01
 916125.  0.8636394E-01 -0.3808103E+01
 877953.  0.1090537E+00 -0.3754306E+01
 839781.  0.1312144E+00 -0.3631536E+01
 801609.  0.1524349E+00 -0.3440724E+01
 763438.  0.1723130E+00 -0.3184091E+01
 725266.  0.1904652E+00 -0.2865113E+01
 687094.  0.2065308E+00 -0.2488466E+01
 648922.  0.2201812E+00 -0.2059950E+01
 610750.  0.2311254E+00 -0.1586364E+01
 572578.  0.2391161E+00 -0.1075397E+01
 534406.  0.2439543E+00 -0.5354859E+00
 496234.  0.2454933E+00  0.2433081E-01
 458062.  0.2436419E+00  0.5946103E+00
 419891.  0.2383669E+00  0.1165611E+01
 381719.  0.2296925E+00  0.1727616E+01
 343547.  0.2177023E+00  0.2270888E+01
 305375.  0.2025366E+00  0.2786069E+01
 267203.  0.1843908E+00  0.3264196E+01
 229031.  0.1635123E+00  0.3696945E+01
 190859.  0.1401959E+00  0.4076796E+01
 152688.  0.1147795E+00  0.4397102E+01
 114516.  0.8763610E-01  0.4652230E+01
  76344.  0.5917083E-01  0.4837697E+01
  38172.  0.2981154E-01  0.4950158E+01
      0.  0.0000000E+00  0.0000000E+00
