       6        0 S        7        173.54050        461.33521         -1.00000        921.21051      185    3
6371000.  0.6459191E-01 -0.5079040E-01
6370000.  0.6459862E-01 -0.3467587E-01
6369000.  0.6460280E-01 -0.1855490E-01
6368000.  0.6460445E-01 -0.2428137E-02
6368000.  0.6460445E-01 -0.2428137E-02
6367000.  0.6460356E-01  0.1370380E-01
6366000.  0.6460015E-01  0.2984029E-01
6365000.  0.6459419E-01  0.4598068E-01
6364000.  0.6458571E-01  0.6212437E-01
6363000.  0.6457469E-01  0.7827071E-01
6362000.  0.6456114E-01  0.9441907E-01
6361000.  0.6454505E-01  0.1105688E+00
6360000.  0.6452643E-01  0.1267193E+00
6359000.  0.6450527E-01  0.1428700E+00
6358000.  0.6448158E-01  0.1590201E+00
6357000.  0.6445535E-01  0.1751692E+00
6356000.  0.6442659E-01  0.1913164E+00
6356000.  0.6442659E-01  0.1134880E+00
6355000.  0.6440786E-01  0.1252231E+00
6354000.  0.6438728E-01  0.1369583E+00
6353000.  0.6436486E-01  0.1486934E+00
6352000.  0.6434060E-01  0.1604279E+00
6351000.  0.6431450E-01  0.1721615E+00
6350000.  0.6428655E-01  0.1838940E+00
6349000.  0.6425677E-01  0.1956249E+00
6348000.  0.6422514E-01  0.2073540E+00
6347000.  0.6419168E-01  0.2190809E+00
6346600.  0.6417777E-01  0.2237709E+00
6346600.  0.6417777E-01  0.1137097E+00
6318800.  0.6316695E-01  0.3499837E+00
6291000.  0.6112281E-01  0.5866931E+00
6291000.  0.6112281E-01  0.5944117E+00
6263000.  0.5798464E-01  0.8327228E+00
6235000.  0.5381486E-01  0.1063165E+01
6207000.  0.4865735E-01  0.1281505E+01
6179000.  0.4257455E-01  0.1483544E+01
6151000.  0.3564718E-01  0.1665164E+01
6151000.  0.3564718E-01  0.1336012E+01
6128500.  0.3079064E-01  0.1412056E+01
6106000.  0.2568991E-01  0.1474263E+01
6083500.  0.2039420E-01  0.1522450E+01
6061000.  0.1495318E-01  0.1556561E+01
6038500.  0.9416441E-02  0.1576680E+01
6016000.  0.3833093E-02  0.1582997E+01
5993500. -0.1748613E-02  0.1575811E+01
5971000. -0.7281703E-02  0.1555542E+01
5971000. -0.7281703E-02  0.1407660E+01
5937667. -0.1442904E-01  0.1321540E+01
5904333. -0.2108291E-01  0.1219537E+01
5871000. -0.2716884E-01  0.1105067E+01
5837667. -0.3263022E-01  0.9813043E+00
5804333. -0.3742632E-01  0.8511686E+00
5771000. -0.4153056E-01  0.7173035E+00
5771000. -0.4153056E-01  0.7173174E+00
5701000. -0.4804355E-01  0.4631582E+00
5701000. -0.4804355E-01  0.3878851E+00
5667333. -0.4973554E-01  0.2569466E+00
5633667. -0.5078844E-01  0.1421868E+00
5600000. -0.5123647E-01  0.2743094E-01
5600000. -0.5123647E-01  0.2743094E-01
5563518. -0.5104071E-01 -0.9541584E-01
5527037. -0.5014955E-01 -0.2152187E+00
5490556. -0.4858453E-01 -0.3305446E+00
5454074. -0.4637523E-01 -0.4400213E+00
5417593. -0.4355865E-01 -0.5424860E+00
5381111. -0.4017807E-01 -0.6368026E+00
5344630. -0.3628322E-01 -0.7220017E+00
5308148. -0.3192832E-01 -0.7973211E+00
5271667. -0.2717247E-01 -0.8619702E+00
5235185. -0.2207804E-01 -0.9154782E+00
5198704. -0.1671010E-01 -0.9574725E+00
5162222. -0.1113557E-01 -0.9875525E+00
5125741. -0.5423025E-02 -0.1005741E+01
5089259.  0.3597154E-03 -0.1012008E+01
5052778.  0.6144145E-02 -0.1006430E+01
5016296.  0.1186376E-01 -0.9893730E+00
4979815.  0.1745340E-01 -0.9611460E+00
4943333.  0.2285071E-01 -0.9222509E+00
4906852.  0.2799619E-01 -0.8733367E+00
4870370.  0.3283436E-01 -0.8149831E+00
4833889.  0.3731322E-01 -0.7480291E+00
4797407.  0.4138619E-01 -0.6733084E+00
4760926.  0.4501088E-01 -0.5916492E+00
4724444.  0.4815062E-01 -0.5040616E+00
4687963.  0.5077406E-01 -0.4115063E+00
4651482.  0.5285565E-01 -0.3149796E+00
4615000.  0.5437571E-01 -0.2155327E+00
4578518.  0.5532040E-01 -0.1141892E+00
4542037.  0.5568182E-01 -0.1199351E-01
4505556.  0.5545804E-01  0.9004006E-01
4469074.  0.5465289E-01  0.1908950E+00
4432593.  0.5327594E-01  0.2896100E+00
4396111.  0.5134201E-01  0.3852618E+00
4359630.  0.4887147E-01  0.4769078E+00
4323148.  0.4588940E-01  0.5637748E+00
4286667.  0.4242563E-01  0.6450496E+00
4250185.  0.3851417E-01  0.7199953E+00
4213704.  0.3419320E-01  0.7880249E+00
4177222.  0.2950390E-01  0.8484967E+00
4140741.  0.2449129E-01  0.9009374E+00
4104259.  0.1920208E-01  0.9449802E+00
4067778.  0.1368605E-01  0.9801587E+00
4031296.  0.7994173E-02  0.1006328E+01
3994815.  0.2178797E-02  0.1023306E+01
3958333. -0.3707062E-02  0.1030887E+01
3921852. -0.9609562E-02  0.1029191E+01
3885370. -0.1547595E-01  0.1018218E+01
3848889. -0.2125300E-01  0.9980856E+00
3812407. -0.2688947E-01  0.9690985E+00
3775926. -0.3233485E-01  0.9314440E+00
3739444. -0.3754088E-01  0.8855293E+00
3702963. -0.4246135E-01  0.8318167E+00
3666482. -0.4705276E-01  0.7706800E+00
3630000. -0.5127443E-01  0.7027378E+00
3630000. -0.5127443E-01  0.7027378E+00
3592500. -0.5518905E-01  0.6263548E+00
3555000. -0.5863622E-01  0.5440283E+00
3517500. -0.6158321E-01  0.4565234E+00
3480000. -0.6400166E-01  0.3645575E+00
3480000. -0.6400166E-01  0.6656047E+00
3409422. -0.6814991E-01  0.8026336E-01
3338844. -0.6581091E-01 -0.4968763E+00
3268266. -0.5735335E-01 -0.1016824E+01
3197688. -0.4364452E-01 -0.1438992E+01
3127109. -0.2594431E-01 -0.1733310E+01
3056531. -0.5782566E-02 -0.1881371E+01
2985953.  0.1517393E-01 -0.1876683E+01
2915375.  0.3524988E-01 -0.1724102E+01
2844797.  0.5288147E-01 -0.1438650E+01
2774219.  0.6671982E-01 -0.1043786E+01
2703641.  0.7571337E-01 -0.5693773E+00
2633062.  0.7916660E-01 -0.4942856E-01
2562484.  0.7677291E-01  0.4801927E+00
2491906.  0.6862292E-01  0.9840378E+00
2421328.  0.5518811E-01  0.1429112E+01
2350750.  0.3728331E-01  0.1786688E+01
2280172.  0.1601117E-01  0.2033746E+01
2209594. -0.7307480E-02  0.2154066E+01
2139016. -0.3121303E-01  0.2138886E+01
2068438. -0.5419160E-01  0.1987176E+01
1997859. -0.7476020E-01  0.1705437E+01
1927281. -0.9154681E-01  0.1307242E+01
1856703. -0.1033657E+00  0.8123149E+00
1786125. -0.1092783E+00  0.2454360E+00
1715547. -0.1086427E+00 -0.3649156E+00
1644969. -0.1011460E+00 -0.9880356E+00
1574391. -0.8682066E-01 -0.1592536E+01
1503812. -0.6604321E-01 -0.2147891E+01
1433234. -0.3951791E-01 -0.2625852E+01
1362656. -0.8242059E-02 -0.3001803E+01
1292078.  0.2653919E-01 -0.3255827E+01
1221500.  0.6339001E-01 -0.3373545E+01
1221500.  0.6339001E-01 -0.2828385E+01
1183328.  0.8036007E-01 -0.2831128E+01
1145156.  0.9725410E-01 -0.2802966E+01
1106984.  0.1138866E+00 -0.2743848E+01
1068812.  0.1300728E+00 -0.2654065E+01
1030641.  0.1456303E+00 -0.2534257E+01
 992469.  0.1603827E+00 -0.2385398E+01
 954297.  0.1741595E+00 -0.2208787E+01
 916125.  0.1867988E+00 -0.2006037E+01
 877953.  0.1981497E+00 -0.1779057E+01
 839781.  0.2080735E+00 -0.1530017E+01
 801609.  0.2164450E+00 -0.1261346E+01
 763438.  0.2231543E+00 -0.9756923E+00
 725266.  0.2281085E+00 -0.6758818E+00
 687094.  0.2312313E+00 -0.3649031E+00
 648922.  0.2324653E+00 -0.4589786E-01
 610750.  0.2317718E+00  0.2779270E+00
 572578.  0.2291319E+00  0.6032953E+00
 534406.  0.2245461E+00  0.9269026E+00
 496234.  0.2180350E+00  0.1245444E+01
 458062.  0.2096386E+00  0.1555689E+01
 419891.  0.1994164E+00  0.1854443E+01
 381719.  0.1874459E+00  0.2138703E+01
 343547.  0.1738232E+00  0.2405512E+01
 305375.  0.1586609E+00  0.2652171E+01
 267203.  0.1420874E+00  0.2876134E+01
 229031.  0.1242460E+00  0.3075102E+01
 190859.  0.1052923E+00  0.3247057E+01
 152688.  0.8539436E-01  0.3390230E+01
 114516.  0.6472807E-01  0.3503127E+01
  76344.  0.4347904E-01  0.3584582E+01
  38172.  0.2183840E-01  0.3633691E+01
      0.  0.0000000E+00  0.0000000E+00
