       9        0 S       10        120.51530        664.31702         -1.00000        848.20831      185    3
6371000. -0.4405365E-01  0.3462835E-01
6370000. -0.4405730E-01  0.1187112E-01
6369000. -0.4405738E-01 -0.1089423E-01
6368000. -0.4405388E-01 -0.3366585E-01
6368000. -0.4405388E-01 -0.3366585E-01
6367000. -0.4404681E-01 -0.5644191E-01
6366000. -0.4403616E-01 -0.7922055E-01
6365000. -0.4402194E-01 -0.1019999E+00
6364000. -0.4400414E-01 -0.1247782E+00
6363000. -0.4398277E-01 -0.1475536E+00
6362000. -0.4395782E-01 -0.1703241E+00
6361000. -0.4392930E-01 -0.1930880E+00
6360000. -0.4389721E-01 -0.2158434E+00
6359000. -0.4386155E-01 -0.2385885E+00
6358000. -0.4382231E-01 -0.2613214E+00
6357000. -0.4377951E-01 -0.2840403E+00
6356000. -0.4373315E-01 -0.3067433E+00
6356000. -0.4373315E-01 -0.1924261E+00
6355000. -0.4370165E-01 -0.2089226E+00
6354000. -0.4366756E-01 -0.2254119E+00
6353000. -0.4363089E-01 -0.2418932E+00
6352000. -0.4359163E-01 -0.2583653E+00
6351000. -0.4354978E-01 -0.2748275E+00
6350000. -0.4350535E-01 -0.2912786E+00
6349000. -0.4345834E-01 -0.3077177E+00
6348000. -0.4340875E-01 -0.3241439E+00
6347000. -0.4335659E-01 -0.3405561E+00
6346600. -0.4333500E-01 -0.3471169E+00
6346600. -0.4333500E-01 -0.1975861E+00
6318800. -0.4175601E-01 -0.5255406E+00
6291000. -0.3876183E-01 -0.8443855E+00
6291000. -0.3876183E-01 -0.8554031E+00
6263000. -0.3432321E-01 -0.1160002E+01
6235000. -0.2861335E-01 -0.1432055E+01
6207000. -0.2179916E-01 -0.1660837E+01
6179000. -0.1409246E-01 -0.1836714E+01
6151000. -0.5744331E-02 -0.1951513E+01
6151000. -0.5744331E-02 -0.1572546E+01
6128500. -0.1727756E-03 -0.1577777E+01
6106000.  0.5365272E-02 -0.1553731E+01
6083500.  0.1076842E-01 -0.1501621E+01
6061000.  0.1594038E-01 -0.1423128E+01
6038500.  0.2079160E-01 -0.1320357E+01
6016000.  0.2524057E-01 -0.1195766E+01
5993500.  0.2921502E-01 -0.1052108E+01
5971000.  0.3265286E-01 -0.8923852E+00
5971000.  0.3265286E-01 -0.8094776E+00
5937667.  0.3620901E-01 -0.5490206E+00
5904333.  0.3839741E-01 -0.2882271E+00
5871000.  0.3924017E-01 -0.3601830E-01
5837667.  0.3880229E-01  0.2002050E+00
5804333.  0.3718340E-01  0.4145585E+00
5771000.  0.3451025E-01  0.6026084E+00
5771000.  0.3451025E-01  0.6026130E+00
5701000.  0.2583209E-01  0.9589114E+00
5701000.  0.2583209E-01  0.7906253E+00
5667333.  0.2146718E-01  0.8636831E+00
5633667.  0.1667269E-01  0.9504370E+00
5600000.  0.1147226E-01  0.1012914E+01
5600000.  0.1147226E-01  0.1012914E+01
5563518.  0.5545745E-02  0.1052072E+01
5527037. -0.5194356E-03  0.1061422E+01
5490556. -0.6553731E-02  0.1041411E+01
5454074. -0.1239205E-01  0.9931934E+00
5417593. -0.1787824E-01  0.9188625E+00
5381111. -0.2286992E-01  0.8208799E+00
5344630. -0.2723994E-01  0.7023410E+00
5308148. -0.3088085E-01  0.5667904E+00
5271667. -0.3370566E-01  0.4179821E+00
5235185. -0.3565015E-01  0.2599874E+00
5198704. -0.3667349E-01  0.9694869E-01
5162222. -0.3675866E-01 -0.6701120E-01
5125741. -0.3591207E-01 -0.2278324E+00
5089259. -0.3416277E-01 -0.3816676E+00
5052778. -0.3156140E-01 -0.5248882E+00
5016296. -0.2817793E-01 -0.6543036E+00
4979815. -0.2410004E-01 -0.7670217E+00
4943333. -0.1943019E-01 -0.8606680E+00
4906852. -0.1428332E-01 -0.9334063E+00
4870370. -0.8783312E-02 -0.9837656E+00
4833889. -0.3061106E-02 -0.1010994E+01
4797407.  0.2750217E-02 -0.1014814E+01
4760926.  0.8516326E-02 -0.9953426E+00
4724444.  0.1410636E-01 -0.9534380E+00
4687963.  0.1939478E-01 -0.8902713E+00
4651482.  0.2426433E-01 -0.8074552E+00
4615000.  0.2860851E-01 -0.7070957E+00
4578518.  0.3233323E-01 -0.5915135E+00
4542037.  0.3535874E-01 -0.4633810E+00
4505556.  0.3762149E-01 -0.3255808E+00
4469074.  0.3907458E-01 -0.1810898E+00
4432593.  0.3968861E-01 -0.3304215E-01
4396111.  0.3945211E-01  0.1154595E+00
4359630.  0.3837141E-01  0.2613101E+00
4323148.  0.3647015E-01  0.4015695E+00
4286667.  0.3378862E-01  0.5334006E+00
4250185.  0.3038258E-01  0.6541838E+00
4213704.  0.2632217E-01  0.7616233E+00
4177222.  0.2168974E-01  0.8536114E+00
4140741.  0.1657911E-01  0.9284517E+00
4104259.  0.1109202E-01  0.9848387E+00
4067778.  0.5337850E-02  0.1021655E+01
4031296. -0.5700191E-03  0.1038418E+01
3994815. -0.6515739E-02  0.1034909E+01
3958333. -0.1238347E-01  0.1011189E+01
3921852. -0.1805895E-01  0.9679456E+00
3885370. -0.2343299E-01  0.9060181E+00
3848889. -0.2840160E-01  0.8266319E+00
3812407. -0.3286960E-01  0.7314057E+00
3775926. -0.3675096E-01  0.6220880E+00
3739444. -0.3997102E-01  0.5007718E+00
3702963. -0.4246741E-01  0.3697331E+00
3666482. -0.4419118E-01  0.2313291E+00
3630000. -0.4510743E-01  0.8809868E-01
3630000. -0.4510743E-01  0.8809868E-01
3592500. -0.4518632E-01 -0.6145220E-01
3555000. -0.4438489E-01 -0.2105553E+00
3517500. -0.4271391E-01 -0.3564629E+00
3480000. -0.4020020E-01 -0.4964592E+00
3480000. -0.4020020E-01 -0.8094743E+00
3409422. -0.2749064E-01 -0.1443490E+01
3338844. -0.9310906E-02 -0.1783711E+01
3268266.  0.1076045E-01 -0.1782482E+01
3197688.  0.2897290E-01 -0.1455726E+01
3127109.  0.4206757E-01 -0.8740352E+00
3056531.  0.4779656E-01 -0.1462415E+00
2985953.  0.4523554E-01  0.6012166E+00
2915375.  0.3486031E-01  0.1245351E+01
2844797.  0.1840246E-01  0.1685171E+01
2774219. -0.1475208E-02  0.1855333E+01
2703641. -0.2162093E-01  0.1733595E+01
2633062. -0.3888245E-01  0.1341664E+01
2562484. -0.5056893E-01  0.7399579E+00
2491906. -0.5482908E-01  0.1747539E-01
2421328. -0.5089521E-01 -0.7214814E+00
2350750. -0.3917258E-01 -0.1371885E+01
2280172. -0.2116892E-01 -0.1841901E+01
2209594.  0.7189960E-03 -0.2064534E+01
2139016.  0.2352895E-01 -0.2005693E+01
2068438.  0.4412282E-01 -0.1667952E+01
1997859.  0.5959230E-01 -0.1089684E+01
1927281.  0.6763064E-01 -0.3400725E+00
1856703.  0.6683012E-01  0.4895439E+00
1786125.  0.5686776E-01  0.1296588E+01
1715547.  0.3856358E-01  0.1979300E+01
1644969.  0.1380565E-01  0.2448489E+01
1574391. -0.1464763E-01  0.2637725E+01
1503812. -0.4346482E-01  0.2510899E+01
1433234. -0.6910224E-01  0.2066422E+01
1362656. -0.8819477E-01  0.1337655E+01
1292078. -0.9792666E-01  0.3896560E+00
1221500. -0.9634956E-01 -0.6873667E+00
1221500. -0.9634956E-01 -0.6241240E+00
1183328. -0.9100924E-01 -0.1158988E+01
1145156. -0.8246910E-01 -0.1689950E+01
1106984. -0.7079363E-01 -0.2203287E+01
1068812. -0.5612915E-01 -0.2685464E+01
1030641. -0.3870214E-01 -0.3123483E+01
 992469. -0.1881293E-01 -0.3505270E+01
 954297.  0.3167585E-02 -0.3819860E+01
 916125.  0.2680774E-01 -0.4057824E+01
 877953.  0.5162427E-01 -0.4211395E+01
 839781.  0.7709306E-01 -0.4274749E+01
 801609.  0.1026613E+00 -0.4244133E+01
 763438.  0.1277594E+00 -0.4117970E+01
 725266.  0.1518171E+00 -0.3896924E+01
 687094.  0.1742728E+00 -0.3583897E+01
 648922.  0.1945897E+00 -0.3183975E+01
 610750.  0.2122674E+00 -0.2704327E+01
 572578.  0.2268548E+00 -0.2154045E+01
 534406.  0.2379601E+00 -0.1543945E+01
 496234.  0.2452612E+00 -0.8863356E+00
 458062.  0.2485133E+00 -0.1947091E+00
 419891.  0.2475554E+00  0.5164988E+00
 381719.  0.2423148E+00  0.1232392E+01
 343547.  0.2328089E+00  0.1937714E+01
 305375.  0.2191463E+00  0.2617430E+01
 267203.  0.2015246E+00  0.3256916E+01
 229031.  0.1802266E+00  0.3842364E+01
 190859.  0.1556146E+00  0.4361129E+01
 152688.  0.1281235E+00  0.4801934E+01
 114516.  0.9824859E-01  0.5155158E+01
  76344.  0.6653947E-01  0.5413082E+01
  38172.  0.3358519E-01  0.5569970E+01
      0.  0.0000000E+00  0.0000000E+00
