       7        0 S        8        151.27660        529.23169         -1.00000        893.92578      185    3
6371000. -0.5621738E-01  0.4419939E-01
6370000. -0.5622287E-01  0.2575399E-01
6369000. -0.5622547E-01  0.7301467E-02
6368000. -0.5622517E-01 -0.1115724E-01
6368000. -0.5622517E-01 -0.1115724E-01
6367000. -0.5622197E-01 -0.2962118E-01
6366000. -0.5621587E-01 -0.4808941E-01
6365000. -0.5620687E-01 -0.6656098E-01
6364000. -0.5619497E-01 -0.8503494E-01
6363000. -0.5618018E-01 -0.1035103E+00
6362000. -0.5616248E-01 -0.1219862E+00
6361000. -0.5614188E-01 -0.1404616E+00
6360000. -0.5611838E-01 -0.1589357E+00
6359000. -0.5609199E-01 -0.1774073E+00
6358000. -0.5606269E-01 -0.1958756E+00
6357000. -0.5603050E-01 -0.2143397E+00
6356000. -0.5599540E-01 -0.2327986E+00
6356000. -0.5599540E-01 -0.1420322E+00
6355000. -0.5597206E-01 -0.1554473E+00
6354000. -0.5594661E-01 -0.1688609E+00
6353000. -0.5591905E-01 -0.1822723E+00
6352000. -0.5588939E-01 -0.1956811E+00
6351000. -0.5585762E-01 -0.2090869E+00
6350000. -0.5582375E-01 -0.2224890E+00
6349000. -0.5578778E-01 -0.2358871E+00
6348000. -0.5574970E-01 -0.2492805E+00
6347000. -0.5570952E-01 -0.2626688E+00
6346600. -0.5569286E-01 -0.2680226E+00
6346600. -0.5569286E-01 -0.1441814E+00
6318800. -0.5447686E-01 -0.4133350E+00
6291000. -0.5208835E-01 -0.6806429E+00
6291000. -0.5208835E-01 -0.6896385E+00
6263000. -0.4847081E-01 -0.9547381E+00
6235000. -0.4371734E-01 -0.1205538E+01
6207000. -0.3790432E-01 -0.1435893E+01
6179000. -0.3113475E-01 -0.1639869E+01
6151000. -0.2353705E-01 -0.1811854E+01
6151000. -0.2353705E-01 -0.1456512E+01
6128500. -0.1828052E-01 -0.1517240E+01
6106000. -0.1284270E-01 -0.1559161E+01
6083500. -0.7290056E-02 -0.1582285E+01
6061000. -0.1688645E-02 -0.1586837E+01
6038500.  0.3896672E-02 -0.1573259E+01
6016000.  0.9402917E-02 -0.1542175E+01
5993500.  0.1476962E-01 -0.1494380E+01
5971000.  0.1993942E-01 -0.1430843E+01
5971000.  0.1993942E-01 -0.1295713E+01
5937667.  0.2634606E-01 -0.1150379E+01
5904333.  0.3195149E-01 -0.9902690E+00
5871000.  0.3669161E-01 -0.8204738E+00
5837667.  0.4052818E-01 -0.6456066E+00
5804333.  0.4344573E-01 -0.4697816E+00
5771000.  0.4544874E-01 -0.2966014E+00
5771000.  0.4544874E-01 -0.2966100E+00
5701000.  0.4681574E-01  0.4816623E-01
5701000.  0.4681574E-01  0.3508575E-01
5667333.  0.4625974E-01  0.1734860E+00
5633667.  0.4498468E-01  0.3090690E+00
5600000.  0.4300669E-01  0.4380058E+00
5600000.  0.4300669E-01  0.4380058E+00
5563518.  0.4012083E-01  0.5681256E+00
5527037.  0.3652292E-01  0.6864318E+00
5490556.  0.3228554E-01  0.7912051E+00
5454074.  0.2749054E-01  0.8809424E+00
5417593.  0.2222734E-01  0.9546303E+00
5381111.  0.1659025E-01  0.1011350E+01
5344630.  0.1067852E-01  0.1050560E+01
5308148.  0.4592640E-02  0.1072094E+01
5271667. -0.1565432E-02  0.1075852E+01
5235185. -0.7695151E-02  0.1062228E+01
5198704. -0.1369836E-01  0.1031814E+01
5162222. -0.1948090E-01  0.9852551E+00
5125741. -0.2495323E-01  0.9237197E+00
5089259. -0.3003322E-01  0.8483662E+00
5052778. -0.3464511E-01  0.7605274E+00
5016296. -0.3872222E-01  0.6617984E+00
4979815. -0.4220647E-01  0.5537741E+00
4943333. -0.4504975E-01  0.4381936E+00
4906852. -0.4721387E-01  0.3168830E+00
4870370. -0.4867125E-01  0.1916365E+00
4833889. -0.4940463E-01  0.6433048E-01
4797407. -0.4940749E-01 -0.6321799E-01
4760926. -0.4868365E-01 -0.1891930E+00
4724444. -0.4724704E-01 -0.3118859E+00
4687963. -0.4512130E-01 -0.4296299E+00
4651482. -0.4233931E-01 -0.5408513E+00
4615000. -0.3894236E-01 -0.6441658E+00
4578518. -0.3497971E-01 -0.7382224E+00
4542037. -0.3050790E-01 -0.8218740E+00
4505556. -0.2558913E-01 -0.8941743E+00
4469074. -0.2029102E-01 -0.9541866E+00
4432593. -0.1468604E-01 -0.1001335E+01
4396111. -0.8848890E-02 -0.1035135E+01
4359630. -0.2857673E-02 -0.1055172E+01
4323148.  0.3209003E-02 -0.1061437E+01
4286667.  0.9271897E-02 -0.1053912E+01
4250185.  0.1525272E-01 -0.1032773E+01
4213704.  0.2107445E-01 -0.9984781E+00
4177222.  0.2666328E-01 -0.9514641E+00
4140741.  0.3194798E-01 -0.8924408E+00
4104259.  0.3686249E-01 -0.8222509E+00
4067778.  0.4134489E-01 -0.7417253E+00
4031296.  0.4533935E-01 -0.6519796E+00
3994815.  0.4879611E-01 -0.5541365E+00
3958333.  0.5167220E-01 -0.4493480E+00
3921852.  0.5393149E-01 -0.3389500E+00
3885370.  0.5554569E-01 -0.2242323E+00
3848889.  0.5649383E-01 -0.1065575E+00
3812407.  0.5676296E-01  0.1270671E-01
3775926.  0.5634793E-01  0.1321735E+00
3739444.  0.5525144E-01  0.2504928E+00
3702963.  0.5348389E-01  0.3663502E+00
3666482.  0.5106322E-01  0.4784000E+00
3630000.  0.4801457E-01  0.5854694E+00
3630000.  0.4801457E-01  0.5854694E+00
3592500.  0.4426016E-01  0.6890373E+00
3555000.  0.3991842E-01  0.7848561E+00
3517500.  0.3503792E-01  0.8719341E+00
3480000.  0.2967319E-01  0.9492292E+00
3480000.  0.2967319E-01  0.1583497E+01
3409422.  0.1060700E-01  0.1821337E+01
3338844. -0.9839031E-02  0.1832236E+01
3268266. -0.2918618E-01  0.1626742E+01
3197688. -0.4520243E-01  0.1238010E+01
3127109. -0.5612271E-01  0.7161218E+00
3056531. -0.6080038E-01  0.1216090E+00
2985953. -0.5878625E-01 -0.4813435E+00
2915375. -0.5033283E-01 -0.1031197E+01
2844797. -0.3633392E-01 -0.1474529E+01
2774219. -0.1821003E-01 -0.1770270E+01
2703641.  0.2245602E-02 -0.1892545E+01
2633062.  0.2304449E-01 -0.1832026E+01
2562484.  0.4218573E-01 -0.1595835E+01
2491906.  0.5783353E-01 -0.1206166E+01
2421328.  0.6847019E-01 -0.6978240E+00
2350750.  0.7301858E-01 -0.1149376E+00
2280172.  0.7092462E-01  0.4928497E+00
2209594.  0.6219622E-01  0.1074389E+01
2139016.  0.4739801E-01  0.1580963E+01
2068438.  0.2760390E-01  0.1969895E+01
1997859.  0.4312725E-02  0.2207536E+01
1927281. -0.2066404E-01  0.2271582E+01
1856703. -0.4533844E-01  0.2152455E+01
1786125. -0.6768946E-01  0.1853832E+01
1715547. -0.8580863E-01  0.1392209E+01
1644969. -0.9803580E-01  0.7956478E+00
1574391. -0.1030769E+00  0.1017860E+00
1503812. -0.1000959E+00 -0.6447526E+00
1433234. -0.8877683E-01 -0.1395287E+01
1362656. -0.6935022E-01 -0.2100315E+01
1292078. -0.4258524E-01 -0.2712622E+01
1221500. -0.9747745E-02 -0.3190217E+01
1221500. -0.9747745E-02 -0.2704847E+01
1183328.  0.6987184E-02 -0.2875252E+01
1145156.  0.2463106E-01 -0.3007760E+01
1106984.  0.4294850E-01 -0.3099689E+01
1068812.  0.6168976E-01 -0.3148934E+01
1030641.  0.8059389E-01 -0.3154030E+01
 992469.  0.9939463E-01 -0.3114176E+01
 954297.  0.1178214E+00 -0.3029213E+01
 916125.  0.1356051E+00 -0.2899679E+01
 877953.  0.1524819E+00 -0.2726762E+01
 839781.  0.1681972E+00 -0.2512298E+01
 801609.  0.1825091E+00 -0.2258750E+01
 763438.  0.1951918E+00 -0.1969168E+01
 725266.  0.2060408E+00 -0.1647129E+01
 687094.  0.2148730E+00 -0.1296707E+01
 648922.  0.2215318E+00 -0.9224233E+00
 610750.  0.2258886E+00 -0.5291474E+00
 572578.  0.2278451E+00 -0.1220499E+00
 534406.  0.2273344E+00  0.2934726E+00
 496234.  0.2243228E+00  0.7118675E+00
 458062.  0.2188096E+00  0.1127541E+01
 419891.  0.2108284E+00  0.1534871E+01
 381719.  0.2004450E+00  0.1928414E+01
 343547.  0.1877585E+00  0.2302786E+01
 305375.  0.1728990E+00  0.2652945E+01
 267203.  0.1560261E+00  0.2974109E+01
 229031.  0.1373268E+00  0.3261899E+01
 190859.  0.1170131E+00  0.3512418E+01
 152688.  0.9531927E-01  0.3722240E+01
 114516.  0.7249700E-01  0.3888473E+01
  76344.  0.4881518E-01  0.4008834E+01
  38172.  0.2455396E-01  0.4081603E+01
      0.  0.0000000E+00  0.0000000E+00
