       1        0 S        2        610.07770        131.22980         -1.00000       1543.50403      185    3
6371000. -0.1814247E+00  0.1428334E+00
6370000. -0.1814468E+00  0.1390677E+00
6369000. -0.1814684E+00  0.1353003E+00
6368000. -0.1814893E+00  0.1315313E+00
6368000. -0.1814893E+00  0.1315313E+00
6367000. -0.1815097E+00  0.1277606E+00
6366000. -0.1815294E+00  0.1239883E+00
6365000. -0.1815486E+00  0.1202143E+00
6364000. -0.1815672E+00  0.1164388E+00
6363000. -0.1815851E+00  0.1126616E+00
6362000. -0.1816025E+00  0.1088829E+00
6361000. -0.1816193E+00  0.1051025E+00
6360000. -0.1816355E+00  0.1013207E+00
6359000. -0.1816511E+00  0.9753723E-01
6358000. -0.1816661E+00  0.9375225E-01
6357000. -0.1816806E+00  0.8996575E-01
6356000. -0.1816944E+00  0.8617771E-01
6356000. -0.1816944E+00  0.8820710E-01
6355000. -0.1817080E+00  0.8547321E-01
6354000. -0.1817212E+00  0.8273824E-01
6353000. -0.1817340E+00  0.8000220E-01
6352000. -0.1817463E+00  0.7726509E-01
6351000. -0.1817582E+00  0.7452693E-01
6350000. -0.1817697E+00  0.7178771E-01
6349000. -0.1817808E+00  0.6904744E-01
6348000. -0.1817914E+00  0.6630614E-01
6347000. -0.1818016E+00  0.6356380E-01
6346600. -0.1818056E+00  0.6246657E-01
6346600. -0.1818056E+00  0.1070948E+00
6318800. -0.1821551E+00  0.5285242E-01
6291000. -0.1822646E+00 -0.2922341E-02
6291000. -0.1822646E+00  0.5463202E-03
6263000. -0.1821384E+00 -0.5820272E-01
6235000. -0.1817507E+00 -0.1184650E+00
6207000. -0.1810950E+00 -0.1801962E+00
6179000. -0.1801648E+00 -0.2433496E+00
6151000. -0.1789540E+00 -0.3078665E+00
6151000. -0.1789540E+00 -0.2184466E+00
6128500. -0.1781227E+00 -0.2521518E+00
6106000. -0.1771738E+00 -0.2850868E+00
6083500. -0.1761100E+00 -0.3172483E+00
6061000. -0.1749339E+00 -0.3486342E+00
6038500. -0.1736484E+00 -0.3792473E+00
6016000. -0.1722561E+00 -0.4090866E+00
5993500. -0.1707598E+00 -0.4381519E+00
5971000. -0.1691622E+00 -0.4664505E+00
5971000. -0.1691622E+00 -0.4103689E+00
5937667. -0.1669531E+00 -0.4336410E+00
5904333. -0.1646290E+00 -0.4543393E+00
5871000. -0.1622030E+00 -0.4726788E+00
5837667. -0.1596867E+00 -0.4888589E+00
5804333. -0.1570909E+00 -0.5030674E+00
5771000. -0.1544257E+00 -0.5154661E+00
5771000. -0.1544257E+00 -0.5154572E+00
5701000. -0.1483989E+00 -0.5809768E+00
5701000. -0.1483989E+00 -0.4649511E+00
5667333. -0.1459537E+00 -0.4647609E+00
5633667. -0.1434437E+00 -0.4870379E+00
5600000. -0.1408115E+00 -0.5086901E+00
5600000. -0.1408115E+00 -0.5086901E+00
5563518. -0.1378333E+00 -0.5313872E+00
5527037. -0.1347271E+00 -0.5534053E+00
5490556. -0.1314969E+00 -0.5747268E+00
5454074. -0.1281466E+00 -0.5952935E+00
5417593. -0.1246806E+00 -0.6152237E+00
5381111. -0.1211022E+00 -0.6344594E+00
5344630. -0.1174158E+00 -0.6530161E+00
5308148. -0.1136248E+00 -0.6709686E+00
5271667. -0.1097330E+00 -0.6882282E+00
5235185. -0.1057442E+00 -0.7048755E+00
5198704. -0.1016617E+00 -0.7209482E+00
5162222. -0.9748898E-01 -0.7363350E+00
5125741. -0.9322993E-01 -0.7511731E+00
5089259. -0.8888740E-01 -0.7654368E+00
5052778. -0.8446512E-01 -0.7790805E+00
5016296. -0.7996609E-01 -0.7922041E+00
4979815. -0.7539367E-01 -0.8047509E+00
4943333. -0.7075091E-01 -0.8167424E+00
4906852. -0.6604098E-01 -0.8282475E+00
4870370. -0.6126670E-01 -0.8391718E+00
4833889. -0.5643145E-01 -0.8496056E+00
4797407. -0.5153763E-01 -0.8595731E+00
4760926. -0.4658847E-01 -0.8689801E+00
4724444. -0.4158661E-01 -0.8779497E+00
4687963. -0.3653482E-01 -0.8864512E+00
4651482. -0.3143581E-01 -0.8944544E+00
4615000. -0.2629201E-01 -0.9020515E+00
4578518. -0.2110601E-01 -0.9091837E+00
4542037. -0.1588061E-01 -0.9158804E+00
4505556. -0.1061790E-01 -0.9222053E+00
4469074. -0.5320163E-02 -0.9280627E+00
4432593.  0.9865609E-05 -0.9335535E+00
4396111.  0.5370505E-02 -0.9386883E+00
4359630.  0.1075913E-01 -0.9433861E+00
4323148.  0.1617387E-01 -0.9477709E+00
4286667.  0.2161260E-01 -0.9518028E+00
4250185.  0.2707348E-01 -0.9554662E+00
4213704.  0.3255437E-01 -0.9588503E+00
4177222.  0.3805383E-01 -0.9618888E+00
4140741.  0.4356963E-01 -0.9646273E+00
4104259.  0.4910059E-01 -0.9671250E+00
4067778.  0.5464473E-01 -0.9692829E+00
4031296.  0.6020068E-01 -0.9712145E+00
3994815.  0.6576697E-01 -0.9729293E+00
3958333.  0.7134235E-01 -0.9743477E+00
3921852.  0.7692518E-01 -0.9755970E+00
3885370.  0.8251476E-01 -0.9766381E+00
3848889.  0.8810949E-01 -0.9774645E+00
3812407.  0.9370875E-01 -0.9781677E+00
3775926.  0.9931134E-01 -0.9786764E+00
3739444.  0.1049166E+00 -0.9790532E+00
3702963.  0.1105236E+00 -0.9793573E+00
3666482.  0.1161320E+00 -0.9795050E+00
3630000.  0.1217411E+00 -0.9796081E+00
3630000.  0.1217411E+00 -0.9796081E+00
3592500.  0.1275072E+00 -0.9796119E+00
3555000.  0.1332730E+00 -0.9795496E+00
3517500.  0.1390385E+00 -0.9795173E+00
3480000.  0.1448038E+00 -0.9794841E+00
3480000.  0.1448038E+00 -0.1765692E+01
3409422.  0.1638747E+00 -0.1676831E+01
3338844.  0.1819458E+00 -0.1585293E+01
3268266.  0.1989905E+00 -0.1491586E+01
3197688.  0.2149871E+00 -0.1396163E+01
3127109.  0.2299192E+00 -0.1299409E+01
3056531.  0.2437734E+00 -0.1201673E+01
2985953.  0.2565410E+00 -0.1103258E+01
2915375.  0.2682157E+00 -0.1004438E+01
2844797.  0.2787947E+00 -0.9054601E+00
2774219.  0.2882774E+00 -0.8065519E+00
2703641.  0.2966657E+00 -0.7079224E+00
2633062.  0.3039640E+00 -0.6097625E+00
2562484.  0.3101782E+00 -0.5122607E+00
2491906.  0.3153167E+00 -0.4155917E+00
2421328.  0.3193897E+00 -0.3199250E+00
2350750.  0.3224092E+00 -0.2254171E+00
2280172.  0.3243890E+00 -0.1322311E+00
2209594.  0.3253444E+00 -0.4052174E-01
2139016.  0.3252928E+00  0.4955230E-01
2068438.  0.3242531E+00  0.1378498E+00
1997859.  0.3222457E+00  0.2242061E+00
1927281.  0.3192932E+00  0.3084820E+00
1856703.  0.3154193E+00  0.3905169E+00
1786125.  0.3106497E+00  0.4701711E+00
1715547.  0.3050115E+00  0.5472971E+00
1644969.  0.2985336E+00  0.6217476E+00
1574391.  0.2912465E+00  0.6933754E+00
1503812.  0.2831820E+00  0.7620420E+00
1433234.  0.2743740E+00  0.8276053E+00
1362656.  0.2648575E+00  0.8899345E+00
1292078.  0.2546690E+00  0.9489028E+00
1221500.  0.2438465E+00  0.1004380E+01
1221500.  0.2438465E+00  0.9591784E+00
1183328.  0.2380147E+00  0.9874065E+00
1145156.  0.2320161E+00  0.1014834E+01
1106984.  0.2258555E+00  0.1041463E+01
1068812.  0.2195378E+00  0.1067276E+01
1030641.  0.2130682E+00  0.1092260E+01
 992469.  0.2064511E+00  0.1116422E+01
 954297.  0.1996918E+00  0.1139727E+01
 916125.  0.1927954E+00  0.1162197E+01
 877953.  0.1857669E+00  0.1183800E+01
 839781.  0.1786116E+00  0.1204541E+01
 801609.  0.1713346E+00  0.1224409E+01
 763438.  0.1639415E+00  0.1243395E+01
 725266.  0.1564370E+00  0.1261492E+01
 687094.  0.1488267E+00  0.1278706E+01
 648922.  0.1411160E+00  0.1295013E+01
 610750.  0.1333103E+00  0.1310420E+01
 572578.  0.1254151E+00  0.1324921E+01
 534406.  0.1174356E+00  0.1338511E+01
 496234.  0.1093775E+00  0.1351177E+01
 458062.  0.1012462E+00  0.1362924E+01
 419891.  0.9304760E-01  0.1373738E+01
 381719.  0.8478671E-01  0.1383634E+01
 343547.  0.7646935E-01  0.1392587E+01
 305375.  0.6810112E-01  0.1400612E+01
 267203.  0.5968763E-01  0.1407697E+01
 229031.  0.5123452E-01  0.1413838E+01
 190859.  0.4274742E-01  0.1419042E+01
 152688.  0.3423217E-01  0.1423308E+01
 114516.  0.2569398E-01  0.1426621E+01
  76344.  0.1713881E-01  0.1428978E+01
  38172.  0.8572398E-02  0.1430354E+01
      0.  0.0000000E+00  0.0000000E+00
