       4        0 S        5        242.70711        329.86401         -1.00000        972.79633      185    3
6371000.  0.1001136E+00 -0.7874772E-01
6370000.  0.1001250E+00 -0.6594674E-01
6369000.  0.1001343E+00 -0.5314039E-01
6368000.  0.1001416E+00 -0.4032893E-01
6368000.  0.1001416E+00 -0.4032893E-01
6367000.  0.1001470E+00 -0.2751262E-01
6366000.  0.1001503E+00 -0.1469172E-01
6365000.  0.1001516E+00 -0.1866470E-02
6364000.  0.1001509E+00  0.1096287E-01
6363000.  0.1001481E+00  0.2379603E-01
6362000.  0.1001434E+00  0.3663278E-01
6361000.  0.1001366E+00  0.4947284E-01
6360000.  0.1001279E+00  0.6231597E-01
6359000.  0.1001171E+00  0.7516190E-01
6358000.  0.1001043E+00  0.8801039E-01
6357000.  0.1000895E+00  0.1008612E+00
6356000.  0.1000726E+00  0.1137140E+00
6356000.  0.1000726E+00  0.5659161E-01
6355000.  0.1000630E+00  0.6592882E-01
6354000.  0.1000519E+00  0.7526801E-01
6353000.  0.1000394E+00  0.8460905E-01
6352000.  0.1000254E+00  0.9395181E-01
6351000.  0.1000099E+00  0.1032962E+00
6350000.  0.9999292E-01  0.1126420E+00
6349000.  0.9997451E-01  0.1219891E+00
6348000.  0.9995463E-01  0.1313373E+00
6347000.  0.9993328E-01  0.1406867E+00
6346600.  0.9992433E-01  0.1444266E+00
6346600.  0.9992433E-01  0.5132777E-01
6318800.  0.9928986E-01  0.2400808E+00
6291000.  0.9782492E-01  0.4317256E+00
6291000.  0.9782492E-01  0.4369098E+00
6263000.  0.9547112E-01  0.6343266E+00
6235000.  0.9224983E-01  0.8313911E+00
6207000.  0.8816645E-01  0.1026333E+01
6179000.  0.8323431E-01  0.1217332E+01
6151000.  0.7747485E-01  0.1402500E+01
6151000.  0.7747485E-01  0.1116927E+01
6128500.  0.7336803E-01  0.1207700E+01
6106000.  0.6895290E-01  0.1291488E+01
6083500.  0.6425449E-01  0.1368098E+01
6061000.  0.5929844E-01  0.1437377E+01
6038500.  0.5411082E-01  0.1499221E+01
6016000.  0.4871804E-01  0.1553554E+01
5993500.  0.4314672E-01  0.1600332E+01
5971000.  0.3742353E-01  0.1639565E+01
5971000.  0.3742353E-01  0.1480631E+01
5937667.  0.2966912E-01  0.1481295E+01
5904333.  0.2194541E-01  0.1469060E+01
5871000.  0.1431646E-01  0.1445403E+01
5837667.  0.6838091E-02  0.1411728E+01
5804333. -0.4410259E-03  0.1369366E+01
5771000. -0.7478251E-02  0.1319546E+01
5771000. -0.7478251E-02  0.1319564E+01
5701000. -0.2177458E-01  0.1276315E+01
5701000. -0.2177458E-01  0.1057337E+01
5667333. -0.2712347E-01  0.9762544E+00
5633667. -0.3217534E-01  0.9385557E+00
5600000. -0.3702657E-01  0.8960646E+00
5600000. -0.3702657E-01  0.8960646E+00
5563518. -0.4201361E-01  0.8449388E+00
5527037. -0.4669404E-01  0.7890935E+00
5490556. -0.5104219E-01  0.7289429E+00
5454074. -0.5503460E-01  0.6648905E+00
5417593. -0.5865036E-01  0.5975042E+00
5381111. -0.6187179E-01  0.5271999E+00
5344630. -0.6468336E-01  0.4544652E+00
5308148. -0.6707276E-01  0.3797979E+00
5271667. -0.6903002E-01  0.3036301E+00
5235185. -0.7054806E-01  0.2264470E+00
5198704. -0.7162229E-01  0.1487045E+00
5162222. -0.7225079E-01  0.7083140E-01
5125741. -0.7243406E-01 -0.6730420E-02
5089259. -0.7217506E-01 -0.8357215E-01
5052778. -0.7147914E-01 -0.1592757E+00
5016296. -0.7035382E-01 -0.2334816E+00
4979815. -0.6880885E-01 -0.3057985E+00
4943333. -0.6685597E-01 -0.3758834E+00
4906852. -0.6450893E-01 -0.4434349E+00
4870370. -0.6178315E-01 -0.5080906E+00
4833889. -0.5869611E-01 -0.5696065E+00
4797407. -0.5526627E-01 -0.6277347E+00
4760926. -0.5151421E-01 -0.6821514E+00
4724444. -0.4746137E-01 -0.7327267E+00
4687963. -0.4313057E-01 -0.7792301E+00
4651482. -0.3854569E-01 -0.8214523E+00
4615000. -0.3373133E-01 -0.8593189E+00
4578518. -0.2871307E-01 -0.8926370E+00
4542037. -0.2351743E-01 -0.9213195E+00
4505556. -0.1817085E-01 -0.9453404E+00
4469074. -0.1270036E-01 -0.9645318E+00
4432593. -0.7133831E-02 -0.9789497E+00
4396111. -0.1498245E-02 -0.9885805E+00
4359630.  0.4178341E-02 -0.9933317E+00
4323148.  0.9868690E-02 -0.9933502E+00
4286667.  0.1554544E-01 -0.9886287E+00
4250185.  0.2118177E-01 -0.9792040E+00
4213704.  0.2675095E-01 -0.9652417E+00
4177222.  0.3222736E-01 -0.9467621E+00
4140741.  0.3758522E-01 -0.9239195E+00
4104259.  0.4280040E-01 -0.8968915E+00
4067778.  0.4784876E-01 -0.8657239E+00
4031296.  0.5270753E-01 -0.8306719E+00
3994815.  0.5735479E-01 -0.7919073E+00
3958333.  0.6176978E-01 -0.7495412E+00
3921852.  0.6593246E-01 -0.7038653E+00
3885370.  0.6982464E-01 -0.6550447E+00
3848889.  0.7342862E-01 -0.6032894E+00
3812407.  0.7672860E-01 -0.5488673E+00
3775926.  0.7970966E-01 -0.4919680E+00
3739444.  0.8235852E-01 -0.4328518E+00
3702963.  0.8466308E-01 -0.3717778E+00
3666482.  0.8661282E-01 -0.3089619E+00
3630000.  0.8819859E-01 -0.2446758E+00
3630000.  0.8819859E-01 -0.2446758E+00
3592500.  0.8944108E-01 -0.1773203E+00
3555000.  0.9028400E-01 -0.1089531E+00
3517500.  0.9072219E-01 -0.3983924E-01
3480000.  0.9075205E-01  0.2974443E-01
3480000.  0.9075205E-01 -0.1884232E-01
3409422.  0.8873268E-01  0.3800184E+00
3338844.  0.8243572E-01  0.7509710E+00
3268266.  0.7224713E-01  0.1080584E+01
3197688.  0.5868717E-01  0.1358047E+01
3127109.  0.4238101E-01  0.1575196E+01
3056531.  0.2403038E-01  0.1726486E+01
2985953.  0.4383565E-02  0.1808906E+01
2915375. -0.1579083E-01  0.1821815E+01
2844797. -0.3572942E-01  0.1766765E+01
2774219. -0.5469708E-01  0.1647261E+01
2703641. -0.7200731E-01  0.1468537E+01
2633062. -0.8704010E-01  0.1237283E+01
2562484. -0.9925581E-01  0.9613840E+00
2491906. -0.1082081E+00  0.6496381E+00
2421328. -0.1135517E+00  0.3114933E+00
2350750. -0.1150483E+00 -0.4322345E-01
2280172. -0.1125696E+00 -0.4045594E+00
2209594. -0.1060968E+00 -0.7626807E+00
2139016. -0.9571862E-01 -0.1108094E+01
2068438. -0.8162583E-01 -0.1431873E+01
1997859. -0.6410409E-01 -0.1725809E+01
1927281. -0.4352577E-01 -0.1982612E+01
1856703. -0.2033770E-01 -0.2196018E+01
1786125.  0.4950027E-02 -0.2360930E+01
1715547.  0.3177759E-01 -0.2473478E+01
1644969.  0.5954939E-01 -0.2531079E+01
1574391.  0.8764849E-01 -0.2532467E+01
1503812.  0.1154516E+00 -0.2477697E+01
1433234.  0.1423422E+00 -0.2368115E+01
1362656.  0.1677267E+00 -0.2206307E+01
1292078.  0.1910461E+00 -0.1996021E+01
1221500.  0.2117892E+00 -0.1742075E+01
1221500.  0.2117892E+00 -0.1382435E+01
1183328.  0.2196551E+00 -0.1241835E+01
1145156.  0.2266550E+00 -0.1093489E+01
1106984.  0.2327447E+00 -0.9381686E+00
1068812.  0.2378850E+00 -0.7766847E+00
1030641.  0.2420413E+00 -0.6098830E+00
 992469.  0.2451844E+00 -0.4386101E+00
 954297.  0.2472902E+00 -0.2637738E+00
 916125.  0.2483400E+00 -0.8625168E-01
 877953.  0.2483205E+00  0.9302055E-01
 839781.  0.2472238E+00  0.2731361E+00
 801609.  0.2450478E+00  0.4531675E+00
 763438.  0.2417957E+00  0.6321877E+00
 725266.  0.2374763E+00  0.8092920E+00
 687094.  0.2321036E+00  0.9835913E+00
 648922.  0.2256974E+00  0.1154176E+01
 610750.  0.2182823E+00  0.1320199E+01
 572578.  0.2098882E+00  0.1480820E+01
 534406.  0.2005500E+00  0.1635227E+01
 496234.  0.1903073E+00  0.1782628E+01
 458062.  0.1792042E+00  0.1922298E+01
 419891.  0.1672896E+00  0.2053513E+01
 381719.  0.1546153E+00  0.2175654E+01
 343547.  0.1412381E+00  0.2288067E+01
 305375.  0.1272178E+00  0.2390221E+01
 267203.  0.1126175E+00  0.2481587E+01
 229031.  0.9750328E-01  0.2561707E+01
 190859.  0.8194368E-01  0.2630198E+01
 152688.  0.6600983E-01  0.2686718E+01
 114516.  0.4977356E-01  0.2730960E+01
  76344.  0.3330958E-01  0.2762702E+01
  38172.  0.1669331E-01  0.2781733E+01
      0.  0.0000000E+00  0.0000000E+00
