       0        0 S        1       1208.43604         66.25120         -1.00000       5337.22217      185    3
6371000.  0.4115125E+00 -0.3241935E+00
6370000.  0.4115632E+00 -0.3218296E+00
6369000.  0.4116135E+00 -0.3194646E+00
6368000.  0.4116635E+00 -0.3170985E+00
6368000.  0.4116635E+00 -0.3170985E+00
6367000.  0.4117131E+00 -0.3147313E+00
6366000.  0.4117623E+00 -0.3123629E+00
6365000.  0.4118111E+00 -0.3099935E+00
6364000.  0.4118596E+00 -0.3076230E+00
6363000.  0.4119077E+00 -0.3052514E+00
6362000.  0.4119554E+00 -0.3028786E+00
6361000.  0.4120028E+00 -0.3005048E+00
6360000.  0.4120497E+00 -0.2981299E+00
6359000.  0.4120964E+00 -0.2957539E+00
6358000.  0.4121426E+00 -0.2933768E+00
6357000.  0.4121884E+00 -0.2909986E+00
6356000.  0.4122339E+00 -0.2886193E+00
6356000.  0.4122339E+00 -0.2609418E+00
6355000.  0.4122748E+00 -0.2592611E+00
6354000.  0.4123153E+00 -0.2575797E+00
6353000.  0.4123556E+00 -0.2558975E+00
6352000.  0.4123957E+00 -0.2542146E+00
6351000.  0.4124354E+00 -0.2525310E+00
6350000.  0.4124749E+00 -0.2508467E+00
6349000.  0.4125142E+00 -0.2491616E+00
6348000.  0.4125532E+00 -0.2474759E+00
6347000.  0.4125919E+00 -0.2457894E+00
6346600.  0.4126073E+00 -0.2451145E+00
6346600.  0.4126073E+00 -0.3068242E+00
6318800.  0.4138794E+00 -0.2760724E+00
6291000.  0.4150150E+00 -0.2442694E+00
6291000.  0.4150150E+00 -0.2581625E+00
6263000.  0.4160758E+00 -0.2243864E+00
6235000.  0.4169856E+00 -0.1894735E+00
6207000.  0.4177395E+00 -0.1534033E+00
6179000.  0.4183323E+00 -0.1161529E+00
6151000.  0.4187587E+00 -0.7770494E-01
6151000.  0.4187587E+00 -0.1304536E+00
6128500.  0.4191867E+00 -0.1120324E+00
6106000.  0.4195503E+00 -0.9400718E-01
6083500.  0.4198510E+00 -0.7637439E-01
6061000.  0.4200900E+00 -0.5912753E-01
6038500.  0.4202689E+00 -0.4225750E-01
6016000.  0.4203888E+00 -0.2576093E-01
5993500.  0.4204511E+00 -0.9631765E-02
5971000.  0.4204571E+00  0.6140272E-02
5971000.  0.4204571E+00 -0.2337976E-01
5937667.  0.4205423E+00 -0.9436771E-02
5904333.  0.4205588E+00  0.2935944E-02
5871000.  0.4205143E+00  0.1386554E-01
5837667.  0.4204161E+00  0.2346853E-01
5804333.  0.4202709E+00  0.3185340E-01
5771000.  0.4200849E+00  0.3911128E-01
5771000.  0.4200849E+00  0.3906870E-01
5701000.  0.4194375E+00  0.7853832E-01
5701000.  0.4194375E+00  0.2280087E-01
5667333.  0.4193035E+00  0.2895763E-01
5633667.  0.4191206E+00  0.4073680E-01
5600000.  0.4188744E+00  0.5224689E-01
5600000.  0.4188744E+00  0.5224689E-01
5563518.  0.4185404E+00  0.6435842E-01
5527037.  0.4181378E+00  0.7618967E-01
5490556.  0.4176683E+00  0.8772758E-01
5454074.  0.4171337E+00  0.9892427E-01
5417593.  0.4165357E+00  0.1098782E+00
5381111.  0.4158758E+00  0.1205390E+00
5344630.  0.4151556E+00  0.1309196E+00
5308148.  0.4143767E+00  0.1410782E+00
5271667.  0.4135405E+00  0.1509438E+00
5235185.  0.4126484E+00  0.1605769E+00
5198704.  0.4117017E+00  0.1700073E+00
5162222.  0.4107019E+00  0.1791425E+00
5125741.  0.4096504E+00  0.1880903E+00
5089259.  0.4085481E+00  0.1968266E+00
5052778.  0.4073966E+00  0.2053120E+00
5016296.  0.4061970E+00  0.2136252E+00
4979815.  0.4049505E+00  0.2217133E+00
4943333.  0.4036582E+00  0.2295901E+00
4906852.  0.4023213E+00  0.2373106E+00
4870370.  0.4009409E+00  0.2447889E+00
4833889.  0.3995181E+00  0.2520973E+00
4797407.  0.3980539E+00  0.2592510E+00
4760926.  0.3965495E+00  0.2661600E+00
4724444.  0.3950059E+00  0.2729284E+00
4687963.  0.3934241E+00  0.2795219E+00
4651482.  0.3918051E+00  0.2859066E+00
4615000.  0.3901500E+00  0.2921565E+00
4578518.  0.3884595E+00  0.2982135E+00
4542037.  0.3867350E+00  0.3040937E+00
4505556.  0.3849771E+00  0.3098505E+00
4469074.  0.3831868E+00  0.3153823E+00
4432593.  0.3813654E+00  0.3207781E+00
4396111.  0.3795134E+00  0.3260392E+00
4359630.  0.3776319E+00  0.3310698E+00
4323148.  0.3757219E+00  0.3359888E+00
4286667.  0.3737843E+00  0.3407449E+00
4250185.  0.3718199E+00  0.3453053E+00
4213704.  0.3698298E+00  0.3497543E+00
4177222.  0.3678147E+00  0.3540064E+00
4140741.  0.3657759E+00  0.3580979E+00
4104259.  0.3637138E+00  0.3620813E+00
4067778.  0.3616296E+00  0.3658276E+00
4031296.  0.3595243E+00  0.3694522E+00
3994815.  0.3573987E+00  0.3729484E+00
3958333.  0.3552536E+00  0.3762032E+00
3921852.  0.3530904E+00  0.3793512E+00
3885370.  0.3509094E+00  0.3823275E+00
3848889.  0.3487122E+00  0.3850993E+00
3812407.  0.3464993E+00  0.3877647E+00
3775926.  0.3442717E+00  0.3902061E+00
3739444.  0.3420307E+00  0.3924838E+00
3702963.  0.3397770E+00  0.3946511E+00
3666482.  0.3375116E+00  0.3965637E+00
3630000.  0.3352356E+00  0.3983502E+00
3630000.  0.3352356E+00  0.3983502E+00
3592500.  0.3328860E+00  0.3999441E+00
3555000.  0.3305278E+00  0.4013047E+00
3517500.  0.3281620E+00  0.4025493E+00
3480000.  0.3257893E+00  0.4035842E+00
3480000.  0.3257893E+00  0.4347745E+00
3409422.  0.3208945E+00  0.4487512E+00
3338844.  0.3158506E+00  0.4617176E+00
3268266.  0.3106679E+00  0.4738024E+00
3197688.  0.3053558E+00  0.4851294E+00
3127109.  0.2999218E+00  0.4957898E+00
3056531.  0.2943731E+00  0.5058692E+00
2985953.  0.2887156E+00  0.5154358E+00
2915375.  0.2829548E+00  0.5245451E+00
2844797.  0.2770953E+00  0.5332513E+00
2774219.  0.2711414E+00  0.5415906E+00
2703641.  0.2650971E+00  0.5495959E+00
2633062.  0.2589656E+00  0.5573019E+00
2562484.  0.2527504E+00  0.5647246E+00
2491906.  0.2464545E+00  0.5718796E+00
2421328.  0.2400808E+00  0.5787781E+00
2350750.  0.2336320E+00  0.5854381E+00
2280172.  0.2271107E+00  0.5918597E+00
2209594.  0.2205196E+00  0.5980467E+00
2139016.  0.2138612E+00  0.6039952E+00
2068438.  0.2071383E+00  0.6097141E+00
1997859.  0.2003532E+00  0.6151869E+00
1927281.  0.1935090E+00  0.6204202E+00
1856703.  0.1866081E+00  0.6253987E+00
1786125.  0.1796536E+00  0.6301228E+00
1715547.  0.1726481E+00  0.6345858E+00
1644969.  0.1655947E+00  0.6387807E+00
1574391.  0.1584963E+00  0.6427004E+00
1503812.  0.1513559E+00  0.6463438E+00
1433234.  0.1441768E+00  0.6497100E+00
1362656.  0.1369619E+00  0.6528062E+00
1292078.  0.1297141E+00  0.6556466E+00
1221500.  0.1224363E+00  0.6582510E+00
1221500.  0.1224363E+00  0.6126962E+00
1183328.  0.1187579E+00  0.6151410E+00
1145156.  0.1150652E+00  0.6174964E+00
1106984.  0.1113586E+00  0.6197693E+00
1068812.  0.1076387E+00  0.6219568E+00
1030641.  0.1039060E+00  0.6240584E+00
 992469.  0.1001608E+00  0.6260825E+00
 954297.  0.9640380E-01  0.6280165E+00
 916125.  0.9263542E-01  0.6298769E+00
 877953.  0.8885615E-01  0.6316519E+00
 839781.  0.8506647E-01  0.6333485E+00
 801609.  0.8126687E-01  0.6349658E+00
 763438.  0.7745792E-01  0.6365025E+00
 725266.  0.7363991E-01  0.6379596E+00
 687094.  0.6981338E-01  0.6393433E+00
 648922.  0.6597880E-01  0.6406452E+00
 610750.  0.6213665E-01  0.6418717E+00
 572578.  0.5828738E-01  0.6430234E+00
 534406.  0.5443143E-01  0.6440997E+00
 496234.  0.5056927E-01  0.6450972E+00
 458062.  0.4670136E-01  0.6460211E+00
 419891.  0.4282824E-01  0.6468666E+00
 381719.  0.3895016E-01  0.6476426E+00
 343547.  0.3506768E-01  0.6483392E+00
 305375.  0.3118123E-01  0.6489650E+00
 267203.  0.2729126E-01  0.6495154E+00
 229031.  0.2339821E-01  0.6499904E+00
 190859.  0.1950253E-01  0.6503945E+00
 152688.  0.1560475E-01  0.6507274E+00
 114516.  0.1170509E-01  0.6509832E+00
  76344.  0.7804140E-02  0.6511614E+00
  38172.  0.3902360E-02  0.6512504E+00
      0.  0.0000000E+00  0.0000000E+00
