      10        0 S       11        109.94010        728.21771         -1.00000        834.30029      185    3
6371000.  0.4139541E-01 -0.3253594E-01
6370000.  0.4139850E-01 -0.6846350E-02
6369000.  0.4139756E-01  0.1885198E-01
6368000.  0.4139258E-01  0.4455655E-01
6368000.  0.4139258E-01  0.4455655E-01
6367000.  0.4138357E-01  0.7026487E-01
6366000.  0.4137053E-01  0.9597442E-01
6365000.  0.4135345E-01  0.1216827E+00
6364000.  0.4133233E-01  0.1473873E+00
6363000.  0.4130718E-01  0.1730855E+00
6362000.  0.4127799E-01  0.1987750E+00
6361000.  0.4124478E-01  0.2244532E+00
6360000.  0.4120753E-01  0.2501177E+00
6359000.  0.4116626E-01  0.2757658E+00
6358000.  0.4112097E-01  0.3013952E+00
6357000.  0.4107165E-01  0.3270033E+00
6356000.  0.4101831E-01  0.3525876E+00
6356000.  0.4101831E-01  0.2228100E+00
6355000.  0.4098188E-01  0.2413972E+00
6354000.  0.4094253E-01  0.2599732E+00
6353000.  0.4090027E-01  0.2785366E+00
6352000.  0.4085509E-01  0.2970862E+00
6351000.  0.4080701E-01  0.3156205E+00
6350000.  0.4075601E-01  0.3341384E+00
6349000.  0.4070212E-01  0.3526384E+00
6348000.  0.4064532E-01  0.3711192E+00
6347000.  0.4058561E-01  0.3895796E+00
6346600.  0.4056092E-01  0.3969577E+00
6346600.  0.4056092E-01  0.2293483E+00
6318800.  0.3875564E-01  0.5969261E+00
6291000.  0.3537257E-01  0.9500302E+00
6291000.  0.3537257E-01  0.9623010E+00
6263000.  0.3040397E-01  0.1292402E+01
6235000.  0.2407937E-01  0.1576977E+01
6207000.  0.1662938E-01  0.1802408E+01
6179000.  0.8340376E-02  0.1957034E+01
6151000. -0.4553458E-03  0.2031718E+01
6151000. -0.4553458E-03  0.1638464E+01
6128500. -0.6195509E-02  0.1606271E+01
6106000. -0.1175925E-01  0.1538898E+01
6083500. -0.1702639E-01  0.1438758E+01
6061000. -0.2188641E-01  0.1308891E+01
6038500. -0.2624051E-01  0.1152884E+01
6016000. -0.3000335E-01  0.9747489E+00
5993500. -0.3310436E-01  0.7788233E+00
5971000. -0.3548873E-01  0.5696756E+00
5971000. -0.3548873E-01  0.5177439E+00
5937667. -0.3737568E-01  0.2048241E+00
5904333. -0.3765606E-01 -0.9439908E-01
5871000. -0.3643067E-01 -0.3691860E+00
5837667. -0.3385007E-01 -0.6112654E+00
5804333. -0.3010168E-01 -0.8147545E+00
5771000. -0.2539816E-01 -0.9759814E+00
5771000. -0.2539816E-01 -0.9759920E+00
5701000. -0.1301133E-01 -0.1248840E+01
5701000. -0.1301133E-01 -0.1031856E+01
5667333. -0.7548896E-02 -0.1039046E+01
5633667. -0.1993618E-02 -0.1062246E+01
5600000.  0.3613914E-02 -0.1054095E+01
5600000.  0.3613914E-02 -0.1054095E+01
5563518.  0.9542835E-02 -0.1010935E+01
5527037.  0.1512796E-01 -0.9345468E+00
5490556.  0.2018819E-01 -0.8282129E+00
5454074.  0.2456347E-01 -0.6960328E+00
5417593.  0.2811952E-01 -0.5429703E+00
5381111.  0.3075187E-01 -0.3742964E+00
5344630.  0.3238710E-01 -0.1956833E+00
5308148.  0.3298493E-01 -0.1290666E-01
5271667.  0.3253791E-01  0.1683082E+00
5235185.  0.3107088E-01  0.3424697E+00
5198704.  0.2863910E-01  0.5044654E+00
5162222.  0.2532580E-01  0.6496090E+00
5125741.  0.2123926E-01  0.7739801E+00
5089259.  0.1650792E-01  0.8742796E+00
5052778.  0.1127767E-01  0.9479403E+00
5016296.  0.5705698E-02  0.9933797E+00
4979815. -0.4313591E-04  0.1009685E+01
4943333. -0.5801877E-02  0.9968681E+00
4906852. -0.1140564E-01  0.9557993E+00
4870370. -0.1669675E-01  0.8879338E+00
4833889. -0.2152784E-01  0.7956203E+00
4797407. -0.2576723E-01  0.6817320E+00
4760926. -0.2930037E-01  0.5495932E+00
4724444. -0.3203387E-01  0.4030755E+00
4687963. -0.3389686E-01  0.2462652E+00
4651482. -0.3484266E-01  0.8344648E-01
4615000. -0.3484937E-01 -0.8101189E-01
4578518. -0.3392000E-01 -0.2427832E+00
4542037. -0.3208207E-01 -0.3976884E+00
4505556. -0.2938614E-01 -0.5418395E+00
4469074. -0.2590425E-01 -0.6715994E+00
4432593. -0.2172820E-01 -0.7838620E+00
4396111. -0.1696569E-01 -0.8759740E+00
4359630. -0.1173904E-01 -0.9457164E+00
4323148. -0.6180466E-02 -0.9916622E+00
4286667. -0.4295755E-03 -0.1012819E+01
4250185.  0.5370612E-02 -0.1008834E+01
4213704.  0.1107661E-01 -0.9800736E+00
4177222.  0.1654887E-01 -0.9273239E+00
4140741.  0.2165359E-01 -0.8520508E+00
4104259.  0.2626758E-01 -0.7562263E+00
4067778.  0.3027926E-01 -0.6421537E+00
4031296.  0.3359233E-01 -0.5126897E+00
3994815.  0.3612727E-01 -0.3709303E+00
3958333.  0.3782314E-01 -0.2201812E+00
3921852.  0.3863849E-01 -0.6399632E-01
3885370.  0.3855246E-01  0.9405288E-01
3848889.  0.3756473E-01  0.2503512E+00
3812407.  0.3569532E-01  0.4014162E+00
3775926.  0.3298413E-01  0.5438324E+00
3739444.  0.2948962E-01  0.6744900E+00
3702963.  0.2528747E-01  0.7905746E+00
3666482.  0.2046870E-01  0.8894737E+00
3630000.  0.1513756E-01  0.9691780E+00
3630000.  0.1513756E-01  0.9691780E+00
3592500.  0.9244983E-02  0.1029228E+01
3555000.  0.3067557E-02  0.1065804E+01
3517500. -0.3254330E-02  0.1078231E+01
3480000. -0.9577339E-02  0.1066178E+01
3480000. -0.9577339E-02  0.1811756E+01
3409422. -0.2768387E-01  0.1392937E+01
3338844. -0.3928277E-01  0.6629069E+00
3268266. -0.4187650E-01 -0.2006092E+00
3197688. -0.3506093E-01 -0.1004663E+01
3127109. -0.2046200E-01 -0.1581810E+01
3056531. -0.1271141E-02 -0.1821053E+01
2985953.  0.1848905E-01 -0.1684736E+01
2915375.  0.3479848E-01 -0.1210029E+01
2844797.  0.4441246E-01 -0.4967463E+00
2774219.  0.4543946E-01  0.3149329E+00
2703641.  0.3763862E-01  0.1071923E+01
2633062.  0.2240739E-01  0.1635845E+01
2562484.  0.2485472E-02  0.1906167E+01
2491906. -0.1855985E-01  0.1835703E+01
2421328. -0.3696527E-01  0.1436428E+01
2350750. -0.4941404E-01  0.7755575E+00
2280172. -0.5358560E-01 -0.3694126E-01
2209594. -0.4853073E-01 -0.8669136E+00
2139016. -0.3482110E-01 -0.1577596E+01
2068438. -0.1445868E-01 -0.2050880E+01
1997859.  0.9434371E-02 -0.2205121E+01
1927281.  0.3309132E-01 -0.2007210E+01
1856703.  0.5267381E-01 -0.1477278E+01
1786125.  0.6485089E-01 -0.6857470E+00
1715547.  0.6730682E-01  0.2567118E+00
1644969.  0.5910520E-01  0.1214671E+01
1574391.  0.4086123E-01  0.2046705E+01
1503812.  0.1469943E-01  0.2624835E+01
1433234. -0.1599361E-01  0.2852032E+01
1362656. -0.4699348E-01  0.2675652E+01
1292078. -0.7377583E-01  0.2094965E+01
1221500. -0.9210309E-01  0.1162067E+01
1221500. -0.9210309E-01  0.9426726E+00
1183328. -0.9613504E-01  0.3944241E+00
1145156. -0.9674052E-01 -0.1983570E+00
1106984. -0.9370356E-01 -0.8184376E+00
1068812. -0.8691549E-01 -0.1447334E+01
1030641. -0.7638105E-01 -0.2065856E+01
 992469. -0.6221955E-01 -0.2654770E+01
 954297. -0.4466551E-01 -0.3195237E+01
 916125. -0.2406293E-01 -0.3669542E+01
 877953. -0.8575545E-03 -0.4061526E+01
 839781.  0.2441419E-01 -0.4357165E+01
 801609.  0.5113928E-01 -0.4544979E+01
 763438.  0.7864375E-01 -0.4616391E+01
 725266.  0.1062139E+00 -0.4566051E+01
 687094.  0.1331119E+00 -0.4391984E+01
 648922.  0.1585992E+00 -0.4095695E+01
 610750.  0.1819567E+00 -0.3682183E+01
 572578.  0.2025056E+00 -0.3159802E+01
 534406.  0.2196264E+00 -0.2540065E+01
 496234.  0.2327776E+00 -0.1837353E+01
 458062.  0.2415114E+00 -0.1068508E+01
 419891.  0.2454873E+00 -0.2524349E+00
 381719.  0.2444825E+00  0.5905657E+00
 343547.  0.2383995E+00  0.1439116E+01
 305375.  0.2272698E+00  0.2271576E+01
 267203.  0.2112542E+00  0.3066495E+01
 229031.  0.1906401E+00  0.3803274E+01
 190859.  0.1658339E+00  0.4462767E+01
 152688.  0.1373523E+00  0.5027724E+01
 114516.  0.1058058E+00  0.5483314E+01
  76344.  0.7188808E-01  0.5817543E+01
  38172.  0.3635424E-01  0.6021501E+01
      0.  0.0000000E+00  0.0000000E+00
