       2        0 S        3        396.58401        201.87489         -1.00000       1257.91895      185    3
6371000.  0.1490133E+00 -0.1172673E+00
6370000.  0.1490311E+00 -0.1100729E+00
6369000.  0.1490478E+00 -0.1028754E+00
6368000.  0.1490634E+00 -0.9567480E-01
6368000.  0.1490634E+00 -0.9567480E-01
6367000.  0.1490779E+00 -0.8847120E-01
6366000.  0.1490912E+00 -0.8126466E-01
6365000.  0.1491034E+00 -0.7405520E-01
6364000.  0.1491144E+00 -0.6684288E-01
6363000.  0.1491244E+00 -0.5962777E-01
6362000.  0.1491332E+00 -0.5240991E-01
6361000.  0.1491408E+00 -0.4518935E-01
6360000.  0.1491473E+00 -0.3796615E-01
6359000.  0.1491527E+00 -0.3074037E-01
6358000.  0.1491570E+00 -0.2351205E-01
6357000.  0.1491601E+00 -0.1628125E-01
6356000.  0.1491621E+00 -0.9048019E-02
6356000.  0.1491621E+00 -0.3214415E-01
6355000.  0.1491667E+00 -0.2689990E-01
6354000.  0.1491705E+00 -0.2165383E-01
6353000.  0.1491735E+00 -0.1640599E-01
6352000.  0.1491757E+00 -0.1115638E-01
6351000.  0.1491770E+00 -0.5905054E-02
6350000.  0.1491776E+00 -0.6520228E-03
6349000.  0.1491772E+00  0.4602680E-02
6348000.  0.1491761E+00  0.9859026E-02
6347000.  0.1491742E+00  0.1511699E-01
6346600.  0.1491731E+00  0.1722062E-01
6346600.  0.1491731E+00 -0.4565503E-01
6318800.  0.1491429E+00  0.5998274E-01
6291000.  0.1486459E+00  0.1681995E+00
6291000.  0.1486459E+00  0.1684135E+00
6263000.  0.1476577E+00  0.2816422E+00
6235000.  0.1461673E+00  0.3969367E+00
6207000.  0.1441662E+00  0.5139664E+00
6179000.  0.1416476E+00  0.6323823E+00
6151000.  0.1386062E+00  0.7518030E+00
6151000.  0.1386062E+00  0.5824274E+00
6128500.  0.1364387E+00  0.6446995E+00
6106000.  0.1340551E+00  0.7048380E+00
6083500.  0.1314629E+00  0.7627992E+00
6061000.  0.1286699E+00  0.8185437E+00
6038500.  0.1256840E+00  0.8720458E+00
6016000.  0.1225131E+00  0.9232773E+00
5993500.  0.1191654E+00  0.9722142E+00
5971000.  0.1156489E+00  0.1018849E+01
5971000.  0.1156489E+00  0.9137697E+00
5937667.  0.1107786E+00  0.9469492E+00
5904333.  0.1057498E+00  0.9743949E+00
5871000.  0.1005915E+00  0.9965953E+00
5837667.  0.9532975E-01  0.1014009E+01
5804333.  0.8998829E-01  0.1027072E+01
5771000.  0.8458918E-01  0.1036170E+01
5771000.  0.8458918E-01  0.1036176E+01
5701000.  0.7273814E-01  0.1118815E+01
5701000.  0.7273814E-01  0.9171677E+00
5667333.  0.6795719E-01  0.9002658E+00
5633667.  0.6314472E-01  0.9243132E+00
5600000.  0.5819950E-01  0.9462696E+00
5600000.  0.5819950E-01  0.9462696E+00
5563518.  0.5271868E-01  0.9676213E+00
5527037.  0.4712251E-01  0.9866179E+00
5490556.  0.4142432E-01  0.1003241E+01
5454074.  0.3563782E-01  0.1017421E+01
5417593.  0.2977678E-01  0.1029344E+01
5381111.  0.2385392E-01  0.1038947E+01
5344630.  0.1788282E-01  0.1046275E+01
5308148.  0.1187575E-01  0.1051452E+01
5271667.  0.5845607E-02  0.1054389E+01
5235185. -0.1954073E-03  0.1055222E+01
5198704. -0.6235256E-02  0.1054026E+01
5162222. -0.1226229E-01  0.1050699E+01
5125741. -0.1826452E-01  0.1045444E+01
5089259. -0.2423134E-01  0.1038265E+01
5052778. -0.3015130E-01  0.1029149E+01
5016296. -0.3601407E-01  0.1018247E+01
4979815. -0.4180909E-01  0.1005540E+01
4943333. -0.4752646E-01  0.9910934E+00
4906852. -0.5315630E-01  0.9750212E+00
4870370. -0.5868945E-01  0.9572728E+00
4833889. -0.6411633E-01  0.9379841E+00
4797407. -0.6942870E-01  0.9172205E+00
4760926. -0.7461768E-01  0.8949482E+00
4724444. -0.7967533E-01  0.8713203E+00
4687963. -0.8459374E-01  0.8463598E+00
4651482. -0.8936543E-01  0.8200926E+00
4615000. -0.9398341E-01  0.7926375E+00
4578518. -0.9844079E-01  0.7640015E+00
4542037. -0.1027309E+00  0.7342583E+00
4505556. -0.1068477E+00  0.7034959E+00
4469074. -0.1107855E+00  0.6717085E+00
4432593. -0.1145385E+00  0.6390061E+00
4396111. -0.1181019E+00  0.6054411E+00
4359630. -0.1214706E+00  0.5710315E+00
4323148. -0.1246401E+00  0.5358792E+00
4286667. -0.1276062E+00  0.5000200E+00
4250185. -0.1303652E+00  0.4635008E+00
4213704. -0.1329133E+00  0.4263996E+00
4177222. -0.1352474E+00  0.3887489E+00
4140741. -0.1373644E+00  0.3506123E+00
4104259. -0.1392618E+00  0.3120446E+00
4067778. -0.1409373E+00  0.2730903E+00
4031296. -0.1423887E+00  0.2338049E+00
3994815. -0.1436143E+00  0.1942375E+00
3958333. -0.1446127E+00  0.1544423E+00
3921852. -0.1453826E+00  0.1144592E+00
3885370. -0.1459232E+00  0.7433824E-01
3848889. -0.1462338E+00  0.3413579E-01
3812407. -0.1463140E+00 -0.6128205E-02
3775926. -0.1461636E+00 -0.4637880E-01
3739444. -0.1457829E+00 -0.8659209E-01
3702963. -0.1451720E+00 -0.1267464E+00
3666482. -0.1443316E+00 -0.1667503E+00
3630000. -0.1432626E+00 -0.2066187E+00
3630000. -0.1432626E+00 -0.2066187E+00
3592500. -0.1419263E+00 -0.2473708E+00
3555000. -0.1403510E+00 -0.2878567E+00
3517500. -0.1385381E+00 -0.3281042E+00
3480000. -0.1364891E+00 -0.3680332E+00
3480000. -0.1364891E+00 -0.5184374E+00
3409422. -0.1295718E+00 -0.7277679E+00
3338844. -0.1204256E+00 -0.9206317E+00
3268266. -0.1092389E+00 -0.1095992E+01
3197688. -0.9621018E-01 -0.1253095E+01
3127109. -0.8154453E-01 -0.1391407E+01
3056531. -0.6545252E-01 -0.1510608E+01
2985953. -0.4814659E-01 -0.1610555E+01
2915375. -0.2984009E-01 -0.1691267E+01
2844797. -0.1074529E-01 -0.1752909E+01
2774219.  0.8928030E-02 -0.1795768E+01
2703641.  0.2897391E-01 -0.1820248E+01
2633062.  0.4919180E-01 -0.1826863E+01
2562484.  0.6938644E-01 -0.1816209E+01
2491906.  0.8937052E-01 -0.1788971E+01
2421328.  0.1089645E+00 -0.1745911E+01
2350750.  0.1279976E+00 -0.1687870E+01
2280172.  0.1463089E+00 -0.1615742E+01
2209594.  0.1637475E+00 -0.1530482E+01
2139016.  0.1801735E+00 -0.1433098E+01
2068438.  0.1954584E+00 -0.1324648E+01
1997859.  0.2094858E+00 -0.1206225E+01
1927281.  0.2221511E+00 -0.1078968E+01
1856703.  0.2333631E+00 -0.9440417E+00
1786125.  0.2430434E+00 -0.8026361E+00
1715547.  0.2511269E+00 -0.6559630E+00
1644969.  0.2575620E+00 -0.5052509E+00
1574391.  0.2623109E+00 -0.3517405E+00
1503812.  0.2653495E+00 -0.1966741E+00
1433234.  0.2666674E+00 -0.4130528E-01
1362656.  0.2662681E+00  0.1131229E+00
1292078.  0.2641691E+00  0.2653675E+00
1221500.  0.2604013E+00  0.4141779E+00
1221500.  0.2604013E+00  0.4656833E+00
1183328.  0.2573902E+00  0.5393301E+00
1145156.  0.2539406E+00  0.6119869E+00
1106984.  0.2500590E+00  0.6835403E+00
1068812.  0.2457523E+00  0.7538629E+00
1030641.  0.2410284E+00  0.8228322E+00
 992469.  0.2358954E+00  0.8903517E+00
 954297.  0.2303625E+00  0.9562811E+00
 916125.  0.2244396E+00  0.1020545E+01
 877953.  0.2181370E+00  0.1083012E+01
 839781.  0.2114656E+00  0.1143594E+01
 801609.  0.2044372E+00  0.1202191E+01
 763438.  0.1970641E+00  0.1258703E+01
 725266.  0.1893587E+00  0.1313042E+01
 687094.  0.1813344E+00  0.1365137E+01
 648922.  0.1730050E+00  0.1414882E+01
 610750.  0.1643847E+00  0.1462213E+01
 572578.  0.1554882E+00  0.1507058E+01
 534406.  0.1463307E+00  0.1549343E+01
 496234.  0.1369276E+00  0.1588994E+01
 458062.  0.1272950E+00  0.1625962E+01
 419891.  0.1174495E+00  0.1660174E+01
 381719.  0.1074069E+00  0.1691603E+01
 343547.  0.9718464E-01  0.1720173E+01
 305375.  0.8679978E-01  0.1745862E+01
 267203.  0.7626976E-01  0.1768618E+01
 229031.  0.6561228E-01  0.1788406E+01
 190859.  0.5484517E-01  0.1805208E+01
 152688.  0.4398669E-01  0.1818996E+01
 114516.  0.3305444E-01  0.1829734E+01
  76344.  0.2206704E-01  0.1837403E+01
  38172.  0.1104294E-01  0.1841958E+01
      0.  0.0000000E+00  0.0000000E+00
