       3        0 S        4        304.30170        263.09531         -1.00000       1093.35803      185    3
6371000. -0.1208651E+00  0.9509135E-01
6370000. -0.1208792E+00  0.8523244E-01
6369000. -0.1208918E+00  0.7536933E-01
6368000. -0.1209029E+00  0.6550213E-01
6368000. -0.1209029E+00  0.6550213E-01
6367000. -0.1209124E+00  0.5563097E-01
6366000. -0.1209204E+00  0.4575597E-01
6365000. -0.1209268E+00  0.3587726E-01
6364000. -0.1209316E+00  0.2599497E-01
6363000. -0.1209349E+00  0.1610921E-01
6362000. -0.1209367E+00  0.6220116E-02
6361000. -0.1209369E+00 -0.3672190E-02
6360000. -0.1209355E+00 -0.1356758E-01
6359000. -0.1209326E+00 -0.2346594E-01
6358000. -0.1209282E+00 -0.3336713E-01
6357000. -0.1209221E+00 -0.4327103E-01
6356000. -0.1209146E+00 -0.5317752E-01
6356000. -0.1209146E+00 -0.1342839E-01
6355000. -0.1209119E+00 -0.2062050E-01
6354000. -0.1209081E+00 -0.2781470E-01
6353000. -0.1209032E+00 -0.3501092E-01
6352000. -0.1208971E+00 -0.4220909E-01
6351000. -0.1208899E+00 -0.4940914E-01
6350000. -0.1208816E+00 -0.5661101E-01
6349000. -0.1208721E+00 -0.6381464E-01
6348000. -0.1208616E+00 -0.7101995E-01
6347000. -0.1208498E+00 -0.7822689E-01
6346600. -0.1208448E+00 -0.8111011E-01
6346600. -0.1208448E+00 -0.4412120E-02
6318800. -0.1205097E+00 -0.1497667E+00
6291000. -0.1195335E+00 -0.2981043E+00
6291000. -0.1195335E+00 -0.3009405E+00
6263000. -0.1178728E+00 -0.4551065E+00
6235000. -0.1155310E+00 -0.6107895E+00
6207000. -0.1125031E+00 -0.7671448E+00
6179000. -0.1087882E+00 -0.9232909E+00
6151000. -0.1043892E+00 -0.1078292E+01
6151000. -0.1043892E+00 -0.8511122E+00
6128500. -0.1012426E+00 -0.9302177E+00
6106000. -0.9782361E-01 -0.1005331E+01
6083500. -0.9414659E-01 -0.1076343E+01
6061000. -0.9022616E-01 -0.1143160E+01
6038500. -0.8607727E-01 -0.1205716E+01
6016000. -0.8171508E-01 -0.1263946E+01
5993500. -0.7715496E-01 -0.1317803E+01
5971000. -0.7241239E-01 -0.1367268E+01
5971000. -0.7241239E-01 -0.1231918E+01
5937667. -0.6589535E-01 -0.1257724E+01
5904333. -0.5926692E-01 -0.1274565E+01
5871000. -0.5257218E-01 -0.1283282E+01
5837667. -0.4585135E-01 -0.1284671E+01
5804333. -0.3914055E-01 -0.1279492E+01
5771000. -0.3247273E-01 -0.1268434E+01
5771000. -0.3247273E-01 -0.1268447E+01
5701000. -0.1826498E-01 -0.1313508E+01
5701000. -0.1826498E-01 -0.1083808E+01
5667333. -0.1267618E-01 -0.1040712E+01
5633667. -0.7176896E-02 -0.1043994E+01
5600000. -0.1657409E-02 -0.1043607E+01
5600000. -0.1657409E-02 -0.1043607E+01
5563518.  0.4307414E-02 -0.1039052E+01
5527037.  0.1023444E-01 -0.1030481E+01
5490556.  0.1610111E-01 -0.1017977E+01
5454074.  0.2188513E-01 -0.1001588E+01
5417593.  0.2756476E-01 -0.9816043E+00
5381111.  0.3311997E-01 -0.9580907E+00
5344630.  0.3853066E-01 -0.9312185E+00
5308148.  0.4377861E-01 -0.9012208E+00
5271667.  0.4884582E-01 -0.8681637E+00
5235185.  0.5371569E-01 -0.8322930E+00
5198704.  0.5837251E-01 -0.7938088E+00
5162222.  0.6280171E-01 -0.7527832E+00
5125741.  0.6698932E-01 -0.7095073E+00
5089259.  0.7092316E-01 -0.6641291E+00
5052778.  0.7459137E-01 -0.6167994E+00
5016296.  0.7798365E-01 -0.5677546E+00
4979815.  0.8109045E-01 -0.5171437E+00
4943333.  0.8390348E-01 -0.4651552E+00
4906852.  0.8641531E-01 -0.4119958E+00
4870370.  0.8861978E-01 -0.3578071E+00
4833889.  0.9051144E-01 -0.3027970E+00
4797407.  0.9208623E-01 -0.2471378E+00
4760926.  0.9334079E-01 -0.1909930E+00
4724444.  0.9427293E-01 -0.1345425E+00
4687963.  0.9488133E-01 -0.7795246E-01
4651482.  0.9516569E-01 -0.2138917E-01
4615000.  0.9512660E-01  0.3499614E-01
4578518.  0.9476554E-01  0.9103723E-01
4542037.  0.9408496E-01  0.1465821E+00
4505556.  0.9308802E-01  0.2015031E+00
4469074.  0.9177880E-01  0.2556221E+00
4432593.  0.9016228E-01  0.3088329E+00
4396111.  0.8824389E-01  0.3610103E+00
4359630.  0.8603020E-01  0.4119743E+00
4323148.  0.8352821E-01  0.4616706E+00
4286667.  0.8074570E-01  0.5099524E+00
4250185.  0.7769103E-01  0.5566910E+00
4213704.  0.7437331E-01  0.6018382E+00
4177222.  0.7080192E-01  0.6452380E+00
4140741.  0.6698731E-01  0.6868224E+00
4104259.  0.6293972E-01  0.7265517E+00
4067778.  0.5867054E-01  0.7642393E+00
4031296.  0.5419123E-01  0.7999102E+00
3994815.  0.4951368E-01  0.8334939E+00
3958333.  0.4465012E-01  0.8648307E+00
3921852.  0.3961350E-01  0.8939878E+00
3885370.  0.3441625E-01  0.9208592E+00
3848889.  0.2907205E-01  0.9453734E+00
3812407.  0.2359389E-01  0.9675891E+00
3775926.  0.1799560E-01  0.9873654E+00
3739444.  0.1229086E-01  0.1004737E+01
3702963.  0.6493525E-02  0.1019742E+01
3666482.  0.6174702E-03  0.1032230E+01
3630000. -0.5323349E-02  0.1042322E+01
3630000. -0.5323349E-02  0.1042322E+01
3592500. -0.1148263E-01  0.1050091E+01
3555000. -0.1767990E-01  0.1055244E+01
3517500. -0.2390013E-01  0.1057901E+01
3480000. -0.3012849E-01  0.1057997E+01
3480000. -0.3012849E-01  0.1812211E+01
3409422. -0.4963984E-01  0.1702713E+01
3338844. -0.6769577E-01  0.1550426E+01
3268266. -0.8385528E-01  0.1361361E+01
3197688. -0.9774518E-01  0.1141713E+01
3127109. -0.1090613E+00  0.8977112E+00
3056531. -0.1175680E+00  0.6355413E+00
2985953. -0.1230976E+00  0.3612318E+00
2915375. -0.1255481E+00  0.8059602E-01
2844797. -0.1248804E+00 -0.2008356E+00
2774219. -0.1211147E+00 -0.4778627E+00
2703641. -0.1143270E+00 -0.7456601E+00
2633062. -0.1046441E+00 -0.9998215E+00
2562484. -0.9223993E-01 -0.1236357E+01
2491906. -0.7732949E-01 -0.1451748E+01
2421328. -0.6016437E-01 -0.1642945E+01
2350750. -0.4102720E-01 -0.1807393E+01
2280172. -0.2022627E-01 -0.1943011E+01
2209594.  0.1909835E-02 -0.2048218E+01
2139016.  0.2503765E-01 -0.2121912E+01
2068438.  0.4880433E-01 -0.2163491E+01
1997859.  0.7285311E-01 -0.2172797E+01
1927281.  0.9682719E-01 -0.2150153E+01
1856703.  0.1203767E+00 -0.2096301E+01
1786125.  0.1431619E+00 -0.2012412E+01
1715547.  0.1648585E+00 -0.1900045E+01
1644969.  0.1851612E+00 -0.1761120E+01
1574391.  0.2037881E+00 -0.1597896E+01
1503812.  0.2204842E+00 -0.1412930E+01
1433234.  0.2350234E+00 -0.1209057E+01
1362656.  0.2472135E+00 -0.9893402E+00
1292078.  0.2568968E+00 -0.7570469E+00
1221500.  0.2639529E+00 -0.5156224E+00
1221500.  0.2639529E+00 -0.3207289E+00
1183328.  0.2655073E+00 -0.1978865E+00
1145156.  0.2663222E+00 -0.7394677E-01
1106984.  0.2663922E+00  0.5069578E-01
1068812.  0.2657143E+00  0.1756336E+00
1030641.  0.2642880E+00  0.3004599E+00
 992469.  0.2621150E+00  0.4247966E+00
 954297.  0.2591996E+00  0.5482206E+00
 916125.  0.2555483E+00  0.6703749E+00
 877953.  0.2511700E+00  0.7908486E+00
 839781.  0.2460757E+00  0.9092805E+00
 801609.  0.2402790E+00  0.1025298E+01
 763438.  0.2337954E+00  0.1138534E+01
 725266.  0.2266423E+00  0.1248646E+01
 687094.  0.2188397E+00  0.1355309E+01
 648922.  0.2104093E+00  0.1458171E+01
 610750.  0.2013747E+00  0.1556936E+01
 572578.  0.1917613E+00  0.1651303E+01
 534406.  0.1815964E+00  0.1740984E+01
 496234.  0.1709090E+00  0.1825697E+01
 458062.  0.1597294E+00  0.1905200E+01
 419891.  0.1480901E+00  0.1979236E+01
 381719.  0.1360238E+00  0.2047615E+01
 343547.  0.1235653E+00  0.2110097E+01
 305375.  0.1107505E+00  0.2166522E+01
 267203.  0.9761623E-01  0.2216707E+01
 229031.  0.8420037E-01  0.2260500E+01
 190859.  0.7054155E-01  0.2297787E+01
 152688.  0.5667946E-01  0.2328455E+01
 114516.  0.4265337E-01  0.2352392E+01
  76344.  0.2850423E-01  0.2369525E+01
  38172.  0.1427297E-01  0.2379760E+01
      0.  0.0000000E+00  0.0000000E+00
