      11        0 S       12        100.73620        794.75232         -1.00000        833.11353      185    3
6371000. -0.3854525E-01  0.3029320E-01
6370000. -0.3854777E-01  0.1807249E-02
6369000. -0.3854582E-01 -0.2668787E-01
6368000. -0.3853939E-01 -0.5518885E-01
6368000. -0.3853939E-01 -0.5518885E-01
6367000. -0.3852849E-01 -0.8369238E-01
6366000. -0.3851312E-01 -0.1121952E+00
6365000. -0.3849328E-01 -0.1406939E+00
6364000. -0.3846896E-01 -0.1691853E+00
6363000. -0.3844016E-01 -0.1976660E+00
6362000. -0.3840690E-01 -0.2261328E+00
6361000. -0.3836918E-01 -0.2545823E+00
6360000. -0.3832699E-01 -0.2830112E+00
6359000. -0.3828033E-01 -0.3114163E+00
6358000. -0.3822923E-01 -0.3397941E+00
6357000. -0.3817367E-01 -0.3681415E+00
6356000. -0.3811366E-01 -0.3964551E+00
6356000. -0.3811366E-01 -0.2519373E+00
6355000. -0.3807250E-01 -0.2725034E+00
6354000. -0.3802812E-01 -0.2930530E+00
6353000. -0.3798051E-01 -0.3135844E+00
6352000. -0.3792968E-01 -0.3340958E+00
6351000. -0.3787563E-01 -0.3545855E+00
6350000. -0.3781836E-01 -0.3750517E+00
6349000. -0.3775789E-01 -0.3954927E+00
6348000. -0.3769421E-01 -0.4159068E+00
6347000. -0.3762733E-01 -0.4362923E+00
6346600. -0.3759968E-01 -0.4444380E+00
6346600. -0.3759968E-01 -0.2597263E+00
6318800. -0.3558022E-01 -0.6639655E+00
6291000. -0.3183619E-01 -0.1046928E+01
6291000. -0.3183619E-01 -0.1060293E+01
6263000. -0.2639047E-01 -0.1409237E+01
6235000. -0.1953891E-01 -0.1697063E+01
6207000. -0.1158761E-01 -0.1907178E+01
6179000. -0.2908743E-02 -0.2026243E+01
6151000.  0.6075499E-02 -0.2044978E+01
6151000.  0.6075499E-02 -0.1650302E+01
6128500.  0.1177656E-01 -0.1571298E+01
6106000.  0.1712635E-01 -0.1451994E+01
6083500.  0.2198968E-01 -0.1296580E+01
6061000.  0.2624763E-01 -0.1110039E+01
6038500.  0.2980002E-01 -0.8979865E+00
6016000.  0.3256734E-01 -0.6664799E+00
5993500.  0.3449202E-01 -0.4218561E+00
5971000.  0.3553912E-01 -0.1705612E+00
5971000.  0.3553912E-01 -0.1567065E+00
5937667.  0.3543882E-01  0.1905856E+00
5904333.  0.3360384E-01  0.5041353E+00
5871000.  0.3024277E-01  0.7723516E+00
5837667.  0.2561484E-01  0.9874058E+00
5804333.  0.2001078E-01  0.1144973E+01
5771000.  0.1373616E-01  0.1243841E+01
5771000.  0.1373616E-01  0.1243856E+01
5701000. -0.7565376E-03  0.1353459E+01
5701000. -0.7565376E-03  0.1119899E+01
5667333. -0.6449765E-02  0.1039057E+01
5633667. -0.1177249E-01  0.9735285E+00
5600000. -0.1667221E-01  0.8750095E+00
5600000. -0.1667221E-01  0.8750095E+00
5563518. -0.2129878E-01  0.7357892E+00
5527037. -0.2504635E-01  0.5691758E+00
5490556. -0.2777841E-01  0.3823314E+00
5454074. -0.2940095E-01  0.1829555E+00
5417593. -0.2986503E-01 -0.2096094E-01
5381111. -0.2916715E-01 -0.2215966E+00
5344630. -0.2734786E-01 -0.4114625E+00
5308148. -0.2448848E-01 -0.5837713E+00
5271667. -0.2070750E-01 -0.7324654E+00
5235185. -0.1615453E-01 -0.8526543E+00
5198704. -0.1100428E-01 -0.9405829E+00
5162222. -0.5449475E-02 -0.9935873E+00
5125741.  0.3057833E-03 -0.1010571E+01
5089259.  0.6055081E-02 -0.9915432E+00
5052778.  0.1159475E-01 -0.9377313E+00
5016296.  0.1673267E-01 -0.8516712E+00
4979815.  0.2129324E-01 -0.7367731E+00
4943333.  0.2512364E-01 -0.5974010E+00
4906852.  0.2809788E-01 -0.4386598E+00
4870370.  0.3012082E-01 -0.2660727E+00
4833889.  0.3112998E-01 -0.8559348E-01
4797407.  0.3109745E-01  0.9676698E-01
4760926.  0.3002964E-01  0.2750238E+00
4724444.  0.2796644E-01  0.4435049E+00
4687963.  0.2497929E-01  0.5969189E+00
4651482.  0.2116826E-01  0.7305455E+00
4615000.  0.1665812E-01  0.8404639E+00
4578518.  0.1159437E-01  0.9234393E+00
4542037.  0.6138441E-02  0.9771993E+00
4505556.  0.4615878E-03  0.1000449E+01
4469074. -0.5259693E-02  0.9926696E+00
4432593. -0.1084871E-01  0.9544908E+00
4396111. -0.1613547E-01  0.8873383E+00
4359630. -0.2095958E-01  0.7933974E+00
4323148. -0.2517649E-01  0.6757805E+00
4286667. -0.2866053E-01  0.5381110E+00
4250185. -0.3130874E-01  0.3845594E+00
4213704. -0.3304314E-01  0.2197495E+00
4177222. -0.3381303E-01  0.4848851E-01
4140741. -0.3359565E-01 -0.1242476E+00
4104259. -0.3239663E-01 -0.2935534E+00
4067778. -0.3024957E-01 -0.4546110E+00
4031296. -0.2721447E-01 -0.6029909E+00
3994815. -0.2337592E-01 -0.7346209E+00
3958333. -0.1884034E-01 -0.8458580E+00
3921852. -0.1373330E-01 -0.9338349E+00
3885370. -0.8194699E-02 -0.9961983E+00
3848889. -0.2376585E-02 -0.1031325E+01
3812407.  0.3562935E-02 -0.1038465E+01
3775926.  0.9462360E-02 -0.1017414E+01
3739444.  0.1516217E-01 -0.9688783E+00
3702963.  0.2050850E-01 -0.8942726E+00
3666482.  0.2535733E-01 -0.7955075E+00
3630000.  0.2957798E-01 -0.6753151E+00
3630000.  0.2957798E-01 -0.6753151E+00
3592500.  0.3314175E-01 -0.5327018E+00
3555000.  0.3581868E-01 -0.3746733E+00
3517500.  0.3753066E-01 -0.2055618E+00
3480000.  0.3822568E-01 -0.2989597E-01
3480000.  0.3822568E-01 -0.7980441E-01
3409422.  0.3359275E-01  0.8912910E+00
3338844.  0.1948549E-01  0.1592786E+01
3268266. -0.4947853E-04  0.1852420E+01
3197688. -0.1973535E-01  0.1623077E+01
3127109. -0.3447930E-01  0.9822930E+00
3056531. -0.4061178E-01  0.1027537E+00
2985953. -0.3668630E-01 -0.7958896E+00
2915375. -0.2370060E-01 -0.1500720E+01
2844797. -0.4749885E-02 -0.1852756E+01
2774219.  0.1576239E-01 -0.1778394E+01
2703641.  0.3315054E-01 -0.1300311E+01
2633062.  0.4347676E-01 -0.5275957E+00
2562484.  0.4437245E-01  0.3710076E+00
2491906.  0.3550044E-01  0.1204189E+01
2421328.  0.1858491E-01  0.1797420E+01
2350750. -0.2971321E-02  0.2027059E+01
2280172. -0.2478914E-01  0.1843113E+01
2209594. -0.4238757E-01  0.1277201E+01
2139016. -0.5206008E-01  0.4350519E+00
2068438. -0.5159068E-01 -0.5243521E+00
1997859. -0.4068384E-01 -0.1418706E+01
1927281. -0.2103917E-01 -0.2075743E+01
1856703.  0.3937517E-02 -0.2364284E+01
1786125.  0.2972722E-01 -0.2217605E+01
1715547.  0.5149029E-01 -0.1645478E+01
1644969.  0.6492059E-01 -0.7331898E+00
1574391.  0.6701751E-01  0.3720636E+00
1503812.  0.5664774E-01  0.1484953E+01
1433234.  0.3480626E-01  0.2411903E+01
1362656.  0.4531849E-02  0.2982498E+01
1292078. -0.2950764E-01  0.3077144E+01
1221500. -0.6169750E-01  0.2646996E+01
1221500. -0.6169750E-01  0.2212225E+01
1183328. -0.7384200E-01  0.1823827E+01
1145156. -0.8335135E-01  0.1334756E+01
1106984. -0.8966508E-01  0.7599269E+00
1068812. -0.9232337E-01  0.1179388E+00
1030641. -0.9098745E-01 -0.5695439E+00
 992469. -0.8545528E-01 -0.1278631E+01
 954297. -0.7567308E-01 -0.1983919E+01
 916125. -0.6174111E-01 -0.2659527E+01
 877953. -0.4391404E-01 -0.3279945E+01
 839781. -0.2259580E-01 -0.3821028E+01
 801609.  0.1671295E-02 -0.4260856E+01
 763438.  0.2822154E-01 -0.4580533E+01
 725266.  0.5628921E-01 -0.4764971E+01
 687094.  0.8502875E-01 -0.4803397E+01
 648922.  0.1135449E+00 -0.4689819E+01
 610750.  0.1409216E+00 -0.4423326E+01
 572578.  0.1662528E+00 -0.4008150E+01
 534406.  0.1886730E+00 -0.3453592E+01
 496234.  0.2073871E+00 -0.2773772E+01
 458062.  0.2216979E+00 -0.1987189E+01
 419891.  0.2310308E+00 -0.1116180E+01
 381719.  0.2349549E+00 -0.1860637E+00
 343547.  0.2331977E+00  0.7754561E+00
 305375.  0.2256577E+00  0.1739404E+01
 267203.  0.2124084E+00  0.2676362E+01
 229031.  0.1936984E+00  0.3557496E+01
 190859.  0.1699449E+00  0.4355554E+01
 152688.  0.1417222E+00  0.5045672E+01
 114516.  0.1097421E+00  0.5606265E+01
  76344.  0.7483622E-01  0.6019728E+01
  38172.  0.3792762E-01  0.6272952E+01
      0.  0.0000000E+00  0.0000000E+00
