       5        0 S        6        203.89191        392.66071         -1.00000        930.94360      185    3
6371000. -0.8394326E-01  0.6601723E-01
6370000. -0.8395243E-01  0.5083063E-01
6369000. -0.8395921E-01  0.3563781E-01
6368000. -0.8396362E-01  0.2043919E-01
6368000. -0.8396362E-01  0.2043919E-01
6367000. -0.8396563E-01  0.5235199E-02
6366000. -0.8396526E-01 -0.9973732E-02
6365000. -0.8396250E-01 -0.2518718E-01
6364000. -0.8395735E-01 -0.4040470E-01
6363000. -0.8394981E-01 -0.5562588E-01
6362000. -0.8393989E-01 -0.7085028E-01
6361000. -0.8392757E-01 -0.8607747E-01
6360000. -0.8391286E-01 -0.1013070E+00
6359000. -0.8389577E-01 -0.1165385E+00
6358000. -0.8387628E-01 -0.1317715E+00
6357000. -0.8385441E-01 -0.1470055E+00
6356000. -0.8383013E-01 -0.1622402E+00
6356000. -0.8383013E-01 -0.9110737E-01
6355000. -0.8381496E-01 -0.1021780E+00
6354000. -0.8379806E-01 -0.1132500E+00
6353000. -0.8377942E-01 -0.1243231E+00
6352000. -0.8375903E-01 -0.1353972E+00
6351000. -0.8373691E-01 -0.1464720E+00
6350000. -0.8371305E-01 -0.1575473E+00
6349000. -0.8368745E-01 -0.1686228E+00
6348000. -0.8366012E-01 -0.1796983E+00
6347000. -0.8363104E-01 -0.1907736E+00
6346600. -0.8361892E-01 -0.1952036E+00
6346600. -0.8361892E-01 -0.8877209E-01
6318800. -0.8274520E-01 -0.3122576E+00
6291000. -0.8089077E-01 -0.5378506E+00
6291000. -0.8089077E-01 -0.5447549E+00
6263000. -0.7799029E-01 -0.7748321E+00
6235000. -0.7408528E-01 -0.1001399E+01
6207000. -0.6919765E-01 -0.1221495E+01
6179000. -0.6336243E-01 -0.1432121E+01
6151000. -0.5662787E-01 -0.1630245E+01
6151000. -0.5662787E-01 -0.1304116E+01
6128500. -0.5185742E-01 -0.1395753E+01
6106000. -0.4678183E-01 -0.1476880E+01
6083500. -0.4143865E-01 -0.1547256E+01
6061000. -0.3586617E-01 -0.1606715E+01
6038500. -0.3010311E-01 -0.1655183E+01
6016000. -0.2418831E-01 -0.1692644E+01
5993500. -0.1816060E-01 -0.1719149E+01
5971000. -0.1205843E-01 -0.1734835E+01
5971000. -0.1205843E-01 -0.1568539E+01
5937667. -0.3945107E-02 -0.1530015E+01
5904333.  0.3924367E-02 -0.1475642E+01
5871000.  0.1147285E-01 -0.1407784E+01
5837667.  0.1863590E-01 -0.1328673E+01
5804333.  0.2536041E-01 -0.1240403E+01
5771000.  0.3160316E-01 -0.1144906E+01
5771000.  0.3160316E-01 -0.1144925E+01
5701000.  0.4337477E-01 -0.9905996E+00
5701000.  0.4337477E-01 -0.8234582E+00
5667333.  0.4740024E-01 -0.7076129E+00
5633667.  0.5091545E-01 -0.6245995E+00
5600000.  0.5398900E-01 -0.5376406E+00
5600000.  0.5398900E-01 -0.5376406E+00
5563518.  0.5678912E-01 -0.4398319E+00
5527037.  0.5902092E-01 -0.3393232E+00
5490556.  0.6067172E-01 -0.2370519E+00
5454074.  0.6173409E-01 -0.1339503E+00
5417593.  0.6220597E-01 -0.3096366E-01
5381111.  0.6209057E-01  0.7102834E-01
5344630.  0.6139609E-01  0.1711617E+00
5308148.  0.6013539E-01  0.2686508E+00
5271667.  0.5832602E-01  0.3626894E+00
5235185.  0.5598963E-01  0.4525969E+00
5198704.  0.5315183E-01  0.5377319E+00
5162222.  0.4984180E-01  0.6174105E+00
5125741.  0.4609233E-01  0.6911775E+00
5089259.  0.4193846E-01  0.7585289E+00
5052778.  0.3741861E-01  0.8189885E+00
5016296.  0.3257279E-01  0.8722860E+00
4979815.  0.2744330E-01  0.9180592E+00
4943333.  0.2207369E-01  0.9560890E+00
4906852.  0.1650884E-01  0.9862686E+00
4870370.  0.1079408E-01  0.1008378E+01
4833889.  0.4975916E-02  0.1022456E+01
4797407. -0.9001472E-03  0.1028533E+01
4760926. -0.6787748E-02  0.1026561E+01
4724444. -0.1264178E-01  0.1016788E+01
4687963. -0.1841767E-01  0.9993446E+00
4651482. -0.2407210E-01  0.9744135E+00
4615000. -0.2956335E-01  0.9423485E+00
4578518. -0.3485114E-01  0.9033959E+00
4542037. -0.3989688E-01  0.8579319E+00
4505556. -0.4466471E-01  0.8063903E+00
4469074. -0.4912090E-01  0.7491083E+00
4432593. -0.5323379E-01  0.6866134E+00
4396111. -0.5697515E-01  0.6193770E+00
4359630. -0.6031888E-01  0.5478529E+00
4323148. -0.6324225E-01  0.4726187E+00
4286667. -0.6572534E-01  0.3941868E+00
4250185. -0.6775149E-01  0.3130941E+00
4213704. -0.6930701E-01  0.2299184E+00
4177222. -0.7038161E-01  0.1451988E+00
4140741. -0.7096802E-01  0.5950542E-01
4104259. -0.7106224E-01 -0.2661666E-01
4067778. -0.7066347E-01 -0.1125959E+00
4031296. -0.6977400E-01 -0.1979142E+00
3994815. -0.6839915E-01 -0.2820437E+00
3958333. -0.6654727E-01 -0.3644305E+00
3921852. -0.6422973E-01 -0.4446304E+00
3885370. -0.6146033E-01 -0.5221429E+00
3848889. -0.5825605E-01 -0.5964885E+00
3812407. -0.5463585E-01 -0.6673067E+00
3775926. -0.5062153E-01 -0.7341096E+00
3739444. -0.4623688E-01 -0.7965686E+00
3702963. -0.4150781E-01 -0.8543851E+00
3666482. -0.3646206E-01 -0.9071239E+00
3630000. -0.3112911E-01 -0.9546195E+00
3630000. -0.3112911E-01 -0.9546195E+00
3592500. -0.2538072E-01 -0.9976096E+00
3555000. -0.1939725E-01 -0.1034472E+01
3517500. -0.1321501E-01 -0.1065126E+01
3480000. -0.6871228E-02 -0.1089329E+01
3480000. -0.6871228E-02 -0.1837556E+01
3409422.  0.1348916E-01 -0.1817717E+01
3338844.  0.3296647E-01 -0.1680100E+01
3268266.  0.5033197E-01 -0.1439312E+01
3197688.  0.6454512E-01 -0.1114468E+01
3127109.  0.7479552E-01 -0.7277325E+00
3056531.  0.8052851E-01 -0.3029800E+00
2985953.  0.8145765E-01  0.1355259E+00
2915375.  0.7756213E-01  0.5642504E+00
2844797.  0.6907307E-01  0.9613857E+00
2774219.  0.5644986E-01  0.1307660E+01
2703641.  0.4034822E-01  0.1586982E+01
2633062.  0.2158202E-01  0.1786912E+01
2562484.  0.1082301E-02  0.1898911E+01
2491906. -0.2014853E-01  0.1918494E+01
2421328. -0.4108038E-01  0.1845182E+01
2350750. -0.6069934E-01  0.1682330E+01
2280172. -0.7804845E-01  0.1436808E+01
2209594. -0.9226461E-01  0.1118615E+01
2139016. -0.1026106E+00  0.7403829E+00
2068438. -0.1085010E+00  0.3168230E+00
1997859. -0.1095224E+00 -0.1358776E+00
1927281. -0.1054459E+00 -0.6006572E+00
1856703. -0.9623349E-01 -0.1060229E+01
1786125. -0.8203722E-01 -0.1497681E+01
1715547. -0.6319167E-01 -0.1897045E+01
1644969. -0.4020068E-01 -0.2243821E+01
1574391. -0.1371844E-01 -0.2525435E+01
1503812.  0.1547451E-01 -0.2731631E+01
1433234.  0.4649691E-01 -0.2854750E+01
1362656.  0.7839940E-01 -0.2889955E+01
1292078.  0.1101947E+00 -0.2835322E+01
1221500.  0.1408904E+00 -0.2691845E+01
1221500.  0.1408904E+00 -0.2217607E+01
1183328.  0.1538763E+00 -0.2114087E+01
1145156.  0.1661886E+00 -0.1992891E+01
1106984.  0.1777238E+00 -0.1854851E+01
1068812.  0.1883839E+00 -0.1700932E+01
1030641.  0.1980767E+00 -0.1532230E+01
 992469.  0.2067175E+00 -0.1349939E+01
 954297.  0.2142288E+00 -0.1155380E+01
 916125.  0.2205410E+00 -0.9499474E+00
 877953.  0.2255935E+00 -0.7351457E+00
 839781.  0.2293349E+00 -0.5125268E+00
 801609.  0.2317230E+00 -0.2837179E+00
 763438.  0.2327258E+00 -0.5039539E-01
 725266.  0.2323214E+00  0.1857459E+00
 687094.  0.2304979E+00  0.4229892E+00
 648922.  0.2272541E+00  0.6595785E+00
 610750.  0.2225990E+00  0.8937973E+00
 572578.  0.2165519E+00  0.1123934E+01
 534406.  0.2091424E+00  0.1348305E+01
 496234.  0.2004100E+00  0.1565255E+01
 458062.  0.1904039E+00  0.1773216E+01
 419891.  0.1791829E+00  0.1970643E+01
 381719.  0.1668137E+00  0.2156139E+01
 343547.  0.1533725E+00  0.2328303E+01
 305375.  0.1389427E+00  0.2485912E+01
 267203.  0.1236151E+00  0.2627796E+01
 229031.  0.1074872E+00  0.2752919E+01
 190859.  0.9066202E-01  0.2860388E+01
 152688.  0.7324830E-01  0.2949415E+01
 114516.  0.5535769E-01  0.3019328E+01
  76344.  0.3710677E-01  0.3069613E+01
  38172.  0.1861437E-01  0.3099844E+01
      0.  0.0000000E+00  0.0000000E+00
