       9       17 S      486        134.36850         17.02362          5.89583        259.77859      185    7
6371000. -0.1659223E-01  0.4918368E+00  0.3980712E-02  0.2057294E-01 -0.4870507E-03  0.4005598E-01
6370000. -0.1666885E-01  0.4844371E+00  0.3977091E-02  0.2556668E-01 -0.4933230E-03  0.3986629E-01
6369000. -0.1674429E-01  0.4768377E+00  0.3972686E-02  0.3055426E-01 -0.4995655E-03  0.3967490E-01
6368000. -0.1681853E-01  0.4690392E+00  0.3967500E-02  0.3553466E-01 -0.5057778E-03  0.3948181E-01
6368000. -0.1681853E-01  0.4690392E+00  0.3967500E-02  0.3553466E-01 -0.5057778E-03  0.3948181E-01
6367000. -0.1689153E-01  0.4610422E+00  0.3961531E-02  0.4050687E-01 -0.5119597E-03  0.3928704E-01
6366000. -0.1696325E-01  0.4528475E+00  0.3954784E-02  0.4546985E-01 -0.5181108E-03  0.3909059E-01
6365000. -0.1703367E-01  0.4444557E+00  0.3947258E-02  0.5042261E-01 -0.5242309E-03  0.3889247E-01
6364000. -0.1710276E-01  0.4358678E+00  0.3938956E-02  0.5536411E-01 -0.5303199E-03  0.3869270E-01
6363000. -0.1717049E-01  0.4270844E+00  0.3929879E-02  0.6029336E-01 -0.5363774E-03  0.3849129E-01
6362000. -0.1723683E-01  0.4181066E+00  0.3920029E-02  0.6520934E-01 -0.5424031E-03  0.3828825E-01
6361000. -0.1730174E-01  0.4089352E+00  0.3909409E-02  0.7011105E-01 -0.5483968E-03  0.3808359E-01
6360000. -0.1736519E-01  0.3995713E+00  0.3898020E-02  0.7499748E-01 -0.5543583E-03  0.3787732E-01
6359000. -0.1742716E-01  0.3900158E+00  0.3885866E-02  0.7986764E-01 -0.5602873E-03  0.3766946E-01
6358000. -0.1748762E-01  0.3802698E+00  0.3872949E-02  0.8472051E-01 -0.5661835E-03  0.3746001E-01
6357000. -0.1754653E-01  0.3703344E+00  0.3859272E-02  0.8955512E-01 -0.5720467E-03  0.3724900E-01
6356000. -0.1760386E-01  0.3602109E+00  0.3844837E-02  0.9437047E-01 -0.5778768E-03  0.3703643E-01
6356000. -0.1760386E-01  0.3414001E+00  0.3844837E-02  0.6548402E-01 -0.5778768E-03  0.4086682E-01
6355000. -0.1765689E-01  0.3342787E+00  0.3834315E-02  0.6857883E-01 -0.5842718E-03  0.4061872E-01
6354000. -0.1770879E-01  0.3270400E+00  0.3823309E-02  0.7166380E-01 -0.5906278E-03  0.4036947E-01
6353000. -0.1775955E-01  0.3196843E+00  0.3811819E-02  0.7473850E-01 -0.5969446E-03  0.4011910E-01
6352000. -0.1780914E-01  0.3122124E+00  0.3799847E-02  0.7780255E-01 -0.6032221E-03  0.3986761E-01
6351000. -0.1785755E-01  0.3046249E+00  0.3787395E-02  0.8085550E-01 -0.6094599E-03  0.3961502E-01
6350000. -0.1790477E-01  0.2969224E+00  0.3774466E-02  0.8389696E-01 -0.6156580E-03  0.3936132E-01
6349000. -0.1795076E-01  0.2891055E+00  0.3761059E-02  0.8692653E-01 -0.6218163E-03  0.3910653E-01
6348000. -0.1799552E-01  0.2811750E+00  0.3747178E-02  0.8994379E-01 -0.6279344E-03  0.3885066E-01
6347000. -0.1803902E-01  0.2731315E+00  0.3732824E-02  0.9294833E-01 -0.6340123E-03  0.3859372E-01
6346600. -0.1805607E-01  0.2698826E+00  0.3726951E-02  0.9414650E-01 -0.6364321E-03  0.3849065E-01
6346600. -0.1805607E-01  0.3880086E+00  0.3726951E-02  0.7066582E-01 -0.6364321E-03  0.4478654E-01
6318800. -0.1934605E-01  0.1920362E+00  0.3289104E-02  0.1285834E+00 -0.8155701E-03  0.3722993E-01
6291000. -0.1964310E-01 -0.6482591E-01  0.2620489E-02  0.1757426E+00 -0.9606233E-03  0.2918113E-01
6291000. -0.1964310E-01 -0.5955526E-01  0.2620489E-02  0.1811304E+00 -0.9606233E-03  0.2918113E-01
6263000. -0.1870649E-01 -0.3727190E+00  0.1743336E-02  0.2151537E+00 -0.1070436E-02  0.2073315E-01
6235000. -0.1633211E-01 -0.7095370E+00  0.7563561E-03  0.2307776E+00 -0.1142439E-02  0.1199526E-01
6207000. -0.1247516E-01 -0.1042634E+01 -0.2563974E-03  0.2268241E+00 -0.1175637E-02  0.3097495E-02
6179000. -0.7215409E-02 -0.1343088E+01 -0.1209341E-02  0.2037792E+00 -0.1169646E-02 -0.5812651E-02
6151000. -0.7587324E-03 -0.1582848E+01 -0.2022624E-02  0.1637467E+00 -0.1124773E-02 -0.1456641E-01
6151000. -0.7587324E-03 -0.1326695E+01 -0.2022624E-02  0.1437009E+00 -0.1124773E-02 -0.1452443E-01
6128500.  0.4101291E-02 -0.1417775E+01 -0.2466120E-02  0.1065818E+00 -0.1065148E-02 -0.1917786E-01
6106000.  0.9196729E-02 -0.1459312E+01 -0.2770459E-02  0.6523636E-01 -0.9897975E-03 -0.2342193E-01
6083500.  0.1434649E-01 -0.1448223E+01 -0.2924399E-02  0.2176594E-01 -0.9002436E-03 -0.2721548E-01
6061000.  0.1936275E-01 -0.1383782E+01 -0.2924215E-02 -0.2169198E-01 -0.7981372E-03 -0.3052578E-01
6038500.  0.2405930E-01 -0.1267639E+01 -0.2773645E-02 -0.6306457E-01 -0.6852309E-03 -0.3332809E-01
6016000.  0.2825984E-01 -0.1103709E+01 -0.2483491E-02 -0.1004388E+00 -0.5633508E-03 -0.3560571E-01
5993500.  0.3180559E-01 -0.8979657E+00 -0.2070908E-02 -0.1321433E+00 -0.4343667E-03 -0.3735033E-01
5971000.  0.3456208E-01 -0.6581605E+00 -0.1558420E-02 -0.1568179E+00 -0.3001660E-03 -0.3856016E-01
5971000.  0.3456208E-01 -0.6139687E+00 -0.1558420E-02 -0.1437876E+00 -0.3001660E-03 -0.4308463E-01
5937667.  0.3681009E-01 -0.2427355E+00 -0.7571621E-03 -0.1596994E+00 -0.7205489E-04 -0.4392033E-01
5904333.  0.3710019E-01  0.1297079E+00  0.8430542E-04 -0.1593766E+00  0.1575513E-03 -0.4368366E-01
5871000.  0.3549756E-01  0.4766750E+00  0.8856329E-03 -0.1447816E+00  0.3835095E-03 -0.4255981E-01
5837667.  0.3219534E-01  0.7761769E+00  0.1579396E-02 -0.1187916E+00  0.6016728E-03 -0.4073409E-01
5804333.  0.2748691E-01  0.1011954E+01  0.2114677E-02 -0.8477625E-01  0.8088343E-03 -0.3837928E-01
5771000.  0.2173519E-01  0.1173866E+01  0.2458617E-02 -0.4622984E-01  0.1002625E-02 -0.3564893E-01
5771000.  0.2173519E-01  0.1173918E+01  0.2458617E-02 -0.4622903E-01  0.1002625E-02 -0.3564893E-01
5701000.  0.7704705E-02  0.1322739E+01  0.2501117E-02  0.3895142E-01  0.1351368E-02 -0.2753117E-01
5701000.  0.7704705E-02  0.1132192E+01  0.2501117E-02  0.2956952E-01  0.1351368E-02 -0.2970284E-01
5667333.  0.1985315E-02  0.1037233E+01  0.2277237E-02  0.5468867E-01  0.1504528E-02 -0.2842592E-01
5633667. -0.3291691E-02  0.9565715E+00  0.1922730E-02  0.7937694E-01  0.1652296E-02 -0.2746427E-01
5600000. -0.8032453E-02  0.8297192E+00  0.1445977E-02  0.1001993E+00  0.1794354E-02 -0.2627405E-01
5600000. -0.8032453E-02  0.8297192E+00  0.1445977E-02  0.1001993E+00  0.1794354E-02 -0.2627405E-01
5563518. -0.1228453E-01  0.6487303E+00  0.8206472E-03  0.1171607E+00  0.1940689E-02 -0.2480592E-01
5527037. -0.1539693E-01  0.4337672E+00  0.1169260E-03  0.1274750E+00  0.2078117E-02 -0.2316781E-01
5490556. -0.1721228E-01  0.1979816E+00 -0.6256409E-03  0.1306872E+00  0.2205721E-02 -0.2137717E-01
5454074. -0.1765133E-01 -0.4457045E-01 -0.1366098E-02  0.1267619E+00  0.2322671E-02 -0.1944821E-01
5417593. -0.1671615E-01 -0.2796883E+00 -0.2064471E-02  0.1160916E+00  0.2428217E-02 -0.1739719E-01
5381111. -0.1448815E-01 -0.4939702E+00 -0.2684134E-02  0.9941464E-01  0.2521700E-02 -0.1523648E-01
5344630. -0.1112200E-01 -0.6753985E+00 -0.3193538E-02  0.7778532E-01  0.2602529E-02 -0.1298077E-01
5308148. -0.6835171E-02 -0.8140465E+00 -0.3567956E-02  0.5249166E-01  0.2670212E-02 -0.1064738E-01
5271667. -0.1895456E-02 -0.9024761E+00 -0.3790429E-02  0.2496604E-01  0.2724350E-02 -0.8253670E-02
5235185.  0.3395446E-02 -0.9361523E+00 -0.3852490E-02 -0.3285900E-02  0.2764661E-02 -0.5821012E-02
5198704.  0.8717887E-02 -0.9135361E+00 -0.3754254E-02 -0.3077982E-01  0.2790985E-02 -0.3373343E-02
5162222.  0.1375256E-01 -0.8360837E+00 -0.3504098E-02 -0.5612566E-01  0.2803316E-02 -0.9374517E-03
5125741.  0.1819638E-01 -0.7081615E+00 -0.3117939E-02 -0.7809829E-01  0.2801794E-02  0.1460208E-02
5089259.  0.2177919E-01 -0.5366538E+00 -0.2618059E-02 -0.9569338E-01  0.2786722E-02  0.3789549E-02
5052778.  0.2427622E-01 -0.3306143E+00 -0.2031831E-02 -0.1081617E+00  0.2758584E-02  0.6019649E-02
5016296.  0.2551973E-01 -0.1006913E+00 -0.1390019E-02 -0.1150499E+00  0.2718023E-02  0.8123357E-02
4979815.  0.2540616E-01  0.1413630E+00 -0.7252311E-03 -0.1161895E+00  0.2665851E-02  0.1007092E-01
4943333.  0.2390084E-01  0.3833768E+00 -0.7012554E-04 -0.1117065E+00  0.2603034E-02  0.1183699E-01
4906852.  0.2103867E-01  0.6133357E+00  0.5440854E-03 -0.1019979E+00  0.2530675E-02  0.1340084E-01
4870370.  0.1692148E-01  0.8198914E+00  0.1089190E-02 -0.8768632E-01  0.2449990E-02  0.1474139E-01
4833889.  0.1171299E-01  0.9930121E+00  0.1541090E-02 -0.6960027E-01  0.2362302E-02  0.1584630E-01
4797407.  0.5629093E-02  0.1124346E+01  0.1880911E-02 -0.4870582E-01  0.2268979E-02  0.1670710E-01
4760926. -0.1071083E-02  0.1207454E+01  0.2095541E-02 -0.2605888E-01  0.2171443E-02  0.1731873E-01
4724444. -0.8099211E-02  0.1238355E+01  0.2178100E-02 -0.2758225E-02  0.2071112E-02  0.1768287E-01
4687963. -0.1514995E-01  0.1215329E+01  0.2127947E-02  0.2011787E-01  0.1969392E-02  0.1780649E-01
4651482. -0.2191551E-01  0.1139069E+01  0.1950460E-02  0.4155504E-01  0.1867626E-02  0.1770089E-01
4615000. -0.2809904E-01  0.1012671E+01  0.1656527E-02  0.6064761E-01  0.1767089E-02  0.1737920E-01
4578518. -0.3342694E-01  0.8412383E+00  0.1261839E-02  0.7663114E-01  0.1668963E-02  0.1686214E-01
4542037. -0.3766048E-01  0.6317890E+00  0.7860022E-03  0.8891138E-01  0.1574312E-02  0.1616971E-01
4505556. -0.4060585E-01  0.3928211E+00  0.2514589E-03  0.9708428E-01  0.1484083E-02  0.1532171E-01
4469074. -0.4212094E-01  0.1338676E+00 -0.3175775E-03  0.1009342E+00  0.1399082E-02  0.1434697E-01
4432593. -0.4212044E-01 -0.1347910E+00 -0.8961828E-03  0.1004451E+00  0.1319986E-02  0.1326300E-01
4396111. -0.4057867E-01 -0.4027126E+00 -0.1459932E-02  0.9578098E-01  0.1247358E-02  0.1209120E-01
4359630. -0.3752959E-01 -0.6596072E+00 -0.1985749E-02  0.8726947E-01  0.1181633E-02  0.1085527E-01
4323148. -0.3306414E-01 -0.8958467E+00 -0.2452932E-02  0.7538636E-01  0.1123143E-02  0.9565697E-02
4286667. -0.2732630E-01 -0.1102714E+01 -0.2843779E-02  0.6071721E-01  0.1072159E-02  0.8236093E-02
4250185. -0.2050591E-01 -0.1272781E+01 -0.3144244E-02  0.4393190E-01  0.1028880E-02  0.6874350E-02
4213704. -0.1283166E-01 -0.1400165E+01 -0.3344247E-02  0.2575367E-01  0.9934936E-03  0.5479611E-02
4177222. -0.4560602E-02 -0.1480593E+01 -0.3437933E-02  0.6920154E-02  0.9661943E-03  0.4048265E-02
4140741.  0.4030047E-02 -0.1511622E+01 -0.3423648E-02 -0.1183866E-01  0.9472228E-03  0.2568456E-02
4104259.  0.1265530E-01 -0.1492628E+01 -0.3303806E-02 -0.2983790E-01  0.9369080E-03  0.1020580E-02
4067778.  0.2103035E-01 -0.1424635E+01 -0.3084583E-02 -0.4645367E-01  0.9357195E-03 -0.6244272E-03
4031296.  0.2888230E-01 -0.1310441E+01 -0.2775473E-02 -0.6114947E-01  0.9443084E-03 -0.2400741E-02
3994815.  0.3595766E-01 -0.1154264E+01 -0.2388784E-02 -0.7348905E-01  0.9635516E-03 -0.4355307E-02
3958333.  0.4203136E-01 -0.9615339E+00 -0.1938980E-02 -0.8314459E-01  0.9946481E-03 -0.6550993E-02
3921852.  0.4691212E-01 -0.7388103E+00 -0.1442118E-02 -0.8990438E-01  0.1039156E-02 -0.9052433E-02
3885370.  0.5044888E-01 -0.4933171E+00 -0.9150826E-03 -0.9367135E-01  0.1099075E-02 -0.1194993E-01
3848889.  0.5253303E-01 -0.2327932E+00 -0.3750582E-03 -0.9445688E-01  0.1176968E-02 -0.1534899E-01
3812407.  0.5310126E-01  0.3484875E-01  0.1611925E-03 -0.9237473E-01  0.1276041E-02 -0.1936997E-01
3775926.  0.5213540E-01  0.3017419E+00  0.6777571E-03 -0.8762637E-01  0.1400290E-02 -0.2417183E-01
3739444.  0.4966141E-01  0.5603730E+00  0.1160155E-02 -0.8048767E-01  0.1554699E-02 -0.2993524E-01
3702963.  0.4574702E-01  0.8037543E+00  0.1595603E-02 -0.7129175E-01  0.1745368E-02 -0.3688033E-01
3666482.  0.4049795E-01  0.1025567E+01  0.1973389E-02 -0.6041217E-01  0.1979853E-02 -0.4528928E-01
3630000.  0.3405336E-01  0.1220453E+01  0.2285005E-02 -0.4824373E-01  0.2267454E-02 -0.5549073E-01
3630000.  0.3405336E-01  0.1220453E+01  0.2285005E-02 -0.4824373E-01  0.2267454E-02 -0.5549073E-01
3592500.  0.2635948E-01  0.1387964E+01  0.2529800E-02 -0.3481379E-01  0.2630458E-02 -0.6828515E-01
3555000.  0.1778684E-01  0.1518526E+01  0.2693827E-02 -0.2086795E-01  0.3076981E-02 -0.8397242E-01
3517500.  0.8560899E-02  0.1609614E+01  0.2775217E-02 -0.6795972E-02  0.3626014E-02 -0.1032461E+00
3480000. -0.1080953E-02  0.1659677E+01  0.2774264E-02  0.7057928E-02  0.4301144E-02 -0.1269817E+00
3480000. -0.1080953E-02  0.3986517E+00 -0.2120636E-02  0.1941224E-02  0.4301144E-02 -0.1235151E+00
3409422. -0.4991840E-02  0.3059082E+00 -0.2100253E-02 -0.5377920E-02  0.5302612E-02 -0.6016465E-01
3338844. -0.7847368E-02  0.2100010E+00 -0.2007302E-02 -0.1112823E-01  0.5694043E-02 -0.1302683E-01
3268266. -0.9668902E-02  0.1205525E+00 -0.1859860E-02 -0.1521480E-01  0.5642982E-02  0.2010122E-01
3197688. -0.1056563E-01  0.4380932E-01 -0.1676098E-02 -0.1770863E-01  0.5291878E-02  0.4153113E-01
3127109. -0.1069856E-01 -0.1703227E-01 -0.1472704E-02 -0.1879661E-01  0.4757455E-02  0.5357493E-01
3056531. -0.1024999E-01 -0.6121825E-01 -0.1263894E-02 -0.1873250E-01  0.4131378E-02  0.5843138E-01
2985953. -0.9400055E-02 -0.8977671E-01 -0.1060889E-02 -0.1779554E-01  0.3482002E-02  0.5809166E-01
2915375. -0.8310716E-02 -0.1048609E+00 -0.8718274E-03 -0.1625881E-01  0.2857110E-02  0.5427187E-01
2844797. -0.7116511E-02 -0.1091824E+00 -0.7019619E-03 -0.1436768E-01  0.2287168E-02  0.4837953E-01
2774219. -0.5920924E-02 -0.1055745E+00 -0.5540443E-03 -0.1232671E-01  0.1788787E-02  0.4150930E-01
2703641. -0.4796875E-02 -0.9667966E-01 -0.4288139E-03 -0.1029428E-01  0.1368108E-02  0.3446212E-01
2633062. -0.3789981E-02 -0.8476103E-01 -0.3255085E-03 -0.8383412E-02  0.1023863E-02  0.2778047E-01
2562484. -0.2923363E-02 -0.7161584E-01 -0.2423503E-03 -0.6666124E-02  0.7500138E-03  0.2179326E-01
2491906. -0.2202872E-02 -0.5856067E-01 -0.1769575E-03 -0.5179840E-02  0.5378345E-03  0.1666225E-01
2421328. -0.1622275E-02 -0.4647257E-01 -0.1266907E-03 -0.3935266E-02  0.3775256E-03  0.1242739E-01
2350750. -0.1167751E-02 -0.3585728E-01 -0.8890494E-04 -0.2923900E-02  0.2593327E-03  0.9046745E-02
2280172. -0.8215561E-03 -0.2693142E-01 -0.6112447E-04 -0.2124695E-02  0.1742646E-03  0.6429299E-02
2209594. -0.5647721E-03 -0.1970334E-01 -0.4114945E-04 -0.1509752E-02  0.1144897E-03  0.4460373E-02
2139016. -0.3791995E-03 -0.1404592E-01 -0.2710629E-04 -0.1048673E-02  0.7349001E-04  0.3019901E-02
2068438. -0.2485163E-03 -0.9756218E-02 -0.1745721E-04 -0.7116643E-03  0.4605003E-04  0.1994404E-02
1997859. -0.1588508E-03 -0.6600894E-02 -0.1098130E-04 -0.4715293E-03  0.2814065E-04  0.1283892E-02
1927281. -0.9893623E-04 -0.4347874E-02 -0.6739468E-05 -0.3047661E-03  0.1675092E-04  0.8049224E-03
1856703. -0.5997156E-04 -0.2785830E-02 -0.4030186E-05 -0.1919503E-03  0.9699547E-05  0.4909161E-03
1786125. -0.3533169E-04 -0.1734509E-02 -0.2344796E-05 -0.1176608E-03  0.5454973E-05  0.2908791E-03
1715547. -0.2019868E-04 -0.1048009E-02 -0.1325005E-05 -0.7009066E-04  0.2974256E-05  0.1671828E-03
1644969. -0.1118518E-04 -0.6134669E-03 -0.7257428E-06 -0.4050995E-04  0.1568922E-05  0.9303666E-04
1574391. -0.5988631E-05 -0.3470999E-03 -0.3843142E-06 -0.2267916E-04  0.7987160E-06  0.5002638E-04
1503812. -0.3097127E-05 -0.1890377E-03 -0.1959524E-06 -0.1229146E-04  0.3912150E-06  0.2593239E-04
1433234. -0.1554835E-05 -0.9787681E-04 -0.9518042E-07 -0.6488761E-05  0.1835468E-06  0.1293278E-04
1362656. -0.7869708E-06 -0.4531466E-04 -0.4195834E-07 -0.3483439E-05  0.8177224E-07  0.6199500E-05
1292078. -0.4856926E-06 -0.1037943E-04 -0.1123432E-07 -0.2339529E-05  0.3382738E-07  0.2852533E-05
1221500. -0.5735424E-06  0.2972058E-04  0.1661573E-07 -0.3077974E-05  0.1247620E-07  0.1171651E-05
1221500. -0.5735424E-06  0.1463837E-04  0.9491277E-08  0.3040940E-05  0.1247620E-07  0.1420112E-05
1183328. -0.6003423E-06 -0.3851682E-05 -0.3846137E-08  0.1522792E-05  0.6173453E-08  0.7489644E-06
1145156. -0.5456173E-06 -0.1318265E-04 -0.9895050E-08  0.5762905E-06  0.2902334E-08  0.3805184E-06
1106984. -0.4542196E-06 -0.1655472E-04 -0.1155279E-07  0.3215871E-07  0.1272661E-08  0.1845659E-06
1068812. -0.3543270E-06 -0.1635510E-04 -0.1081925E-07 -0.2409985E-06  0.5018321E-09  0.8423151E-07
1030641. -0.2619350E-06 -0.1428467E-04 -0.9005626E-08 -0.3425604E-06  0.1621038E-09  0.3521567E-07
 992469. -0.1845859E-06 -0.1148259E-04 -0.6911051E-08 -0.3448020E-06  0.2766547E-10  0.1270357E-07
 954297. -0.1243787E-06 -0.8648986E-05 -0.4971375E-08 -0.2975356E-06 -0.1577212E-10  0.3246083E-08
 916125. -0.8024190E-07 -0.6159393E-05 -0.3379738E-08 -0.2327038E-06 -0.2305169E-10 -0.1757163E-09
 877953. -0.4956948E-07 -0.4166025E-05 -0.2180328E-08 -0.1687890E-06 -0.1863835E-10 -0.1046072E-08
 839781. -0.2929864E-07 -0.2681500E-05 -0.1336899E-08 -0.1147761E-06 -0.1230307E-10 -0.9904435E-09
 801609. -0.1654382E-07 -0.1643069E-05 -0.7791617E-09 -0.7354812E-07 -0.7208257E-11 -0.7003295E-09
 763438. -0.8904717E-08 -0.9575954E-06 -0.4311290E-09 -0.4449961E-07 -0.3863487E-11 -0.4275542E-09
 725266. -0.4555281E-08 -0.5298234E-06 -0.2259847E-09 -0.2541965E-07 -0.1918493E-11 -0.2356893E-09
 687094. -0.2206624E-08 -0.2775133E-06 -0.1118624E-09 -0.1368705E-07 -0.8868151E-12 -0.1194492E-09
 648922. -0.1007601E-08 -0.1370889E-06 -0.5207494E-10 -0.6926281E-08 -0.3816980E-12 -0.5600969E-10
 610750. -0.4313062E-09 -0.6356061E-07 -0.2267970E-10 -0.3280221E-08 -0.1525869E-12 -0.2432662E-10
 572578. -0.1718989E-09 -0.2749204E-07 -0.9180560E-11 -0.1445697E-08 -0.5636553E-13 -0.9760420E-11
 534406. -0.6326097E-10 -0.1100961E-07 -0.3426043E-11 -0.5886826E-09 -0.1909778E-13 -0.3596812E-11
 496234. -0.2127667E-10 -0.4043662E-08 -0.1166823E-11 -0.2194420E-09 -0.5876482E-14 -0.1207011E-11
 458062. -0.6456319E-11 -0.1345990E-08 -0.3580715E-12 -0.7401311E-10 -0.1620989E-14 -0.3646092E-12
 419891. -0.1739006E-11 -0.3999384E-09 -0.9742104E-13 -0.2225040E-10 -0.3941325E-15 -0.9761170E-13
 381719. -0.4070589E-12 -0.1040054E-09 -0.2300898E-13 -0.5846483E-11 -0.8262216E-16 -0.2268999E-13
 343547. -0.8053125E-13 -0.2306401E-10 -0.4588217E-14 -0.1308358E-11 -0.1449979E-16 -0.4455342E-14
 305375. -0.1296576E-13 -0.4209848E-11 -0.7438677E-15 -0.2407194E-12 -0.2046720E-17 -0.7117466E-15
 267203. -0.1611009E-14 -0.6018035E-12 -0.9298434E-16 -0.3464849E-13 -0.2196209E-18 -0.8774207E-16
 229031. -0.1429392E-15 -0.6263585E-13 -0.8291253E-17 -0.3626653E-14 -0.1650196E-19 -0.7687704E-17
 190859.  0.0000000E+00  0.0000000E+00  0.0000000E+00  0.0000000E+00  0.0000000E+00  0.0000000E+00
 152688.  0.0000000E+00  0.0000000E+00  0.0000000E+00  0.0000000E+00  0.0000000E+00  0.0000000E+00
 114516.  0.0000000E+00  0.0000000E+00  0.0000000E+00  0.0000000E+00  0.0000000E+00  0.0000000E+00
  76344.  0.0000000E+00  0.0000000E+00  0.0000000E+00  0.0000000E+00  0.0000000E+00  0.0000000E+00
  38172.  0.0000000E+00  0.0000000E+00  0.0000000E+00  0.0000000E+00  0.0000000E+00  0.0000000E+00
      0.  0.0000000E+00  0.0000000E+00  0.0000000E+00  0.0000000E+00  0.0000000E+00  0.0000000E+00
