      15        5 S      618        153.93750         47.28030          4.10716        240.18800      185    7
6371000. -0.1048898E-01  0.1756375E+00  0.1419342E-01  0.2468240E-01 -0.1737491E-03  0.2082225E-01
6370000. -0.1051628E-01  0.1722349E+00  0.1418840E-01  0.3932263E-01 -0.1770116E-03  0.2074885E-01
6369000. -0.1054304E-01  0.1687748E+00  0.1418108E-01  0.5395982E-01 -0.1802626E-03  0.2067444E-01
6368000. -0.1056926E-01  0.1652571E+00  0.1417146E-01  0.6859159E-01 -0.1835018E-03  0.2059903E-01
6368000. -0.1056926E-01  0.1652571E+00  0.1417146E-01  0.6859159E-01 -0.1835018E-03  0.2059903E-01
6367000. -0.1059492E-01  0.1616822E+00  0.1415954E-01  0.8321558E-01 -0.1867290E-03  0.2052262E-01
6366000. -0.1062001E-01  0.1580502E+00  0.1414534E-01  0.9782940E-01 -0.1899442E-03  0.2044522E-01
6365000. -0.1064453E-01  0.1543613E+00  0.1412883E-01  0.1124307E+00 -0.1931472E-03  0.2036683E-01
6364000. -0.1066847E-01  0.1506157E+00  0.1411004E-01  0.1270170E+00 -0.1963378E-03  0.2028745E-01
6363000. -0.1069181E-01  0.1468136E+00  0.1408896E-01  0.1415860E+00 -0.1995158E-03  0.2020709E-01
6362000. -0.1071455E-01  0.1429552E+00  0.1406560E-01  0.1561354E+00 -0.2026812E-03  0.2012575E-01
6361000. -0.1073668E-01  0.1390408E+00  0.1403995E-01  0.1706627E+00 -0.2058337E-03  0.2004343E-01
6360000. -0.1075820E-01  0.1350706E+00  0.1401202E-01  0.1851656E+00 -0.2089732E-03  0.1996014E-01
6359000. -0.1077908E-01  0.1310448E+00  0.1398182E-01  0.1996418E+00 -0.2120996E-03  0.1987588E-01
6358000. -0.1079933E-01  0.1269637E+00  0.1394935E-01  0.2140888E+00 -0.2152127E-03  0.1979066E-01
6357000. -0.1081894E-01  0.1228277E+00  0.1391462E-01  0.2285043E+00 -0.2183123E-03  0.1970448E-01
6356000. -0.1083789E-01  0.1186369E+00  0.1387762E-01  0.2428860E+00 -0.2213983E-03  0.1961734E-01
6356000. -0.1083789E-01  0.1158674E+00  0.1387762E-01  0.1564254E+00 -0.2213983E-03  0.2197554E-01
6355000. -0.1085584E-01  0.1129059E+00  0.1385231E-01  0.1660371E+00 -0.2248398E-03  0.2187642E-01
6354000. -0.1087333E-01  0.1099090E+00  0.1382550E-01  0.1756330E+00 -0.2282657E-03  0.2177653E-01
6353000. -0.1089034E-01  0.1068766E+00  0.1379718E-01  0.1852119E+00 -0.2316759E-03  0.2167587E-01
6352000. -0.1090688E-01  0.1038090E+00  0.1376736E-01  0.1947727E+00 -0.2350702E-03  0.2157444E-01
6351000. -0.1092293E-01  0.1007064E+00  0.1373604E-01  0.2043146E+00 -0.2384486E-03  0.2147225E-01
6350000. -0.1093849E-01  0.9756880E-01  0.1370322E-01  0.2138363E+00 -0.2418108E-03  0.2136930E-01
6349000. -0.1095356E-01  0.9439646E-01  0.1366891E-01  0.2233369E+00 -0.2451568E-03  0.2126559E-01
6348000. -0.1096812E-01  0.9118952E-01  0.1363311E-01  0.2328153E+00 -0.2484865E-03  0.2116114E-01
6347000. -0.1098218E-01  0.8794814E-01  0.1359583E-01  0.2422705E+00 -0.2517998E-03  0.2105593E-01
6346600. -0.1098766E-01  0.8664198E-01  0.1358050E-01  0.2460459E+00 -0.2531204E-03  0.2101364E-01
6346600. -0.1098766E-01  0.1343101E+00  0.1358050E-01  0.1741277E+00 -0.2531204E-03  0.2484487E-01
6318800. -0.1141773E-01  0.5910745E-01  0.1238471E-01  0.3709846E+00 -0.3547585E-03  0.2166409E-01
6291000. -0.1147325E-01 -0.3682876E-01  0.1037797E-01  0.5437809E+00 -0.4415520E-03  0.1804907E-01
6291000. -0.1147325E-01 -0.3483462E-01  0.1037797E-01  0.5626573E+00 -0.4415520E-03  0.1804907E-01
6263000. -0.1106866E-01 -0.1517749E+00  0.7575623E-02  0.7052865E+00 -0.5121998E-03  0.1403983E-01
6235000. -0.1012208E-01 -0.2803307E+00  0.4249534E-02  0.7996248E+00 -0.5644698E-03  0.9696420E-02
6207000. -0.8598492E-02 -0.4130240E+00  0.6274516E-03  0.8392124E+00 -0.5970394E-03  0.5086832E-02
6179000. -0.6497887E-02 -0.5414646E+00 -0.3042647E-02  0.8213515E+00 -0.6089047E-03  0.2882045E-03
6151000. -0.3858211E-02 -0.6568747E+00 -0.6509525E-02  0.7472627E+00 -0.5994231E-03 -0.4612142E-02
6151000. -0.3858211E-02 -0.5448177E+00 -0.6509525E-02  0.6558405E+00 -0.5994231E-03 -0.4398685E-02
6128500. -0.1832374E-02 -0.6002756E+00 -0.8673114E-02  0.5655586E+00 -0.5786215E-03 -0.7365840E-02
6106000.  0.3648535E-03 -0.6415266E+00 -0.1047940E-01  0.4542261E+00 -0.5475273E-03 -0.1022186E-01
6083500.  0.2679831E-02 -0.6666915E+00 -0.1186217E-01  0.3265461E+00 -0.5065911E-03 -0.1293435E-01
6061000.  0.5053223E-02 -0.6744355E+00 -0.1277276E-01  0.1877345E+00 -0.4563728E-03 -0.1547375E-01
6038500.  0.7422028E-02 -0.6640227E+00 -0.1318157E-01  0.4331149E-01 -0.3975313E-03 -0.1781356E-01
6016000.  0.9721733E-02 -0.6353356E+00 -0.1307868E-01 -0.1011221E+00 -0.3308137E-03 -0.1993059E-01
5993500.  0.1188851E-01 -0.5888768E+00 -0.1247376E-01 -0.2400979E+00 -0.2570420E-03 -0.2180536E-01
5971000.  0.1386138E-01 -0.5257552E+00 -0.1139529E-01 -0.3684818E+00 -0.1771014E-03 -0.2342171E-01
5971000.  0.1386138E-01 -0.4881966E+00 -0.1139529E-01 -0.3308562E+00 -0.1771014E-03 -0.2523628E-01
5937667.  0.1611491E-01 -0.3698538E+00 -0.9288684E-02 -0.4674065E+00 -0.4044730E-04 -0.2688573E-01
5904333.  0.1770342E-01 -0.2353398E+00 -0.6581547E-02 -0.5597851E+00  0.1030486E-03 -0.2785562E-01
5871000.  0.1856390E-01 -0.9296112E-01 -0.3511206E-02 -0.6063046E+00  0.2499252E-03 -0.2818810E-01
5837667.  0.1867657E-01  0.4922191E-01 -0.3142509E-03 -0.6087289E+00  0.3969940E-03 -0.2793926E-01
5804333.  0.1806205E-01  0.1838613E+00  0.2789423E-02 -0.5715444E+00  0.5413840E-03 -0.2717380E-01
5771000.  0.1677683E-01  0.3046645E+00  0.5608555E-02 -0.5011923E+00  0.6805654E-03 -0.2596173E-01
5771000.  0.1677683E-01  0.3046755E+00  0.5608555E-02 -0.5011764E+00  0.6805654E-03 -0.2596173E-01
5701000.  0.1217320E-01  0.5195941E+00  0.1011219E-01 -0.3006482E+00  0.9413625E-03 -0.2122429E-01
5701000.  0.1217320E-01  0.4438878E+00  0.1011219E-01 -0.2380430E+00  0.9413625E-03 -0.2465548E-01
5667333.  0.9752969E-02  0.4731838E+00  0.1104256E-01 -0.1192875E+00  0.1067334E-02 -0.2307060E-01
5633667.  0.7157373E-02  0.5081861E+00  0.1140025E-01 -0.1619656E-01  0.1185233E-02 -0.2150991E-01
5600000.  0.4422599E-02  0.5229731E+00  0.1121179E-01  0.8712089E-01  0.1294104E-02 -0.1965020E-01
5600000.  0.4422599E-02  0.5229731E+00  0.1121179E-01  0.8712089E-01  0.1294104E-02 -0.1965020E-01
5563518.  0.1436677E-02  0.5159948E+00  0.1040374E-01  0.1937123E+00  0.1400199E-02 -0.1735977E-01
5527037. -0.1442923E-02  0.4861246E+00  0.9014484E-02  0.2892473E+00  0.1492428E-02 -0.1481442E-01
5490556. -0.4090676E-02  0.4354448E+00  0.7121798E-02  0.3687937E+00  0.1569442E-02 -0.1205194E-01
5454074. -0.6395786E-02  0.3670147E+00  0.4829182E-02  0.4283373E+00  0.1630110E-02 -0.9110659E-02
5417593. -0.8267445E-02  0.2847790E+00  0.2259966E-02  0.4650537E+00  0.1673516E-02 -0.6030292E-02
5381111. -0.9639304E-02  0.1932161E+00 -0.4499805E-03  0.4772953E+00  0.1698978E-02 -0.2849183E-02
5344630. -0.1047174E-01  0.9721420E-01 -0.3158745E-02  0.4647239E+00  0.1706029E-02  0.3932217E-03
5308148. -0.1075372E-01  0.1778213E-02 -0.5726566E-02  0.4282956E+00  0.1694434E-02  0.3656955E-02
5271667. -0.1050251E-01 -0.8822664E-01 -0.8022081E-02  0.3700809E+00  0.1664180E-02  0.6904151E-02
5235185. -0.9762352E-02 -0.1682869E+00 -0.9929318E-02  0.2932716E+00  0.1615473E-02  0.1009479E-01
5198704. -0.8601804E-02 -0.2344727E+00 -0.1135291E-01  0.2018977E+00  0.1548754E-02  0.1318975E-01
5162222. -0.7109708E-02 -0.2836200E+00 -0.1222254E-01  0.1006039E+00  0.1464671E-02  0.1615216E-01
5125741. -0.5390628E-02 -0.3134753E+00 -0.1249587E-01 -0.5505932E-02  0.1364101E-02  0.1894303E-01
5089259. -0.3558997E-02 -0.3227929E+00 -0.1216024E-01 -0.1112216E+00  0.1248125E-02  0.2152618E-01
5052778. -0.1733585E-02 -0.3113778E+00 -0.1123270E-01 -0.2114137E+00  0.1118039E-02  0.2386640E-01
5016296. -0.3101100E-04 -0.2801017E+00 -0.9758689E-02 -0.3013276E+00  0.9753258E-03  0.2593008E-01
4979815.  0.1439791E-02 -0.2308302E+00 -0.7809527E-02 -0.3767409E+00  0.8216664E-03  0.2768591E-01
4943333.  0.2583399E-02 -0.1663401E+00 -0.5478429E-02 -0.4342057E+00  0.6588983E-03  0.2910555E-01
4906852.  0.3322445E-02 -0.9017977E-01 -0.2876016E-02 -0.4711798E+00  0.4890290E-03  0.3016385E-01
4870370.  0.3601730E-02 -0.6480459E-02 -0.1245403E-03 -0.4860675E+00  0.3141823E-03  0.3083917E-01
4833889.  0.3390933E-02  0.8021735E-01  0.2647456E-02 -0.4783832E+00  0.1366109E-03  0.3111479E-01
4797407.  0.2686306E-02  0.1652109E+00  0.5311972E-02 -0.4486693E+00 -0.4136911E-04  0.3097852E-01
4760926.  0.1511114E-02  0.2438202E+00  0.7746523E-02 -0.3984254E+00 -0.2173654E-03  0.3042291E-01
4724444. -0.8538728E-04  0.3116522E+00  0.9840426E-02 -0.3301516E+00 -0.3889799E-03  0.2944668E-01
4687963. -0.2029857E-02  0.3647667E+00  0.1149925E-01 -0.2470762E+00 -0.5538041E-03  0.2805399E-01
4651482. -0.4228304E-02  0.3998790E+00  0.1264908E-01 -0.1530581E+00 -0.7094836E-03  0.2625477E-01
4615000. -0.6570245E-02  0.4145264E+00  0.1323947E-01 -0.5242033E-01 -0.8537356E-03  0.2406433E-01
4578518. -0.8933520E-02  0.4071539E+00  0.1324546E-01  0.5029117E-01 -0.9843754E-03  0.2150453E-01
4542037. -0.1118994E-01  0.3772233E+00  0.1266836E-01  0.1504798E+00 -0.1099359E-02  0.1860186E-01
4505556. -0.1321134E-01  0.3252349E+00  0.1153539E-01  0.2437324E+00 -0.1196811E-02  0.1538709E-01
4469074. -0.1487530E-01  0.2527003E+00  0.9898109E-02  0.3259673E+00 -0.1275053E-02  0.1189790E-01
4432593. -0.1607081E-01  0.1621174E+00  0.7830104E-02  0.3936581E+00 -0.1332619E-02  0.8172480E-02
4396111. -0.1670378E-01  0.5683294E-01  0.5423052E-02  0.4439451E+00 -0.1368277E-02  0.4253442E-02
4359630. -0.1670142E-01 -0.5904337E-01  0.2783212E-02  0.4747131E+00 -0.1381052E-02  0.1879423E-03
4323148. -0.1601618E-01 -0.1808723E+00  0.2601375E-04  0.4847848E+00 -0.1370233E-02 -0.3979972E-02
4286667. -0.1462828E-01 -0.3036115E+00 -0.2728513E-02  0.4738236E+00 -0.1335369E-02 -0.8202191E-02
4250185. -0.1254732E-01 -0.4220576E+00 -0.5361271E-02  0.4424038E+00 -0.1276284E-02 -0.1243164E-01
4213704. -0.9812758E-02 -0.5310814E+00 -0.7758817E-02  0.3920036E+00 -0.1193069E-02 -0.1662378E-01
4177222. -0.6492594E-02 -0.6257812E+00 -0.9818567E-02  0.3248305E+00 -0.1086059E-02 -0.2073427E-01
4140741. -0.2681943E-02 -0.7017519E+00 -0.1145246E-01  0.2438254E+00 -0.9558473E-03 -0.2472219E-01
4104259.  0.1501173E-02 -0.7552705E+00 -0.1259116E-01  0.1524716E+00 -0.8032355E-03 -0.2855080E-01
4067778.  0.5918982E-02 -0.7833516E+00 -0.1318625E-01  0.5463753E-01 -0.6292427E-03 -0.3218630E-01
4031296.  0.1042003E-01 -0.7840646E+00 -0.1321239E-01 -0.4554689E-01 -0.4350514E-03 -0.3559925E-01
3994815.  0.1484421E-01 -0.7564740E+00 -0.1266814E-01 -0.1438960E+00 -0.2220194E-03 -0.3876547E-01
3958333.  0.1902949E-01 -0.7007007E+00 -0.1157575E-01 -0.2363267E+00  0.8401576E-05 -0.4166777E-01
3921852.  0.2281749E-01 -0.6180616E+00 -0.9980237E-02 -0.3190351E+00  0.2546373E-03 -0.4428928E-01
3885370.  0.2606075E-01 -0.5108712E+00 -0.7947103E-02 -0.3886310E+00  0.5150697E-03 -0.4662333E-01
3848889.  0.2862758E-01 -0.3824669E+00 -0.5560020E-02 -0.4422635E+00  0.7880300E-03 -0.4866689E-01
3812407.  0.3040838E-01 -0.2370750E+00 -0.2916741E-02 -0.4777854E+00  0.1071862E-02 -0.5041849E-01
3775926.  0.3131961E-01 -0.7963733E-01 -0.1256876E-03 -0.4937248E+00  0.1364903E-02 -0.5188818E-01
3739444.  0.3130788E-01  0.8434487E-01  0.2698933E-02 -0.4894474E+00  0.1665581E-02 -0.5308419E-01
3702963.  0.3035235E-01  0.2490195E+00  0.5441347E-02 -0.4651265E+00  0.1972342E-02 -0.5401871E-01
3666482.  0.2846622E-01  0.4083860E+00  0.7989056E-02 -0.4216629E+00  0.2283762E-02 -0.5471522E-01
3630000.  0.2569675E-01  0.5565658E+00  0.1023710E-01 -0.3607824E+00  0.2598536E-02 -0.5518978E-01
3630000.  0.2569675E-01  0.5565658E+00  0.1023710E-01 -0.3607824E+00  0.2598536E-02 -0.5518978E-01
3592500.  0.2201413E-01  0.6913086E+00  0.1213741E-01 -0.2825114E+00  0.2924318E-02 -0.5547459E-01
3555000.  0.1760437E-01  0.8027880E+00  0.1353784E-01 -0.1915124E+00  0.3251239E-02 -0.5558114E-01
3517500.  0.1261854E-01  0.8863475E+00  0.1437421E-01 -0.9149808E-01  0.3578327E-02 -0.5553659E-01
3480000.  0.7232468E-02  0.9382567E+00  0.1460518E-01  0.1349757E-01  0.3904790E-02 -0.5537417E-01
3480000.  0.7232468E-02  0.8587544E+00 -0.1705329E-02  0.1639356E-01  0.3904790E-02 -0.7856859E-01
3409422. -0.2471045E-02  0.8769594E+00 -0.1790553E-02 -0.1249884E-02  0.4379677E-02 -0.6671258E-02
3338844. -0.1185622E-01  0.8030413E+00 -0.1675720E-02 -0.1941306E-01  0.4055765E-02  0.6438602E-01
3268266. -0.1997536E-01  0.6513579E+00 -0.1365277E-02 -0.3627200E-01  0.2982836E-02  0.1274410E+00
3197688. -0.2607494E-01  0.4421573E+00 -0.8829747E-03 -0.5019054E-01  0.1284060E-02  0.1765021E+00
3127109. -0.2964600E-01  0.1988968E+00 -0.2690191E-03 -0.5985109E-01 -0.8598081E-03  0.2072205E+00
3056531. -0.3044541E-01 -0.5425787E-01  0.4239531E-03 -0.6434300E-01 -0.3230155E-02  0.2171543E+00
2985953. -0.2849137E-01 -0.2946556E+00  0.1135741E-02 -0.6321112E-01 -0.5592378E-02  0.2058367E+00
2915375. -0.2403635E-01 -0.5028892E+00  0.1803667E-02 -0.5646300E-01 -0.7717136E-02  0.1746572E+00
2844797. -0.1752389E-01 -0.6640310E+00  0.2367581E-02 -0.4454008E-01 -0.9399606E-02  0.1265988E+00
2774219. -0.9534656E-02 -0.7683241E+00  0.2774369E-02 -0.2825920E-01 -0.1047517E-01  0.6586844E-01
2703641. -0.7276410E-03 -0.8113822E+00  0.2981683E-02 -0.8732643E-02 -0.1083060E-01 -0.2538032E-02
2633062.  0.8218525E-02 -0.7939453E+00  0.2960693E-02  0.1272856E-01 -0.1041027E-01 -0.7329331E-01
2562484.  0.1665870E-01 -0.7212631E+00  0.2697728E-02  0.3471542E-01 -0.9217389E-02 -0.1411735E+00
2491906.  0.2402737E-01 -0.6022310E+00  0.2194801E-02  0.5582166E-01 -0.7310587E-02 -0.2014550E+00
2421328.  0.2987287E-01 -0.4483505E+00  0.1469054E-02  0.7473710E-01 -0.4796583E-02 -0.2502259E+00
2350750.  0.3388031E-01 -0.2726227E+00  0.5512287E-03  0.9032850E-01 -0.1819829E-02 -0.2846152E+00
2280172.  0.3588200E-01 -0.8845004E-01 -0.5166522E-03  0.1017012E+00  0.1449819E-02 -0.3029217E+00
2209594.  0.3585631E-01  0.9135782E-01 -0.1684188E-02  0.1082430E+00  0.4830332E-02 -0.3046453E+00
2139016.  0.3391623E-01  0.2554344E+00 -0.2895875E-02  0.1096468E+00  0.8140567E-02 -0.2904306E+00
2068438.  0.3028948E-01  0.3945230E+00 -0.4094513E-02  0.1059114E+00  0.1121227E-01 -0.2619310E+00
1997859.  0.2529251E-01  0.5019101E+00 -0.5224514E-02  0.9732287E-01  0.1390025E-01 -0.2216165E+00
1927281.  0.1930099E-01  0.5736688E+00 -0.6234866E-02  0.8442150E-01  0.1609005E-01 -0.1725411E+00
1856703.  0.1271839E-01  0.6086613E+00 -0.7081753E-02  0.6794883E-01  0.1770321E-01 -0.1180881E+00
1786125.  0.5945977E-02  0.6083915E+00 -0.7730405E-02  0.4878796E-01  0.1869937E-01 -0.6172289E-01
1715547. -0.6447912E-03  0.5766758E+00 -0.8156311E-02  0.2789690E-01  0.1907597E-01 -0.6761606E-02
1644969. -0.6735670E-02  0.5192292E+00 -0.8345640E-02  0.6231629E-02  0.1886542E-01  0.4381939E-01
1574391. -0.1208013E-01  0.4432063E+00 -0.8294785E-02 -0.1532875E-01  0.1813057E-01  0.8752391E-01
1503812. -0.1651683E-01  0.3567552E+00 -0.8009097E-02 -0.3606185E-01  0.1695884E-01  0.1224123E+00
1433234. -0.1997840E-01  0.2686767E+00 -0.7500651E-02 -0.5549158E-01  0.1545611E-01  0.1470992E+00
1362656. -0.2249794E-01  0.1882856E+00 -0.6784948E-02 -0.7349604E-01  0.1374082E-01  0.1606619E+00
1292078. -0.2421551E-01  0.1256705E+00 -0.5876195E-02 -0.9046244E-01  0.1194006E-01  0.1624205E+00
1221500. -0.2539112E-01  0.9264883E-01 -0.4780418E-02 -0.1075336E+00  0.1018882E-01  0.1515365E+00
1221500. -0.2539112E-01 -0.2338919E+00 -0.7424197E-02  0.9371039E-01  0.1018882E-01  0.1625360E+00
1183328. -0.2341039E-01 -0.4232953E+00 -0.7871176E-02  0.5120162E-01  0.9224423E-02  0.1590766E+00
1145156. -0.2039404E-01 -0.5750780E+00 -0.7994443E-02 -0.1285921E-01  0.8286013E-02  0.1539053E+00
1106984. -0.1664355E-01 -0.6648023E+00 -0.7694825E-02 -0.8799680E-01  0.7383076E-02  0.1472785E+00
1068812. -0.1258589E-01 -0.6756091E+00 -0.6942453E-02 -0.1618958E+00  0.6523560E-02  0.1394539E+00
1030641. -0.8718848E-02 -0.6011156E+00 -0.5781515E-02 -0.2225153E+00  0.5713903E-02  0.1306838E+00
 992469. -0.5543026E-02 -0.4467354E+00 -0.4322349E-02 -0.2600869E+00  0.4958995E-02  0.1212108E+00
 954297. -0.3492184E-02 -0.2292482E+00 -0.2723139E-02 -0.2686421E+00  0.4262371E-02  0.1112655E+00
 916125. -0.2870441E-02  0.2537423E-01 -0.1164090E-02 -0.2468659E+00  0.3626209E-02  0.1010627E+00
 877953. -0.3807323E-02  0.2855071E+00  0.1809844E-03 -0.1981441E+00  0.3051450E-02  0.9080029E-01
 839781. -0.6236808E-02  0.5182667E+00  0.1170970E-02 -0.1298306E+00  0.2537903E-02  0.8065802E-01
 801609. -0.9903545E-02  0.6940789E+00  0.1717521E-02 -0.5192311E-01  0.2084359E-02  0.7079625E-01
 763438. -0.1439515E-01  0.7907434E+00  0.1795908E-02  0.2463522E-01  0.1688715E-02  0.6135565E-01
 725266. -0.1919649E-01  0.7964205E+00  0.1445401E-02  0.8970737E-01  0.1348061E-02  0.5245518E-01
 687094. -0.2375617E-01  0.7110670E+00  0.7597117E-03  0.1354758E+00  0.1058867E-02  0.4419253E-01
 648922. -0.2755786E-01  0.5462114E+00 -0.1303387E-03  0.1574989E+00  0.8170728E-03  0.3664324E-01
 610750. -0.3018466E-01  0.3230782E+00 -0.1078698E-02  0.1551532E+00  0.6182390E-03  0.2985900E-01
 572578. -0.3136819E-01  0.6940387E-01 -0.1946665E-02  0.1314306E+00  0.4576839E-03  0.2386854E-01
 534406. -0.3101587E-01 -0.1845614E+00 -0.2622488E-02  0.9216762E-01  0.3306221E-03  0.1867798E-01
 496234. -0.2921341E-01 -0.4102542E+00 -0.3035053E-02  0.4487446E-01  0.2322974E-03  0.1427160E-01
 458062. -0.2620291E-01 -0.5845798E+00 -0.3159893E-02 -0.2613371E-02  0.1581091E-03  0.1061375E-01
 419891. -0.2234126E-01 -0.6927339E+00 -0.3017216E-02 -0.4341822E-01  0.1037221E-03  0.7652322E-02
 381719. -0.1804477E-01 -0.7296917E+00 -0.2662921E-02 -0.7263441E-01  0.6515377E-04  0.5320975E-02
 343547. -0.1373063E-01 -0.7001656E+00 -0.2174872E-02 -0.8789724E-01  0.3885278E-04  0.3544224E-02
 305375. -0.9761831E-02 -0.6171486E+00 -0.1637106E-02 -0.8948041E-01  0.2173855E-04  0.2240538E-02
 267203. -0.6405067E-02 -0.4992712E+00 -0.1125028E-02 -0.7989237E-01  0.1122573E-04  0.1326853E-02
 229031. -0.3806739E-02 -0.3674746E+00 -0.6941065E-03 -0.6313105E-01  0.5222314E-05  0.7220954E-03
 190859. -0.1989668E-02 -0.2415014E+00 -0.3737863E-03 -0.4371834E-01  0.2107862E-05  0.3504659E-03
 152688. -0.8698891E-03 -0.1368097E+00 -0.1672790E-03 -0.2574074E-01  0.6930515E-06  0.1442529E-03
 114516. -0.2894394E-03 -0.6233493E-01 -0.5664259E-04 -0.1205898E-01  0.1648803E-06  0.4580643E-04
  76344. -0.5925221E-04 -0.1949680E-01 -0.1173771E-04 -0.3843363E-02  0.2175145E-07  0.9070762E-05
  38172. -0.3783190E-05 -0.2516676E-02 -0.7548369E-06 -0.5015352E-03  0.6804826E-09  0.5678696E-06
      0.  0.0000000E+00  0.0000000E+00  0.0000000E+00  0.0000000E+00  0.0000000E+00  0.0000000E+00
