      17        6 S      651        131.20689         46.93722          1.93699        232.70050      185    7
6371000. -0.2447051E-01  0.1933828E+00  0.1054895E-01  0.3501946E-01 -0.2042969E-03  0.4757574E-01
6370000. -0.2450002E-01  0.1825791E+00  0.1054227E-01  0.4999444E-01 -0.2117587E-03  0.4750207E-01
6369000. -0.2452782E-01  0.1716908E+00  0.1053325E-01  0.6495908E-01 -0.2192087E-03  0.4742528E-01
6368000. -0.2455391E-01  0.1607187E+00  0.1052188E-01  0.7991001E-01 -0.2266464E-03  0.4734536E-01
6368000. -0.2455391E-01  0.1607187E+00  0.1052188E-01  0.7991001E-01 -0.2266464E-03  0.4734536E-01
6367000. -0.2457827E-01  0.1496636E+00  0.1050817E-01  0.9484389E-01 -0.2340713E-03  0.4726233E-01
6366000. -0.2460089E-01  0.1385262E+00  0.1049211E-01  0.1097574E+00 -0.2414829E-03  0.4717619E-01
6365000. -0.2462175E-01  0.1273075E+00  0.1047371E-01  0.1246471E+00 -0.2488808E-03  0.4708695E-01
6364000. -0.2464085E-01  0.1160081E+00  0.1045298E-01  0.1395098E+00 -0.2562644E-03  0.4699460E-01
6363000. -0.2465817E-01  0.1046291E+00  0.1042992E-01  0.1543421E+00 -0.2636333E-03  0.4689916E-01
6362000. -0.2467369E-01  0.9317130E-01  0.1040453E-01  0.1691406E+00 -0.2709869E-03  0.4680063E-01
6361000. -0.2468741E-01  0.8163556E-01  0.1037682E-01  0.1839021E+00 -0.2783249E-03  0.4669902E-01
6360000. -0.2469932E-01  0.7002283E-01  0.1034680E-01  0.1986232E+00 -0.2856466E-03  0.4659433E-01
6359000. -0.2470939E-01  0.5833406E-01  0.1031447E-01  0.2133006E+00 -0.2929517E-03  0.4648656E-01
6358000. -0.2471762E-01  0.4657022E-01  0.1027985E-01  0.2279311E+00 -0.3002397E-03  0.4637573E-01
6357000. -0.2472400E-01  0.3473230E-01  0.1024293E-01  0.2425114E+00 -0.3075100E-03  0.4626184E-01
6356000. -0.2472852E-01  0.2282130E-01  0.1020372E-01  0.2570381E+00 -0.3147621E-03  0.4614491E-01
6356000. -0.2472852E-01  0.5686499E-01  0.1020372E-01  0.1690270E+00 -0.3147621E-03  0.5152554E-01
6355000. -0.2473678E-01  0.4831582E-01  0.1017643E-01  0.1787245E+00 -0.3228401E-03  0.5140320E-01
6354000. -0.2474369E-01  0.3971848E-01  0.1014761E-01  0.1883957E+00 -0.3308986E-03  0.5127841E-01
6353000. -0.2474924E-01  0.3107348E-01  0.1011729E-01  0.1980392E+00 -0.3389374E-03  0.5115116E-01
6352000. -0.2475344E-01  0.2238136E-01  0.1008545E-01  0.2076534E+00 -0.3469560E-03  0.5102148E-01
6351000. -0.2475627E-01  0.1364263E-01  0.1005210E-01  0.2172370E+00 -0.3549540E-03  0.5088936E-01
6350000. -0.2475772E-01  0.4857844E-02  0.1001725E-01  0.2267885E+00 -0.3629312E-03  0.5075481E-01
6349000. -0.2475779E-01 -0.3972443E-02  0.9980910E-02  0.2363064E+00 -0.3708870E-03  0.5061784E-01
6348000. -0.2475647E-01 -0.1284767E-01  0.9943073E-02  0.2457894E+00 -0.3788211E-03  0.5047844E-01
6347000. -0.2475375E-01 -0.2176728E-01  0.9903751E-02  0.2552360E+00 -0.3867332E-03  0.5033664E-01
6346600. -0.2475228E-01 -0.2534742E-01  0.9887609E-02  0.2590041E+00 -0.3898918E-03  0.5027924E-01
6346600. -0.2475228E-01  0.7195354E-01  0.9887609E-02  0.1861607E+00 -0.3898918E-03  0.5891000E-01
6318800. -0.2465465E-01 -0.1215919E+00  0.8645903E-02  0.3785219E+00 -0.6377858E-03  0.5445883E-01
6291000. -0.2365474E-01 -0.3400519E+00  0.6635145E-02  0.5359874E+00 -0.8630191E-03  0.4853950E-01
6291000. -0.2365474E-01 -0.3424141E+00  0.6635145E-02  0.5536692E+00 -0.8630191E-03  0.4853950E-01
6263000. -0.2162604E-01 -0.5821480E+00  0.3934008E-02  0.6656357E+00 -0.1060645E-02  0.4117388E-01
6235000. -0.1853701E-01 -0.8223392E+00  0.8778338E-03  0.7139736E+00 -0.1223120E-02  0.3257368E-01
6207000. -0.1442095E-01 -0.1046731E+01 -0.2241680E-02  0.6942558E+00 -0.1345445E-02  0.2293974E-01
6179000. -0.9384100E-02 -0.1238612E+01 -0.5127488E-02  0.6084875E+00 -0.1423594E-02  0.1251384E-01
6151000. -0.3604646E-02 -0.1382188E+01 -0.7505181E-02  0.4648807E+00 -0.1454689E-02  0.1576568E-02
6151000. -0.3604646E-02 -0.1139583E+01 -0.7505181E-02  0.4079673E+00 -0.1454689E-02  0.1775997E-02
6128500.  0.4999968E-03 -0.1179567E+01 -0.8714926E-02  0.2742572E+00 -0.1448735E-02 -0.5134073E-02
6106000.  0.4687559E-02 -0.1186280E+01 -0.9426707E-02  0.1272938E+00 -0.1418584E-02 -0.1191044E-01
6083500.  0.8838567E-02 -0.1158834E+01 -0.9608027E-02 -0.2477115E-01 -0.1364887E-02 -0.1845129E-01
6061000.  0.1283286E-01 -0.1097727E+01 -0.9255435E-02 -0.1737124E+00 -0.1288647E-02 -0.2466159E-01
6038500.  0.1655447E-01 -0.1004834E+01 -0.8394018E-02 -0.3116657E+00 -0.1191188E-02 -0.3045402E-01
6016000.  0.1989635E-01 -0.8832999E+00 -0.7075398E-02 -0.4315302E+00 -0.1074127E-02 -0.3575012E-01
5993500.  0.2276460E-01 -0.7373995E+00 -0.5374417E-02 -0.5273108E+00 -0.9393413E-03 -0.4048143E-01
5971000.  0.2508211E-01 -0.5723432E+00 -0.3384703E-02 -0.5944026E+00 -0.7889314E-03 -0.4458916E-01
5971000.  0.2508211E-01 -0.5242932E+00 -0.3384703E-02 -0.5322654E+00 -0.7889314E-03 -0.4787262E-01
5937667.  0.2716426E-01 -0.2710302E+00 -0.5141182E-03 -0.5549312E+00 -0.5251921E-03 -0.5267600E-01
5904333.  0.2792696E-01 -0.2269580E-01  0.2321736E-02 -0.5201748E+00 -0.2405332E-03 -0.5586914E-01
5871000.  0.2743736E-01  0.2053508E+00  0.4845270E-02 -0.4374774E+00  0.5668800E-04 -0.5749140E-01
5837667.  0.2583485E-01  0.4010061E+00  0.6837917E-02 -0.3195229E+00  0.3584476E-03 -0.5761919E-01
5804333.  0.2331243E-01  0.5558961E+00  0.8151980E-02 -0.1804599E+00  0.6571939E-03 -0.5635498E-01
5771000.  0.2009707E-01  0.6654729E+00  0.8714141E-02 -0.3438814E-01  0.9459375E-03 -0.5382033E-01
5771000.  0.2009707E-01  0.6654986E+00  0.8714141E-02 -0.3438743E-01  0.9459375E-03 -0.5382033E-01
5701000.  0.1193939E-01  0.7877199E+00  0.7454472E-02  0.2565821E+00  0.1485613E-02 -0.4356545E-01
5701000.  0.1193939E-01  0.6662697E+00  0.7454472E-02  0.2017710E+00  0.1485613E-02 -0.4693073E-01
5667333.  0.8531110E-02  0.6269929E+00  0.6194777E-02  0.2740546E+00  0.1720979E-02 -0.4214072E-01
5633667.  0.5283989E-02  0.6007266E+00  0.4553861E-02  0.3458233E+00  0.1930224E-02 -0.3692660E-01
5600000.  0.2231534E-02  0.5503597E+00  0.2583262E-02  0.3954915E+00  0.2109846E-02 -0.3094045E-01
5600000.  0.2231534E-02  0.5503597E+00  0.2583262E-02  0.3954915E+00  0.2109846E-02 -0.3094045E-01
5563518. -0.7119569E-03  0.4746354E+00  0.2311312E-03  0.4209411E+00  0.2266746E-02 -0.2374774E-01
5527037. -0.3176347E-02  0.3843715E+00 -0.2178399E-02  0.4154998E+00  0.2380681E-02 -0.1596146E-01
5490556. -0.5101543E-02  0.2876627E+00 -0.4469573E-02  0.3799059E+00  0.2448708E-02 -0.7739523E-02
5454074. -0.6473811E-02  0.1925437E+00 -0.6477005E-02  0.3170289E+00  0.2468797E-02  0.7541301E-03
5417593. -0.7324047E-02  0.1064959E+00 -0.8057357E-02  0.2316915E+00  0.2439876E-02  0.9350658E-02
5381111. -0.7722759E-02  0.3575059E-01 -0.9099390E-02  0.1301387E+00  0.2361832E-02  0.1788284E-01
5344630. -0.7771819E-02 -0.1498919E-01 -0.9530695E-02  0.1965929E-01  0.2235517E-02  0.2618410E-01
5308148. -0.7594873E-02 -0.4288476E-01 -0.9322283E-02 -0.9199700E-01  0.2062710E-02  0.3409323E-01
5271667. -0.7325941E-02 -0.4715794E-01 -0.8489606E-02 -0.1971353E+00  0.1846109E-02  0.4145767E-01
5235185. -0.7097740E-02 -0.2901991E-01 -0.7090625E-02 -0.2886786E+00  0.1589235E-02  0.4813437E-01
5198704. -0.7030567E-02  0.8416753E-02 -0.5221098E-02 -0.3606007E+00  0.1296420E-02  0.5399338E-01
5162222. -0.7221981E-02  0.6039204E-01 -0.3007298E-02 -0.4082738E+00  0.9726591E-03  0.5892209E-01
5125741. -0.7738608E-02  0.1209342E+00 -0.5972212E-03 -0.4288549E+00  0.6235864E-03  0.6282298E-01
5089259. -0.8610397E-02  0.1832649E+00  0.1850292E-02 -0.4213063E+00  0.2552950E-03  0.6562027E-01
5052778. -0.9827300E-02  0.2403140E+00  0.4175514E-02 -0.3864639E+00 -0.1257077E-03  0.6725890E-01
5016296. -0.1133942E-01  0.2852745E+00  0.6229103E-02 -0.3269880E+00 -0.5127006E-03  0.6770517E-01
4979815. -0.1305954E-01  0.3120546E+00  0.7881175E-02 -0.2470554E+00 -0.8987968E-03  0.6694977E-01
4943333. -0.1486899E-01  0.3157623E+00  0.9029768E-02 -0.1521199E+00 -0.1277163E-02  0.6500554E-01
4906852. -0.1662517E-01  0.2930532E+00  0.9606751E-02 -0.4851800E-01 -0.1641059E-02  0.6190737E-01
4870370. -0.1817162E-01  0.2423966E+00  0.9581759E-02  0.5699215E-01 -0.1984058E-02  0.5771453E-01
4833889. -0.1934847E-01  0.1642146E+00  0.8963414E-02  0.1576210E+00 -0.2300083E-02  0.5250357E-01
4797407. -0.2000408E-01  0.6088510E-01  0.7798085E-02  0.2470274E+00 -0.2583585E-02  0.4637055E-01
4760926. -0.2000578E-01 -0.6332343E-01  0.6166487E-02  0.3196524E+00 -0.2829597E-02  0.3943132E-01
4724444. -0.1925001E-01 -0.2025895E+00  0.4177736E-02  0.3711377E+00 -0.3033862E-02  0.3180923E-01
4687963. -0.1767051E-01 -0.3497614E+00  0.1962260E-02  0.3984853E+00 -0.3192851E-02  0.2364368E-01
4651482. -0.1524466E-01 -0.4968306E+00 -0.3368689E-03  0.4002551E+00 -0.3303876E-02  0.1508103E-01
4615000. -0.1199671E-01 -0.6354759E+00 -0.2573102E-02  0.3766615E+00 -0.3365088E-02  0.6269854E-02
4578518. -0.7998845E-02 -0.7574095E+00 -0.4605401E-02  0.3294433E+00 -0.3375501E-02 -0.2636126E-02
4542037. -0.3369139E-02 -0.8550236E+00 -0.6306966E-02  0.2618096E+00 -0.3335008E-02 -0.1148566E-01
4505556.  0.1734138E-02 -0.9218403E+00 -0.7573127E-02  0.1781862E+00 -0.3244352E-02 -0.2013261E-01
4469074.  0.7119390E-02 -0.9527647E+00 -0.8327196E-02  0.8389086E-01 -0.3105096E-02 -0.2843678E-01
4432593.  0.1257085E-01 -0.9446618E+00 -0.8524860E-02 -0.1512774E-01 -0.2919593E-02 -0.3626578E-01
4396111.  0.1786108E-01 -0.8963723E+00 -0.8156648E-02 -0.1127309E+00 -0.2690903E-02 -0.4350002E-01
4359630.  0.2276126E-01 -0.8088220E+00 -0.7248044E-02 -0.2029085E+00 -0.2422754E-02 -0.5003307E-01
4323148.  0.2705491E-01 -0.6851722E+00 -0.5857539E-02 -0.2801815E+00 -0.2119429E-02 -0.5576866E-01
4286667.  0.3054868E-01 -0.5304750E+00 -0.4072942E-02 -0.3398718E+00 -0.1785744E-02 -0.6062879E-01
4250185.  0.3308363E-01 -0.3515115E+00 -0.2005693E-02 -0.3783930E+00 -0.1426878E-02 -0.6455040E-01
4213704.  0.3454357E-01 -0.1564760E+00  0.2157076E-03 -0.3934646E+00 -0.1048382E-02 -0.6748146E-01
4177222.  0.3486222E-01  0.4555625E-01  0.2453791E-02 -0.3841653E+00 -0.6560054E-03 -0.6939115E-01
4140741.  0.3402680E-01  0.2450107E+00  0.4569743E-02 -0.3510400E+00 -0.2556796E-03 -0.7025870E-01
4104259.  0.3207930E-01  0.4324147E+00  0.6432156E-02 -0.2960178E+00  0.1466142E-03 -0.7007527E-01
4067778.  0.2911488E-01  0.5988017E+00  0.7924001E-02 -0.2222527E+00  0.5448675E-03 -0.6885364E-01
4031296.  0.2527681E-01  0.7363300E+00  0.8949770E-02 -0.1340022E+00  0.9331942E-03 -0.6660763E-01
3994815.  0.2074964E-01  0.8385969E+00  0.9440608E-02 -0.3631502E-01  0.1305782E-02 -0.6336650E-01
3958333.  0.1574925E-01  0.9009731E+00  0.9358237E-02  0.6525067E-01  0.1657071E-02 -0.5917201E-01
3921852.  0.1051238E-01  0.9210137E+00  0.8696960E-02  0.1649262E+00  0.1981705E-02 -0.5406814E-01
3885370.  0.5283120E-02  0.8983912E+00  0.7483821E-02  0.2570776E+00  0.2274647E-02 -0.4810940E-01
3848889.  0.3016554E-03  0.8350283E+00  0.5777194E-02  0.3364885E+00  0.2531156E-02 -0.4135641E-01
3812407. -0.4209872E-02  0.7350530E+00  0.3663105E-02  0.3987011E+00  0.2746881E-02 -0.3387321E-01
3775926. -0.8057741E-02  0.6044092E+00  0.1250830E-02  0.4401569E+00  0.2917823E-02 -0.2572863E-01
3739444. -0.1108771E-01  0.4507437E+00 -0.1333505E-02  0.4584831E+00  0.3040408E-02 -0.1699469E-01
3702963. -0.1319276E-01  0.2829201E+00 -0.3953540E-02  0.4525667E+00  0.3111472E-02 -0.7746348E-02
3666482. -0.1431889E-01  0.1104618E+00 -0.6470271E-02  0.4225383E+00  0.3128278E-02  0.1943397E-02
3630000. -0.1446786E-01 -0.5674259E-01 -0.8749363E-02  0.3698934E+00  0.3088521E-02  0.1199650E-01
3630000. -0.1446786E-01 -0.5674259E-01 -0.8749363E-02  0.3698934E+00  0.3088521E-02  0.1199650E-01
3592500. -0.1366360E-01 -0.2131054E+00 -0.1071555E-01  0.2949750E+00  0.2986742E-02  0.2263097E-01
3555000. -0.1200870E-01 -0.3442913E+00 -0.1218825E-01  0.2029704E+00  0.2821667E-02  0.3348971E-01
3517500. -0.9676164E-02 -0.4421444E+00 -0.1308112E-01  0.9884545E-01  0.2592216E-02  0.4449202E-01
3480000. -0.6881623E-02 -0.5004078E+00 -0.1333901E-01 -0.1182184E-01  0.2297767E-02  0.5556345E-01
3480000. -0.6881623E-02 -0.2175089E-01  0.5873771E-04 -0.1270722E-01  0.2297767E-02  0.7763271E-01
3409422. -0.6122728E-02 -0.1128301E+00  0.1963206E-03 -0.1181052E-01  0.1473418E-02  0.6999008E-01
3338844. -0.4456482E-02 -0.1838137E+00  0.3137011E-03 -0.9104668E-02  0.7715005E-03  0.5576126E-01
3268266. -0.2155435E-02 -0.2264424E+00  0.3927420E-03 -0.4968951E-02  0.2557232E-03  0.3674456E-01
3197688.  0.4419760E-03 -0.2371036E+00  0.4205497E-03  0.4201642E-04 -0.3371985E-04  0.1532691E-01
3127109.  0.2982549E-02 -0.2166620E+00  0.3909710E-03  0.5280034E-02 -0.8463924E-04 -0.5884463E-02
3056531.  0.5144370E-02 -0.1697703E+00  0.3051642E-03  0.1008726E-01  0.8670177E-04 -0.2441514E-01
2985953.  0.6673417E-02 -0.1038195E+00  0.1712630E-03  0.1387377E-01  0.4387854E-03 -0.3822381E-01
2915375.  0.7407119E-02 -0.2772927E-01  0.3265586E-05  0.1617970E-01  0.9109014E-03 -0.4591420E-01
2844797.  0.7284553E-02  0.4926309E-01 -0.1806632E-03  0.1671796E-01  0.1431022E-02 -0.4684986E-01
2774219.  0.6343826E-02  0.1186782E+00 -0.3602403E-03  0.1539478E-01  0.1924387E-02 -0.4116884E-01
2703641.  0.4708766E-02  0.1736379E+00 -0.5152188E-03  0.1230863E-01  0.2321752E-02 -0.2970932E-01
2633062.  0.2567773E-02  0.2094236E+00 -0.6274230E-03  0.7729731E-02  0.2566394E-02 -0.1386506E-01
2562484.  0.1483684E-03  0.2237264E+00 -0.6824576E-03  0.2064413E-02  0.2619241E-02  0.4603529E-02
2491906. -0.2309802E-02  0.2166222E+00 -0.6709790E-03 -0.4190822E-02  0.2461787E-02  0.2378101E-01
2421328. -0.4579941E-02  0.1902991E+00 -0.5894070E-03 -0.1050029E-01  0.2096649E-02  0.4180178E-01
2350750. -0.6469190E-02  0.1486085E+00 -0.4400755E-03 -0.1634016E-01  0.1545981E-02  0.5703091E-01
2280172. -0.7833987E-02  0.9650104E-01 -0.2308431E-03 -0.2124378E-01  0.8481063E-03  0.6820384E-01
2209594. -0.8588945E-02  0.3942851E-01  0.2575600E-04 -0.2483910E-01  0.5286866E-04  0.7451539E-01
2139016. -0.8709150E-02 -0.1723463E-01  0.3137161E-03 -0.2687469E-01 -0.7837016E-03  0.7565536E-01
2068438. -0.8226433E-02 -0.6869319E-01  0.6149826E-03 -0.2723324E-01 -0.1604827E-02  0.7179246E-01
1997859. -0.7220685E-02 -0.1111164E+00  0.9109569E-03 -0.2593227E-01 -0.2358004E-02  0.6351455E-01
1927281. -0.5807706E-02 -0.1418896E+00  0.1183926E-02 -0.2311367E-01 -0.2999113E-02  0.5173562E-01
1856703. -0.4124933E-02 -0.1597195E+00  0.1418355E-02 -0.1902249E-01 -0.3495476E-02  0.3758126E-01
1786125. -0.2316881E-02 -0.1646099E+00  0.1601867E-02 -0.1397900E-01 -0.3827489E-02  0.2226829E-01
1715547. -0.5214604E-03 -0.1577169E+00  0.1725898E-02 -0.8346292E-02 -0.3988992E-02  0.6988730E-02
1644969.  0.1141596E-02 -0.1411234E+00  0.1785983E-02 -0.2494907E-02 -0.3986425E-02 -0.7189159E-02
1574391.  0.2579514E-02 -0.1175664E+00  0.1781645E-02  0.3231016E-02 -0.3837020E-02 -0.1939537E-01
1503812.  0.3732166E-02 -0.9015425E-01  0.1715925E-02  0.8545850E-02 -0.3566327E-02 -0.2900215E-01
1433234.  0.4574699E-02 -0.6211969E-01  0.1594562E-02  0.1325272E-01 -0.3205461E-02 -0.3563317E-01
1362656.  0.5117982E-02 -0.3665244E-01  0.1424849E-02  0.1727350E-01 -0.2788406E-02 -0.3913682E-01
1292078.  0.5407786E-02 -0.1687955E-01  0.1214124E-02  0.2068534E-01 -0.2349885E-02 -0.3951650E-01
1221500.  0.5525046E-02 -0.6089541E-02  0.9677670E-03  0.2377637E-01 -0.1924264E-02 -0.3680716E-01
1221500.  0.5525046E-02 -0.5747414E-01  0.7077514E-03 -0.2512565E-01 -0.1924264E-02 -0.3920063E-01
1183328.  0.5691213E-02  0.5344951E-02  0.8961849E-03 -0.3598059E-01 -0.1695849E-02 -0.3699619E-01
1145156.  0.5433721E-02  0.8167594E-01  0.1115578E-02 -0.3524835E-01 -0.1481452E-02 -0.3453384E-01
1106984.  0.4715708E-02  0.1563528E+00  0.1295523E-02 -0.2306843E-01 -0.1282397E-02 -0.3188711E-01
1068812.  0.3595817E-02  0.2132379E+00  0.1374543E-02 -0.2210837E-02 -0.1099573E-02 -0.2912730E-01
1030641.  0.2223648E-02  0.2386796E+00  0.1313998E-02  0.2263286E-01 -0.9334608E-03 -0.2632071E-01
 992469.  0.8153307E-03  0.2245079E+00  0.1106370E-02  0.4596943E-01 -0.7841499E-03 -0.2352669E-01
 954297. -0.3854171E-03  0.1699168E+00  0.7763450E-03  0.6274722E-01 -0.6514110E-03 -0.2079675E-01
 916125. -0.1153495E-02  0.8184264E-01  0.3747469E-03  0.6944599E-01 -0.5347276E-03 -0.1817367E-01
 877953. -0.1325920E-02 -0.2624004E-01 -0.3294866E-04  0.6476900E-01 -0.4333528E-03 -0.1569169E-01
 839781. -0.8339815E-03 -0.1368415E+00 -0.3807014E-03  0.4980591E-01 -0.3463587E-03 -0.1337703E-01
 801609.  0.2823614E-03 -0.2317590E+00 -0.6153657E-03  0.2767095E-01 -0.2726824E-03 -0.1124875E-01
 763438.  0.1880482E-02 -0.2954750E+00 -0.7066474E-03  0.2724847E-02 -0.2111677E-03 -0.9319587E-02
 725266.  0.3740231E-02 -0.3179750E+00 -0.6516695E-03 -0.2041390E-01 -0.1605946E-03 -0.7596625E-02
 687094.  0.5602312E-02 -0.2964132E+00 -0.4735451E-03 -0.3783276E-01 -0.1197202E-03 -0.6082084E-02
 648922.  0.7212921E-02 -0.2353750E+00 -0.2147946E-03 -0.4706142E-01 -0.8730037E-04 -0.4773728E-02
 610750.  0.8365398E-02 -0.1457107E+00  0.7259190E-04 -0.4743459E-01 -0.6211750E-04 -0.3664902E-02
 572578.  0.8931370E-02 -0.4225266E-01  0.3380068E-03 -0.4003624E-01 -0.4300595E-04 -0.2745033E-02
 534406.  0.8876091E-02  0.5907884E-01  0.5416007E-03 -0.2727897E-01 -0.2887424E-04 -0.1999989E-02
 496234.  0.8256136E-02  0.1441730E+00  0.6603536E-03 -0.1224763E-01 -0.1872516E-04 -0.1412511E-02
 458062.  0.7201172E-02  0.2030574E+00  0.6899306E-03  0.2021809E-02 -0.1167257E-04 -0.9629722E-03
 419891.  0.5884621E-02  0.2312375E+00  0.6424526E-03  0.1315937E-01 -0.6952123E-05 -0.6305307E-03
 381719.  0.4489617E-02  0.2298591E+00  0.5412005E-03  0.1984936E-01 -0.3925738E-05 -0.3939528E-03
 343547.  0.3177784E-02  0.2047538E+00  0.4138786E-03  0.2192380E-01 -0.2080647E-05 -0.2329393E-03
 305375.  0.2065982E-02  0.1646793E+00  0.2861345E-03  0.2018756E-01 -0.1020913E-05 -0.1288809E-03
 267203.  0.1215160E-02  0.1191834E+00  0.1767913E-03  0.1604106E-01 -0.4549046E-06 -0.6567973E-04
 229031.  0.6317914E-03  0.7660234E-01  0.9561625E-04  0.1103208E-01 -0.1788971E-06 -0.3012062E-04
 190859.  0.2798644E-03  0.4260200E-01  0.4370260E-04  0.6450662E-02 -0.5938618E-07 -0.1198141E-04
 152688.  0.9922270E-04  0.1954713E-01  0.1587634E-04  0.3071546E-02 -0.1543840E-07 -0.3885518E-05
 114516.  0.2501968E-04  0.6743304E-02  0.4076953E-05  0.1088365E-02 -0.2728221E-08 -0.9135927E-06
  76344.  0.3439764E-05  0.1415539E-02  0.5676447E-06  0.2326504E-03 -0.2382687E-09 -0.1194704E-06
  38172.  0.1102939E-06  0.9172501E-04  0.1833703E-07  0.1523472E-04 -0.3712250E-11 -0.3720666E-08
      0.  0.0000000E+00  0.0000000E+00  0.0000000E+00  0.0000000E+00  0.0000000E+00  0.0000000E+00
