      10       22 S      520        111.93710         15.89391          6.52563        268.12701      185    7
6371000. -0.2704211E-01  0.5202511E+00  0.2509331E-02  0.2955144E-01 -0.2408489E-03  0.5653461E-01
6370000. -0.2712242E-01  0.5029778E+00  0.2504341E-02  0.3402673E-01 -0.2497067E-03  0.5633173E-01
6369000. -0.2719999E-01  0.4854067E+00  0.2498650E-02  0.3848784E-01 -0.2585325E-03  0.5612503E-01
6368000. -0.2727478E-01  0.4675400E+00  0.2492260E-02  0.4293346E-01 -0.2673254E-03  0.5591452E-01
6368000. -0.2727478E-01  0.4675400E+00  0.2492260E-02  0.4293346E-01 -0.2673254E-03  0.5591452E-01
6367000. -0.2734675E-01  0.4493801E+00  0.2485173E-02  0.4736231E-01 -0.2760851E-03  0.5570024E-01
6366000. -0.2741584E-01  0.4309295E+00  0.2477393E-02  0.5177306E-01 -0.2848108E-03  0.5548218E-01
6365000. -0.2748201E-01  0.4121907E+00  0.2468921E-02  0.5616443E-01 -0.2935020E-03  0.5526036E-01
6364000. -0.2754522E-01  0.3931665E+00  0.2459763E-02  0.6053515E-01 -0.3021581E-03  0.5503481E-01
6363000. -0.2760542E-01  0.3738594E+00  0.2449919E-02  0.6488391E-01 -0.3107785E-03  0.5480554E-01
6362000. -0.2766256E-01  0.3542725E+00  0.2439395E-02  0.6920945E-01 -0.3193626E-03  0.5457257E-01
6361000. -0.2771662E-01  0.3344087E+00  0.2428194E-02  0.7351051E-01 -0.3279098E-03  0.5433592E-01
6360000. -0.2776753E-01  0.3142710E+00  0.2416320E-02  0.7778582E-01 -0.3364196E-03  0.5409560E-01
6359000. -0.2781526E-01  0.2938625E+00  0.2403777E-02  0.8203413E-01 -0.3448915E-03  0.5385164E-01
6358000. -0.2785977E-01  0.2731866E+00  0.2390569E-02  0.8625419E-01 -0.3533247E-03  0.5360404E-01
6357000. -0.2790100E-01  0.2522464E+00  0.2376701E-02  0.9044477E-01 -0.3617188E-03  0.5335284E-01
6356000. -0.2793894E-01  0.2310456E+00  0.2362178E-02  0.9460463E-01 -0.3700732E-03  0.5309806E-01
6356000. -0.2793894E-01  0.2605679E+00  0.2362178E-02  0.6914279E-01 -0.3700732E-03  0.5917725E-01
6355000. -0.2797865E-01  0.2454259E+00  0.2351117E-02  0.7179042E-01 -0.3793397E-03  0.5889610E-01
6354000. -0.2801597E-01  0.2301219E+00  0.2339642E-02  0.7442159E-01 -0.3885618E-03  0.5861239E-01
6353000. -0.2805088E-01  0.2146576E+00  0.2327756E-02  0.7703581E-01 -0.3977393E-03  0.5832613E-01
6352000. -0.2808335E-01  0.1990349E+00  0.2315460E-02  0.7963257E-01 -0.4068716E-03  0.5803732E-01
6351000. -0.2811336E-01  0.1832556E+00  0.2302758E-02  0.8221136E-01 -0.4159584E-03  0.5774599E-01
6350000. -0.2814087E-01  0.1673216E+00  0.2289653E-02  0.8477172E-01 -0.4249992E-03  0.5745215E-01
6349000. -0.2816587E-01  0.1512348E+00  0.2276147E-02  0.8731312E-01 -0.4339938E-03  0.5715582E-01
6348000. -0.2818834E-01  0.1349973E+00  0.2262244E-02  0.8983511E-01 -0.4429416E-03  0.5685701E-01
6347000. -0.2820824E-01  0.1186109E+00  0.2247947E-02  0.9233719E-01 -0.4518423E-03  0.5655573E-01
6346600. -0.2821548E-01  0.1120152E+00  0.2242119E-02  0.9333234E-01 -0.4553894E-03  0.5643453E-01
6346600. -0.2821548E-01  0.2933969E+00  0.2242119E-02  0.7294499E-01 -0.4553894E-03  0.6627286E-01
6318800. -0.2869884E-01 -0.8585496E-01  0.1821248E-02  0.1178381E+00 -0.7259013E-03  0.5750221E-01
6291000. -0.2736842E-01 -0.5319886E+00  0.1235541E-02  0.1478021E+00 -0.9554687E-03  0.4753294E-01
6291000. -0.2736842E-01 -0.5343605E+00  0.1235541E-02  0.1518196E+00 -0.9554687E-03  0.4753294E-01
6263000. -0.2394728E-01 -0.1023155E+01  0.5342032E-03  0.1639013E+00 -0.1140301E-02  0.3641794E-01
6235000. -0.1840765E-01 -0.1489667E+01 -0.1746010E-03  0.1552336E+00 -0.1274338E-02  0.2445962E-01
6207000. -0.1096263E-01 -0.1881765E+01 -0.8017546E-03  0.1271787E+00 -0.1354463E-02  0.1193362E-01
6179000. -0.2046183E-02 -0.2152095E+01 -0.1269450E-02  0.8346806E-01 -0.1378878E-02 -0.8331953E-03
6151000.  0.7720863E-02 -0.2263870E+01 -0.1520698E-02  0.2974647E-01 -0.1347335E-02 -0.1346491E-01
6151000.  0.7720863E-02 -0.1890019E+01 -0.1520698E-02  0.2499478E-01 -0.1347335E-02 -0.1389207E-01
6128500.  0.1431569E-01 -0.1830209E+01 -0.1539283E-02 -0.1436728E-01 -0.1286073E-02 -0.2071592E-01
6106000.  0.2054711E-01 -0.1685018E+01 -0.1421588E-02 -0.5172483E-01 -0.1201665E-02 -0.2698703E-01
6083500.  0.2612514E-01 -0.1461817E+01 -0.1179372E-02 -0.8447949E-01 -0.1096195E-02 -0.3263192E-01
6061000.  0.3079424E-01 -0.1172624E+01 -0.8329275E-03 -0.1104228E+00 -0.9719834E-03 -0.3759259E-01
6038500.  0.3434837E-01 -0.8332907E+00 -0.4094540E-03 -0.1278704E+00 -0.8315272E-03 -0.4182513E-01
6016000.  0.3664270E-01 -0.4624414E+00  0.5896948E-04 -0.1357550E+00 -0.6774550E-03 -0.4529956E-01
5993500.  0.3760132E-01 -0.8027323E-01  0.5376594E-03 -0.1336735E+00 -0.5124770E-03 -0.4799948E-01
5971000.  0.3722056E-01  0.2927035E+00  0.9916957E-03 -0.1218917E+00 -0.3393415E-03 -0.4991908E-01
5971000.  0.3722056E-01  0.2793199E+00  0.9916957E-03 -0.1127219E+00 -0.3393415E-03 -0.5479157E-01
5937667.  0.3454353E-01  0.7269224E+00  0.1504547E-02 -0.8126885E-01 -0.4555244E-04 -0.5727391E-01
5904333.  0.2982024E-01  0.1056731E+01  0.1825705E-02 -0.4042410E-01  0.2576685E-03 -0.5843051E-01
5871000.  0.2372628E-01  0.1249113E+01  0.1921471E-02  0.3925797E-02  0.5639362E-03 -0.5847655E-01
5837667.  0.1699468E-01  0.1301322E+01  0.1787985E-02  0.4638377E-01  0.8679685E-03 -0.5760591E-01
5804333.  0.1033348E-01  0.1225123E+01  0.1447098E-02  0.8258011E-01  0.1165419E-02 -0.5598172E-01
5771000.  0.4359254E-02  0.1043312E+01  0.9401767E-03  0.1094676E+00  0.1452685E-02 -0.5373524E-01
5771000.  0.4359254E-02  0.1043350E+01  0.9401767E-03  0.1094639E+00  0.1452685E-02 -0.5373524E-01
5701000. -0.4231246E-02  0.4783506E+00 -0.4706841E-03  0.1389995E+00  0.2007223E-02 -0.4673526E-01
5701000. -0.4231246E-02  0.3840616E+00 -0.4706841E-03  0.1107980E+00  0.2007223E-02 -0.4554262E-01
5667333. -0.5521154E-02  0.1139677E+00 -0.1023600E-02  0.9939191E-01  0.2238793E-02 -0.4210300E-01
5633667. -0.5501464E-02 -0.1184326E+00 -0.1527722E-02  0.9106219E-01  0.2451791E-02 -0.3845990E-01
5600000. -0.4305350E-02 -0.3291706E+00 -0.1974767E-02  0.7717951E-01  0.2644796E-02 -0.3454828E-01
5600000. -0.4305350E-02 -0.3291706E+00 -0.1974767E-02  0.7717951E-01  0.2644796E-02 -0.3454828E-01
5563518. -0.1864929E-02 -0.5143543E+00 -0.2361532E-02  0.5717100E-01  0.2829916E-02 -0.3007296E-01
5527037.  0.1469990E-02 -0.6394438E+00 -0.2622826E-02  0.3366583E-01  0.2988860E-02 -0.2541872E-01
5490556.  0.5323400E-02 -0.6942539E+00 -0.2744052E-02  0.8575130E-02  0.3120807E-02 -0.2065481E-01
5454074.  0.9278306E-02 -0.6746974E+00 -0.2721747E-02 -0.1614347E-01  0.3225332E-02 -0.1585220E-01
5417593.  0.1291185E-01 -0.5829128E+00 -0.2563427E-02 -0.3864253E-01  0.3302412E-02 -0.1108141E-01
5381111.  0.1583098E-01 -0.4269271E+00 -0.2286494E-02 -0.5733106E-01  0.3352436E-02 -0.6413389E-02
5344630.  0.1770318E-01 -0.2197936E+00 -0.1916509E-02 -0.7097604E-01  0.3376188E-02 -0.1916555E-02
5308148.  0.1828238E-01  0.2163053E-01 -0.1484815E-02 -0.7878659E-01  0.3374828E-02  0.2347152E-02
5271667.  0.1742696E-01  0.2779339E+00 -0.1026013E-02 -0.8043418E-01  0.3349869E-02  0.6317210E-02
5235185.  0.1510947E-01  0.5289323E+00 -0.5751553E-03 -0.7607067E-01  0.3303133E-02  0.9945641E-02
5198704.  0.1141705E-01  0.7550533E+00 -0.1652088E-03 -0.6627783E-01  0.3236698E-02  0.1319235E-01
5162222.  0.6543705E-02  0.9386790E+00  0.1752952E-03 -0.5199699E-01  0.3152840E-02  0.1602567E-01
5125741.  0.7753142E-03  0.1065701E+01  0.4240570E-03 -0.3445997E-01  0.3053989E-02  0.1842833E-01
5089259. -0.5533539E-02  0.1126099E+01  0.5663867E-03 -0.1506262E-01  0.2942627E-02  0.2039397E-01
5052778. -0.1198361E-01  0.1114653E+01  0.5958091E-03  0.4730604E-02  0.2821256E-02  0.2192720E-01
5016296. -0.1816139E-01  0.1031339E+01  0.5141776E-03  0.2349714E-01  0.2692306E-02  0.2304313E-01
4979815. -0.2366638E-01  0.8809063E+00  0.3311396E-03  0.3995230E-01  0.2558104E-02  0.2376829E-01
4943333. -0.2813913E-01  0.6726454E+00  0.6309189E-04  0.5303068E-01  0.2420786E-02  0.2413584E-01
4906852. -0.3128411E-01  0.4196046E+00 -0.2682184E-03  0.6194540E-01  0.2282303E-02  0.2418405E-01
4870370. -0.3288891E-01  0.1374811E+00 -0.6374587E-03  0.6622382E-01  0.2144339E-02  0.2396069E-01
4833889. -0.3283647E-01 -0.1562380E+00 -0.1017498E-02  0.6572448E-01  0.2008332E-02  0.2350920E-01
4797407. -0.3111171E-01 -0.4436470E+00 -0.1381359E-02  0.6062404E-01  0.1875450E-02  0.2287622E-01
4760926. -0.2780094E-01 -0.7074456E+00 -0.1703875E-02  0.5138679E-01  0.1746595E-02  0.2211128E-01
4724444. -0.2308482E-01 -0.9320641E+00 -0.1963307E-02  0.3872261E-01  0.1622404E-02  0.2125221E-01
4687963. -0.1722656E-01 -0.1104506E+01 -0.2142493E-02  0.2352156E-01  0.1503310E-02  0.2033879E-01
4651482. -0.1055428E-01 -0.1215076E+01 -0.2229759E-02  0.6790790E-02  0.1389519E-02  0.1940461E-01
4615000. -0.3440776E-02 -0.1257896E+01 -0.2219354E-02 -0.1041713E-01  0.1281072E-02  0.1847504E-01
4578518.  0.3718327E-02 -0.1231011E+01 -0.2111524E-02 -0.2706937E-01  0.1177882E-02  0.1757147E-01
4542037.  0.1052769E-01 -0.1136476E+01 -0.1912233E-02 -0.4221492E-01  0.1079758E-02  0.1670890E-01
4505556.  0.1661505E-01 -0.9800661E+00 -0.1632509E-02 -0.5504060E-01  0.9864304E-03  0.1589706E-01
4469074.  0.2165041E-01 -0.7707282E+00 -0.1287560E-02 -0.6490219E-01  0.8975978E-03  0.1513839E-01
4432593.  0.2536276E-01 -0.5201306E+00 -0.8957380E-03 -0.7135987E-01  0.8129519E-03  0.1443590E-01
4396111.  0.2755395E-01 -0.2417583E+00 -0.4772649E-03 -0.7418626E-01  0.7321693E-03  0.1378716E-01
4359630.  0.2810632E-01  0.4977629E-01 -0.5311235E-04 -0.7336203E-01  0.6549680E-03  0.1318518E-01
4323148.  0.2698709E-01  0.3396308E+00  0.3562786E-03 -0.6907245E-01  0.5810797E-03  0.1262893E-01
4286667.  0.2424747E-01  0.6134513E+00  0.7319867E-03 -0.6167342E-01  0.5102605E-03  0.1211288E-01
4250185.  0.2001739E-01  0.8581366E+00  0.1057596E-02 -0.5166455E-01  0.4422895E-03  0.1163353E-01
4213704.  0.1449707E-01  0.1062454E+01  0.1319845E-02 -0.3965383E-01  0.3769548E-03  0.1119302E-01
4177222.  0.7944207E-02  0.1217439E+01  0.1509180E-02 -0.2631067E-01  0.3140258E-03  0.1079342E-01
4140741.  0.6609852E-03  0.1316810E+01  0.1619959E-02 -0.1233402E-01  0.2532517E-03  0.1044288E-01
4104259. -0.7023389E-02  0.1357131E+01  0.1650531E-02  0.1593389E-02  0.1943116E-03  0.1015496E-01
4067778. -0.1476694E-01  0.1337676E+01  0.1603027E-02  0.1483520E-01  0.1367969E-03  0.9949320E-02
4031296. -0.2223262E-01  0.1260571E+01  0.1483019E-02  0.2683008E-01  0.8016644E-04  0.9850132E-02
3994815. -0.2910180E-01  0.1130330E+01  0.1299030E-02  0.3711633E-01  0.2372312E-04  0.9891437E-02
3958333. -0.3508841E-01  0.9535077E+00  0.1061884E-02  0.4534547E-01 -0.3347156E-04  0.1011987E-01
3921852. -0.3994861E-01  0.7384560E+00  0.7840938E-03  0.5128663E-01 -0.9262078E-04  0.1058421E-01
3885370. -0.4349039E-01  0.4946283E+00  0.4791094E-03  0.5483286E-01 -0.1552703E-03  0.1135520E-01
3848889. -0.4557777E-01  0.2322253E+00  0.1606945E-03  0.5599039E-01 -0.2234122E-03  0.1251808E-01
3812407. -0.4613429E-01 -0.3834504E-01 -0.1577541E-03  0.5486765E-01 -0.2995678E-03  0.1417321E-01
3775926. -0.4514256E-01 -0.3068911E+00 -0.4636931E-03  0.5166350E-01 -0.3869315E-03  0.1645879E-01
3739444. -0.4264177E-01 -0.5638857E+00 -0.7459535E-03  0.4664315E-01 -0.4895734E-03  0.1953866E-01
3702963. -0.3872329E-01 -0.8007557E+00 -0.9949969E-03  0.4011959E-01 -0.6126051E-03  0.2362212E-01
3666482. -0.3352406E-01 -0.1010108E+01 -0.1203199E-02  0.3243650E-01 -0.7625451E-03  0.2898845E-01
3630000. -0.2721913E-01 -0.1186027E+01 -0.1364917E-02  0.2393894E-01 -0.9476909E-03  0.3598235E-01
3630000. -0.2721913E-01 -0.1186027E+01 -0.1364917E-02  0.2393894E-01 -0.9476909E-03  0.3598235E-01
3592500. -0.1980201E-01 -0.1327218E+01 -0.1478820E-02  0.1470794E-01 -0.1185831E-02  0.4534993E-01
3555000. -0.1168045E-01 -0.1424975E+01 -0.1537717E-02  0.5299160E-02 -0.1487130E-02  0.5756561E-01
3517500. -0.3115889E-02 -0.1477565E+01 -0.1541396E-02 -0.4014078E-02 -0.1870731E-02  0.7347649E-01
3480000.  0.5623670E-02 -0.1484440E+01 -0.1491063E-02 -0.1302528E-01 -0.2361536E-02  0.9420707E-01
3480000.  0.5623670E-02 -0.2108273E+00  0.1316155E-02  0.7862594E-02 -0.2361536E-02  0.7617205E-01
3409422.  0.7414536E-02 -0.1144630E+00  0.1206814E-02  0.1158547E-01 -0.2890675E-02  0.2323844E-01
3338844.  0.8217946E-02 -0.3369617E-01  0.1065650E-02  0.1363944E-01 -0.2950542E-02 -0.9575297E-02
3268266.  0.8235610E-02  0.2703205E-01  0.9098600E-03  0.1427667E-01 -0.2732207E-02 -0.2781514E-01
3197688.  0.7694768E-02  0.6733697E-01  0.7533439E-03  0.1382874E-01 -0.2371551E-02 -0.3592682E-01
3127109.  0.6810797E-02  0.8951061E-01  0.6061955E-03  0.1264106E-01 -0.1960623E-02 -0.3739783E-01
3056531.  0.5764946E-02  0.9723838E-01  0.4748319E-03  0.1102740E-01 -0.1557620E-02 -0.3487406E-01
2985953.  0.4694579E-02  0.9461195E-01  0.3624903E-03  0.9244085E-02 -0.1195538E-02 -0.3027608E-01
2915375.  0.3692764E-02  0.8545194E-01  0.2699380E-03  0.7480721E-02 -0.8895627E-03 -0.2492020E-01
2844797.  0.2813633E-02  0.7292593E-01  0.1962049E-03  0.5862396E-02 -0.6430747E-03 -0.1964185E-01
2774219.  0.2080592E-02  0.5940493E-01  0.1392528E-03  0.4458706E-02 -0.4523165E-03 -0.1491308E-01
2703641.  0.1495176E-02  0.4647912E-01  0.9652366E-04  0.3296117E-02 -0.3098210E-03 -0.1094761E-01
2633062.  0.1045127E-02  0.3507091E-01  0.6534492E-04  0.2370840E-02 -0.2067690E-03 -0.7788756E-02
2562484.  0.7109785E-03  0.2558960E-01  0.4320056E-04  0.1660346E-02 -0.1344807E-03 -0.5378663E-02
2491906.  0.4708283E-03  0.1808747E-01  0.2788349E-04  0.1132503E-02 -0.8523422E-04 -0.3608527E-02
2421328.  0.3035221E-03  0.1239890E-01  0.1756338E-04  0.7524266E-03 -0.5263032E-04 -0.2353067E-02
2350750.  0.1904356E-03  0.8248176E-02  0.1079033E-04  0.4868759E-03 -0.3164699E-04 -0.1491540E-02
2280172.  0.1162403E-03  0.5326162E-02  0.6461427E-05  0.3067298E-03 -0.1851958E-04 -0.9188727E-03
2209594.  0.6898474E-04  0.3338285E-02  0.3768142E-05  0.1880388E-03 -0.1053862E-04 -0.5499298E-03
2139016.  0.3977330E-04  0.2030170E-02  0.2137976E-05  0.1120937E-03 -0.5825934E-05 -0.3195229E-03
2068438.  0.2225576E-04  0.1197221E-02  0.1178845E-05  0.6491762E-04 -0.3125150E-05 -0.1800747E-03
1997859.  0.1207213E-04  0.6840209E-03  0.6308228E-06  0.3648455E-04 -0.1624448E-05 -0.9832677E-04
1927281.  0.6338864E-05  0.3782143E-03  0.3271156E-06  0.1987260E-04 -0.8169500E-06 -0.5194955E-04
1856703.  0.3216680E-05  0.2021055E-03  0.1640882E-06  0.1047434E-04 -0.3967817E-06 -0.2651469E-04
1786125.  0.1574512E-05  0.1042004E-03  0.7946418E-07  0.5332695E-05 -0.1857272E-06 -0.1304897E-04
1715547.  0.7417767E-06  0.5173194E-04  0.3706764E-07  0.2617060E-05 -0.8358695E-07 -0.6178904E-05
1644969.  0.3355046E-06  0.2467395E-04  0.1661164E-07  0.1235087E-05 -0.3607122E-07 -0.2808064E-05
1574391.  0.1452820E-06  0.1127405E-04  0.7129819E-08  0.5590617E-06 -0.1487912E-07 -0.1221295E-05
1503812.  0.6008231E-07  0.4914232E-05  0.2918211E-08  0.2421860E-06 -0.5844336E-08 -0.5067218E-06
1433234.  0.2381118E-07  0.2018733E-05  0.1126516E-08  0.1008415E-06 -0.2174052E-08 -0.1999929E-06
1362656.  0.9570549E-08  0.7172512E-06  0.3818074E-09  0.4296300E-07 -0.7558104E-09 -0.7514158E-07
1292078.  0.5839039E-08 -0.1541066E-07  0.1806178E-10  0.2870224E-07 -0.2318605E-09 -0.2719036E-07
1221500.  0.1111215E-07 -0.1110791E-05 -0.4139219E-09  0.6011370E-07 -0.5052641E-10 -0.7587333E-08
1221500.  0.1111215E-07 -0.2899031E-06 -0.1316154E-09 -0.5864431E-07 -0.5052641E-10 -0.1240116E-07
1183328.  0.1105391E-07  0.2298676E-06  0.9477013E-10 -0.2112878E-07 -0.5386897E-11 -0.3944649E-08
1145156.  0.9055302E-08  0.3964298E-06  0.1600460E-09 -0.3048153E-08  0.7050205E-11 -0.7577763E-09
1106984.  0.6641396E-08  0.3912228E-06  0.1525082E-09  0.4296931E-08  0.7972460E-11  0.2329561E-09
1068812.  0.4500056E-08  0.3178893E-06  0.1193214E-09  0.6176120E-08  0.5846120E-11  0.4035217E-09
1030641.  0.2857846E-08  0.2307052E-06  0.8325232E-10  0.5627926E-08  0.3610786E-11  0.3255913E-09
 992469.  0.1713156E-08  0.1541837E-06  0.5341999E-10  0.4280801E-08  0.2009493E-11  0.2105102E-09
 954297.  0.9726552E-09  0.9621721E-07  0.3196516E-10  0.2912227E-08  0.1034782E-11  0.1205031E-09
 916125.  0.5236401E-09  0.5644064E-07  0.1795436E-10  0.1819795E-08  0.4990617E-12  0.6328196E-10
 877953.  0.2672340E-09  0.3121171E-07  0.9492644E-11  0.1057142E-08  0.2266718E-12  0.3095795E-10
 839781.  0.1291022E-09  0.1628193E-07  0.4726450E-11  0.5739618E-09  0.9714739E-13  0.1420656E-10
 801609.  0.5890548E-10  0.8005008E-08  0.2213787E-11  0.2917850E-09  0.3927467E-13  0.6131037E-11
 763438.  0.2530414E-10  0.3701370E-08  0.9731373E-12  0.1388260E-09  0.1494738E-13  0.2487817E-11
 725266.  0.1019210E-10  0.1604320E-08  0.4000583E-12  0.6168328E-10  0.5336983E-14  0.9469814E-12
 687094.  0.3830066E-11  0.6490559E-09  0.1531072E-12  0.2550408E-10  0.1779331E-14  0.3369307E-12
 648922.  0.1334654E-11  0.2437606E-09  0.5423451E-13  0.9764561E-11  0.5505063E-15  0.1114300E-12
 610750.  0.4280868E-12  0.8440875E-10  0.1765418E-13  0.3439673E-11  0.1568635E-15  0.3402076E-13
 572578.  0.1252515E-12  0.2672515E-10  0.5234537E-14  0.1105847E-11  0.4077846E-16  0.9505369E-14
 534406.  0.3306257E-13  0.7657367E-11  0.1398450E-14  0.3212191E-12  0.9559475E-17  0.2403874E-14
 496234.  0.7767678E-14  0.1960221E-11  0.3321261E-15  0.8324367E-13  0.1992056E-17  0.5428194E-15
 458062.  0.1596901E-14  0.4411942E-12  0.6894771E-16  0.1894257E-13  0.3624523E-18  0.1076043E-15
 419891.  0.2811774E-15  0.8555044E-13  0.1224660E-16  0.3709207E-14  0.5628905E-19  0.1832425E-16
 381719.  0.4123943E-16  0.1391871E-13  0.1810195E-17  0.6087543E-15  0.7244907E-20  0.2607001E-17
 343547.  0.4858985E-17  0.1835036E-14  0.2146937E-18  0.8084742E-16  0.7442727E-21  0.2966197E-18
 305375.  0.0000000E+00  0.0000000E+00  0.0000000E+00  0.0000000E+00  0.0000000E+00  0.0000000E+00
 267203.  0.0000000E+00  0.0000000E+00  0.0000000E+00  0.0000000E+00  0.0000000E+00  0.0000000E+00
 229031.  0.0000000E+00  0.0000000E+00  0.0000000E+00  0.0000000E+00  0.0000000E+00  0.0000000E+00
 190859.  0.0000000E+00  0.0000000E+00  0.0000000E+00  0.0000000E+00  0.0000000E+00  0.0000000E+00
 152688.  0.0000000E+00  0.0000000E+00  0.0000000E+00  0.0000000E+00  0.0000000E+00  0.0000000E+00
 114516.  0.0000000E+00  0.0000000E+00  0.0000000E+00  0.0000000E+00  0.0000000E+00  0.0000000E+00
  76344.  0.0000000E+00  0.0000000E+00  0.0000000E+00  0.0000000E+00  0.0000000E+00  0.0000000E+00
  38172.  0.0000000E+00  0.0000000E+00  0.0000000E+00  0.0000000E+00  0.0000000E+00  0.0000000E+00
      0.  0.0000000E+00  0.0000000E+00  0.0000000E+00  0.0000000E+00  0.0000000E+00  0.0000000E+00
