       2       28 S      192        168.99780          8.31116          6.42024        186.53450      185    7
6371000. -0.5101804E-01 -0.1602417E+01 -0.5145121E-02  0.4587293E-01  0.4413242E-02 -0.3177590E-01
6370000. -0.5076531E-01 -0.1617904E+01 -0.5152096E-02  0.4301054E-01  0.4418217E-02 -0.3161792E-01
6369000. -0.5051016E-01 -0.1633085E+01 -0.5158622E-02  0.4013932E-01  0.4423167E-02 -0.3146327E-01
6368000. -0.5025266E-01 -0.1647958E+01 -0.5164697E-02  0.3725958E-01  0.4428094E-02 -0.3131198E-01
6368000. -0.5025266E-01 -0.1647958E+01 -0.5164697E-02  0.3725958E-01  0.4428094E-02 -0.3131198E-01
6367000. -0.4999285E-01 -0.1662520E+01 -0.5170318E-02  0.3437164E-01  0.4432997E-02 -0.3116405E-01
6366000. -0.4973078E-01 -0.1676772E+01 -0.5175486E-02  0.3147580E-01  0.4437877E-02 -0.3101950E-01
6365000. -0.4946649E-01 -0.1690710E+01 -0.5180199E-02  0.2857237E-01  0.4442735E-02 -0.3087834E-01
6364000. -0.4920004E-01 -0.1704335E+01 -0.5184456E-02  0.2566167E-01  0.4447571E-02 -0.3074059E-01
6363000. -0.4893148E-01 -0.1717645E+01 -0.5188255E-02  0.2274401E-01  0.4452385E-02 -0.3060626E-01
6362000. -0.4866085E-01 -0.1730638E+01 -0.5191595E-02  0.1981971E-01  0.4457179E-02 -0.3047537E-01
6361000. -0.4838821E-01 -0.1743313E+01 -0.5194476E-02  0.1688908E-01  0.4461952E-02 -0.3034792E-01
6360000. -0.4811360E-01 -0.1755670E+01 -0.5196896E-02  0.1395243E-01  0.4466706E-02 -0.3022394E-01
6359000. -0.4783708E-01 -0.1767708E+01 -0.5198855E-02  0.1101009E-01  0.4471440E-02 -0.3010343E-01
6358000. -0.4755870E-01 -0.1779424E+01 -0.5200353E-02  0.8062377E-02  0.4476156E-02 -0.2998642E-01
6357000. -0.4727850E-01 -0.1790819E+01 -0.5201386E-02  0.5109600E-02  0.4480854E-02 -0.2987291E-01
6356000. -0.4699653E-01 -0.1801890E+01 -0.5201956E-02  0.2152085E-02  0.4485534E-02 -0.2976292E-01
6356000. -0.4699653E-01 -0.1538308E+01 -0.5201956E-02  0.1790564E-01  0.4485534E-02 -0.1953702E-01
6355000. -0.4675438E-01 -0.1547238E+01 -0.5204648E-02  0.1639965E-01  0.4488579E-02 -0.1925987E-01
6354000. -0.4651083E-01 -0.1556006E+01 -0.5207104E-02  0.1489047E-01  0.4491581E-02 -0.1898507E-01
6353000. -0.4626592E-01 -0.1564610E+01 -0.5209323E-02  0.1337819E-01  0.4494539E-02 -0.1871260E-01
6352000. -0.4601967E-01 -0.1573049E+01 -0.5211304E-02  0.1186291E-01  0.4497455E-02 -0.1844248E-01
6351000. -0.4577211E-01 -0.1581324E+01 -0.5213046E-02  0.1034474E-01  0.4500329E-02 -0.1817470E-01
6350000. -0.4552327E-01 -0.1589434E+01 -0.5214551E-02  0.8823763E-02  0.4503160E-02 -0.1790928E-01
6349000. -0.4527316E-01 -0.1597377E+01 -0.5215817E-02  0.7300084E-02  0.4505951E-02 -0.1764622E-01
6348000. -0.4502182E-01 -0.1605155E+01 -0.5216843E-02  0.5773800E-02  0.4508700E-02 -0.1738551E-01
6347000. -0.4476928E-01 -0.1612766E+01 -0.5217629E-02  0.4245011E-02  0.4511409E-02 -0.1712717E-01
6346600. -0.4466793E-01 -0.1615763E+01 -0.5217876E-02  0.3632816E-02  0.4512481E-02 -0.1702450E-01
6346600. -0.4466793E-01 -0.1777375E+01 -0.5217876E-02  0.1531762E-01  0.4512481E-02 -0.1449445E-02
6318800. -0.3654671E-01 -0.1932909E+01 -0.5239200E-02 -0.5776159E-02  0.4499338E-02  0.7285196E-02
6291000. -0.2790971E-01 -0.2012686E+01 -0.5166018E-02 -0.2786462E-01  0.4450458E-02  0.1495075E-01
6291000. -0.2790971E-01 -0.2074109E+01 -0.5166018E-02 -0.2974198E-01  0.4450458E-02  0.1495075E-01
6263000. -0.1877932E-01 -0.2065593E+01 -0.4980850E-02 -0.5446060E-01  0.4371047E-02  0.2102845E-01
6235000. -0.9889154E-02 -0.1964753E+01 -0.4688607E-02 -0.7830100E-01  0.4266931E-02  0.2621180E-01
6207000. -0.1642365E-02 -0.1773432E+01 -0.4295336E-02 -0.1002745E+00  0.4141797E-02  0.3061164E-01
6179000.  0.5574679E-02 -0.1497423E+01 -0.3811312E-02 -0.1194519E+00  0.3998845E-02  0.3433891E-01
6151000.  0.1140960E-01 -0.1146375E+01 -0.3250693E-02 -0.1350033E+00  0.3840790E-02  0.3750215E-01
6151000.  0.1140960E-01 -0.1142098E+01 -0.3250693E-02 -0.1203614E+00  0.3840790E-02  0.3687091E-01
6128500.  0.1497853E-01 -0.8759978E+00 -0.2816499E-02 -0.1251401E+00  0.3706273E-02  0.3924707E-01
6106000.  0.1757826E-01 -0.5943307E+00 -0.2369544E-02 -0.1275880E+00  0.3563985E-02  0.4127651E-01
6083500.  0.1916569E-01 -0.3038074E+00 -0.1918027E-02 -0.1277328E+00  0.3415097E-02  0.4299029E-01
6061000.  0.1972129E-01 -0.1107165E-01 -0.1469959E-02 -0.1256510E+00  0.3260672E-02  0.4441694E-01
6038500.  0.1924871E-01  0.2774363E+00 -0.1033000E-02 -0.1214651E+00  0.3101675E-02  0.4558375E-01
6016000.  0.1777378E-01  0.5556013E+00 -0.6143071E-03 -0.1153371E+00  0.2938977E-02  0.4651667E-01
5993500.  0.1534320E-01  0.8177576E+00 -0.2204026E-03 -0.1074620E+00  0.2773362E-02  0.4724037E-01
5971000.  0.1202268E-01  0.1058794E+01  0.1429298E-03 -0.9806292E-01  0.2605524E-02  0.4777953E-01
5971000.  0.1202268E-01  0.9609349E+00  0.1429298E-03 -0.8865607E-01  0.2605524E-02  0.4620566E-01
5937667.  0.6322171E-02  0.1207426E+01  0.5646091E-03 -0.7242117E-01  0.2364962E-02  0.4565782E-01
5904333. -0.4988636E-03  0.1389076E+01  0.9003339E-03 -0.5593984E-01  0.2128709E-02  0.4456267E-01
5871000. -0.8102030E-02  0.1506909E+01  0.1150899E-02 -0.3998376E-01  0.1899523E-02  0.4296824E-01
5837667. -0.1616266E-01  0.1564778E+01  0.1320656E-02 -0.2513085E-01  0.1679861E-02  0.4093212E-01
5804333. -0.2438193E-01  0.1568561E+01  0.1416496E-02 -0.1177918E-01  0.1471860E-02  0.3851925E-01
5771000. -0.3249465E-01  0.1525409E+01  0.1446956E-02 -0.1670665E-03  0.1277323E-02  0.3580051E-01
5771000. -0.3249465E-01  0.1525493E+01  0.1446956E-02 -0.1658383E-03  0.1277323E-02  0.3580051E-01
5701000. -0.4858192E-01  0.1376323E+01  0.1348509E-02  0.1728322E-01  0.9259856E-03  0.2815711E-01
5701000. -0.4858192E-01  0.1198643E+01  0.1348509E-02  0.2537239E-01  0.9259856E-03  0.4185061E-01
5667333. -0.5440369E-01  0.1016942E+01  0.1200556E-02  0.2969841E-01  0.7228538E-03  0.3511048E-01
5633667. -0.5943305E-01  0.8900153E+00  0.1042115E-02  0.2995243E-01  0.5528454E-03  0.2943767E-01
5600000. -0.6379694E-01  0.7606488E+00  0.8840810E-03  0.2983929E-01  0.4103503E-03  0.2460329E-01
5600000. -0.6379694E-01  0.7606488E+00  0.8840810E-03  0.2983929E-01  0.4103503E-03  0.2460329E-01
5563518. -0.6774880E-01  0.6197248E+00  0.7147242E-03  0.2923453E-01  0.2826026E-03  0.2013865E-01
5527037. -0.7089747E-01  0.4805400E+00  0.5501040E-03  0.2819681E-01  0.1784084E-03  0.1635930E-01
5490556. -0.7325944E-01  0.3452772E+00  0.3925124E-03  0.2679115E-01  0.9413636E-04  0.1316589E-01
5454074. -0.7486271E-01  0.2158166E+00  0.2438505E-03  0.2508695E-01  0.2666258E-04  0.1047760E-01
5417593. -0.7574516E-01  0.9376248E-01  0.1056673E-03  0.2314290E-01 -0.2666135E-04  0.8212461E-02
5381111. -0.7595307E-01 -0.1960377E-01 -0.2086130E-04  0.2102610E-01 -0.6808865E-04  0.6313615E-02
5344630. -0.7553913E-01 -0.1232974E+00 -0.1349167E-03  0.1879622E-01 -0.9956724E-04  0.4728578E-02
5308148. -0.7456078E-01 -0.2166356E+00 -0.2360012E-03  0.1650387E-01 -0.1227376E-03  0.3405187E-02
5271667. -0.7307882E-01 -0.2991665E+00 -0.3239181E-03  0.1420630E-01 -0.1390138E-03  0.2315485E-02
5235185. -0.7115558E-01 -0.3707387E+00 -0.3987596E-03  0.1194178E-01 -0.1496224E-03  0.1418794E-02
5198704. -0.6885388E-01 -0.4313876E+00 -0.4608119E-03  0.9746945E-02 -0.1555721E-03  0.6854061E-03
5162222. -0.6623569E-01 -0.4813189E+00 -0.5105970E-03  0.7661269E-02 -0.1577591E-03  0.1006449E-03
5125741. -0.6336132E-01 -0.5209755E+00 -0.5487915E-03  0.5701834E-02 -0.1569462E-03 -0.3667424E-03
5089259. -0.6028799E-01 -0.5508744E+00 -0.5761790E-03  0.3890050E-02 -0.1537549E-03 -0.7316741E-03
5052778. -0.5707001E-01 -0.5716459E+00 -0.5936583E-03  0.2242823E-02 -0.1487395E-03 -0.1006876E-02
5016296. -0.5375734E-01 -0.5840468E+00 -0.6021842E-03  0.7635672E-03 -0.1423573E-03 -0.1211350E-02
4979815. -0.5039592E-01 -0.5888314E+00 -0.6027400E-03 -0.5399932E-03 -0.1349871E-03 -0.1353221E-02
4943333. -0.4702686E-01 -0.5868269E+00 -0.5963343E-03 -0.1668942E-02 -0.1269594E-03 -0.1443278E-02
4906852. -0.4368678E-01 -0.5788752E+00 -0.5839472E-03 -0.2629705E-02 -0.1185321E-03 -0.1493840E-02
4870370. -0.4040729E-01 -0.5657687E+00 -0.5665373E-03 -0.3424171E-02 -0.1099239E-03 -0.1507351E-02
4833889. -0.3721570E-01 -0.5483411E+00 -0.5450268E-03 -0.4064599E-02 -0.1013195E-03 -0.1494433E-02
4797407. -0.3413434E-01 -0.5273595E+00 -0.5202592E-03 -0.4562729E-02 -0.9284665E-04 -0.1461452E-02
4760926. -0.3118171E-01 -0.5035232E+00 -0.4930330E-03 -0.4925706E-02 -0.8462170E-04 -0.1408849E-02
4724444. -0.2837195E-01 -0.4775453E+00 -0.4640715E-03 -0.5171292E-02 -0.7673071E-04 -0.1345847E-02
4687963. -0.2571568E-01 -0.4500269E+00 -0.4340119E-03 -0.5311182E-02 -0.6922566E-04 -0.1274108E-02
4651482. -0.2322009E-01 -0.4215185E+00 -0.4034271E-03 -0.5357158E-02 -0.6215308E-04 -0.1195571E-02
4615000. -0.2088925E-01 -0.3925339E+00 -0.3728082E-03 -0.5325096E-02 -0.5553614E-04 -0.1115344E-02
4578518. -0.1872475E-01 -0.3634871E+00 -0.3425710E-03 -0.5225541E-02 -0.4938299E-04 -0.1033619E-02
4542037. -0.1672590E-01 -0.3347565E+00 -0.3130689E-03 -0.5070937E-02 -0.4369776E-04 -0.9525802E-03
4505556. -0.1488988E-01 -0.3066576E+00 -0.2845780E-03 -0.4873973E-02 -0.3846657E-04 -0.8750579E-03
4469074. -0.1321234E-01 -0.2794240E+00 -0.2573176E-03 -0.4642394E-02 -0.3367255E-04 -0.7999329E-03
4432593. -0.1168777E-01 -0.2532726E+00 -0.2314562E-03 -0.4387354E-02 -0.2929553E-04 -0.7298871E-03
4396111. -0.1030945E-01 -0.2283468E+00 -0.2071009E-03 -0.4117160E-02 -0.2530228E-04 -0.6657333E-03
4359630. -0.9070165E-02 -0.2047422E+00 -0.1843236E-03 -0.3837568E-02 -0.2166164E-04 -0.6069092E-03
4323148. -0.7962028E-02 -0.1825339E+00 -0.1631543E-03 -0.3556465E-02 -0.1833774E-04 -0.5552925E-03
4286667. -0.6977033E-02 -0.1617422E+00 -0.1435877E-03 -0.3278563E-02 -0.1528833E-04 -0.5110261E-03
4250185. -0.6107027E-02 -0.1423598E+00 -0.1255934E-03 -0.3007921E-02 -0.1247084E-04 -0.4744345E-03
4213704. -0.5344049E-02 -0.1243596E+00 -0.1091174E-03 -0.2748960E-02 -0.9837770E-05 -0.4467679E-03
4177222. -0.4680316E-02 -0.1076772E+00 -0.9408551E-04 -0.2503690E-02 -0.7336872E-05 -0.4283181E-03
4140741. -0.4108525E-02 -0.9223925E-01 -0.8041377E-04 -0.2274428E-02 -0.4912910E-05 -0.4201990E-03
4104259. -0.3621774E-02 -0.7795144E-01 -0.6800400E-04 -0.2062880E-02 -0.2501659E-05 -0.4240267E-03
4067778. -0.3213822E-02 -0.6470212E-01 -0.5675557E-04 -0.1868937E-02 -0.3253830E-07 -0.4407097E-03
4031296. -0.2879024E-02 -0.5237712E-01 -0.4656556E-04 -0.1693132E-02  0.2574946E-05 -0.4727950E-03
3994815. -0.2612461E-02 -0.4085069E-01 -0.3733199E-04 -0.1534680E-02  0.5416405E-05 -0.5228677E-03
3958333. -0.2409917E-02 -0.2999327E-01 -0.2896106E-04 -0.1391394E-02  0.8602706E-05 -0.5938407E-03
3921852. -0.2267925E-02 -0.1968282E-01 -0.2137251E-04 -0.1260957E-02  0.1226592E-04 -0.6902814E-03
3885370. -0.2183687E-02 -0.9802023E-02 -0.1450413E-04 -0.1138859E-02  0.1656616E-04 -0.8172179E-03
3848889. -0.2155031E-02 -0.2565060E-03 -0.8326226E-05 -0.1018626E-02  0.2169528E-04 -0.9810675E-03
3812407. -0.2180232E-02  0.9015189E-02 -0.2851564E-05 -0.8913320E-03  0.2788791E-04 -0.1190082E-02
3775926. -0.2257762E-02  0.1801538E-01  0.1842239E-05 -0.7432409E-03  0.3542861E-04 -0.1453745E-02
3739444. -0.2385872E-02  0.2665594E-01  0.5584493E-05 -0.5551570E-03  0.4466384E-04 -0.1784063E-02
3702963. -0.2561923E-02  0.3470750E-01  0.8071645E-05 -0.2992770E-03  0.5601463E-04 -0.2195249E-02
3666482. -0.2781378E-02  0.4171720E-01  0.8805269E-05  0.6537120E-04  0.6998893E-04 -0.2703328E-02
3630000. -0.3036234E-02  0.4690377E-01  0.7005939E-05  0.5970430E-03  0.8719568E-04 -0.3327449E-02
3630000. -0.3036234E-02  0.4690377E-01  0.7005939E-05  0.5970430E-03  0.8719568E-04 -0.3327449E-02
3592500. -0.3320463E-02  0.4896908E-01  0.1265173E-05  0.1407750E-02  0.1090110E-03 -0.4110954E-02
3555000. -0.3601902E-02  0.4548962E-01 -0.1035034E-04  0.2620152E-02  0.1359165E-03 -0.5060737E-02
3517500. -0.3838276E-02  0.3292765E-01 -0.3074938E-04  0.4431922E-02  0.1689534E-03 -0.6197220E-02
3480000. -0.3961088E-02  0.5773082E-02 -0.6426159E-04  0.7134104E-02  0.2092606E-03 -0.7531870E-02
3480000. -0.3961088E-02 -0.1594280E+00 -0.1673674E-03 -0.6942512E-02  0.2092606E-03  0.5171277E-02
3409422. -0.2514313E-02 -0.1051180E+00 -0.1048662E-03 -0.4501196E-02  0.1533600E-03  0.4754216E-02
3338844. -0.1568683E-02 -0.6802348E-01 -0.6465992E-04 -0.2869421E-02  0.1059588E-03  0.3766420E-02
3268266. -0.9619616E-03 -0.4321538E-01 -0.3922829E-04 -0.1798576E-02  0.7001223E-04  0.2740814E-02
3197688. -0.5797521E-03 -0.2695748E-01 -0.2341141E-04 -0.1108405E-02  0.4459988E-04  0.1881764E-02
3127109. -0.3433233E-03 -0.1651157E-01 -0.1373999E-04 -0.6714780E-03  0.2752568E-04  0.1235658E-02
3056531. -0.1997230E-03 -0.9929572E-02 -0.7927289E-05 -0.3997888E-03  0.1650924E-04  0.7820568E-03
2985953. -0.1140934E-03 -0.5861599E-02 -0.4494184E-05 -0.2338577E-03  0.9641498E-05  0.4793034E-03
2915375. -0.6397545E-04 -0.3395601E-02 -0.2502352E-05 -0.1343448E-03  0.5489252E-05  0.2852848E-03
2844797. -0.3519371E-04 -0.1929581E-02 -0.1367636E-05 -0.7575836E-04  0.3048812E-05  0.1652076E-03
2774219. -0.1898277E-04 -0.1075092E-02 -0.7332283E-06 -0.4191220E-04  0.1652448E-05  0.9318298E-04
2703641. -0.1003239E-04 -0.5869696E-03 -0.3853388E-06 -0.2273382E-04  0.8739883E-06  0.5122067E-04
2633062. -0.5191187E-05 -0.3138192E-03 -0.1983494E-06 -0.1208117E-04  0.4509778E-06  0.2744293E-04
2562484. -0.2627751E-05 -0.1641774E-03 -0.9991432E-07 -0.6285026E-05  0.2269287E-06  0.1433003E-04
2491906. -0.1299993E-05 -0.8397251E-04 -0.4920433E-07 -0.3197923E-05  0.1112827E-06  0.7290021E-05
2421328. -0.6278829E-06 -0.4194964E-04 -0.2366400E-07 -0.1589836E-05  0.5313930E-07  0.3610897E-05
2350750. -0.2957254E-06 -0.2044622E-04 -0.1110104E-07 -0.7713902E-06  0.2468465E-07  0.1740034E-05
2280172. -0.1356460E-06 -0.9710970E-05 -0.5072904E-08 -0.3648312E-06  0.1114189E-07  0.8149386E-06
2209594. -0.6050737E-07 -0.4488356E-05 -0.2254933E-08 -0.1679599E-06  0.4880143E-08  0.3705096E-06
2139016. -0.2620590E-07 -0.2015720E-05 -0.9734049E-09 -0.7515336E-07  0.2071028E-08  0.1632971E-06
2068438. -0.1100041E-07 -0.8781326E-06 -0.4073430E-09 -0.3262726E-07  0.8500995E-09  0.6965744E-07
1997859. -0.4466585E-08 -0.3703863E-06 -0.1649169E-09 -0.1371745E-07  0.3368460E-09  0.2870574E-07
1927281. -0.1750471E-08 -0.1509431E-06 -0.6445533E-10 -0.5573376E-08  0.1285664E-09  0.1140494E-07
1856703. -0.6605017E-09 -0.5929381E-07 -0.2425851E-10 -0.2183150E-08  0.4714945E-10  0.4358270E-08
1786125. -0.2392963E-09 -0.2239221E-07 -0.8767583E-11 -0.8222766E-09  0.1656778E-10  0.1597631E-08
1715547. -0.8298408E-10 -0.8105600E-08 -0.3033583E-11 -0.2969104E-09  0.5560552E-11  0.5601047E-09
1644969. -0.2744923E-10 -0.2802950E-08 -0.1001310E-11 -0.1024338E-09  0.1776155E-11  0.1871554E-09
1574391. -0.8626179E-11 -0.9224224E-09 -0.3140431E-12 -0.3363664E-10  0.5377518E-12  0.5937179E-10
1503812. -0.2563886E-11 -0.2876196E-09 -0.9315990E-13 -0.1046759E-10  0.1535937E-12  0.1780202E-10
1433234. -0.7173410E-12 -0.8451116E-10 -0.2599319E-13 -0.3073257E-11  0.4114331E-13  0.5022403E-11
1362656.  0.0000000E+00  0.0000000E+00  0.0000000E+00  0.0000000E+00  0.0000000E+00  0.0000000E+00
1292078.  0.0000000E+00  0.0000000E+00  0.0000000E+00  0.0000000E+00  0.0000000E+00  0.0000000E+00
1221500.  0.0000000E+00  0.0000000E+00  0.0000000E+00  0.0000000E+00  0.0000000E+00  0.0000000E+00
1221500.  0.0000000E+00  0.0000000E+00  0.0000000E+00  0.0000000E+00  0.0000000E+00  0.0000000E+00
1183328.  0.0000000E+00  0.0000000E+00  0.0000000E+00  0.0000000E+00  0.0000000E+00  0.0000000E+00
1145156.  0.0000000E+00  0.0000000E+00  0.0000000E+00  0.0000000E+00  0.0000000E+00  0.0000000E+00
1106984.  0.0000000E+00  0.0000000E+00  0.0000000E+00  0.0000000E+00  0.0000000E+00  0.0000000E+00
1068812.  0.0000000E+00  0.0000000E+00  0.0000000E+00  0.0000000E+00  0.0000000E+00  0.0000000E+00
1030641.  0.0000000E+00  0.0000000E+00  0.0000000E+00  0.0000000E+00  0.0000000E+00  0.0000000E+00
 992469.  0.0000000E+00  0.0000000E+00  0.0000000E+00  0.0000000E+00  0.0000000E+00  0.0000000E+00
 954297.  0.0000000E+00  0.0000000E+00  0.0000000E+00  0.0000000E+00  0.0000000E+00  0.0000000E+00
 916125.  0.0000000E+00  0.0000000E+00  0.0000000E+00  0.0000000E+00  0.0000000E+00  0.0000000E+00
 877953.  0.0000000E+00  0.0000000E+00  0.0000000E+00  0.0000000E+00  0.0000000E+00  0.0000000E+00
 839781.  0.0000000E+00  0.0000000E+00  0.0000000E+00  0.0000000E+00  0.0000000E+00  0.0000000E+00
 801609.  0.0000000E+00  0.0000000E+00  0.0000000E+00  0.0000000E+00  0.0000000E+00  0.0000000E+00
 763438.  0.0000000E+00  0.0000000E+00  0.0000000E+00  0.0000000E+00  0.0000000E+00  0.0000000E+00
 725266.  0.0000000E+00  0.0000000E+00  0.0000000E+00  0.0000000E+00  0.0000000E+00  0.0000000E+00
 687094.  0.0000000E+00  0.0000000E+00  0.0000000E+00  0.0000000E+00  0.0000000E+00  0.0000000E+00
 648922.  0.0000000E+00  0.0000000E+00  0.0000000E+00  0.0000000E+00  0.0000000E+00  0.0000000E+00
 610750.  0.0000000E+00  0.0000000E+00  0.0000000E+00  0.0000000E+00  0.0000000E+00  0.0000000E+00
 572578.  0.0000000E+00  0.0000000E+00  0.0000000E+00  0.0000000E+00  0.0000000E+00  0.0000000E+00
 534406.  0.0000000E+00  0.0000000E+00  0.0000000E+00  0.0000000E+00  0.0000000E+00  0.0000000E+00
 496234.  0.0000000E+00  0.0000000E+00  0.0000000E+00  0.0000000E+00  0.0000000E+00  0.0000000E+00
 458062.  0.0000000E+00  0.0000000E+00  0.0000000E+00  0.0000000E+00  0.0000000E+00  0.0000000E+00
 419891.  0.0000000E+00  0.0000000E+00  0.0000000E+00  0.0000000E+00  0.0000000E+00  0.0000000E+00
 381719.  0.0000000E+00  0.0000000E+00  0.0000000E+00  0.0000000E+00  0.0000000E+00  0.0000000E+00
 343547.  0.0000000E+00  0.0000000E+00  0.0000000E+00  0.0000000E+00  0.0000000E+00  0.0000000E+00
 305375.  0.0000000E+00  0.0000000E+00  0.0000000E+00  0.0000000E+00  0.0000000E+00  0.0000000E+00
 267203.  0.0000000E+00  0.0000000E+00  0.0000000E+00  0.0000000E+00  0.0000000E+00  0.0000000E+00
 229031.  0.0000000E+00  0.0000000E+00  0.0000000E+00  0.0000000E+00  0.0000000E+00  0.0000000E+00
 190859.  0.0000000E+00  0.0000000E+00  0.0000000E+00  0.0000000E+00  0.0000000E+00  0.0000000E+00
 152688.  0.0000000E+00  0.0000000E+00  0.0000000E+00  0.0000000E+00  0.0000000E+00  0.0000000E+00
 114516.  0.0000000E+00  0.0000000E+00  0.0000000E+00  0.0000000E+00  0.0000000E+00  0.0000000E+00
  76344.  0.0000000E+00  0.0000000E+00  0.0000000E+00  0.0000000E+00  0.0000000E+00  0.0000000E+00
  38172.  0.0000000E+00  0.0000000E+00  0.0000000E+00  0.0000000E+00  0.0000000E+00  0.0000000E+00
      0.  0.0000000E+00  0.0000000E+00  0.0000000E+00  0.0000000E+00  0.0000000E+00  0.0000000E+00
