      10       25 S      523        102.27800         15.34846         14.56907         88.72385      185    7
6371000.  0.7581533E-10 -0.1151972E-08 -0.4276735E-11 -0.8009206E-10  0.2699621E-12 -0.1499890E-09
6370000.  0.7599161E-10 -0.1093993E-08 -0.4263452E-11 -0.8915815E-10  0.2934688E-12 -0.1495306E-09
6369000.  0.7615872E-10 -0.1035235E-08 -0.4248749E-11 -0.9817736E-10  0.3169025E-12 -0.1490597E-09
6368000.  0.7631655E-10 -0.9757092E-09 -0.4232634E-11 -0.1071465E-09  0.3402613E-12 -0.1485762E-09
6368000.  0.7631655E-10 -0.9757092E-09 -0.4232634E-11 -0.1071465E-09  0.3402613E-12 -0.1485762E-09
6367000.  0.7646498E-10 -0.9154243E-09 -0.4215116E-11 -0.1160625E-09  0.3635433E-12 -0.1480803E-09
6366000.  0.7660388E-10 -0.8543904E-09 -0.4196202E-11 -0.1249221E-09  0.3867464E-12 -0.1475719E-09
6365000.  0.7673315E-10 -0.7926179E-09 -0.4175903E-11 -0.1337224E-09  0.4098687E-12 -0.1470511E-09
6364000.  0.7685266E-10 -0.7301174E-09 -0.4154227E-11 -0.1424601E-09  0.4329084E-12 -0.1465180E-09
6363000.  0.7696231E-10 -0.6668999E-09 -0.4131185E-11 -0.1511323E-09  0.4558634E-12 -0.1459726E-09
6362000.  0.7706198E-10 -0.6029766E-09 -0.4106787E-11 -0.1597359E-09  0.4787319E-12 -0.1454150E-09
6361000.  0.7715156E-10 -0.5383590E-09 -0.4081044E-11 -0.1682680E-09  0.5015118E-12 -0.1448451E-09
6360000.  0.7723095E-10 -0.4730589E-09 -0.4053968E-11 -0.1767254E-09  0.5242013E-12 -0.1442631E-09
6359000.  0.7730003E-10 -0.4070885E-09 -0.4025570E-11 -0.1851054E-09  0.5467986E-12 -0.1436690E-09
6358000.  0.7735871E-10 -0.3404602E-09 -0.3995863E-11 -0.1934048E-09  0.5693017E-12 -0.1430629E-09
6357000.  0.7740688E-10 -0.2731865E-09 -0.3964860E-11 -0.2016210E-09  0.5917086E-12 -0.1424448E-09
6356000.  0.7744444E-10 -0.2052806E-09 -0.3932574E-11 -0.2097510E-09  0.6140176E-12 -0.1418147E-09
6356000.  0.7744444E-10 -0.3719014E-09 -0.3932574E-11 -0.1589391E-09  0.6140176E-12 -0.1586657E-09
6355000.  0.7749899E-10 -0.3230950E-09 -0.3907223E-11 -0.1640801E-09  0.6388699E-12 -0.1580000E-09
6354000.  0.7754584E-10 -0.2738960E-09 -0.3881069E-11 -0.1691737E-09  0.6636169E-12 -0.1573258E-09
6353000.  0.7758495E-10 -0.2243112E-09 -0.3854118E-11 -0.1742187E-09  0.6882575E-12 -0.1566432E-09
6352000.  0.7761624E-10 -0.1743476E-09 -0.3826380E-11 -0.1792139E-09  0.7127903E-12 -0.1559522E-09
6351000.  0.7763966E-10 -0.1240123E-09 -0.3797861E-11 -0.1841583E-09  0.7372139E-12 -0.1552529E-09
6350000.  0.7765515E-10 -0.7331229E-10 -0.3768571E-11 -0.1890507E-09  0.7615272E-12 -0.1545452E-09
6349000.  0.7766265E-10 -0.2225498E-10 -0.3738517E-11 -0.1938901E-09  0.7857287E-12 -0.1538294E-09
6348000.  0.7766212E-10  0.2915230E-10 -0.3707708E-11 -0.1986752E-09  0.8098173E-12 -0.1531053E-09
6347000.  0.7765349E-10  0.8090206E-10 -0.3676151E-11 -0.2034051E-09  0.8337915E-12 -0.1523731E-09
6346600.  0.7764776E-10  0.1016962E-09 -0.3663322E-11 -0.2052813E-09  0.8433489E-12 -0.1520779E-09
6346600.  0.7764776E-10 -0.4151431E-09 -0.3663322E-11 -0.1651101E-09  0.8433489E-12 -0.1791525E-09
6318800.  0.7698461E-10  0.7495160E-09 -0.2758028E-11 -0.2441251E-09  0.1580509E-11 -0.1580170E-09
6291000.  0.7092828E-10  0.2035941E-08 -0.1589021E-11 -0.2846919E-09  0.2216533E-11 -0.1328733E-09
6291000.  0.7092828E-10  0.2054736E-08 -0.1589021E-11 -0.2916920E-09  0.2216533E-11 -0.1328733E-09
6263000.  0.5898217E-10  0.3366263E-08 -0.2974909E-12 -0.2881903E-09  0.2737774E-11 -0.1037759E-09
6235000.  0.4158974E-10  0.4507309E-08  0.8776388E-12 -0.2395308E-09  0.3124426E-11 -0.7176351E-10
6207000.  0.1982919E-10  0.5331721E-08  0.1753298E-11 -0.1537546E-09  0.3365625E-11 -0.3775174E-10
6179000. -0.4640612E-11  0.5724643E-08  0.2194351E-11 -0.4436693E-10  0.3454924E-11 -0.2834721E-11
6151000. -0.2975677E-10  0.5619464E-08  0.2133557E-11  0.7161928E-10  0.3391033E-11  0.3174321E-10
6151000. -0.2975677E-10  0.4650920E-08  0.2133557E-11  0.6696722E-10  0.3391033E-11  0.3338952E-10
6128500. -0.4546161E-10  0.4205544E-08  0.1765207E-11  0.1398383E-09  0.3238677E-11  0.5266614E-10
6106000. -0.5921609E-10  0.3552553E-08  0.1161987E-11  0.1990408E-09  0.3020788E-11  0.7045924E-10
6083500. -0.7036012E-10  0.2735433E-08  0.3812433E-12  0.2396858E-09  0.2743029E-11  0.8653575E-10
6061000. -0.7840706E-10  0.1808289E-08 -0.5052292E-12  0.2585240E-09  0.2411806E-11  0.1007089E-09
6038500. -0.8307405E-10  0.8316733E-09 -0.1417376E-11  0.2541490E-09  0.2034109E-11  0.1128343E-09
6016000. -0.8429669E-10 -0.1320191E-09 -0.2273519E-11  0.2270432E-09  0.1617363E-11  0.1228088E-09
5993500. -0.8222745E-10 -0.1023095E-08 -0.2996889E-11  0.1794739E-09  0.1169287E-11  0.1305692E-09
5971000. -0.7721857E-10 -0.1788796E-08 -0.3521549E-11  0.1152599E-09  0.6977636E-12  0.1360844E-09
5971000. -0.7721857E-10 -0.1690736E-08 -0.3521549E-11  0.1112250E-09  0.6977636E-12  0.1461929E-09
5937667. -0.6626075E-10 -0.2430758E-08 -0.3839641E-11  0.9096950E-11 -0.8858130E-13  0.1537344E-09
5904333. -0.5250201E-10 -0.2760082E-08 -0.3617364E-11 -0.9275410E-10 -0.9044191E-12  0.1575400E-09
5871000. -0.3806179E-10 -0.2699129E-08 -0.2893985E-11 -0.1804500E-09 -0.1731423E-11  0.1580891E-09
5837667. -0.2482447E-10 -0.2314355E-08 -0.1771282E-11 -0.2441364E-09 -0.2553748E-11  0.1558207E-09
5804333. -0.1424146E-10 -0.1702005E-08 -0.3906107E-12 -0.2785518E-09 -0.3357721E-11  0.1511262E-09
5771000. -0.7220497E-11 -0.9712953E-09  0.1090767E-11 -0.2828441E-09 -0.4131541E-11  0.1443595E-09
5771000. -0.7220497E-11 -0.9712714E-09  0.1090767E-11 -0.2828345E-09 -0.4131541E-11  0.1443595E-09
5701000. -0.4745269E-11  0.4809017E-09  0.3977634E-11 -0.2237800E-09 -0.5612081E-11  0.1239268E-09
5701000. -0.4745269E-11  0.5298621E-09  0.3977634E-11 -0.1749640E-09 -0.5612081E-11  0.1252644E-09
5667333. -0.8636096E-11  0.9128904E-09  0.4739275E-11 -0.1166943E-09 -0.6235912E-11  0.1107578E-09
5633667. -0.1414367E-10  0.1148986E-08  0.5231594E-11 -0.6965573E-10 -0.6782104E-11  0.9593583E-10
5600000. -0.2050281E-10  0.1230445E-08  0.5468341E-11 -0.1974587E-10 -0.7249520E-11  0.8095053E-10
5600000. -0.2050281E-10  0.1230445E-08  0.5468341E-11 -0.1974587E-10 -0.7249520E-11  0.8095053E-10
5563518. -0.2736733E-10  0.1135785E-08  0.5429432E-11  0.3267060E-10 -0.7666566E-11  0.6473336E-10
5527037. -0.3316577E-10  0.8615046E-09  0.5106067E-11  0.7889321E-10 -0.7991360E-11  0.4877249E-10
5490556. -0.3694411E-10  0.4363483E-09  0.4545122E-11  0.1150992E-09 -0.8226054E-11  0.3330192E-10
5454074. -0.3795695E-10 -0.9623920E-10  0.3812304E-11  0.1385691E-09 -0.8374108E-11  0.1854481E-10
5417593. -0.3573792E-10 -0.6830363E-09  0.2985258E-11  0.1478973E-09 -0.8440172E-11  0.4697165E-11
5381111. -0.3014192E-10 -0.1265905E-08  0.2145727E-11  0.1430208E-09 -0.8429970E-11 -0.8066567E-11
5344630. -0.2135728E-10 -0.1787714E-08  0.1372188E-11  0.1251590E-09 -0.8350135E-11 -0.1960457E-10
5308148. -0.9882323E-11 -0.2197724E-08  0.7327760E-12  0.9662875E-10 -0.8207983E-11 -0.2981704E-10
5271667.  0.3519671E-11 -0.2455232E-08  0.2799888E-12  0.6055528E-10 -0.8011321E-11 -0.3863736E-10
5235185.  0.1789360E-10 -0.2533989E-08  0.4674693E-13  0.2057303E-10 -0.7768198E-11 -0.4604199E-10
5198704.  0.3217731E-10 -0.2423405E-08  0.4460652E-13 -0.1953771E-10 -0.7486707E-11 -0.5204677E-10
5162222.  0.4529482E-10 -0.2128818E-08  0.2638611E-12 -0.5618471E-10 -0.7174707E-11 -0.5670634E-10
5125741.  0.5624618E-10 -0.1671674E-08  0.6754345E-12 -0.8624679E-10 -0.6839712E-11 -0.6009682E-10
5089259.  0.6419360E-10 -0.1086149E-08  0.1234386E-11 -0.1073232E-09 -0.6488666E-11 -0.6233000E-10
5052778.  0.6852433E-10 -0.4165652E-09  0.1884394E-11 -0.1178788E-09 -0.6127849E-11 -0.6353475E-10
5016296.  0.6890040E-10  0.2864242E-09  0.2563120E-11 -0.1173284E-09 -0.5762755E-11 -0.6384360E-10
4979815.  0.6528086E-10  0.9703278E-09  0.3207491E-11 -0.1060186E-09 -0.5398115E-11 -0.6340433E-10
4943333.  0.5792090E-10  0.1584804E-08  0.3758994E-11 -0.8515069E-10 -0.5037785E-11 -0.6235678E-10
4906852.  0.4734929E-10  0.2085463E-08  0.4168035E-11 -0.5663145E-10 -0.4684898E-11 -0.6082993E-10
4870370.  0.3432278E-10  0.2437162E-08  0.4397548E-11 -0.2287832E-10 -0.4341808E-11 -0.5895039E-10
4833889.  0.1976871E-10  0.2616258E-08  0.4425244E-11  0.1339204E-10 -0.4010255E-11 -0.5681921E-10
4797407.  0.4711568E-11  0.2612031E-08  0.4244680E-11  0.4940310E-10 -0.3691407E-11 -0.5452270E-10
4760926. -0.9798704E-11  0.2426893E-08  0.3865034E-11  0.8251080E-10 -0.3386020E-11 -0.5213090E-10
4724444. -0.2276467E-10  0.2076009E-08  0.3309689E-11  0.1104192E-09 -0.3094469E-11 -0.4969443E-10
4687963. -0.3330663E-10  0.1585525E-08  0.2613916E-11  0.1313069E-09 -0.2816922E-11 -0.4724583E-10
4651482. -0.4072214E-10  0.9904400E-09  0.1821746E-11  0.1439348E-09 -0.2553387E-11 -0.4480344E-10
4615000. -0.4452791E-10  0.3318761E-09  0.9824591E-12  0.1477096E-09 -0.2303781E-11 -0.4237908E-10
4578518. -0.4448614E-10 -0.3459263E-09  0.1469760E-12  0.1426631E-09 -0.2068014E-11 -0.3996872E-10
4542037. -0.4061429E-10 -0.9986869E-09 -0.6357077E-12  0.1294276E-09 -0.1846026E-11 -0.3756792E-10
4505556. -0.3317599E-10 -0.1585102E-08 -0.1321785E-11  0.1091466E-09 -0.1637767E-11 -0.3517225E-10
4469074. -0.2265715E-10 -0.2069128E-08 -0.1875150E-11  0.8335189E-10 -0.1443239E-11 -0.3276864E-10
4432593. -0.9730036E-11 -0.2422356E-08 -0.2269297E-11  0.5385753E-10 -0.1262507E-11 -0.3035510E-10
4396111.  0.4796805E-11 -0.2625253E-08 -0.2488573E-11  0.2259677E-10 -0.1095625E-11 -0.2792993E-10
4359630.  0.2002833E-10 -0.2667818E-08 -0.2528414E-11 -0.8497609E-11 -0.9426632E-12 -0.2549488E-10
4323148.  0.3504301E-10 -0.2550177E-08 -0.2395035E-11 -0.3761963E-10 -0.8036602E-12 -0.2305440E-10
4286667.  0.4894497E-10 -0.2281575E-08 -0.2104368E-11 -0.6319836E-10 -0.6786250E-12 -0.2061992E-10
4250185.  0.6091710E-10 -0.1879578E-08 -0.1680456E-11 -0.8397381E-10 -0.5674786E-12 -0.1820367E-10
4213704.  0.7026238E-10 -0.1368733E-08 -0.1153578E-11 -0.9904892E-10 -0.4701043E-12 -0.1581250E-10
4177222.  0.7644028E-10 -0.7784539E-09 -0.5579812E-12 -0.1079183E-09 -0.3863112E-12 -0.1346123E-10
4140741.  0.7908821E-10 -0.1414351E-09  0.7023742E-13 -0.1104593E-09 -0.3158603E-12 -0.1115153E-10
4104259.  0.7803518E-10  0.5085899E-09  0.6953926E-12 -0.1069096E-09 -0.2585454E-12 -0.8872101E-11
4067778.  0.7330224E-10  0.1138543E-08  0.1284017E-11 -0.9782080E-10 -0.2141959E-12 -0.6619831E-11
4031296.  0.6509299E-10  0.1717916E-08  0.1806614E-11 -0.8399273E-10 -0.1827684E-12 -0.4349173E-11
3994815.  0.5377611E-10  0.2219981E-08  0.2238753E-11 -0.6640526E-10 -0.1645284E-12 -0.2004053E-11
3958333.  0.3985879E-10  0.2622889E-08  0.2562007E-11 -0.4614443E-10 -0.1601009E-12  0.4927025E-12
3921852.  0.2395835E-10  0.2910596E-08  0.2764248E-11 -0.2432517E-10 -0.1707078E-12  0.3271876E-11
3885370.  0.6765674E-11  0.3072847E-08  0.2839667E-11 -0.2019935E-11 -0.1984301E-12  0.6503568E-11
3848889. -0.1098446E-10  0.3105237E-08  0.2788334E-11  0.1979412E-10 -0.2464956E-12  0.1042334E-10
3812407. -0.2855057E-10  0.3009000E-08  0.2615495E-11  0.4029593E-10 -0.3197204E-12  0.1535251E-10
3775926. -0.4520945E-10  0.2789838E-08  0.2330583E-11  0.5885207E-10 -0.4250679E-12  0.2172772E-10
3739444. -0.6028416E-10  0.2457414E-08  0.1946028E-11  0.7504389E-10 -0.5724136E-12  0.3013162E-10
3702963. -0.7315973E-10  0.2024040E-08  0.1476041E-11  0.8868527E-10 -0.7754963E-12  0.4135016E-10
3666482. -0.8329657E-10  0.1503131E-08  0.9351644E-12  0.9983177E-10 -0.1053377E-11  0.5646275E-10
3630000. -0.9023290E-10  0.9082729E-09  0.3369643E-12  0.1087690E-09 -0.1432265E-11  0.7690411E-10
3630000. -0.9023290E-10  0.9082729E-09  0.3369643E-12  0.1087690E-09 -0.1432265E-11  0.7690411E-10
3592500. -0.9361895E-10  0.2322853E-09 -0.3258473E-12  0.1162106E-09 -0.1964826E-11  0.1055562E-09
3555000. -0.9285810E-10 -0.4995624E-09 -0.1029199E-11  0.1227031E-09 -0.2695717E-11  0.1448622E-09
3517500. -0.8763768E-10 -0.1282836E-08 -0.1770574E-11  0.1293348E-09 -0.3698867E-11  0.1988543E-09
3480000. -0.7765080E-10 -0.2120336E-08 -0.2554695E-11  0.1374820E-09 -0.5076339E-11  0.2731462E-09
3480000. -0.7765080E-10  0.9999511E-10  0.1029394E-11 -0.1440631E-09 -0.5076339E-11  0.5221711E-09
3409422. -0.7896288E-10  0.1831340E-09  0.2670447E-11 -0.1525770E-09 -0.1105843E-10  0.5577375E-09
3338844. -0.8277112E-10  0.5548362E-09  0.4429450E-11 -0.1664262E-09 -0.1747888E-10  0.6056282E-09
3268266. -0.9247034E-10  0.1257287E-08  0.6403649E-11 -0.1927674E-09 -0.2462241E-10  0.6931355E-09
3197688. -0.1122032E-09  0.2389817E-08  0.8780948E-11 -0.2410602E-09 -0.3310160E-10  0.8529464E-09
3127109. -0.1477418E-09  0.4157091E-08  0.1187599E-10 -0.3251936E-09 -0.4394936E-10  0.1129650E-08
3056531. -0.2080488E-09  0.6947733E-08  0.1619858E-10 -0.4673928E-09 -0.5880722E-10  0.1591043E-08
2985953. -0.3080234E-09  0.1147614E-07  0.2258177E-10 -0.7053410E-09 -0.8028184E-10  0.2347729E-08
2915375. -0.4734280E-09  0.1904927E-07  0.3241824E-10 -0.1105334E-08 -0.1125914E-09  0.3587630E-08
2844797. -0.7499952E-09  0.3208299E-07  0.4810056E-10 -0.1787207E-08 -0.1627340E-09  0.5638491E-08
2774219. -0.1220728E-08  0.5512470E-07  0.7385256E-10 -0.2972781E-08 -0.2426115E-09  0.9083821E-08
2703641. -0.2039613E-08  0.9692081E-07  0.1173319E-09 -0.5082411E-08 -0.3729506E-09  0.1498284E-07
2633062. -0.3498970E-08  0.1746962E-06  0.1927923E-09 -0.8932210E-08 -0.5906747E-09  0.2529685E-07
2562484. -0.6167179E-08  0.3232177E-06  0.3274653E-09 -0.1614677E-07 -0.9630197E-09  0.4373216E-07
2491906. -0.1117814E-07  0.6145129E-06  0.5748134E-09 -0.3004775E-07 -0.1615217E-08  0.7744587E-07
2421328. -0.2085501E-07  0.1201891E-05  0.1042753E-08 -0.5761669E-07 -0.2785844E-08  0.1405670E-06
2350750. -0.4009270E-07  0.2421039E-05  0.1955522E-08 -0.1139587E-06 -0.4940109E-08  0.2616361E-06
2280172. -0.7951223E-07  0.5029179E-05  0.3793362E-08 -0.2327643E-06 -0.9007086E-08  0.4996858E-06
2209594. -0.1628811E-06  0.1078867E-04  0.7617853E-08 -0.4916107E-06 -0.1688847E-07  0.9798347E-06
2139016. -0.3451406E-06  0.2393870E-04  0.1585486E-07 -0.1075231E-05 -0.3257665E-07  0.1974015E-05
2068438. -0.7577195E-06  0.5503769E-04  0.3424505E-07 -0.2439375E-05 -0.6467433E-07  0.4088659E-05
1997859. -0.1726634E-05  0.1313736E-03  0.7688446E-07 -0.5751364E-05 -0.1322211E-06  0.8712316E-05
1927281. -0.4092140E-05  0.3262800E-03  0.1797584E-06 -0.1412182E-04 -0.2785112E-06  0.1910949E-04
1856703. -0.1011043E-04  0.8452561E-03  0.4386301E-06 -0.3619800E-04 -0.6047470E-06  0.4316217E-04
1786125. -0.2610936E-04  0.2290398E-02  0.1119833E-05 -0.9712563E-04 -0.1354026E-05  0.1003947E-03
1715547. -0.7068415E-04  0.6512146E-02  0.2999868E-05 -0.2736397E-03 -0.3125809E-05  0.2403197E-03
1644969. -0.2012878E-03  0.1949737E-01  0.8460158E-05 -0.8123543E-03 -0.7433598E-05  0.5908714E-03
1574391. -0.6052848E-03  0.6172019E-01  0.2521321E-04 -0.2551367E-02 -0.1816749E-04  0.1485536E-02
1503812. -0.1930540E-02  0.2075380E+00  0.7975423E-04 -0.8516560E-02 -0.4538225E-04  0.3782122E-02
1433234. -0.6564066E-02  0.7452183E+00  0.2691102E-03 -0.3037384E-01 -0.1144761E-03  0.9537267E-02
1362656. -0.2393368E-01  0.2875166E+01  0.9743272E-03 -0.1164510E+00 -0.2833980E-03  0.2247502E-01
1292078. -0.9422579E-01  0.1200441E+02  0.3811018E-02 -0.4833785E+00 -0.6348743E-03  0.3965415E-01
1221500. -0.4037841E+00  0.5469592E+02  0.1623374E-01 -0.2190576E+01 -0.8695521E-03 -0.3960648E-01
1221500. -0.4037841E+00  0.1053107E+02  0.4035403E-02  0.2127072E+01 -0.8695521E-03  0.1353144E+00
1183328. -0.3874197E+00 -0.1180568E+02 -0.3564251E-02  0.6142766E+00 -0.1069467E-02 -0.3062348E-01
1145156. -0.2965025E+00 -0.1672219E+02 -0.5084642E-02 -0.5435038E-02 -0.7716257E-03 -0.5692784E-01
1106984. -0.2006304E+00 -0.1465858E+02 -0.4336394E-02 -0.1986914E+00 -0.4606886E-03 -0.4444863E-01
1068812. -0.1244624E+00 -0.1069076E+02 -0.3056357E-02 -0.2112570E+00 -0.2463721E-03 -0.2750946E-01
1030641. -0.7193145E-01 -0.6972069E+01 -0.1920525E-02 -0.1637016E+00 -0.1216411E-03 -0.1503071E-01
 992469. -0.3902542E-01 -0.4179682E+01 -0.1107121E-02 -0.1088202E+00 -0.5621390E-04 -0.7527946E-02
 954297. -0.1994478E-01 -0.2332240E+01 -0.5930346E-03 -0.6519242E-01 -0.2447665E-04 -0.3513301E-02
 916125. -0.9611882E-02 -0.1218273E+01 -0.2968892E-03 -0.3591272E-01 -0.1006961E-04 -0.1539875E-02
 877953. -0.4365481E-02 -0.5970386E+00 -0.1392063E-03 -0.1835553E-01 -0.3915604E-05 -0.6358492E-03
 839781. -0.1865205E-02 -0.2744932E+00 -0.6112371E-04 -0.8735910E-02 -0.1437413E-05 -0.2474839E-03
 801609. -0.7476123E-03 -0.1182083E+00 -0.2508953E-04 -0.3873585E-02 -0.4968904E-06 -0.9067373E-04
 763438. -0.2800683E-03 -0.4754695E-01 -0.9598317E-05 -0.1597796E-02 -0.1611467E-06 -0.3118398E-04
 725266. -0.9759132E-04 -0.1779100E-01 -0.3407679E-05 -0.6111641E-03 -0.4879038E-07 -0.1002359E-04
 687094. -0.3144882E-04 -0.6160845E-02 -0.1116668E-05 -0.2157944E-03 -0.1370779E-07 -0.2995355E-05
 648922. -0.9306397E-05 -0.1961722E-02 -0.3354645E-06 -0.6991121E-04 -0.3546871E-08 -0.8262617E-06
 610750. -0.2507478E-05 -0.5698244E-03 -0.9162415E-07 -0.2062357E-04 -0.8376290E-09 -0.2086183E-06
 572578. -0.6088010E-06 -0.1495278E-03 -0.2252102E-07 -0.5487379E-05 -0.1785623E-09 -0.4771066E-07
 534406. -0.1315249E-06 -0.3502555E-04 -0.4919811E-08 -0.1301470E-05 -0.3390068E-10 -0.9756959E-08
 496234. -0.2489272E-07 -0.7216076E-05 -0.9405305E-09 -0.2711475E-06 -0.5638174E-11 -0.1756185E-08
 458062. -0.4047928E-08 -0.1283599E-05 -0.1543343E-09 -0.4871792E-07 -0.8047504E-12 -0.2728074E-09
 419891. -0.5518669E-09 -0.1925683E-06 -0.2121209E-10 -0.7374713E-08 -0.9604206E-13 -0.3567596E-10
 381719. -0.6112558E-10 -0.2363362E-07 -0.2365740E-11 -0.9119805E-09 -0.9277574E-14 -0.3775520E-11
 343547.  0.0000000E+00  0.0000000E+00  0.0000000E+00  0.0000000E+00  0.0000000E+00  0.0000000E+00
 305375.  0.0000000E+00  0.0000000E+00  0.0000000E+00  0.0000000E+00  0.0000000E+00  0.0000000E+00
 267203.  0.0000000E+00  0.0000000E+00  0.0000000E+00  0.0000000E+00  0.0000000E+00  0.0000000E+00
 229031.  0.0000000E+00  0.0000000E+00  0.0000000E+00  0.0000000E+00  0.0000000E+00  0.0000000E+00
 190859.  0.0000000E+00  0.0000000E+00  0.0000000E+00  0.0000000E+00  0.0000000E+00  0.0000000E+00
 152688.  0.0000000E+00  0.0000000E+00  0.0000000E+00  0.0000000E+00  0.0000000E+00  0.0000000E+00
 114516.  0.0000000E+00  0.0000000E+00  0.0000000E+00  0.0000000E+00  0.0000000E+00  0.0000000E+00
  76344.  0.0000000E+00  0.0000000E+00  0.0000000E+00  0.0000000E+00  0.0000000E+00  0.0000000E+00
  38172.  0.0000000E+00  0.0000000E+00  0.0000000E+00  0.0000000E+00  0.0000000E+00  0.0000000E+00
      0.  0.0000000E+00  0.0000000E+00  0.0000000E+00  0.0000000E+00  0.0000000E+00  0.0000000E+00
