       6       12 S      372        203.58640         15.73000         14.99035         89.38042      185    7
6371000. -0.7220664E-05 -0.5032891E-04 -0.9130226E-06  0.6307641E-05  0.1876006E-06  0.1117768E-04
6370000. -0.7212657E-05 -0.5169283E-04 -0.9139745E-06  0.5819805E-05  0.1858445E-06  0.1119943E-04
6369000. -0.7204437E-05 -0.5304744E-04 -0.9148496E-06  0.5330877E-05  0.1840849E-06  0.1122088E-04
6368000. -0.7196005E-05 -0.5439265E-04 -0.9156479E-06  0.4840899E-05  0.1823220E-06  0.1124203E-04
6368000. -0.7196005E-05 -0.5439265E-04 -0.9156479E-06  0.4840899E-05  0.1823220E-06  0.1124203E-04
6367000. -0.7187362E-05 -0.5572843E-04 -0.9163692E-06  0.4349913E-05  0.1805558E-06  0.1126288E-04
6366000. -0.7178511E-05 -0.5705472E-04 -0.9170134E-06  0.3857963E-05  0.1787864E-06  0.1128343E-04
6365000. -0.7169452E-05 -0.5837144E-04 -0.9175803E-06  0.3365092E-05  0.1770137E-06  0.1130367E-04
6364000. -0.7160188E-05 -0.5967856E-04 -0.9180696E-06  0.2871341E-05  0.1752379E-06  0.1132361E-04
6363000. -0.7150718E-05 -0.6097601E-04 -0.9184816E-06  0.2376755E-05  0.1734590E-06  0.1134325E-04
6362000. -0.7141046E-05 -0.6226375E-04 -0.9188158E-06  0.1881376E-05  0.1716770E-06  0.1136258E-04
6361000. -0.7131173E-05 -0.6354171E-04 -0.9190721E-06  0.1385247E-05  0.1698920E-06  0.1138161E-04
6360000. -0.7121100E-05 -0.6480985E-04 -0.9192506E-06  0.8884122E-06  0.1681041E-06  0.1140033E-04
6359000. -0.7110828E-05 -0.6606811E-04 -0.9193510E-06  0.3909141E-06  0.1663132E-06  0.1141874E-04
6358000. -0.7100360E-05 -0.6731645E-04 -0.9193732E-06 -0.1072035E-06  0.1645195E-06  0.1143685E-04
6357000. -0.7089696E-05 -0.6855482E-04 -0.9193173E-06 -0.6058972E-06  0.1627229E-06  0.1145465E-04
6356000. -0.7078840E-05 -0.6978316E-04 -0.9191830E-06 -0.1105123E-05  0.1609236E-06  0.1147215E-04
6356000. -0.7078840E-05 -0.5688077E-04 -0.9191830E-06  0.1780429E-05  0.1609236E-06  0.1301242E-04
6355000. -0.7069839E-05 -0.5780221E-04 -0.9194374E-06  0.1460281E-05  0.1588793E-06  0.1303643E-04
6354000. -0.7060694E-05 -0.5871753E-04 -0.9196414E-06  0.1139682E-05  0.1568312E-06  0.1306022E-04
6353000. -0.7051407E-05 -0.5962669E-04 -0.9197951E-06  0.8186511E-06  0.1547794E-06  0.1308379E-04
6352000. -0.7041976E-05 -0.6052967E-04 -0.9198984E-06  0.4972064E-06  0.1527239E-06  0.1310714E-04
6351000. -0.7032405E-05 -0.6142645E-04 -0.9199512E-06  0.1753662E-06  0.1506648E-06  0.1313027E-04
6350000. -0.7022694E-05 -0.6231699E-04 -0.9199534E-06 -0.1468512E-06  0.1486021E-06  0.1315317E-04
6349000. -0.7012843E-05 -0.6320127E-04 -0.9199051E-06 -0.4694276E-06  0.1465357E-06  0.1317585E-04
6348000. -0.7002854E-05 -0.6407926E-04 -0.9198061E-06 -0.7923445E-06  0.1444659E-06  0.1319830E-04
6347000. -0.6992727E-05 -0.6495095E-04 -0.9196563E-06 -0.1115583E-05  0.1423925E-06  0.1322053E-04
6346600. -0.6988639E-05 -0.6529784E-04 -0.9195822E-06 -0.1244965E-05  0.1415622E-06  0.1322936E-04
6346600. -0.6988639E-05 -0.6464510E-04 -0.9195822E-06  0.1138636E-05  0.1415622E-06  0.1566620E-04
6318800. -0.6668430E-05 -0.8151861E-04 -0.9099559E-06 -0.5572077E-05  0.7171614E-07  0.1632580E-04
6291000. -0.6282731E-05 -0.9461027E-04 -0.8709321E-06 -0.1229811E-04 -0.7208137E-09  0.1685276E-04
6291000. -0.6282731E-05 -0.9703554E-04 -0.8709321E-06 -0.1297873E-04 -0.7208137E-09  0.1685276E-04
6263000. -0.5835086E-05 -0.1059462E-03 -0.7986994E-06 -0.1983091E-04 -0.7563950E-07  0.1721636E-04
6235000. -0.5357932E-05 -0.1104652E-03 -0.6973384E-06 -0.2619443E-04 -0.1518350E-06  0.1743345E-04
6207000. -0.4870416E-05 -0.1106927E-03 -0.5695078E-06 -0.3184001E-04 -0.2286603E-06  0.1750298E-04
6179000. -0.4390858E-05 -0.1069030E-03 -0.4188245E-06 -0.3656213E-04 -0.3054680E-06  0.1742570E-04
6151000. -0.3936007E-05 -0.9953472E-04 -0.2497436E-06 -0.4018604E-04 -0.3816179E-06  0.1720419E-04
6151000. -0.3936007E-05 -0.8273581E-04 -0.2497436E-06 -0.3478175E-04 -0.3816179E-06  0.1742195E-04
6128500. -0.3657997E-05 -0.7448684E-04 -0.1241918E-06 -0.3621310E-04 -0.4430117E-06  0.1733480E-04
6106000. -0.3411274E-05 -0.6506988E-04  0.5278525E-08 -0.3699917E-04 -0.5039801E-06  0.1718143E-04
6083500. -0.3199392E-05 -0.5480966E-04  0.1363787E-06 -0.3713661E-04 -0.5642932E-06  0.1696412E-04
6061000. -0.3024745E-05 -0.4403741E-04  0.2668305E-06 -0.3663453E-04 -0.6237298E-06  0.1668543E-04
6038500. -0.2888555E-05 -0.3308457E-04  0.3944100E-06 -0.3551462E-04 -0.6820776E-06  0.1634807E-04
6016000. -0.2790887E-05 -0.2227448E-04  0.5169905E-06 -0.3380989E-04 -0.7391346E-06  0.1595495E-04
5993500. -0.2730683E-05 -0.1191687E-04  0.6325796E-06 -0.3156329E-04 -0.7947095E-06  0.1550925E-04
5971000. -0.2705827E-05 -0.2302619E-05  0.7393538E-06 -0.2882729E-04 -0.8486224E-06  0.1501426E-04
5971000. -0.2705827E-05  0.2036943E-05  0.7393538E-06 -0.2524651E-04 -0.8486224E-06  0.1536847E-04
5937667. -0.2746816E-05  0.1313413E-04  0.8579411E-06 -0.2004291E-04 -0.9269967E-06  0.1457766E-04
5904333. -0.2837909E-05  0.2115587E-04  0.9488508E-06 -0.1470391E-04 -0.1001035E-05  0.1371239E-04
5871000. -0.2962654E-05  0.2599521E-04  0.1011944E-05 -0.9443125E-05 -0.1070378E-05  0.1278598E-04
5837667. -0.3104475E-05  0.2770314E-04  0.1048109E-05 -0.4436525E-05 -0.1134744E-05  0.1181182E-04
5804333. -0.3247409E-05  0.2645816E-04  0.1059055E-05  0.1774205E-06 -0.1193919E-05  0.1080318E-04
5771000. -0.3376691E-05  0.2253927E-04  0.1047118E-05  0.4296124E-05 -0.1247753E-05  0.9773326E-05
5771000. -0.3376691E-05  0.2254827E-04  0.1047118E-05  0.4296143E-05 -0.1247753E-05  0.9773326E-05
5701000. -0.3527502E-05  0.3177452E-05  0.9584606E-06  0.1156544E-04 -0.1342144E-05  0.7405612E-05
5701000. -0.3527502E-05  0.1055768E-04  0.9584606E-06  0.1018689E-04 -0.1342144E-05  0.8399888E-05
5667333. -0.3563517E-05  0.2661078E-05  0.9005474E-06  0.1169330E-04 -0.1383224E-05  0.7165439E-05
5633667. -0.3550521E-05 -0.7938185E-05  0.8347124E-06  0.1321977E-04 -0.1418028E-05  0.6015147E-05
5600000. -0.3478292E-05 -0.1948289E-04  0.7615346E-06  0.1440367E-04 -0.1446837E-05  0.4893213E-05
5600000. -0.3478292E-05 -0.1948289E-04  0.7615346E-06  0.1440367E-04 -0.1446837E-05  0.4893213E-05
5563518. -0.3329121E-05 -0.3271560E-04  0.6763538E-06  0.1527611E-04 -0.1471472E-05  0.3718268E-05
5527037. -0.3102816E-05 -0.4636476E-04  0.5874006E-06  0.1572272E-04 -0.1489509E-05  0.2589788E-05
5490556. -0.2798052E-05 -0.6005612E-04  0.4970911E-06  0.1575194E-04 -0.1501228E-05  0.1512491E-05
5454074. -0.2415666E-05 -0.7341379E-04  0.4077681E-06  0.1538119E-04 -0.1506936E-05  0.4907194E-06
5417593. -0.1958577E-05 -0.8609519E-04  0.3216495E-06  0.1463885E-04 -0.1506960E-05 -0.4722843E-06
5381111. -0.1431627E-05 -0.9775394E-04  0.2407640E-06  0.1355877E-04 -0.1501645E-05 -0.1373528E-05
5344630. -0.8416142E-06 -0.1080803E-03  0.1669360E-06  0.1218205E-04 -0.1491353E-05 -0.2210607E-05
5308148. -0.1969041E-06 -0.1168086E-03  0.1017280E-06  0.1055531E-04 -0.1476454E-05 -0.2982006E-05
5271667.  0.4925726E-06 -0.1236858E-03  0.4643739E-07  0.8727229E-05 -0.1457330E-05 -0.3686506E-05
5235185.  0.1215701E-05 -0.1285300E-03  0.2064438E-08  0.6750501E-05 -0.1434363E-05 -0.4323578E-05
5198704.  0.1960382E-05 -0.1311980E-03 -0.3068969E-07  0.4678132E-05 -0.1407943E-05 -0.4893266E-05
5162222.  0.2713837E-05 -0.1315754E-03 -0.5142710E-07  0.2561861E-05 -0.1378451E-05 -0.5396374E-05
5125741.  0.3462794E-05 -0.1296327E-03 -0.6004527E-07  0.4537378E-06 -0.1346268E-05 -0.5833565E-05
5089259.  0.4193987E-05 -0.1253663E-03 -0.5673091E-07 -0.1598126E-05 -0.1311765E-05 -0.6206604E-05
5052778.  0.4894169E-05 -0.1188211E-03 -0.4193674E-07 -0.3548729E-05 -0.1275306E-05 -0.6517558E-05
5016296.  0.5550616E-05 -0.1101046E-03 -0.1636096E-07 -0.5357287E-05 -0.1237239E-05 -0.6768343E-05
4979815.  0.6151223E-05 -0.9934903E-04  0.1907721E-07 -0.6988199E-05 -0.1197902E-05 -0.6961949E-05
4943333.  0.6684837E-05 -0.8673463E-04  0.6327358E-07 -0.8411348E-05 -0.1157612E-05 -0.7101175E-05
4906852.  0.7141405E-05 -0.7248041E-04  0.1149635E-06 -0.9602421E-05 -0.1116676E-05 -0.7188685E-05
4870370.  0.7512214E-05 -0.5681965E-04  0.1727661E-06 -0.1054329E-04 -0.1075375E-05 -0.7228547E-05
4833889.  0.7789960E-05 -0.4002586E-04  0.2352080E-06 -0.1122191E-04 -0.1033978E-05 -0.7223371E-05
4797407.  0.7968981E-05 -0.2238242E-04  0.3007715E-06 -0.1163242E-04 -0.9927304E-06 -0.7176472E-05
4760926.  0.8045228E-05 -0.4181119E-05  0.3679141E-06 -0.1177458E-04 -0.9518611E-06 -0.7092224E-05
4724444.  0.8016388E-05  0.1427151E-04  0.4351166E-06 -0.1165405E-04 -0.9115753E-06 -0.6972687E-05
4687963.  0.7881888E-05  0.3267458E-04  0.5008989E-06 -0.1128135E-04 -0.8720673E-06 -0.6821636E-05
4651482.  0.7642860E-05  0.5073210E-04  0.5638605E-06 -0.1067172E-04 -0.8335060E-06 -0.6642434E-05
4615000.  0.7302100E-05  0.6815785E-04  0.6226998E-06 -0.9844502E-05 -0.7960459E-06 -0.6437109E-05
4578518.  0.6864016E-05  0.8468109E-04  0.6762327E-06 -0.8822365E-05 -0.7598283E-06 -0.6208953E-05
4542037.  0.6334521E-05  0.1000506E-03  0.7234138E-06 -0.7630944E-05 -0.7249780E-06 -0.5960136E-05
4505556.  0.5720862E-05  0.1140420E-03  0.7633532E-06 -0.6297751E-05 -0.6916084E-06 -0.5692147E-05
4469074.  0.5031506E-05  0.1264522E-03  0.7953227E-06 -0.4851868E-05 -0.6598209E-06 -0.5407520E-05
4432593.  0.4276045E-05  0.1371131E-03  0.8187608E-06 -0.3323192E-05 -0.6297101E-06 -0.5106860E-05
4396111.  0.3464859E-05  0.1458863E-03  0.8332797E-06 -0.1741428E-05 -0.6013643E-06 -0.4790977E-05
4359630.  0.2609142E-05  0.1526601E-03  0.8386602E-06 -0.1363464E-06 -0.5748693E-06 -0.4460700E-05
4323148.  0.1720506E-05  0.1573669E-03  0.8348505E-06  0.1463911E-05 -0.5503073E-06 -0.4115459E-05
4286667.  0.8109724E-06  0.1599625E-03  0.8219561E-06  0.3032414E-05 -0.5277670E-06 -0.3754692E-05
4250185. -0.1073712E-06  0.1604372E-03  0.8002307E-06  0.4544220E-05 -0.5073392E-06 -0.3377165E-05
4213704. -0.1022395E-05  0.1588178E-03  0.7700652E-06  0.5977011E-05 -0.4891261E-06 -0.2980936E-05
4177222. -0.1922278E-05  0.1551507E-03  0.7319688E-06  0.7310874E-05 -0.4732412E-06 -0.2563298E-05
4140741. -0.2795462E-05  0.1495166E-03  0.6865602E-06  0.8528847E-05 -0.4598173E-06 -0.2120938E-05
4104259. -0.3631023E-05  0.1420204E-03  0.6345405E-06  0.9617436E-05 -0.4490063E-06 -0.1649756E-05
4067778. -0.4418582E-05  0.1327803E-03  0.5766864E-06  0.1056563E-04 -0.4409898E-06 -0.1143979E-05
4031296. -0.5148605E-05  0.1219430E-03  0.5138210E-06  0.1136628E-04 -0.4359817E-06 -0.5978950E-06
3994815. -0.5812354E-05  0.1096651E-03  0.4468056E-06  0.1201525E-04 -0.4342334E-06 -0.3964707E-08
3958333. -0.6402074E-05  0.9610969E-04  0.3765102E-06  0.1251129E-04 -0.4360465E-06  0.6475755E-06
3921852. -0.6910931E-05  0.8145610E-04  0.3038100E-06  0.1285647E-04 -0.4417773E-06  0.1366251E-05
3885370. -0.7333166E-05  0.6588013E-04  0.2295523E-06  0.1305556E-04 -0.4518464E-06  0.2165134E-05
3848889. -0.7663986E-05  0.4956005E-04  0.1545580E-06  0.1311590E-04 -0.4667545E-06  0.3059055E-05
3812407. -0.7899651E-05  0.3267035E-04  0.7959056E-07  0.1304731E-04 -0.4870922E-06  0.4064490E-05
3775926. -0.8037367E-05  0.1537782E-04  0.5358854E-08  0.1286178E-04 -0.5135560E-06  0.5202751E-05
3739444. -0.8075288E-05 -0.2162260E-05 -0.6751028E-07  0.1257314E-04 -0.5469740E-06  0.6497223E-05
3702963. -0.8012405E-05 -0.1980771E-04 -0.1384660E-06  0.1219687E-04 -0.5883145E-06  0.7975466E-05
3666482. -0.7848488E-05 -0.3743278E-04 -0.2070566E-06  0.1175001E-04 -0.6387278E-06  0.9672213E-05
3630000. -0.7583948E-05 -0.5493554E-04 -0.2729309E-06  0.1125056E-04 -0.6995733E-06  0.1162551E-04
3630000. -0.7583948E-05 -0.5493554E-04 -0.2729309E-06  0.1125056E-04 -0.6995733E-06  0.1162551E-04
3592500. -0.7208160E-05 -0.7271081E-04 -0.3375516E-06  0.1070258E-04 -0.7746734E-06  0.1395075E-04
3555000. -0.6728545E-05 -0.9020820E-04 -0.3988962E-06  0.1014107E-04 -0.8645507E-06  0.1665741E-04
3517500. -0.6146824E-05 -0.1074038E-03 -0.4569504E-06  0.9588343E-05 -0.9716522E-06  0.1981637E-04
3480000. -0.5464773E-05 -0.1243030E-03 -0.5118338E-06  0.9067579E-05 -0.1098888E-05  0.2351435E-04
3480000. -0.5464773E-05  0.9304226E-06  0.3213024E-06 -0.1059893E-04 -0.1098888E-05  0.4103979E-04
3409422. -0.5500120E-05  0.6267676E-05  0.4414090E-06 -0.1110822E-04 -0.1552100E-05  0.4083788E-04
3338844. -0.5622270E-05  0.1665693E-04  0.5681499E-06 -0.1181679E-04 -0.2005512E-05  0.4112938E-04
3268266. -0.5889496E-05  0.3256272E-04  0.7044430E-06 -0.1285697E-04 -0.2466412E-05  0.4224726E-04
3197688. -0.6367128E-05  0.5482374E-04  0.8548249E-06 -0.1439027E-04 -0.2945927E-05  0.4455400E-04
3127109. -0.7132745E-05  0.8484654E-04  0.1025846E-05 -0.1662161E-04 -0.3459457E-05  0.4846067E-04
3056531. -0.8283750E-05  0.1248608E-03  0.1226660E-05 -0.1982140E-04 -0.4027327E-05  0.5445549E-04
2985953. -0.9948518E-05  0.1782980E-03  0.1469933E-05 -0.2435929E-04 -0.4675905E-05  0.6314550E-04
2915375. -0.1230255E-04  0.2503498E-03  0.1773196E-05 -0.3075452E-04 -0.5439195E-05  0.7531445E-04
2844797. -0.1559235E-04  0.3488188E-03  0.2160899E-05 -0.3975206E-04 -0.6361223E-05  0.9200451E-04
2774219. -0.2017117E-04  0.4854468E-03  0.2667510E-05 -0.5244075E-04 -0.7499507E-05  0.1146316E-03
2703641. -0.2655331E-04  0.6780006E-03  0.3342281E-05 -0.7043808E-04 -0.8930047E-05  0.1451493E-03
2633062. -0.3549803E-04  0.9536128E-03  0.4256600E-05 -0.9618112E-04 -0.1075454E-04  0.1862850E-03
2562484. -0.4814026E-04  0.1354172E-02  0.5515385E-05 -0.1333916E-03 -0.1311061E-04  0.2418807E-03
2491906. -0.6619991E-04  0.1945216E-02  0.7275293E-05 -0.1878425E-03 -0.1618694E-04  0.3173997E-03
2421328. -0.9231830E-04  0.2830723E-02  0.9773786E-05 -0.2686179E-03 -0.2024497E-04  0.4206677E-03
2350750. -0.1306105E-03  0.4178159E-02  0.1337652E-04 -0.3902316E-03 -0.2565083E-04  0.5629854E-03
2280172. -0.1875860E-03  0.6261644E-02  0.1865581E-04 -0.5762637E-03 -0.3292249E-04  0.7607986E-03
2209594. -0.2737094E-03  0.9537579E-02  0.2652287E-04 -0.8656889E-03 -0.4279967E-04  0.1038216E-02
2139016. -0.4060949E-03  0.1477970E-01  0.3845456E-04 -0.1324118E-02 -0.5634850E-04  0.1430827E-02
2068438. -0.6132464E-03  0.2332506E-01  0.5689001E-04 -0.2064162E-02 -0.7511849E-04  0.1991480E-02
1997859. -0.9435748E-03  0.3753197E-01  0.8593887E-04 -0.3283144E-02 -0.1013791E-03  0.2799015E-02
1927281. -0.1480988E-02  0.6164977E-01  0.1326708E-03 -0.5334434E-02 -0.1384732E-03  0.3971134E-02
1856703. -0.2374220E-02  0.1035172E+00  0.2095285E-03 -0.8865982E-02 -0.1913470E-03  0.5683101E-02
1786125. -0.3893173E-02  0.1779546E+00  0.3389386E-03 -0.1509592E-01 -0.2673200E-03  0.8192790E-02
1715547. -0.6540216E-02  0.3137394E+00  0.5623781E-03 -0.2637690E-01 -0.3771588E-03  0.1186928E-01
1644969. -0.1127629E-01  0.5683762E+00  0.9587057E-03 -0.4738595E-01 -0.5364256E-03  0.1720903E-01
1574391. -0.1999449E-01  0.1060390E+01  0.1682386E-02 -0.8771630E-01 -0.7667145E-03  0.2478415E-01
1503812. -0.3654566E-01  0.2042453E+01  0.3045931E-02 -0.1677252E+00 -0.1095236E-02  0.3494770E-01
1433234. -0.6903855E-01  0.4073205E+01  0.5704047E-02 -0.3322248E+00 -0.1547646E-02  0.4677309E-01
1362656. -0.1352123E+00  0.8438440E+01  0.1108215E-01 -0.6839363E+00 -0.2118638E-02  0.5467263E-01
1292078. -0.2755255E+00  0.1823065E+02  0.2241664E-01 -0.1468959E+01 -0.2673245E-02  0.3801166E-01
1221500. -0.5866041E+00  0.4125840E+02  0.4740430E-01 -0.3306455E+01 -0.2636236E-02 -0.7072697E-01
1221500. -0.5866041E+00  0.7005797E+01  0.7618484E-02  0.3099298E+01 -0.2636236E-02  0.1833923E+00
1183328. -0.5961269E+00 -0.3060201E+01 -0.6817221E-02  0.1791186E+01 -0.3221041E-02  0.2786455E-01
1145156. -0.5579621E+00 -0.9100731E+01 -0.1461745E-01  0.8699551E+00 -0.3122839E-02 -0.5073007E-01
1106984. -0.4930099E+00 -0.1216215E+02 -0.1785043E-01  0.2537900E+00 -0.2705281E-02 -0.8284131E-01
1068812. -0.4164079E+00 -0.1312166E+02 -0.1812326E-01 -0.1293010E+00 -0.2182348E-02 -0.8857091E-01
1030641. -0.3385376E+00 -0.1269159E+02 -0.1664253E-01 -0.3409710E+00 -0.1670611E-02 -0.8077664E-01
 992469. -0.2659768E+00 -0.1142946E+02 -0.1427665E-01 -0.4324274E+00 -0.1225493E-02 -0.6731658E-01
 954297. -0.2023958E+00 -0.9753042E+01 -0.1161803E-01 -0.4447182E+00 -0.8661040E-03 -0.5270304E-01
 916125. -0.1493329E+00 -0.7958836E+01 -0.9041805E-02 -0.4094721E+00 -0.5914471E-03 -0.3929276E-01
 877953. -0.1068633E+00 -0.6242237E+01 -0.6759190E-02 -0.3499510E+00 -0.3907825E-03 -0.2809367E-01
 839781. -0.7414269E-01 -0.4718147E+01 -0.4864207E-02 -0.2822400E+00 -0.2498934E-03 -0.1933454E-01
 801609. -0.4982951E-01 -0.3440742E+01 -0.3372521E-02 -0.2166322E+00 -0.1545767E-03 -0.1283011E-01
 763438. -0.3239537E-01 -0.2421184E+01 -0.2252299E-02 -0.1589142E+00 -0.9237879E-04 -0.8211679E-02
 725266. -0.2033401E-01 -0.1642737E+01 -0.1447279E-02 -0.1116179E+00 -0.5323765E-04 -0.5065308E-02
 687094. -0.1229286E-01 -0.1073061E+01 -0.8931837E-03 -0.7507812E-01 -0.2951135E-04 -0.3006689E-02
 648922. -0.7135948E-02 -0.6733386E+00 -0.5280411E-03 -0.4830971E-01 -0.1568458E-04 -0.1713085E-02
 610750. -0.3962691E-02 -0.4046654E+00 -0.2980262E-03 -0.2967225E-01 -0.7960153E-05 -0.9337959E-03
 572578. -0.2095397E-02 -0.2320248E+00 -0.1598878E-03 -0.1733962E-01 -0.3838477E-05 -0.4848942E-03
 534406. -0.1049093E-02 -0.1263049E+00 -0.8109175E-04 -0.9597613E-02 -0.1747819E-05 -0.2385555E-03
 496234. -0.4938280E-03 -0.6487313E-01 -0.3861486E-04 -0.5002391E-02 -0.7457618E-06 -0.1104314E-03
 458062. -0.2166309E-03 -0.3119322E-01 -0.1711502E-04 -0.2436616E-02 -0.2953159E-06 -0.4768618E-04
 419891. -0.8757741E-04 -0.1390122E-01 -0.6982936E-05 -0.1098310E-02 -0.1072137E-06 -0.1899594E-04
 381719. -0.3215719E-04 -0.5667026E-02 -0.2585018E-05 -0.4522475E-03 -0.3512364E-07 -0.6880623E-05
 343547. -0.1052144E-04 -0.2077104E-02 -0.8518873E-06 -0.1672180E-03 -0.1016855E-07 -0.2223311E-05
 305375. -0.2988801E-05 -0.6685581E-03 -0.2435210E-06 -0.5423405E-04 -0.2528779E-08 -0.6244637E-06
 267203. -0.7107123E-06 -0.1828166E-03 -0.5822332E-07 -0.1492775E-04 -0.5190954E-09 -0.1469979E-06
 229031. -0.1341004E-06 -0.4045669E-04 -0.1103693E-07 -0.3321876E-05 -0.8296793E-10 -0.2748944E-07
 190859. -0.1847807E-07 -0.6719050E-05 -0.1526702E-08 -0.5542536E-06 -0.9431289E-11 -0.3758788E-08
 152688. -0.1618247E-08 -0.7380448E-06 -0.1341082E-09 -0.6110104E-07 -0.6552106E-12 -0.3267776E-09
 114516.  0.0000000E+00  0.0000000E+00  0.0000000E+00  0.0000000E+00  0.0000000E+00  0.0000000E+00
  76344.  0.0000000E+00  0.0000000E+00  0.0000000E+00  0.0000000E+00  0.0000000E+00  0.0000000E+00
  38172.  0.0000000E+00  0.0000000E+00  0.0000000E+00  0.0000000E+00  0.0000000E+00  0.0000000E+00
      0.  0.0000000E+00  0.0000000E+00  0.0000000E+00  0.0000000E+00  0.0000000E+00  0.0000000E+00
