       9       21 S      490        120.71680         15.42344         14.72047         88.95862      185    7
6371000. -0.3932125E-09  0.3286219E-07  0.1792792E-09  0.5724917E-09 -0.2868232E-10  0.1372518E-08
6370000. -0.3983529E-09  0.3263422E-07  0.1791679E-09  0.8453060E-09 -0.2889677E-10  0.1359983E-08
6369000. -0.4034562E-09  0.3238988E-07  0.1790138E-09  0.1117916E-08 -0.2910925E-10  0.1347402E-08
6368000. -0.4085200E-09  0.3212919E-07  0.1788170E-09  0.1390253E-08 -0.2931975E-10  0.1334776E-08
6368000. -0.4085200E-09  0.3212919E-07  0.1788170E-09  0.1390253E-08 -0.2931975E-10  0.1334776E-08
6367000. -0.4135415E-09  0.3185219E-07  0.1785774E-09  0.1662250E-08 -0.2952826E-10  0.1322104E-08
6366000. -0.4185182E-09  0.3155890E-07  0.1782952E-09  0.1933838E-08 -0.2973478E-10  0.1309389E-08
6365000. -0.4234477E-09  0.3124937E-07  0.1779704E-09  0.2204950E-08 -0.2993930E-10  0.1296632E-08
6364000. -0.4283273E-09  0.3092363E-07  0.1776030E-09  0.2475516E-08 -0.3014182E-10  0.1283832E-08
6363000. -0.4331545E-09  0.3058173E-07  0.1771933E-09  0.2745470E-08 -0.3034233E-10  0.1270991E-08
6362000. -0.4379267E-09  0.3022372E-07  0.1767412E-09  0.3014744E-08 -0.3054081E-10  0.1258111E-08
6361000. -0.4426415E-09  0.2984967E-07  0.1762469E-09  0.3283271E-08 -0.3073727E-10  0.1245191E-08
6360000. -0.4472963E-09  0.2945962E-07  0.1757105E-09  0.3550983E-08 -0.3093171E-10  0.1232233E-08
6359000. -0.4518887E-09  0.2905365E-07  0.1751322E-09  0.3817813E-08 -0.3112410E-10  0.1219237E-08
6358000. -0.4564161E-09  0.2863182E-07  0.1745121E-09  0.4083694E-08 -0.3131445E-10  0.1206206E-08
6357000. -0.4608761E-09  0.2819422E-07  0.1738503E-09  0.4348561E-08 -0.3150275E-10  0.1193139E-08
6356000. -0.4652661E-09  0.2774091E-07  0.1731471E-09  0.4612345E-08 -0.3168900E-10  0.1180038E-08
6356000. -0.4652661E-09  0.2520256E-07  0.1731471E-09  0.3037659E-08 -0.3168900E-10  0.1281274E-08
6355000. -0.4691978E-09  0.2489376E-07  0.1726571E-09  0.3205379E-08 -0.3188887E-10  0.1265515E-08
6354000. -0.4730803E-09  0.2457529E-07  0.1721408E-09  0.3372578E-08 -0.3208627E-10  0.1249733E-08
6353000. -0.4769121E-09  0.2424721E-07  0.1715984E-09  0.3539226E-08 -0.3228119E-10  0.1233928E-08
6352000. -0.4806915E-09  0.2390953E-07  0.1710298E-09  0.3705299E-08 -0.3247363E-10  0.1218102E-08
6351000. -0.4844173E-09  0.2356231E-07  0.1704352E-09  0.3870766E-08 -0.3266358E-10  0.1202254E-08
6350000. -0.4880878E-09  0.2320559E-07  0.1698147E-09  0.4035604E-08 -0.3285104E-10  0.1186387E-08
6349000. -0.4917015E-09  0.2283941E-07  0.1691684E-09  0.4199783E-08 -0.3303601E-10  0.1170500E-08
6348000. -0.4952571E-09  0.2246383E-07  0.1684964E-09  0.4363277E-08 -0.3321849E-10  0.1154594E-08
6347000. -0.4987529E-09  0.2207889E-07  0.1677987E-09  0.4526060E-08 -0.3339846E-10  0.1138670E-08
6346600. -0.5001343E-09  0.2192231E-07  0.1675125E-09  0.4590968E-08 -0.3346975E-10  0.1132295E-08
6346600. -0.5001343E-09  0.2827921E-07  0.1675125E-09  0.3317278E-08 -0.3346975E-10  0.1306685E-08
6318800. -0.6027722E-09  0.1786490E-07  0.1461306E-09  0.6402789E-08 -0.3816112E-10  0.8428618E-09
6291000. -0.6489030E-09  0.2562435E-08  0.1125384E-09  0.8869269E-08 -0.4082432E-10  0.3782514E-09
6291000. -0.6489030E-09  0.2980388E-08  0.1125384E-09  0.9147603E-08 -0.4082432E-10  0.3782514E-09
6263000. -0.6198811E-09 -0.1665618E-07  0.6827366E-10  0.1082511E-07 -0.4147795E-10 -0.7926924E-10
6235000. -0.4999509E-09 -0.3801996E-07  0.1898693E-10  0.1141466E-07 -0.4014611E-10 -0.5241213E-09
6207000. -0.2865825E-09 -0.5877343E-07 -0.3038371E-10  0.1086441E-07 -0.3690006E-10 -0.9491234E-09
6179000.  0.1221269E-10 -0.7649906E-07 -0.7492940E-10  0.9239357E-08 -0.3184404E-10 -0.1346399E-08
6151000.  0.3780895E-09 -0.8895462E-07 -0.1102734E-09  0.6714582E-08 -0.2511902E-10 -0.1707062E-08
6151000.  0.3780895E-09 -0.7596854E-07 -0.1102734E-09  0.5840204E-08 -0.2511902E-10 -0.1727980E-08
6128500.  0.6532967E-09 -0.7925184E-07 -0.1271131E-09  0.3661061E-08 -0.1873657E-10 -0.1880868E-08
6106000.  0.9332096E-09 -0.7860025E-07 -0.1359647E-09  0.1339520E-08 -0.1187432E-10 -0.1999525E-08
6083500.  0.1203713E-08 -0.7392794E-07 -0.1365699E-09 -0.9861072E-09 -0.4654543E-11 -0.2083281E-08
6061000.  0.1450792E-08 -0.6537661E-07 -0.1291531E-09 -0.3181807E-08  0.2799261E-11 -0.2132102E-08
6038500.  0.1661319E-08 -0.5330517E-07 -0.1143936E-09 -0.5125285E-08  0.1036449E-10 -0.2146512E-08
6016000.  0.1823788E-08 -0.3826632E-07 -0.9337229E-10 -0.6712446E-08  0.1792132E-10 -0.2127566E-08
5993500.  0.1928936E-08 -0.2097317E-07 -0.6749760E-10 -0.7862477E-08  0.2535458E-10 -0.2076829E-08
5971000.  0.1970244E-08 -0.2258333E-08 -0.3841674E-10 -0.8521536E-08  0.3255528E-10 -0.1996204E-08
5971000.  0.1970244E-08 -0.2781076E-08 -0.3841674E-10 -0.7818858E-08  0.3255528E-10 -0.2254125E-08
5937667.  0.1917306E-08  0.2276778E-07  0.2545330E-11 -0.7682034E-08  0.4400762E-10 -0.2115601E-08
5904333.  0.1736580E-08  0.4570514E-07  0.4046964E-10 -0.6687737E-08  0.5462219E-10 -0.1936332E-08
5871000.  0.1446906E-08  0.6415185E-07  0.7139656E-10 -0.5046427E-08  0.6422462E-10 -0.1731167E-08
5837667.  0.1075362E-08  0.7684417E-07  0.9257006E-10 -0.3000750E-08  0.7271467E-10 -0.1513077E-08
5804333.  0.6539385E-09  0.8316329E-07  0.1025177E-09 -0.7944132E-09  0.8005350E-10 -0.1292538E-08
5771000.  0.2162859E-09  0.8309772E-07  0.1009902E-09  0.1351854E-08  0.8624939E-10 -0.1077314E-08
5771000.  0.2162859E-09  0.8310119E-07  0.1009902E-09  0.1351805E-08  0.8624939E-10 -0.1077314E-08
5701000. -0.6368363E-09  0.6809891E-07  0.6350519E-10  0.5260819E-08  0.9556217E-10 -0.6161063E-09
5701000. -0.6368363E-09  0.5788953E-07  0.6350519E-10  0.4323256E-08  0.9556217E-10 -0.4366051E-09
5667333. -0.9026008E-09  0.4312125E-07  0.3899889E-10  0.4941090E-08  0.9766644E-10 -0.3674258E-09
5633667. -0.1094926E-08  0.2952832E-07  0.1127116E-10  0.5528563E-08  0.9946134E-10 -0.3105535E-09
5600000. -0.1211514E-08  0.1439430E-07 -0.1878610E-10  0.5784185E-08  0.1009441E-09 -0.2506657E-09
5600000. -0.1211514E-08  0.1439430E-07 -0.1878610E-10  0.5784185E-08  0.1009441E-09 -0.2506657E-09
5563518. -0.1245183E-08 -0.2652429E-08 -0.5178622E-10  0.5675648E-08  0.1021907E-09 -0.1845557E-09
5527037. -0.1182070E-08 -0.1921433E-07 -0.8305428E-10  0.5184762E-08  0.1030554E-09 -0.1172302E-09
5490556. -0.1028224E-08 -0.3416528E-07 -0.1105150E-09  0.4354953E-08  0.1035308E-09 -0.4859600E-10
5454074. -0.7957879E-09 -0.4651136E-07 -0.1324041E-09  0.3250879E-08  0.1036091E-09  0.2146250E-10
5417593. -0.5020765E-09 -0.5545636E-07 -0.1473761E-09  0.1953572E-08  0.1032827E-09  0.9274603E-10
5381111. -0.1682581E-09 -0.6044619E-07 -0.1545795E-09  0.5528742E-09  0.1025450E-09  0.1650274E-09
5344630.  0.1820544E-09 -0.6119702E-07 -0.1536888E-09 -0.8580047E-09  0.1013917E-09  0.2378052E-09
5308148.  0.5244692E-09 -0.5770667E-07 -0.1449054E-09 -0.2189440E-08  0.9982196E-10  0.3103313E-09
5271667.  0.8353170E-09 -0.5024054E-07 -0.1289220E-09 -0.3360398E-08  0.9784012E-10  0.3815731E-09
5235185.  0.1093211E-08 -0.3931250E-07 -0.1068564E-09 -0.4303763E-08  0.9545653E-10  0.4504374E-09
5198704.  0.1280284E-08 -0.2564019E-07 -0.8016506E-10 -0.4969424E-08  0.9268850E-10  0.5156265E-09
5162222.  0.1383264E-08 -0.1009517E-07 -0.5053587E-10 -0.5326116E-08  0.8956138E-10  0.5756075E-09
5125741.  0.1394170E-08  0.6352821E-08 -0.1977938E-10 -0.5363361E-08  0.8610854E-10  0.6292221E-09
5089259.  0.1310699E-08  0.2270052E-07  0.1029295E-10 -0.5089842E-08  0.8237001E-10  0.6751371E-09
5052778.  0.1136269E-08  0.3796637E-07  0.3796802E-10 -0.4532200E-08  0.7839362E-10  0.7121777E-09
5016296.  0.8796766E-09  0.5125571E-07  0.6173512E-10 -0.3732778E-08  0.7423227E-10  0.7395882E-09
4979815.  0.5545303E-09  0.6179835E-07  0.8035831E-10 -0.2745587E-08  0.6994327E-10  0.7567124E-09
4943333.  0.1783396E-09  0.6899773E-07  0.9293886E-10 -0.1632974E-08  0.6558633E-10  0.7632744E-09
4906852. -0.2284955E-09  0.7245609E-07  0.9894751E-10 -0.4614671E-09  0.6122201E-10  0.7593662E-09
4870370. -0.6439267E-09  0.7198307E-07  0.9823820E-10  0.7025413E-09  0.5690907E-10  0.7453794E-09
4833889. -0.1045410E-08  0.6761194E-07  0.9103703E-10  0.1796012E-08  0.5270369E-10  0.7219656E-09
4797407. -0.1411236E-08  0.5958019E-07  0.7791139E-10  0.2763109E-08  0.4865704E-10  0.6901091E-09
4760926. -0.1721544E-08  0.4830932E-07  0.5972389E-10  0.3557285E-08  0.4481377E-10  0.6511782E-09
4724444. -0.1959416E-08  0.3438634E-07  0.3756924E-10  0.4143773E-08  0.4121093E-10  0.6063175E-09
4687963. -0.2111626E-08  0.1851672E-07  0.1270771E-10  0.4500313E-08  0.3787818E-10  0.5571718E-09
4651482. -0.2169257E-08  0.1488555E-08 -0.1351191E-10  0.4617687E-08  0.3483510E-10  0.5053761E-09
4615000. -0.2128041E-08 -0.1586978E-07 -0.3972548E-10  0.4499555E-08  0.3209304E-10  0.4522516E-09
4578518. -0.1988459E-08 -0.3273253E-07 -0.6462189E-10  0.4161069E-08  0.2965498E-10  0.3994670E-09
4542037. -0.1755627E-08 -0.4831686E-07 -0.8700717E-10  0.3627722E-08  0.2751501E-10  0.3483270E-09
4505556. -0.1438914E-08 -0.6192166E-07 -0.1058593E-09  0.2933177E-08  0.2566079E-10  0.2998648E-09
4469074. -0.1051410E-08 -0.7295056E-07 -0.1203664E-09  0.2116923E-08  0.2407332E-10  0.2552954E-09
4432593. -0.6092692E-09 -0.8094441E-07 -0.1299537E-09  0.1222335E-08  0.2272844E-10  0.2152323E-09
4396111. -0.1308121E-09 -0.8559072E-07 -0.1343001E-09  0.2937434E-09  0.2159876E-10  0.1801979E-09
4359630.  0.3642286E-09 -0.8672842E-07 -0.1333363E-09 -0.6253170E-09  0.2065441E-10  0.1505517E-09
4323148.  0.8557237E-09 -0.8436039E-07 -0.1272345E-09 -0.1494395E-08  0.1986404E-10  0.1264069E-09
4286667.  0.1323922E-08 -0.7863181E-07 -0.1163861E-09 -0.2277738E-08  0.1919643E-10  0.1076434E-09
4250185.  0.1750348E-08 -0.6982382E-07 -0.1013699E-09 -0.2945576E-08  0.1862146E-10  0.9401479E-10
4213704.  0.2118447E-08 -0.5833784E-07 -0.8291699E-10 -0.3475067E-08  0.1811021E-10  0.8533493E-10
4177222.  0.2414264E-08 -0.4466321E-07 -0.6186612E-10 -0.3850822E-08  0.1763577E-10  0.8106794E-10
4140741.  0.2626836E-08 -0.2936242E-07 -0.3912514E-10 -0.4064886E-08  0.1717390E-10  0.8094891E-10
4104259.  0.2748572E-08 -0.1303765E-07 -0.1562386E-10 -0.4116616E-08  0.1670074E-10  0.8493932E-10
4067778.  0.2775375E-08  0.3692175E-08  0.7720968E-11 -0.4011965E-08  0.1619453E-10  0.9248387E-10
4031296.  0.2706677E-08  0.2021854E-07  0.3004613E-10 -0.3762625E-08  0.1563359E-10  0.1041847E-09
3994815.  0.2545322E-08  0.3596339E-07  0.5056686E-10 -0.3385000E-08  0.1499240E-10  0.1205746E-09
3958333.  0.2297317E-08  0.5039893E-07  0.6860543E-10 -0.2899029E-08  0.1424271E-10  0.1423061E-09
3921852.  0.1971520E-08  0.6306651E-07  0.8360302E-10 -0.2326821E-08  0.1334851E-10  0.1714303E-09
3885370.  0.1579174E-08  0.7358203E-07  0.9513240E-10 -0.1691408E-08  0.1226106E-10  0.2102393E-09
3848889.  0.1133530E-08  0.8164361E-07  0.1028969E-09 -0.1015679E-08  0.1091588E-10  0.2621690E-09
3812407.  0.6492594E-09  0.8703989E-07  0.1067281E-09 -0.3208959E-09  0.9224127E-11  0.3322049E-09
3775926.  0.1420821E-09  0.8963305E-07  0.1065722E-09  0.3739411E-09  0.7064717E-11  0.4267781E-09
3739444. -0.3717797E-09  0.8936637E-07  0.1024755E-09  0.1053238E-08  0.4273081E-11  0.5546834E-09
3702963. -0.8759181E-09  0.8624637E-07  0.9456217E-10  0.1705517E-08  0.6267029E-12  0.7275864E-09
3666482. -0.1354122E-08  0.8031983E-07  0.8300862E-10  0.2323941E-08 -0.4174727E-11  0.9610693E-09
3630000. -0.1790571E-08  0.7167321E-07  0.6801568E-10  0.2906878E-08 -0.1053371E-10  0.1275421E-08
3630000. -0.1790571E-08  0.7167321E-07  0.6801568E-10  0.2906878E-08 -0.1053371E-10  0.1275421E-08
3592500. -0.2179548E-08  0.6004088E-07  0.4922416E-10  0.3473415E-08 -0.1925991E-10  0.1711602E-08
3555000. -0.2492069E-08  0.4570449E-07  0.2717025E-10  0.4017832E-08 -0.3098302E-10  0.2301186E-08
3517500. -0.2712340E-08  0.2869321E-07  0.1933627E-11  0.4558591E-08 -0.4675121E-10  0.3096069E-08
3480000. -0.2824477E-08  0.8941525E-08 -0.2653837E-10  0.5122319E-08 -0.6796919E-10  0.4166401E-08
3480000. -0.2824477E-08  0.9690686E-08 -0.3029629E-10 -0.5114957E-08 -0.6796919E-10  0.1322446E-07
3409422. -0.2912419E-08  0.7365630E-08  0.2850057E-10 -0.5495924E-08 -0.2337742E-09  0.1652814E-07
3338844. -0.3014898E-08  0.1242044E-07  0.9165853E-10 -0.5928498E-08 -0.4317244E-09  0.1916938E-07
3268266. -0.3217834E-08  0.2568681E-07  0.1606799E-09 -0.6586605E-08 -0.6591583E-09  0.2199216E-07
3197688. -0.3620152E-08  0.4879046E-07  0.2392255E-09 -0.7689727E-08 -0.9228785E-09  0.2587412E-07
3127109. -0.4346659E-08  0.8492967E-07  0.3337814E-09 -0.9535590E-08 -0.1240049E-08  0.3182895E-07
3056531. -0.5571293E-08  0.1400184E-06  0.4548208E-09 -0.1256004E-07 -0.1640528E-08  0.4117160E-07
2985953. -0.7556742E-08  0.2245603E-06  0.6188717E-09 -0.1744239E-07 -0.2171588E-08  0.5578401E-07
2915375. -0.1072150E-07  0.3568883E-06  0.8521333E-09 -0.2528944E-07 -0.2906371E-08  0.7854643E-07
2844797. -0.1575564E-07  0.5689810E-06  0.1196845E-08 -0.3796182E-07 -0.3958586E-08  0.1140559E-06
2774219. -0.2382519E-07  0.9171677E-06  0.1722585E-08 -0.5866520E-07 -0.5507701E-08  0.1698506E-06
2703641. -0.3694137E-07  0.1502215E-05  0.2546604E-08 -0.9304441E-07 -0.7842225E-08  0.2585412E-06
2633062. -0.5864307E-07  0.2507800E-05  0.3871093E-08 -0.1512515E-06 -0.1143490E-07  0.4015976E-06
2562484. -0.9528338E-07  0.4275626E-05  0.6052698E-08 -0.2519366E-06 -0.1707474E-07  0.6361867E-06
2491906. -0.1585173E-06  0.7455604E-05  0.9735553E-08 -0.4301552E-06 -0.2610397E-07  0.1027790E-05
2421328. -0.2702104E-06  0.1331264E-04  0.1611103E-07 -0.7533581E-06 -0.4084850E-07  0.1693826E-05
2350750. -0.4723686E-06  0.2436886E-04  0.2743791E-07 -0.1354571E-05 -0.6541619E-07  0.2848765E-05
2280172. -0.8477269E-06  0.4578297E-04  0.4811058E-07 -0.2503063E-05 -0.1072038E-06  0.4891874E-05
2209594. -0.1563578E-05  0.8839314E-04  0.8691247E-07 -0.4758976E-05 -0.1797968E-06  0.8581083E-05
2139016. -0.2967688E-05  0.1756228E-03  0.1619047E-06 -0.9321573E-05 -0.3086596E-06  0.1538428E-04
2068438. -0.5804459E-05  0.3596316E-03  0.3113531E-06 -0.1883772E-04 -0.5425228E-06  0.2820262E-04
1997859. -0.1171753E-04  0.7603211E-03  0.6189356E-06 -0.3934074E-04 -0.9766377E-06  0.5288933E-04
1927281. -0.2445677E-04  0.1662715E-02  0.1273829E-05 -0.8505908E-04 -0.1801144E-05  0.1014927E-03
1856703. -0.5288321E-04  0.3769242E-02  0.2719248E-05 -0.1907945E-03 -0.3403742E-05  0.1993066E-03
1786125. -0.1187320E-03  0.8878687E-02  0.6033620E-05 -0.4450354E-03 -0.6591079E-05  0.4003808E-03
1715547. -0.2774938E-03  0.2179107E-01  0.1394941E-04 -0.1082331E-02 -0.1307262E-04  0.8218696E-03
1644969. -0.6770647E-03  0.5589533E-01  0.3369756E-04 -0.2752781E-02 -0.2652429E-04  0.1719554E-02
1574391. -0.1730335E-02  0.1503672E+00  0.8533035E-04 -0.7347238E-02 -0.5490577E-04  0.3648019E-02
1503812. -0.4649426E-02  0.4259380E+00  0.2273466E-03 -0.2066024E-01 -0.1153005E-03  0.7763636E-02
1433234. -0.1319205E-01  0.1276226E+01  0.6400330E-03 -0.6148400E-01 -0.2427204E-03  0.1618480E-01
1362656. -0.3972437E-01  0.4066256E+01  0.1913431E-02 -0.1946656E+00 -0.4985495E-03  0.3106721E-01
1292078. -0.1276953E+00  0.1386157E+02  0.6110008E-02 -0.6597326E+00 -0.9281169E-03  0.4318063E-01
1221500. -0.4412093E+00  0.5092147E+02  0.2098222E-01 -0.2410506E+01 -0.1131746E-02 -0.4504784E-01
1221500. -0.4412093E+00  0.9582211E+01  0.4888440E-02  0.2326720E+01 -0.1131746E-02  0.1460858E+00
1183328. -0.4336540E+00 -0.9243242E+01 -0.4123715E-02  0.8451011E+00 -0.1412807E-02 -0.2070390E-01
1145156. -0.3556696E+00 -0.1530377E+02 -0.6742641E-02  0.1229951E+00 -0.1128777E-02 -0.6178600E-01
1106984. -0.2626161E+00 -0.1509072E+02 -0.6436083E-02 -0.1749118E+00 -0.7604008E-03 -0.5735236E-01
1068812. -0.1797722E+00 -0.1234803E+02 -0.5077651E-02 -0.2541173E+00 -0.4632506E-03 -0.4136078E-01
1030641. -0.1156689E+00 -0.9059907E+01 -0.3584812E-02 -0.2344203E+00 -0.2624092E-03 -0.2626580E-01
 992469. -0.7043360E-01 -0.6139759E+01 -0.2333974E-02 -0.1808543E+00 -0.1400151E-03 -0.1531873E-01
 954297. -0.4072496E-01 -0.3895885E+01 -0.1420756E-02 -0.1250641E+00 -0.7082949E-04 -0.8356816E-02
 916125. -0.2238652E-01 -0.2330077E+01 -0.8139585E-03 -0.7963125E-01 -0.3407040E-04 -0.4302407E-02
 877953. -0.1169693E-01 -0.1317458E+01 -0.4401409E-03 -0.4725984E-01 -0.1559547E-04 -0.2098843E-02
 839781. -0.5801914E-02 -0.7047499E+00 -0.2247791E-03 -0.2628899E-01 -0.6788490E-05 -0.9714439E-03
 801609. -0.2726155E-02 -0.3563997E+00 -0.1083153E-03 -0.1373445E-01 -0.2804693E-05 -0.4263880E-03
 763438. -0.1209829E-02 -0.1700595E+00 -0.4914304E-04 -0.6737455E-02 -0.1096656E-05 -0.1771362E-03
 725266. -0.5051389E-03 -0.7633153E-01 -0.2092400E-04 -0.3097373E-02 -0.4042200E-06 -0.6942490E-04
 687094. -0.1974952E-03 -0.3209903E-01 -0.8324590E-05 -0.1330077E-02 -0.1397603E-06 -0.2556346E-04
 648922. -0.7188570E-04 -0.1258124E-01 -0.3077751E-05 -0.5310492E-03 -0.4504945E-07 -0.8793313E-05
 610750. -0.2418843E-04 -0.4566742E-02 -0.1050264E-05 -0.1959502E-03 -0.1343704E-07 -0.2806321E-05
 572578. -0.7459802E-05 -0.1522981E-02 -0.3280296E-06 -0.6631163E-04 -0.3675015E-08 -0.8239012E-06
 534406. -0.2086633E-05 -0.4620973E-03 -0.9280796E-07 -0.2038494E-04 -0.9113864E-09 -0.2201832E-06
 496234. -0.5225689E-06 -0.1260210E-03 -0.2348254E-07 -0.5624709E-05 -0.2021476E-09 -0.5286935E-07
 458062. -0.1152927E-06 -0.3042324E-04 -0.5228976E-08 -0.1372159E-05 -0.3942032E-10 -0.1122261E-07
 419891. -0.2195576E-07 -0.6377220E-05 -0.1004061E-08 -0.2903223E-06 -0.6613828E-11 -0.2063002E-08
 381719. -0.3514577E-08 -0.1131906E-05 -0.1619140E-09 -0.5195959E-07 -0.9282555E-12 -0.3198056E-09
 343547. -0.4568841E-09 -0.1645822E-06 -0.2117961E-10 -0.7607631E-08 -0.1051251E-12 -0.4016622E-10
 305375.  0.0000000E+00  0.0000000E+00  0.0000000E+00  0.0000000E+00  0.0000000E+00  0.0000000E+00
 267203.  0.0000000E+00  0.0000000E+00  0.0000000E+00  0.0000000E+00  0.0000000E+00  0.0000000E+00
 229031.  0.0000000E+00  0.0000000E+00  0.0000000E+00  0.0000000E+00  0.0000000E+00  0.0000000E+00
 190859.  0.0000000E+00  0.0000000E+00  0.0000000E+00  0.0000000E+00  0.0000000E+00  0.0000000E+00
 152688.  0.0000000E+00  0.0000000E+00  0.0000000E+00  0.0000000E+00  0.0000000E+00  0.0000000E+00
 114516.  0.0000000E+00  0.0000000E+00  0.0000000E+00  0.0000000E+00  0.0000000E+00  0.0000000E+00
  76344.  0.0000000E+00  0.0000000E+00  0.0000000E+00  0.0000000E+00  0.0000000E+00  0.0000000E+00
  38172.  0.0000000E+00  0.0000000E+00  0.0000000E+00  0.0000000E+00  0.0000000E+00  0.0000000E+00
      0.  0.0000000E+00  0.0000000E+00  0.0000000E+00  0.0000000E+00  0.0000000E+00  0.0000000E+00
