       6       11 S      371        220.51019         15.78559         15.03077         89.43003      185    7
6371000.  0.7358880E-04  0.1007778E-03  0.3056388E-05 -0.7053241E-04 -0.1102308E-05 -0.1255436E-03
6370000.  0.7357205E-04  0.1127224E-03  0.3067351E-05 -0.6916319E-04 -0.1082598E-05 -0.1256048E-03
6369000.  0.7355342E-04  0.1246482E-03  0.3078099E-05 -0.6778454E-04 -0.1062878E-05 -0.1256634E-03
6368000.  0.7353292E-04  0.1365549E-03  0.3088630E-05 -0.6639655E-04 -0.1043150E-05 -0.1257194E-03
6368000.  0.7353292E-04  0.1365549E-03  0.3088630E-05 -0.6639655E-04 -0.1043150E-05 -0.1257194E-03
6367000.  0.7351055E-04  0.1484418E-03  0.3098942E-05 -0.6499932E-04 -0.1023412E-05 -0.1257727E-03
6366000.  0.7348632E-04  0.1603088E-03  0.3109034E-05 -0.6359295E-04 -0.1003667E-05 -0.1258233E-03
6365000.  0.7346023E-04  0.1721552E-03  0.3118904E-05 -0.6217754E-04 -0.9839138E-06 -0.1258712E-03
6364000.  0.7343228E-04  0.1839808E-03  0.3128552E-05 -0.6075319E-04 -0.9641533E-06 -0.1259165E-03
6363000.  0.7340247E-04  0.1957851E-03  0.3137976E-05 -0.5932002E-04 -0.9443859E-06 -0.1259591E-03
6362000.  0.7337082E-04  0.2075676E-03  0.3147174E-05 -0.5787810E-04 -0.9246120E-06 -0.1259991E-03
6361000.  0.7333732E-04  0.2193281E-03  0.3156144E-05 -0.5642757E-04 -0.9048321E-06 -0.1260363E-03
6360000.  0.7330197E-04  0.2310660E-03  0.3164887E-05 -0.5496851E-04 -0.8850465E-06 -0.1260709E-03
6359000.  0.7326478E-04  0.2427810E-03  0.3173400E-05 -0.5350103E-04 -0.8652557E-06 -0.1261028E-03
6358000.  0.7322575E-04  0.2544726E-03  0.3181682E-05 -0.5202524E-04 -0.8454601E-06 -0.1261321E-03
6357000.  0.7318490E-04  0.2661405E-03  0.3189731E-05 -0.5054125E-04 -0.8256602E-06 -0.1261586E-03
6356000.  0.7314221E-04  0.2777842E-03  0.3197547E-05 -0.4904915E-04 -0.8058562E-06 -0.1261825E-03
6356000.  0.7314221E-04  0.2054561E-03  0.3197547E-05 -0.5739766E-04 -0.8058562E-06 -0.1420974E-03
6355000.  0.7310929E-04  0.2140544E-03  0.3206481E-05 -0.5643277E-04 -0.7835484E-06 -0.1421478E-03
6354000.  0.7307501E-04  0.2226383E-03  0.3215263E-05 -0.5546240E-04 -0.7612330E-06 -0.1421963E-03
6353000.  0.7303939E-04  0.2312076E-03  0.3223892E-05 -0.5448660E-04 -0.7389100E-06 -0.1422428E-03
6352000.  0.7300243E-04  0.2397621E-03  0.3232367E-05 -0.5350541E-04 -0.7165798E-06 -0.1422874E-03
6351000.  0.7296413E-04  0.2483015E-03  0.3240688E-05 -0.5251889E-04 -0.6942428E-06 -0.1423301E-03
6350000.  0.7292449E-04  0.2568258E-03  0.3248854E-05 -0.5152707E-04 -0.6718993E-06 -0.1423709E-03
6349000.  0.7288351E-04  0.2653345E-03  0.3256863E-05 -0.5053000E-04 -0.6495495E-06 -0.1424097E-03
6348000.  0.7284119E-04  0.2738275E-03  0.3264716E-05 -0.4952773E-04 -0.6271938E-06 -0.1424465E-03
6347000.  0.7279755E-04  0.2823046E-03  0.3272411E-05 -0.4852031E-04 -0.6048325E-06 -0.1424815E-03
6346600.  0.7277972E-04  0.2856910E-03  0.3275444E-05 -0.4811591E-04 -0.5958864E-06 -0.1424949E-03
6346600.  0.7277972E-04  0.2301196E-03  0.3275444E-05 -0.5515091E-04 -0.5958864E-06 -0.1678721E-03
6318800.  0.7139355E-04  0.4039379E-03  0.3468352E-05 -0.3278648E-04  0.1392923E-06 -0.1689111E-03
6291000.  0.6926795E-04  0.5685418E-03  0.3557839E-05 -0.7857169E-05  0.8765945E-06 -0.1688410E-03
6291000.  0.6926795E-04  0.5800180E-03  0.3557839E-05 -0.5575127E-05  0.8765945E-06 -0.1688410E-03
6263000.  0.6637267E-04  0.7351429E-03  0.3520893E-05  0.2264024E-04  0.1616095E-05 -0.1674862E-03
6235000.  0.6282924E-04  0.8745578E-03  0.3357260E-05  0.5192923E-04  0.2347023E-05 -0.1649398E-03
6207000.  0.5871179E-04  0.9960296E-03  0.3064192E-05  0.8138926E-04  0.3064144E-05 -0.1612037E-03
6179000.  0.5410317E-04  0.1097832E-02  0.2642965E-05  0.1100961E-03  0.3762254E-05 -0.1562926E-03
6151000.  0.4909262E-04  0.1178780E-02  0.2098919E-05  0.1371300E-03  0.4436249E-05 -0.1502350E-03
6151000.  0.4909262E-04  0.9642043E-03  0.2098919E-05  0.1142620E-03  0.4436249E-05 -0.1529511E-03
6128500.  0.4564479E-04  0.9863849E-03  0.1667243E-05  0.1299478E-03  0.4970784E-05 -0.1496879E-03
6106000.  0.4213943E-04  0.9968767E-03  0.1182998E-05  0.1439922E-03  0.5493025E-05 -0.1459930E-03
6083500.  0.3861673E-04  0.9963133E-03  0.6523900E-06  0.1561690E-03  0.6001493E-05 -0.1418926E-03
6061000.  0.3511444E-04  0.9854607E-03  0.8236295E-07  0.1662867E-03  0.6494804E-05 -0.1374145E-03
6038500.  0.3166733E-04  0.9652120E-03 -0.5195309E-06  0.1741937E-03  0.6971674E-05 -0.1325858E-03
6016000.  0.2830689E-04  0.9365520E-03 -0.1145276E-05  0.1797782E-03  0.7430911E-05 -0.1274342E-03
5993500.  0.2506095E-04  0.9005442E-03 -0.1786528E-05  0.1829670E-03  0.7871427E-05 -0.1219881E-03
5971000.  0.2195348E-04  0.8583249E-03 -0.2434761E-05  0.1837296E-03  0.8292231E-05 -0.1162754E-03
5971000.  0.2195348E-04  0.7639890E-03 -0.2434761E-05  0.1606219E-03  0.8292231E-05 -0.1191493E-03
5937667.  0.1817005E-04  0.6818183E-03 -0.3252238E-05  0.1513317E-03  0.8895041E-05 -0.1112461E-03
5904333.  0.1482091E-04  0.5984448E-03 -0.4013300E-05  0.1391658E-03  0.9456007E-05 -0.1031610E-03
5871000.  0.1190513E-04  0.5166118E-03 -0.4704686E-05  0.1248190E-03  0.9974352E-05 -0.9497235E-04
5837667.  0.9408557E-05  0.4385246E-03 -0.5316757E-05  0.1089532E-03  0.1044974E-04 -0.8674991E-04
5804333.  0.7306858E-05  0.3658895E-03 -0.5843207E-05  0.9218034E-04  0.1088216E-04 -0.7855612E-04
5771000.  0.5568205E-05  0.2999412E-03 -0.6280726E-05  0.7504975E-04  0.1127191E-04 -0.7044793E-04
5771000.  0.5568205E-05  0.2999023E-03 -0.6280726E-05  0.7504688E-04  0.1127191E-04 -0.7044793E-04
5701000.  0.2712884E-05  0.2239290E-03 -0.6934664E-05  0.4340474E-04  0.1195188E-04 -0.5338019E-04
5701000.  0.2712884E-05  0.1385237E-03 -0.6934664E-05  0.3199586E-04  0.1195188E-04 -0.5414486E-04
5667333.  0.2119500E-05  0.9217134E-04 -0.7061370E-05  0.1720624E-04  0.1221609E-04 -0.4595747E-04
5633667.  0.1686824E-05  0.7400275E-04 -0.7124203E-05  0.6764262E-05  0.1243829E-04 -0.3817691E-04
5600000.  0.1331708E-05  0.6093949E-04 -0.7132839E-05 -0.3451057E-05  0.1261988E-04 -0.3058832E-04
5600000.  0.1331708E-05  0.6093949E-04 -0.7132839E-05 -0.3451057E-05  0.1261988E-04 -0.3058832E-04
5563518.  0.1009617E-05  0.5255098E-04 -0.7082542E-05 -0.1401660E-04  0.1277212E-04 -0.2263039E-04
5527037.  0.7182858E-06  0.5016999E-04 -0.6973607E-05 -0.2390684E-04  0.1287962E-04 -0.1496745E-04
5490556.  0.4239851E-06  0.5352818E-04 -0.6810324E-05 -0.3297668E-04  0.1294413E-04 -0.7619779E-05
5454074.  0.9498656E-07  0.6222303E-04 -0.6597756E-05 -0.4109995E-04  0.1296752E-04 -0.6056081E-06
5417593. -0.2981649E-06  0.7585472E-04 -0.6341628E-05 -0.4817866E-04  0.1295174E-04  0.6059156E-05
5381111. -0.7820370E-06  0.9379343E-04 -0.6048139E-05 -0.5413515E-04  0.1289882E-04  0.1236188E-04
5344630. -0.1379373E-05  0.1153850E-03 -0.5723898E-05 -0.5891715E-04  0.1281088E-04  0.1829138E-04
5308148. -0.2109249E-05  0.1399509E-03 -0.5375685E-05 -0.6250122E-04  0.1269007E-04  0.2383978E-04
5271667. -0.2986251E-05  0.1666443E-03 -0.5010420E-05 -0.6487765E-04  0.1253859E-04  0.2900119E-04
5235185. -0.4020409E-05  0.1947104E-03 -0.4634945E-05 -0.6606965E-04  0.1235868E-04  0.3377191E-04
5198704. -0.5217305E-05  0.2233490E-03 -0.4255950E-05 -0.6611787E-04  0.1215257E-04  0.3815055E-04
5162222. -0.6577691E-05  0.2516687E-03 -0.3879829E-05 -0.6507328E-04  0.1192251E-04  0.4213874E-04
5125741. -0.8097593E-05  0.2789590E-03 -0.3512633E-05 -0.6301884E-04  0.1167073E-04  0.4573821E-04
5089259. -0.9769001E-05  0.3044375E-03 -0.3159877E-05 -0.6004195E-04  0.1139943E-04  0.4895468E-04
5052778. -0.1157925E-04  0.3273637E-03 -0.2826585E-05 -0.5624159E-04  0.1111080E-04  0.5179497E-04
5016296. -0.1351213E-04  0.3471510E-03 -0.2517127E-05 -0.5173371E-04  0.1080696E-04  0.5426683E-04
4979815. -0.1554777E-04  0.3631806E-03 -0.2235244E-05 -0.4663295E-04  0.1049000E-04  0.5638127E-04
4943333. -0.1766330E-04  0.3749680E-03 -0.1983967E-05 -0.4106271E-04  0.1016192E-04  0.5814972E-04
4906852. -0.1983324E-04  0.3821402E-03 -0.1765630E-05 -0.3515040E-04  0.9824686E-05  0.5958410E-04
4870370. -0.2203016E-04  0.3843252E-03 -0.1581839E-05 -0.2901511E-04  0.9480146E-05  0.6070096E-04
4833889. -0.2422481E-04  0.3813475E-03 -0.1433523E-05 -0.2278234E-04  0.9130099E-05  0.6151342E-04
4797407. -0.2638741E-04  0.3730914E-03 -0.1320889E-05 -0.1656911E-04  0.8776224E-05  0.6203772E-04
4760926. -0.2848732E-04  0.3594758E-03 -0.1243528E-05 -0.1048138E-04  0.8420130E-05  0.6229406E-04
4724444. -0.3049426E-04  0.3406252E-03 -0.1200407E-05 -0.4626242E-05  0.8063296E-05  0.6229588E-04
4687963. -0.3237853E-04  0.3166735E-03 -0.1189928E-05  0.9052367E-06  0.7707142E-05  0.6206362E-04
4651482. -0.3411154E-04  0.2878438E-03 -0.1210003E-05  0.6032415E-05  0.7352939E-05  0.6161711E-04
4615000. -0.3566638E-04  0.2544864E-03 -0.1258100E-05  0.1068172E-04  0.7001861E-05  0.6097179E-04
4578518. -0.3701808E-04  0.2169620E-03 -0.1331315E-05  0.1479658E-04  0.6654995E-05  0.6014992E-04
4542037. -0.3814402E-04  0.1757297E-03 -0.1426445E-05  0.1832967E-04  0.6313304E-05  0.5916966E-04
4505556. -0.3902448E-04  0.1313035E-03 -0.1540050E-05  0.2124539E-04  0.5977645E-05  0.5804714E-04
4469074. -0.3964264E-04  0.8420039E-04 -0.1668541E-05  0.2352495E-04  0.5648751E-05  0.5680679E-04
4432593. -0.3998482E-04  0.3502084E-04 -0.1808227E-05  0.2515576E-04  0.5327272E-05  0.5546221E-04
4396111. -0.4004089E-04 -0.1563745E-04 -0.1955397E-05  0.2613933E-04  0.5013742E-05  0.5403161E-04
4359630. -0.3980408E-04 -0.6717182E-04 -0.2106376E-05  0.2648990E-04  0.4708603E-05  0.5253724E-04
4323148. -0.3927116E-04 -0.1189550E-03 -0.2257596E-05  0.2622665E-04  0.4412168E-05  0.5099086E-04
4286667. -0.3844249E-04 -0.1703769E-03 -0.2405622E-05  0.2538131E-04  0.4124699E-05  0.4941137E-04
4250185. -0.3732179E-04 -0.2208459E-03 -0.2547236E-05  0.2399290E-04  0.3846320E-05  0.4781605E-04
4213704. -0.3591625E-04 -0.2697857E-03 -0.2679442E-05  0.2210451E-04  0.3577101E-05  0.4621706E-04
4177222. -0.3423610E-04 -0.3166542E-03 -0.2799530E-05  0.1976815E-04  0.3316997E-05  0.4463253E-04
4140741. -0.3229478E-04 -0.3609448E-03 -0.2905083E-05  0.1703776E-04  0.3065899E-05  0.4307580E-04
4104259. -0.3010827E-04 -0.4022011E-03 -0.2994007E-05  0.1396905E-04  0.2823605E-05  0.4155779E-04
4067778. -0.2769531E-04 -0.4399931E-03 -0.3064536E-05  0.1062405E-04  0.2589852E-05  0.4009741E-04
4031296. -0.2507664E-04 -0.4739693E-03 -0.3115259E-05  0.7059925E-05  0.2364270E-05  0.3870299E-04
3994815. -0.2227518E-04 -0.5038166E-03 -0.3145083E-05  0.3335277E-05  0.2146461E-05  0.3738718E-04
3958333. -0.1931522E-04 -0.5292626E-03 -0.3153264E-05 -0.4904794E-06  0.1935917E-05  0.3616551E-04
3921852. -0.1622269E-04 -0.5501228E-03 -0.3139373E-05 -0.4365058E-05  0.1732085E-05  0.3504664E-04
3885370. -0.1302414E-04 -0.5662405E-03 -0.3103279E-05 -0.8237172E-05  0.1534328E-05  0.3404404E-04
3848889. -0.9747227E-05 -0.5775110E-03 -0.3045136E-05 -0.1205927E-04  0.1341954E-05  0.3317045E-04
3812407. -0.6419636E-05 -0.5839067E-03 -0.2965342E-05 -0.1579227E-04  0.1154181E-05  0.3243714E-04
3775926. -0.3069542E-05 -0.5854033E-03 -0.2864520E-05 -0.1939899E-04  0.9701763E-06  0.3185836E-04
3739444.  0.2752876E-06 -0.5820497E-03 -0.2743473E-05 -0.2285110E-04  0.7890063E-06  0.3144776E-04
3702963.  0.3587147E-05 -0.5739308E-03 -0.2603157E-05 -0.2612761E-04  0.6096753E-06  0.3122033E-04
3666482.  0.6839028E-05 -0.5611191E-03 -0.2444623E-05 -0.2921209E-04  0.4310843E-06  0.3119222E-04
3630000.  0.1000455E-04 -0.5437619E-03 -0.2268987E-05 -0.3209876E-04  0.2520334E-06  0.3138262E-04
3630000.  0.1000455E-04 -0.5437619E-03 -0.2268987E-05 -0.3209876E-04  0.2520334E-06  0.3138262E-04
3592500.  0.1314129E-04 -0.5213014E-03 -0.2071826E-05 -0.3486003E-04  0.6613676E-07  0.3182641E-04
3555000.  0.1613240E-04 -0.4943082E-03 -0.1859004E-05 -0.3742244E-04 -0.1231725E-06  0.3254690E-04
3517500.  0.1895170E-04 -0.4629393E-03 -0.1631636E-05 -0.3980649E-04 -0.3176131E-06  0.3357527E-04
3480000.  0.2157372E-04 -0.4272940E-03 -0.1390690E-05 -0.4204204E-04 -0.5190896E-06  0.3494336E-04
3480000.  0.2157372E-04 -0.1098358E-03  0.1510712E-05  0.3670481E-04 -0.5190896E-06 -0.3424323E-04
3409422.  0.2261098E-04 -0.7990726E-04  0.1084286E-05  0.4021365E-04  0.2558701E-07 -0.6302074E-04
3338844.  0.2340181E-04 -0.6559290E-04  0.6206937E-06  0.4346560E-04  0.8562915E-06 -0.8613746E-04
3268266.  0.2412741E-04 -0.6838966E-04  0.1209775E-06  0.4679689E-04  0.1918855E-05 -0.1051401E-03
3197688.  0.2498668E-04 -0.9006290E-04 -0.4179306E-06  0.5061640E-04  0.3176385E-05 -0.1216003E-03
3127109.  0.2620152E-04 -0.1330774E-03 -0.1004133E-05  0.5542704E-04  0.4609588E-05 -0.1371238E-03
3056531.  0.2802740E-04 -0.2011357E-03 -0.1651951E-05  0.6186051E-04  0.6217208E-05 -0.1533782E-03
2985953.  0.3077092E-04 -0.2999001E-03 -0.2383694E-05  0.7073428E-04  0.8017102E-05 -0.1721477E-03
2915375.  0.3481669E-04 -0.4379947E-03 -0.3232130E-05  0.8313853E-04  0.1004788E-04 -0.1954144E-03
2844797.  0.4066771E-04 -0.6284566E-03 -0.4244196E-05  0.1005678E-03  0.1237175E-04 -0.2254792E-03
2774219.  0.4900545E-04 -0.8909142E-03 -0.5486518E-05  0.1251236E-03  0.1507892E-04 -0.2651326E-03
2703641.  0.6077994E-04 -0.1254904E-02 -0.7053739E-05  0.1598267E-03  0.1829431E-04 -0.3178948E-03
2633062.  0.7734626E-04 -0.1765044E-02 -0.9081215E-05  0.2091002E-03  0.2218741E-04 -0.3883509E-03
2562484.  0.1006724E-03 -0.2489182E-02 -0.1176429E-04  0.2795247E-03  0.2698636E-04 -0.4826240E-03
2491906.  0.1336648E-03 -0.3531527E-02 -0.1538861E-04  0.3810604E-03  0.3299880E-04 -0.6090542E-03
2421328.  0.1806787E-03 -0.5053978E-02 -0.2037742E-04  0.5290047E-03  0.4064129E-04 -0.7791572E-03
2350750.  0.2483366E-03 -0.7311379E-02 -0.2736703E-04  0.7472074E-03  0.5048169E-04 -0.1009016E-02
2280172.  0.3468566E-03 -0.1071077E-01 -0.3732881E-04  0.1073460E-02  0.6330028E-04 -0.1321298E-02
2209594.  0.4922492E-03 -0.1591254E-01 -0.5176975E-04  0.1568625E-02  0.8017786E-04 -0.1748170E-02
2139016.  0.7100066E-03 -0.2400628E-01 -0.7306743E-04  0.2332441E-02  0.1026231E-03 -0.2335556E-02
2068438.  0.1041416E-02 -0.3682212E-01 -0.1050402E-03  0.3531339E-02  0.1327567E-03 -0.3149264E-02
1997859.  0.1554579E-02 -0.5749376E-01 -0.1539363E-03  0.5448513E-02  0.1735786E-03 -0.4283793E-02
1927281.  0.2363974E-02 -0.9149534E-01 -0.2301819E-03  0.8575781E-02  0.2293464E-03 -0.5874428E-02
1856703.  0.3666131E-02 -0.1486035E+00 -0.3515514E-03  0.1378647E-01  0.3061171E-03 -0.8113347E-02
1786125.  0.5805926E-02 -0.2466870E+00 -0.5490311E-03  0.2266813E-01  0.4124766E-03 -0.1126816E-01
1715547.  0.9403117E-02 -0.4192349E+00 -0.8779589E-03  0.3818084E-01  0.5604656E-03 -0.1569620E-01
1644969.  0.1560028E-01 -0.7307274E+00 -0.1439758E-02  0.6599576E-01  0.7665476E-03 -0.2183189E-01
1574391.  0.2656290E-01 -0.1308987E+01 -0.2425581E-02  0.1173028E+00  0.1052021E-02 -0.3008164E-01
1503812.  0.4652023E-01 -0.2415576E+01 -0.4206801E-02  0.2148984E+00  0.1441002E-02 -0.4044164E-01
1433234.  0.8400403E-01 -0.4604378E+01 -0.7528879E-02  0.4068544E+00  0.1950548E-02 -0.5133429E-01
1362656.  0.1568537E+00 -0.9093596E+01 -0.1394328E-01  0.7984818E+00  0.2557918E-02 -0.5626955E-01
1292078.  0.3038561E+00 -0.1867569E+02 -0.2680845E-01  0.1630280E+01  0.3102756E-02 -0.3440921E-01
1221500.  0.6130679E+00 -0.4005168E+02 -0.5371762E-01  0.3477362E+01  0.3005020E-02  0.7630158E-01
1221500.  0.6130679E+00 -0.6659237E+01 -0.7815676E-02 -0.3238353E+01  0.3005020E-02 -0.1892819E+00
1183328.  0.6239911E+00  0.2396006E+01  0.7582202E-02 -0.1963699E+01  0.3639959E-02 -0.3696437E-01
1145156.  0.5909407E+00  0.8151771E+01  0.1639649E-01 -0.1030166E+01  0.3587137E-02  0.4532283E-01
1106984.  0.5313893E+00  0.1135975E+02  0.2048470E-01 -0.3762183E+00  0.3185319E-02  0.8304852E-01
1068812.  0.4585815E+00  0.1267841E+02  0.2134895E-01  0.5503340E-01  0.2645403E-02  0.9382086E-01
1030641.  0.3821121E+00  0.1266770E+02  0.2016726E-01  0.3147342E+00  0.2090911E-02  0.8950851E-01
 992469.  0.3085127E+00  0.1178834E+02  0.1783034E-01  0.4475091E+00  0.1587354E-02  0.7782091E-01
 954297.  0.2418499E+00  0.1040552E+02  0.1498239E-01  0.4910065E+00  0.1163427E-02  0.6353366E-01
 916125.  0.1842687E+00  0.8796210E+01  0.1206305E-01  0.4758875E+00  0.8255811E-03  0.4941944E-01
 877953.  0.1364945E+00  0.7159123E+01  0.9348396E-02  0.4261521E+00  0.5679749E-03  0.3690389E-01
 839781.  0.9826798E-01  0.5626278E+01  0.6989462E-02  0.3596585E+00  0.3789734E-03  0.2656451E-01
 801609.  0.6870743E-01  0.4275524E+01  0.5046597E-02  0.2889629E+00  0.2451445E-03  0.1846986E-01
 763438.  0.4659686E-01  0.3142773E+01  0.3518772E-02  0.2221619E+00  0.1535723E-03  0.1241125E-01
 725266.  0.3060015E-01  0.2233443E+01  0.2367278E-02  0.1638532E+00  0.9301493E-04  0.8056642E-02
 687094.  0.1941586E-01  0.1532682E+01  0.1534253E-02  0.1160123E+00  0.5434475E-04  0.5046029E-02
 648922.  0.1187035E-01  0.1013734E+01  0.9557596E-03  0.7880627E-01  0.3053886E-04  0.3042672E-02
 610750.  0.6969015E-02  0.6445529E+00  0.5705424E-03  0.5127315E-01  0.1644561E-04  0.1761245E-02
 572578.  0.3912609E-02  0.3926231E+00  0.3251050E-03  0.3186388E-01  0.8448247E-05  0.9749583E-03
 534406.  0.2089839E-02  0.2281309E+00  0.1759611E-03  0.1884115E-01  0.4116704E-05  0.5135979E-03
 496234.  0.1055203E-02  0.1257430E+00  0.8990209E-04  0.1054574E-01  0.1889524E-05  0.2558814E-03
 458062.  0.4996412E-03  0.6528653E-01  0.4301968E-04  0.5549849E-02  0.8097464E-06  0.1196276E-03
 419891.  0.2196184E-03  0.3164458E-01  0.1908751E-04  0.2722146E-02  0.3203934E-06  0.5195488E-04
 381719.  0.8843655E-04  0.1415152E-01  0.7750374E-05  0.1230098E-02  0.1153573E-06  0.2068897E-04
 343547.  0.3206287E-04  0.5748925E-02  0.2830577E-05  0.5042831E-03  0.3707842E-07  0.7424044E-05
 305375.  0.1022169E-04  0.2077101E-02  0.9081938E-06  0.1836440E-03  0.1036633E-07  0.2344748E-05
 267203.  0.2771953E-05  0.6478558E-03  0.2476559E-06  0.5766942E-04  0.2430507E-08  0.6305438E-06
 229031.  0.6090751E-06  0.1669810E-03  0.5467446E-07  0.1494971E-04  0.4529977E-09  0.1375223E-06
 190859.  0.1005556E-06  0.3323141E-04  0.9062116E-08  0.2989437E-05  0.6176990E-10  0.2255928E-07
 152688.  0.1099261E-07  0.4557611E-05  0.9938125E-09  0.4115740E-06  0.5362184E-11  0.2452890E-08
 114516.  0.6277072E-09  0.3479475E-06  0.5688477E-10  0.3151205E-07  0.2282810E-12  0.1393861E-09
  76344.  0.0000000E+00  0.0000000E+00  0.0000000E+00  0.0000000E+00  0.0000000E+00  0.0000000E+00
  38172.  0.0000000E+00  0.0000000E+00  0.0000000E+00  0.0000000E+00  0.0000000E+00  0.0000000E+00
      0.  0.0000000E+00  0.0000000E+00  0.0000000E+00  0.0000000E+00  0.0000000E+00  0.0000000E+00
