       4       35 S      304        126.56960          8.90901          6.47094        244.76180      185    7
6371000. -0.1086689E-01 -0.1401623E+01 -0.2847469E-02  0.8019417E-02  0.1712212E-02 -0.4114724E-01
6370000. -0.1064645E-01 -0.1407029E+01 -0.2848489E-02  0.4980532E-02  0.1718648E-02 -0.4085923E-01
6369000. -0.1042521E-01 -0.1411927E+01 -0.2849032E-02  0.1938655E-02  0.1725039E-02 -0.4057344E-01
6368000. -0.1020325E-01 -0.1416317E+01 -0.2849097E-02 -0.1105606E-02  0.1731385E-02 -0.4028990E-01
6368000. -0.1020325E-01 -0.1416317E+01 -0.2849097E-02 -0.1105606E-02  0.1731385E-02 -0.4028990E-01
6367000. -0.9980626E-02 -0.1420198E+01 -0.2848685E-02 -0.4151646E-02  0.1737687E-02 -0.4000862E-01
6366000. -0.9757440E-02 -0.1423568E+01 -0.2847794E-02 -0.7198857E-02  0.1743945E-02 -0.3972962E-01
6365000. -0.9533763E-02 -0.1426429E+01 -0.2846425E-02 -0.1024663E-01  0.1750159E-02 -0.3945293E-01
6364000. -0.9309678E-02 -0.1428778E+01 -0.2844577E-02 -0.1329436E-01  0.1756330E-02 -0.3917856E-01
6363000. -0.9085264E-02 -0.1430617E+01 -0.2842251E-02 -0.1634143E-01  0.1762458E-02 -0.3890654E-01
6362000. -0.8860602E-02 -0.1431944E+01 -0.2839447E-02 -0.1938725E-01  0.1768544E-02 -0.3863688E-01
6361000. -0.8635771E-02 -0.1432759E+01 -0.2836165E-02 -0.2243119E-01  0.1774588E-02 -0.3836960E-01
6360000. -0.8410853E-02 -0.1433063E+01 -0.2832406E-02 -0.2547265E-01  0.1780589E-02 -0.3810474E-01
6359000. -0.8185928E-02 -0.1432855E+01 -0.2828169E-02 -0.2851103E-01  0.1786550E-02 -0.3784229E-01
6358000. -0.7961075E-02 -0.1432136E+01 -0.2823456E-02 -0.3154571E-01  0.1792469E-02 -0.3758230E-01
6357000. -0.7736375E-02 -0.1430907E+01 -0.2818267E-02 -0.3457610E-01  0.1798348E-02 -0.3732477E-01
6356000. -0.7511908E-02 -0.1429167E+01 -0.2812602E-02 -0.3760159E-01  0.1804186E-02 -0.3706973E-01
6356000. -0.7511908E-02 -0.1242202E+01 -0.2812602E-02 -0.2082893E-01  0.1804186E-02 -0.3543522E-01
6355000. -0.7316964E-02 -0.1241734E+01 -0.2809205E-02 -0.2245266E-01  0.1809718E-02 -0.3504822E-01
6354000. -0.7122114E-02 -0.1240995E+01 -0.2805554E-02 -0.2407466E-01  0.1815189E-02 -0.3466326E-01
6353000. -0.6927402E-02 -0.1239985E+01 -0.2801648E-02 -0.2569473E-01  0.1820599E-02 -0.3428035E-01
6352000. -0.6732869E-02 -0.1238706E+01 -0.2797488E-02 -0.2731267E-01  0.1825950E-02 -0.3389950E-01
6351000. -0.6538558E-02 -0.1237156E+01 -0.2793074E-02 -0.2892829E-01  0.1831241E-02 -0.3352072E-01
6350000. -0.6344512E-02 -0.1235337E+01 -0.2788407E-02 -0.3054139E-01  0.1836473E-02 -0.3314400E-01
6349000. -0.6150772E-02 -0.1233248E+01 -0.2783486E-02 -0.3215177E-01  0.1841646E-02 -0.3276937E-01
6348000. -0.5957382E-02 -0.1230890E+01 -0.2778314E-02 -0.3375925E-01  0.1846760E-02 -0.3239682E-01
6347000. -0.5764382E-02 -0.1228263E+01 -0.2772889E-02 -0.3536363E-01  0.1851816E-02 -0.3202636E-01
6346600. -0.5687302E-02 -0.1227137E+01 -0.2770648E-02 -0.3600447E-01  0.1853822E-02 -0.3187877E-01
6346600. -0.5687302E-02 -0.1411848E+01 -0.2770648E-02 -0.2335697E-01  0.1853822E-02 -0.2989569E-01
6318800.  0.3006264E-03 -0.1311786E+01 -0.2616955E-02 -0.4680756E-01  0.1959687E-02 -0.1884648E-01
6291000.  0.5583360E-02 -0.1090125E+01 -0.2365751E-02 -0.6779198E-01  0.2020086E-02 -0.9027733E-02
6291000.  0.5583360E-02 -0.1126932E+01 -0.2365751E-02 -0.6986640E-01  0.2020086E-02 -0.9027733E-02
6263000.  0.9810805E-02 -0.7789201E+00 -0.2015905E-02 -0.8849071E-01  0.2040894E-02 -0.6074483E-03
6235000.  0.1229223E-01 -0.3372748E+00 -0.1596324E-02 -0.1014012E+00  0.2026774E-02  0.6891615E-02
6207000.  0.1268671E-01  0.1646618E+00 -0.1134416E-02 -0.1076322E+00  0.1981456E-02  0.1361314E-01
6179000.  0.1081404E-01  0.6875316E+00 -0.6607450E-03 -0.1067215E+00  0.1908072E-02  0.1968224E-01
6151000.  0.6674954E-02  0.1188885E+01 -0.2067162E-03 -0.9875478E-01  0.1809261E-02  0.2519790E-01
6151000.  0.6674954E-02  0.9360384E+00 -0.2067162E-03 -0.8764472E-01  0.1809261E-02  0.2482860E-01
6128500.  0.2861567E-02  0.1216416E+01  0.8600342E-04 -0.7768998E-01  0.1717967E-02  0.2678893E-01
6106000. -0.1859790E-02  0.1448460E+01  0.3392785E-03 -0.6540167E-01  0.1620622E-02  0.2825863E-01
6083500. -0.7300928E-02  0.1622691E+01  0.5459104E-03 -0.5137974E-01  0.1518922E-02  0.2925895E-01
6061000. -0.1324489E-01  0.1732335E+01  0.7009023E-03 -0.3626644E-01  0.1414487E-02  0.2981025E-01
6038500. -0.1945587E-01  0.1773512E+01  0.8015596E-03 -0.2071864E-01  0.1308871E-02  0.2993176E-01
6016000. -0.2568954E-01  0.1745267E+01  0.8474918E-03 -0.5379627E-02  0.1203557E-02  0.2964132E-01
5993500. -0.3170324E-01  0.1649490E+01  0.8405182E-03  0.9146099E-02  0.1099972E-02  0.2895552E-01
5971000. -0.3726583E-01  0.1490759E+01  0.7844932E-03  0.2231391E-01  0.9994868E-03  0.2788791E-01
5971000. -0.3726583E-01  0.1384735E+01  0.7844932E-03  0.2432836E-01  0.9994868E-03  0.3276632E-01
5937667. -0.4364392E-01  0.1040884E+01  0.6197144E-03  0.3780866E-01  0.8350935E-03  0.2996706E-01
5904333. -0.4805813E-01  0.6397690E+00  0.3977986E-03  0.4617736E-01  0.6868792E-03  0.2661012E-01
5871000. -0.5029795E-01  0.2151563E+00  0.1449683E-03  0.4970614E-01  0.5573103E-03  0.2286866E-01
5837667. -0.5032160E-01 -0.2027375E+00 -0.1149267E-03  0.4899887E-01  0.4479882E-03  0.1889306E-01
5804333. -0.4823214E-01 -0.5888871E+00 -0.3617641E-03  0.4485497E-01  0.3598132E-03  0.1480045E-01
5771000. -0.4424831E-01 -0.9242541E+00 -0.5798360E-03  0.3815359E-01  0.2931770E-03  0.1067019E-01
5771000. -0.4424831E-01 -0.9242993E+00 -0.5798360E-03  0.3815391E-01  0.2931770E-03  0.1067019E-01
5701000. -0.3083151E-01 -0.1466905E+01 -0.8899305E-03  0.1700814E-01  0.2386329E-03 -0.1037211E-02
5701000. -0.3083151E-01 -0.1267254E+01 -0.8899305E-03  0.2045417E-01  0.2386329E-03  0.7653083E-02
5667333. -0.2393266E-01 -0.1349613E+01 -0.9854891E-03  0.1576330E-01  0.2052154E-03  0.5299030E-02
5633667. -0.1649815E-01 -0.1464230E+01 -0.1055827E-02  0.1077122E-01  0.1807141E-03  0.4028027E-02
5600000. -0.8537339E-02 -0.1541119E+01 -0.1099163E-02  0.5656831E-02  0.1624331E-03  0.2926108E-02
5600000. -0.8537339E-02 -0.1541119E+01 -0.1099163E-02  0.5656831E-02  0.1624331E-03  0.2926108E-02
5563518.  0.4249938E-03 -0.1581946E+01 -0.1116187E-02  0.3388754E-03  0.1485090E-03  0.1974927E-02
5527037.  0.9498658E-02 -0.1580510E+01 -0.1103785E-02 -0.4593653E-02  0.1394059E-03  0.1237911E-02
5490556.  0.1845024E-01 -0.1539909E+01 -0.1064592E-02 -0.8998024E-02  0.1339736E-03  0.6882246E-03
5454074.  0.2706700E-01 -0.1464255E+01 -0.1001946E-02 -0.1277034E-01  0.1312177E-03  0.2990762E-03
5417593.  0.3516195E-01 -0.1358613E+01 -0.9196821E-03 -0.1584266E-01  0.1302828E-03  0.4828110E-04
5381111.  0.4257914E-01 -0.1228383E+01 -0.8219024E-03 -0.1818684E-01  0.1304502E-03 -0.9023055E-04
5344630.  0.4919361E-01 -0.1079277E+01 -0.7127905E-03 -0.1980389E-01  0.1311442E-03 -0.1384505E-03
5308148.  0.5491416E-01 -0.9170288E+00 -0.5964412E-03 -0.2072072E-01  0.1318917E-03 -0.1125323E-03
5271667.  0.5968096E-01 -0.7470950E+00 -0.4767213E-03 -0.2099243E-01  0.1323421E-03 -0.3792947E-04
5235185.  0.6346523E-01 -0.5746319E+00 -0.3571399E-03 -0.2068277E-01  0.1322515E-03  0.7523183E-04
5198704.  0.6626587E-01 -0.4042874E+00 -0.2408162E-03 -0.1987057E-01  0.1314297E-03  0.2140099E-03
5162222.  0.6810690E-01 -0.2400623E+00 -0.1303561E-03 -0.1864825E-01  0.1297944E-03  0.3577361E-03
5125741.  0.6903333E-01 -0.8535925E-01 -0.2787872E-04 -0.1709733E-01  0.1273199E-03  0.5068246E-03
5089259.  0.6910780E-01  0.5712102E-01  0.6499264E-04 -0.1530744E-01  0.1240018E-03  0.6499320E-03
5052778.  0.6840643E-01  0.1853475E+00  0.1471378E-03 -0.1336466E-01  0.1199072E-03  0.7778967E-03
5016296.  0.6701496E-01  0.2979645E+00  0.2178923E-03 -0.1134010E-01  0.1151166E-03  0.8926328E-03
4979815.  0.6502541E-01  0.3941804E+00  0.2769921E-03 -0.9305754E-02  0.1097248E-03  0.9868036E-03
4943333.  0.6253242E-01  0.4737881E+00  0.3245566E-03 -0.7318709E-02  0.1038572E-03  0.1059548E-02
4906852.  0.5963070E-01  0.5370439E+00  0.3609842E-03 -0.5423830E-02  0.9762199E-04  0.1114778E-02
4870370.  0.5641211E-01  0.5845733E+00  0.3869334E-03 -0.3664421E-02  0.9113897E-04  0.1145827E-02
4833889.  0.5296414E-01  0.6173800E+00  0.4032551E-03 -0.2064219E-02  0.8453286E-04  0.1159168E-02
4797407.  0.4936751E-01  0.6366769E+00  0.4109099E-03 -0.6404213E-03  0.7789196E-04  0.1157182E-02
4760926.  0.4569598E-01  0.6438200E+00  0.4109611E-03  0.5904745E-03  0.7132090E-04  0.1135389E-02
4724444.  0.4201456E-01  0.6403555E+00  0.4045081E-03  0.1632068E-02  0.6490746E-04  0.1103103E-02
4687963.  0.3837983E-01  0.6277965E+00  0.3926302E-03  0.2485543E-02  0.5870967E-04  0.1059668E-02
4651482.  0.3483942E-01  0.6076714E+00  0.3763922E-03  0.3157082E-02  0.5279318E-04  0.1005673E-02
4615000.  0.3143217E-01  0.5814934E+00  0.3567905E-03  0.3662605E-02  0.4720030E-04  0.9470109E-03
4578518.  0.2818885E-01  0.5506393E+00  0.3347413E-03  0.4014147E-02  0.4195903E-04  0.8827585E-03
4542037.  0.2513252E-01  0.5164196E+00  0.3110808E-03  0.4229027E-02  0.3709719E-04  0.8153212E-03
4505556.  0.2227892E-01  0.4800127E+00  0.2865321E-03  0.4327046E-02  0.3262012E-04  0.7483264E-03
4469074.  0.1963756E-01  0.4424226E+00  0.2617229E-03  0.4322592E-02  0.2853147E-04  0.6796881E-03
4432593.  0.1721266E-01  0.4045711E+00  0.2371855E-03  0.4235664E-02  0.2483198E-04  0.6130254E-03
4396111.  0.1500339E-01  0.3671985E+00  0.2133402E-03  0.4082925E-02  0.2150531E-04  0.5492174E-03
4359630.  0.1300534E-01  0.3309069E+00  0.1905277E-03  0.3877633E-02  0.1853966E-04  0.4871003E-03
4323148.  0.1121072E-01  0.2962030E+00  0.1690015E-03  0.3635810E-02  0.1591901E-04  0.4289172E-03
4286667.  0.9609427E-02  0.2634457E+00  0.1489372E-03  0.3368872E-02  0.1362095E-04  0.3742817E-03
4250185.  0.8189455E-02  0.2328967E+00  0.1304491E-03  0.3086864E-02  0.1162675E-04  0.3228521E-03
4213704.  0.6937658E-02  0.2047392E+00  0.1135949E-03  0.2799699E-02  0.9915996E-05  0.2752726E-03
4177222.  0.5840007E-02  0.1790561E+00  0.9838422E-04  0.2513629E-02  0.8468939E-05  0.2305735E-03
4140741.  0.4882262E-02  0.1558847E+00  0.8479447E-04  0.2234650E-02  0.7270638E-05  0.1884217E-03
4104259.  0.4050019E-02  0.1352039E+00  0.7276950E-04  0.1967491E-02  0.6306463E-05  0.1485866E-03
4067778.  0.3329246E-02  0.1169462E+00  0.6223553E-04  0.1714380E-02  0.5567998E-05  0.1094017E-03
4031296.  0.2706251E-02  0.1010300E+00  0.5310397E-04  0.1477934E-02  0.5053377E-05  0.7026969E-04
3994815.  0.2167960E-02  0.8734635E-01  0.4527550E-04  0.1259381E-02  0.4765861E-05  0.2974491E-04
3958333.  0.1701911E-02  0.7577339E-01  0.3864687E-04  0.1058861E-02  0.4719641E-05 -0.1434018E-04
3921852.  0.1296373E-02  0.6619548E-01  0.3311343E-04  0.8769759E-03  0.4940604E-05 -0.6398628E-04
3885370.  0.9402537E-03  0.5848843E-01  0.2856793E-04  0.7137517E-03  0.5468916E-05 -0.1222681E-03
3848889.  0.6232054E-03  0.5253256E-01  0.2490299E-04  0.5696111E-03  0.6364602E-05 -0.1930051E-03
3812407.  0.3355221E-03  0.4820807E-01  0.2200538E-04  0.4460465E-03  0.7712088E-05 -0.2809752E-03
3775926.  0.6825764E-04  0.4537914E-01  0.1975010E-04  0.3459678E-03  0.9627245E-05 -0.3924707E-03
3739444. -0.1867181E-03  0.4388220E-01  0.1798772E-04  0.2751477E-03  0.1226683E-04 -0.5354736E-03
3702963. -0.4364056E-03  0.4348753E-01  0.1652407E-04  0.2438465E-03  0.1583903E-04 -0.7201294E-03
3666482. -0.6861726E-03  0.4383553E-01  0.1508729E-04  0.2694231E-03  0.2061747E-04 -0.9591555E-03
3630000. -0.9387620E-03  0.4434879E-01  0.1327686E-04  0.3802982E-03  0.2695758E-04 -0.1268434E-02
3630000. -0.9387620E-03  0.4434879E-01  0.1327686E-04  0.3802982E-03  0.2695758E-04 -0.1268434E-02
3592500. -0.1199621E-02  0.4402794E-01  0.1038271E-04  0.6317752E-03  0.3558144E-04 -0.1679430E-02
3555000. -0.1452014E-02  0.4109700E-01  0.5412977E-05  0.1102242E-02  0.4695933E-04 -0.2208417E-02
3517500. -0.1672617E-02  0.3259715E-01 -0.3269413E-05  0.1919990E-02  0.6186110E-04 -0.2881020E-02
3480000. -0.1815312E-02  0.1357530E-01 -0.1826502E-04  0.3289938E-02  0.8120225E-04 -0.3720113E-02
3480000. -0.1815312E-02 -0.8856724E-01 -0.6366350E-04 -0.3205730E-02  0.8120225E-04  0.2101564E-02
3409422. -0.1045163E-02 -0.5317659E-01 -0.3605645E-04 -0.1885240E-02  0.5714793E-04  0.2090317E-02
3338844. -0.5880479E-03 -0.3113727E-01 -0.1998841E-04 -0.1083791E-02  0.3661499E-04  0.1588454E-02
3268266. -0.3233642E-03 -0.1779049E-01 -0.1084512E-04 -0.6091658E-03  0.2199850E-04  0.1064469E-02
3197688. -0.1737865E-03 -0.9921570E-02 -0.5757923E-05 -0.3347674E-03  0.1257693E-04  0.6594568E-03
3127109. -0.9126824E-04 -0.5401483E-02 -0.2990483E-05 -0.1798530E-03  0.6898285E-05  0.3857753E-03
3056531. -0.4682720E-04 -0.2870646E-02 -0.1518800E-05 -0.9444266E-04  0.3647523E-05  0.2154831E-03
2985953. -0.2346316E-04 -0.1489015E-02 -0.7539303E-06 -0.4845552E-04  0.1864742E-05  0.1156604E-03
2915375. -0.1147562E-04 -0.7535906E-03 -0.3655820E-06 -0.2427992E-04  0.9233606E-06  0.5988264E-04
2844797. -0.5475363E-05 -0.3719610E-03 -0.1730504E-06 -0.1187518E-04  0.4432896E-06  0.2997464E-04
2774219. -0.2546800E-05 -0.1789533E-03 -0.7990305E-07 -0.5665467E-05  0.2064241E-06  0.1452490E-04
2703641. -0.1153913E-05 -0.8386162E-04 -0.3595692E-07 -0.2634505E-05  0.9324035E-07  0.6818008E-05
2633062. -0.5087967E-06 -0.3824825E-04 -0.1575450E-07 -0.1193007E-05  0.4083999E-07  0.3100609E-05
2562484. -0.2181061E-06 -0.1696239E-04 -0.6713821E-08 -0.5255876E-06  0.1733684E-07  0.1365816E-05
2491906. -0.9078886E-07 -0.7306664E-05 -0.2779392E-08 -0.2250153E-06  0.7126905E-08  0.5824436E-06
2421328. -0.3664998E-07 -0.3053391E-05 -0.1116259E-08 -0.9349708E-07  0.2834205E-08  0.2402580E-06
2350750. -0.1432720E-07 -0.1236190E-05 -0.4342824E-09 -0.3765264E-07  0.1088980E-08  0.9576394E-07
2280172. -0.5414955E-08 -0.4841332E-06 -0.1634027E-09 -0.1467325E-07  0.4036761E-09  0.3683506E-07
2209594. -0.1975130E-08 -0.1830969E-06 -0.5935228E-10 -0.5523789E-08  0.1441251E-09  0.1365171E-07
2139016. -0.6939019E-09 -0.6674315E-07 -0.2076976E-10 -0.2004886E-08  0.4946605E-10  0.4866355E-08
2068438. -0.2342824E-09 -0.2340022E-07 -0.6986687E-11 -0.7000858E-09  0.1628519E-10  0.1665033E-08
1997859. -0.7582999E-10 -0.7871976E-08 -0.2253562E-11 -0.2346261E-09  0.5130099E-11  0.5455410E-09
1927281. -0.2346492E-10 -0.2534306E-08 -0.6950834E-12 -0.7526927E-10  0.1542134E-11  0.1707210E-09
1856703. -0.6920373E-11 -0.7784801E-09 -0.2043719E-12 -0.2304475E-10  0.4409854E-12  0.5087463E-10
1786125. -0.1938581E-11 -0.2273965E-09 -0.5708230E-13 -0.6711159E-11  0.1195347E-12  0.1438875E-10
1715547. -0.5140683E-12 -0.6289038E-10 -0.1507853E-13 -0.1853088E-11  0.3057352E-13  0.3850085E-11
1644969.  0.0000000E+00  0.0000000E+00  0.0000000E+00  0.0000000E+00  0.0000000E+00  0.0000000E+00
1574391.  0.0000000E+00  0.0000000E+00  0.0000000E+00  0.0000000E+00  0.0000000E+00  0.0000000E+00
1503812.  0.0000000E+00  0.0000000E+00  0.0000000E+00  0.0000000E+00  0.0000000E+00  0.0000000E+00
1433234.  0.0000000E+00  0.0000000E+00  0.0000000E+00  0.0000000E+00  0.0000000E+00  0.0000000E+00
1362656.  0.0000000E+00  0.0000000E+00  0.0000000E+00  0.0000000E+00  0.0000000E+00  0.0000000E+00
1292078.  0.0000000E+00  0.0000000E+00  0.0000000E+00  0.0000000E+00  0.0000000E+00  0.0000000E+00
1221500.  0.0000000E+00  0.0000000E+00  0.0000000E+00  0.0000000E+00  0.0000000E+00  0.0000000E+00
1221500.  0.0000000E+00  0.0000000E+00  0.0000000E+00  0.0000000E+00  0.0000000E+00  0.0000000E+00
1183328.  0.0000000E+00  0.0000000E+00  0.0000000E+00  0.0000000E+00  0.0000000E+00  0.0000000E+00
1145156.  0.0000000E+00  0.0000000E+00  0.0000000E+00  0.0000000E+00  0.0000000E+00  0.0000000E+00
1106984.  0.0000000E+00  0.0000000E+00  0.0000000E+00  0.0000000E+00  0.0000000E+00  0.0000000E+00
1068812.  0.0000000E+00  0.0000000E+00  0.0000000E+00  0.0000000E+00  0.0000000E+00  0.0000000E+00
1030641.  0.0000000E+00  0.0000000E+00  0.0000000E+00  0.0000000E+00  0.0000000E+00  0.0000000E+00
 992469.  0.0000000E+00  0.0000000E+00  0.0000000E+00  0.0000000E+00  0.0000000E+00  0.0000000E+00
 954297.  0.0000000E+00  0.0000000E+00  0.0000000E+00  0.0000000E+00  0.0000000E+00  0.0000000E+00
 916125.  0.0000000E+00  0.0000000E+00  0.0000000E+00  0.0000000E+00  0.0000000E+00  0.0000000E+00
 877953.  0.0000000E+00  0.0000000E+00  0.0000000E+00  0.0000000E+00  0.0000000E+00  0.0000000E+00
 839781.  0.0000000E+00  0.0000000E+00  0.0000000E+00  0.0000000E+00  0.0000000E+00  0.0000000E+00
 801609.  0.0000000E+00  0.0000000E+00  0.0000000E+00  0.0000000E+00  0.0000000E+00  0.0000000E+00
 763438.  0.0000000E+00  0.0000000E+00  0.0000000E+00  0.0000000E+00  0.0000000E+00  0.0000000E+00
 725266.  0.0000000E+00  0.0000000E+00  0.0000000E+00  0.0000000E+00  0.0000000E+00  0.0000000E+00
 687094.  0.0000000E+00  0.0000000E+00  0.0000000E+00  0.0000000E+00  0.0000000E+00  0.0000000E+00
 648922.  0.0000000E+00  0.0000000E+00  0.0000000E+00  0.0000000E+00  0.0000000E+00  0.0000000E+00
 610750.  0.0000000E+00  0.0000000E+00  0.0000000E+00  0.0000000E+00  0.0000000E+00  0.0000000E+00
 572578.  0.0000000E+00  0.0000000E+00  0.0000000E+00  0.0000000E+00  0.0000000E+00  0.0000000E+00
 534406.  0.0000000E+00  0.0000000E+00  0.0000000E+00  0.0000000E+00  0.0000000E+00  0.0000000E+00
 496234.  0.0000000E+00  0.0000000E+00  0.0000000E+00  0.0000000E+00  0.0000000E+00  0.0000000E+00
 458062.  0.0000000E+00  0.0000000E+00  0.0000000E+00  0.0000000E+00  0.0000000E+00  0.0000000E+00
 419891.  0.0000000E+00  0.0000000E+00  0.0000000E+00  0.0000000E+00  0.0000000E+00  0.0000000E+00
 381719.  0.0000000E+00  0.0000000E+00  0.0000000E+00  0.0000000E+00  0.0000000E+00  0.0000000E+00
 343547.  0.0000000E+00  0.0000000E+00  0.0000000E+00  0.0000000E+00  0.0000000E+00  0.0000000E+00
 305375.  0.0000000E+00  0.0000000E+00  0.0000000E+00  0.0000000E+00  0.0000000E+00  0.0000000E+00
 267203.  0.0000000E+00  0.0000000E+00  0.0000000E+00  0.0000000E+00  0.0000000E+00  0.0000000E+00
 229031.  0.0000000E+00  0.0000000E+00  0.0000000E+00  0.0000000E+00  0.0000000E+00  0.0000000E+00
 190859.  0.0000000E+00  0.0000000E+00  0.0000000E+00  0.0000000E+00  0.0000000E+00  0.0000000E+00
 152688.  0.0000000E+00  0.0000000E+00  0.0000000E+00  0.0000000E+00  0.0000000E+00  0.0000000E+00
 114516.  0.0000000E+00  0.0000000E+00  0.0000000E+00  0.0000000E+00  0.0000000E+00  0.0000000E+00
  76344.  0.0000000E+00  0.0000000E+00  0.0000000E+00  0.0000000E+00  0.0000000E+00  0.0000000E+00
  38172.  0.0000000E+00  0.0000000E+00  0.0000000E+00  0.0000000E+00  0.0000000E+00  0.0000000E+00
      0.  0.0000000E+00  0.0000000E+00  0.0000000E+00  0.0000000E+00  0.0000000E+00  0.0000000E+00
