       3       41 S      261        112.95710          8.53937          6.22919        227.52080      185    7
6371000. -0.1956205E-01 -0.1676991E+01 -0.2500742E-02  0.1706131E-01  0.1735170E-02 -0.3598769E-01
6370000. -0.1929781E-01 -0.1689871E+01 -0.2503167E-02  0.1384482E-01  0.1740796E-02 -0.3570321E-01
6369000. -0.1903160E-01 -0.1702014E+01 -0.2505088E-02  0.1062116E-01  0.1746378E-02 -0.3542254E-01
6368000. -0.1876355E-01 -0.1713417E+01 -0.2506501E-02  0.7391130E-02  0.1751916E-02 -0.3514573E-01
6368000. -0.1876355E-01 -0.1713417E+01 -0.2506501E-02  0.7391130E-02  0.1751916E-02 -0.3514573E-01
6367000. -0.1849376E-01 -0.1724079E+01 -0.2507407E-02  0.4155513E-02  0.1757411E-02 -0.3487279E-01
6366000. -0.1822236E-01 -0.1733997E+01 -0.2507806E-02  0.9151104E-03  0.1762864E-02 -0.3460374E-01
6365000. -0.1794946E-01 -0.1743170E+01 -0.2507695E-02 -0.2329283E-02  0.1768275E-02 -0.3433863E-01
6364000. -0.1767518E-01 -0.1751594E+01 -0.2507074E-02 -0.5576869E-02  0.1773644E-02 -0.3407747E-01
6363000. -0.1739963E-01 -0.1759270E+01 -0.2505944E-02 -0.8826847E-02  0.1778972E-02 -0.3382031E-01
6362000. -0.1712294E-01 -0.1766195E+01 -0.2504303E-02 -0.1207842E-01  0.1784261E-02 -0.3356715E-01
6361000. -0.1684522E-01 -0.1772369E+01 -0.2502152E-02 -0.1533078E-01  0.1789510E-02 -0.3331805E-01
6360000. -0.1656660E-01 -0.1777790E+01 -0.2499491E-02 -0.1858314E-01  0.1794721E-02 -0.3307302E-01
6359000. -0.1628718E-01 -0.1782458E+01 -0.2496318E-02 -0.2183468E-01  0.1799893E-02 -0.3283209E-01
6358000. -0.1600708E-01 -0.1786373E+01 -0.2492636E-02 -0.2508462E-01  0.1805027E-02 -0.3259530E-01
6357000. -0.1572643E-01 -0.1789533E+01 -0.2488444E-02 -0.2833214E-01  0.1810125E-02 -0.3236267E-01
6356000. -0.1544535E-01 -0.1791940E+01 -0.2483742E-02 -0.3157645E-01  0.1815187E-02 -0.3213423E-01
6356000. -0.1544535E-01 -0.1541775E+01 -0.2483742E-02 -0.1390924E-01  0.1815187E-02 -0.2877350E-01
6355000. -0.1520311E-01 -0.1544741E+01 -0.2481427E-02 -0.1559509E-01  0.1819673E-02 -0.2838095E-01
6354000. -0.1496044E-01 -0.1547318E+01 -0.2478847E-02 -0.1728055E-01  0.1824097E-02 -0.2799156E-01
6353000. -0.1471739E-01 -0.1549506E+01 -0.2476002E-02 -0.1896540E-01  0.1828460E-02 -0.2760536E-01
6352000. -0.1447403E-01 -0.1551305E+01 -0.2472893E-02 -0.2064936E-01  0.1832763E-02 -0.2722235E-01
6351000. -0.1423042E-01 -0.1552715E+01 -0.2469520E-02 -0.2233220E-01  0.1837006E-02 -0.2684253E-01
6350000. -0.1398662E-01 -0.1553735E+01 -0.2465883E-02 -0.2401367E-01  0.1841189E-02 -0.2646592E-01
6349000. -0.1374269E-01 -0.1554366E+01 -0.2461981E-02 -0.2569351E-01  0.1845314E-02 -0.2609252E-01
6348000. -0.1349869E-01 -0.1554608E+01 -0.2457817E-02 -0.2737148E-01  0.1849381E-02 -0.2572234E-01
6347000. -0.1325468E-01 -0.1554461E+01 -0.2453389E-02 -0.2904733E-01  0.1853389E-02 -0.2535539E-01
6346600. -0.1315709E-01 -0.1554293E+01 -0.2451544E-02 -0.2971702E-01  0.1854977E-02 -0.2520951E-01
6346600. -0.1315709E-01 -0.1748218E+01 -0.2451544E-02 -0.1657203E-01  0.1854977E-02 -0.2062183E-01
6318800. -0.5600518E-02 -0.1686501E+01 -0.2328522E-02 -0.3963499E-01  0.1919921E-02 -0.9443799E-02
6291000.  0.1313944E-02 -0.1455418E+01 -0.2108625E-02 -0.6065568E-01  0.1939780E-02  0.9255388E-04
6291000.  0.1313944E-02 -0.1500829E+01 -0.2108625E-02 -0.6259298E-01  0.1939780E-02  0.9255388E-04
6263000.  0.7071817E-02 -0.1093828E+01 -0.1790089E-02 -0.8149172E-01  0.1921905E-02  0.7832923E-02
6235000.  0.1073240E-01 -0.5535384E+00 -0.1401179E-02 -0.9436600E-01  0.1872586E-02  0.1444207E-01
6207000.  0.1181362E-01  0.7081148E-01 -0.9712667E-03 -0.1000008E+00  0.1796282E-02  0.2014817E-01
6179000.  0.1007309E-01  0.7201706E+00 -0.5336386E-03 -0.9784492E-01  0.1696523E-02  0.2514571E-01
6151000.  0.5539904E-02  0.1331040E+01 -0.1224137E-03 -0.8807739E-01  0.1576070E-02  0.2958613E-01
6151000.  0.5539904E-02  0.1055089E+01 -0.1224137E-03 -0.7813948E-01  0.1576070E-02  0.2927963E-01
6128500.  0.1208132E-02  0.1387290E+01  0.1344922E-03 -0.6691669E-01  0.1470865E-02  0.3021702E-01
6106000. -0.4173573E-02  0.1647293E+01  0.3475973E-03 -0.5345456E-01  0.1363198E-02  0.3067957E-01
6083500. -0.1032734E-01  0.1822876E+01  0.5103039E-03 -0.3850504E-01  0.1254693E-02  0.3069633E-01
6061000. -0.1694028E-01  0.1906482E+01  0.6187465E-03 -0.2285654E-01  0.1146877E-02  0.3029334E-01
6038500. -0.2368137E-01  0.1895413E+01  0.6718492E-03 -0.7293751E-02  0.1041191E-02  0.2949325E-01
6016000. -0.3021857E-01  0.1791745E+01  0.6712431E-03  0.7440959E-02  0.9390039E-03  0.2831490E-01
5993500. -0.3623516E-01  0.1602022E+01  0.6210566E-03  0.2068084E-01  0.8416234E-03  0.2677327E-01
5971000. -0.4144475E-01  0.1336780E+01  0.5275994E-03  0.3186124E-01  0.7503153E-03  0.2487691E-01
5971000. -0.4144475E-01  0.1242986E+01  0.5275994E-03  0.3328491E-01  0.7503153E-03  0.3030238E-01
5937667. -0.4667995E-01  0.7468495E+00  0.3252617E-03  0.4307153E-01  0.6012537E-03  0.2661445E-01
5904333. -0.4918788E-01  0.2091951E+00  0.8690840E-04  0.4713208E-01  0.4723071E-03  0.2264537E-01
5871000. -0.4888294E-01 -0.3208314E+00 -0.1591771E-03  0.4618131E-01  0.3644514E-03  0.1858192E-01
5837667. -0.4591490E-01 -0.8029313E+00 -0.3893717E-03  0.4124374E-01  0.2777703E-03  0.1457181E-01
5804333. -0.4061675E-01 -0.1207448E+01 -0.5858046E-03  0.3346619E-01  0.2117046E-03  0.1071251E-01
5771000. -0.3344847E-01 -0.1515635E+01 -0.7365802E-03  0.2397189E-01  0.1653319E-03  0.7046805E-02
5771000. -0.3344847E-01 -0.1515717E+01 -0.7365802E-03  0.2397229E-01  0.1653319E-03  0.7046805E-02
5701000. -0.1431541E-01 -0.1885078E+01 -0.8694928E-03 -0.4513708E-03  0.1405959E-03 -0.2829618E-02
5701000. -0.1431541E-01 -0.1634157E+01 -0.8694928E-03  0.2787024E-02  0.1405959E-03  0.1205381E-02
5667333. -0.5830321E-02 -0.1586972E+01 -0.8735260E-03 -0.1065017E-02  0.1364525E-03  0.6185438E-03
5633667.  0.2552768E-02 -0.1586372E+01 -0.8588336E-03 -0.4496339E-02  0.1329748E-03  0.6804811E-03
5600000.  0.1085434E-01 -0.1548186E+01 -0.8262962E-03 -0.7753591E-02  0.1295162E-03  0.6262249E-03
5600000.  0.1085434E-01 -0.1548186E+01 -0.8262962E-03 -0.7753591E-02  0.1295162E-03  0.6262249E-03
5563518.  0.1950867E-01 -0.1468341E+01 -0.7729715E-03 -0.1078024E-01  0.1261222E-03  0.5583739E-03
5527037.  0.2760495E-01 -0.1354407E+01 -0.7039527E-03 -0.1322468E-01  0.1231063E-03  0.4976289E-03
5490556.  0.3496692E-01 -0.1212993E+01 -0.6227204E-03 -0.1504213E-01  0.1203811E-03  0.4580831E-03
5454074.  0.4145715E-01 -0.1051045E+01 -0.5328971E-03 -0.1622562E-01  0.1178126E-03  0.4436274E-03
5417593.  0.4697809E-01 -0.8756594E+00 -0.4380742E-03 -0.1679527E-01  0.1152415E-03  0.4589244E-03
5381111.  0.5147247E-01 -0.6935129E+00 -0.3416273E-03 -0.1680217E-01  0.1125131E-03  0.4970816E-03
5344630.  0.5491929E-01 -0.5107856E+00 -0.2465973E-03 -0.1631308E-01  0.1095168E-03  0.5523220E-03
5308148.  0.5733143E-01 -0.3329337E+00 -0.1556073E-03 -0.1540443E-01  0.1061558E-03  0.6228939E-03
5271667.  0.5875023E-01 -0.1645412E+00 -0.7080640E-04 -0.1416700E-01  0.1023834E-03  0.6945397E-03
5235185.  0.5924088E-01 -0.9279638E-02  0.6167658E-05 -0.1268332E-01  0.9819877E-04  0.7672595E-03
5198704.  0.5888691E-01  0.1300824E+00  0.7413521E-04 -0.1103641E-01  0.9360038E-04  0.8371216E-03
5162222.  0.5778507E-01  0.2516930E+00  0.1324121E-03 -0.9310190E-02  0.8864311E-04  0.8921632E-03
5125741.  0.5604029E-01  0.3545552E+00  0.1807252E-03 -0.7566664E-02  0.8339798E-04  0.9382789E-03
5089259.  0.5376097E-01  0.4383826E+00  0.2191513E-03 -0.5866202E-02  0.7792396E-04  0.9708357E-03
5052778.  0.5105551E-01  0.5035349E+00  0.2480876E-03 -0.4259052E-02  0.7231326E-04  0.9864896E-03
5016296.  0.4802826E-01  0.5509377E+00  0.2681662E-03 -0.2777211E-02  0.6664835E-04  0.9899843E-03
4979815.  0.4477751E-01  0.5818685E+00  0.2801897E-03 -0.1449681E-02  0.6100456E-04  0.9787814E-03
4943333.  0.4139291E-01  0.5979488E+00  0.2850931E-03 -0.2915530E-03  0.5546466E-04  0.9545287E-03
4906852.  0.3795455E-01  0.6009852E+00  0.2838611E-03  0.6924015E-03  0.5008805E-04  0.9217646E-03
4870370.  0.3453163E-01  0.5928419E+00  0.2775049E-03  0.1498517E-02  0.4493146E-04  0.8777163E-03
4833889.  0.3118279E-01  0.5754654E+00  0.2670223E-03  0.2135857E-02  0.4004753E-04  0.8275586E-03
4797407.  0.2795534E-01  0.5507092E+00  0.2533436E-03  0.2616289E-02  0.3546061E-04  0.7736395E-03
4760926.  0.2488672E-01  0.5203046E+00  0.2373412E-03  0.2950225E-02  0.3119994E-04  0.7140428E-03
4724444.  0.2200429E-01  0.4859057E+00  0.2197969E-03  0.3157993E-02  0.2728255E-04  0.6543086E-03
4687963.  0.1932690E-01  0.4489360E+00  0.2013847E-03  0.3256025E-02  0.2370738E-04  0.5943394E-03
4651482.  0.1686554E-01  0.4106483E+00  0.1826868E-03  0.3260976E-02  0.2047639E-04  0.5345024E-03
4615000.  0.1462448E-01  0.3721269E+00  0.1641793E-03  0.3192195E-02  0.1757999E-04  0.4776280E-03
4578518.  0.1260259E-01  0.3342315E+00  0.1462410E-03  0.3064577E-02  0.1500223E-04  0.4231256E-03
4542037.  0.1079422E-01  0.2976688E+00  0.1291662E-03  0.2893349E-02  0.1272831E-04  0.3718325E-03
4505556.  0.9190080E-02  0.2629719E+00  0.1131614E-03  0.2692782E-02  0.1073503E-04  0.3250340E-03
4469074.  0.7778348E-02  0.2305027E+00  0.9836508E-04  0.2472823E-02  0.9000155E-05  0.2815283E-03
4432593.  0.6545537E-02  0.2005243E+00  0.8485805E-04  0.2244255E-02  0.7502364E-05  0.2424120E-03
4396111.  0.5476895E-02  0.1731626E+00  0.7266429E-04  0.2015030E-02  0.6215581E-05  0.2076734E-03
4359630.  0.4557373E-02  0.1484506E+00  0.6177233E-04  0.1790613E-02  0.5117412E-05  0.1765406E-03
4323148.  0.3771794E-02  0.1263592E+00  0.5213758E-04  0.1576577E-02  0.4185872E-05  0.1494926E-03
4286667.  0.3105463E-02  0.1067861E+00  0.4369103E-04  0.1376076E-02  0.3398422E-05  0.1261220E-03
4250185.  0.2544320E-02  0.8958804E-01  0.3634852E-04  0.1191229E-02  0.2735212E-05  0.1060860E-03
4213704.  0.2075264E-02  0.7459597E-01  0.3001541E-04  0.1023738E-02  0.2177002E-05  0.8942316E-04
4177222.  0.1686198E-02  0.6161125E-01  0.2459079E-04  0.8738664E-03  0.1705460E-05  0.7575580E-04
4140741.  0.1366229E-02  0.5043158E-01  0.1997384E-04  0.7416815E-03  0.1303909E-05  0.6499843E-04
4104259.  0.1105599E-02  0.4084695E-01  0.1606367E-04  0.6268310E-03  0.9553443E-06  0.5722376E-04
4067778.  0.8957969E-03  0.3264650E-01  0.1276411E-04  0.5282831E-03  0.6432623E-06  0.5227141E-04
4031296.  0.7294680E-03  0.2562761E-01  0.9984051E-05  0.4452053E-03  0.3506682E-06  0.5048410E-04
3994815.  0.6004270E-03  0.1959136E-01  0.7638038E-05  0.3764902E-03  0.5832351E-07  0.5225360E-04
3958333.  0.5035955E-03  0.1434544E-01  0.5647488E-05  0.3208311E-03 -0.2555713E-06  0.5814759E-04
3921852.  0.4349786E-03  0.9707405E-02  0.3940979E-05  0.2770962E-03 -0.6175736E-06  0.6927158E-04
3885370.  0.3916037E-03  0.5499596E-02  0.2453980E-05  0.2438950E-03 -0.1061624E-05  0.8709062E-04
3848889.  0.3714968E-03  0.1553369E-02  0.1130753E-05  0.2196208E-03 -0.1631768E-05  0.1137482E-03
3812407.  0.3736201E-03 -0.2290440E-02 -0.7445394E-07  0.2022511E-03 -0.2387002E-05  0.1523237E-03
3775926.  0.3978043E-03 -0.6173608E-02 -0.1192824E-05  0.1886675E-03 -0.3406814E-05  0.2069805E-03
3739444.  0.4446108E-03 -0.1020590E-01 -0.2233353E-05  0.1740418E-03 -0.4799056E-05  0.2835143E-03
3702963.  0.5150672E-03 -0.1443459E-01 -0.3169065E-05  0.1503372E-03 -0.6710201E-05  0.3897134E-03
3666482.  0.6101623E-03 -0.1878446E-01 -0.3912021E-05  0.1037942E-03 -0.9337978E-05  0.5357618E-03
3630000.  0.7298761E-03 -0.2295507E-01 -0.4271001E-05  0.1125666E-04 -0.1294725E-04  0.7349695E-03
3630000.  0.7298761E-03 -0.2295507E-01 -0.4271001E-05  0.1125666E-04 -0.1294725E-04  0.7349695E-03
3592500.  0.8755790E-03 -0.2629312E-01 -0.3851939E-05 -0.1736744E-03 -0.1804856E-04  0.1012265E-02
3555000.  0.1034452E-02 -0.2706111E-01 -0.1907914E-05 -0.5226712E-03 -0.2504802E-04  0.1383529E-02
3517500.  0.1183130E-02 -0.2212865E-01  0.2864304E-05 -0.1161691E-02 -0.3456171E-04  0.1869829E-02
3480000.  0.1272608E-02 -0.5654808E-02  0.1275029E-04 -0.2306481E-02 -0.4731508E-04  0.2485588E-02
3480000.  0.1272608E-02  0.7511541E-01  0.3740957E-04  0.2260692E-02 -0.4731508E-04 -0.1595647E-02
3409422.  0.6532460E-03  0.4008821E-01  0.1892096E-04  0.1185107E-02 -0.3023966E-04 -0.1388832E-02
3338844.  0.3267484E-03  0.2081455E-01  0.9338584E-05  0.6055945E-03 -0.1738708E-04 -0.9303877E-03
3268266.  0.1592620E-03  0.1051791E-01  0.4496977E-05  0.3016732E-03 -0.9309045E-05 -0.5496427E-03
3197688.  0.7563412E-04  0.5173266E-02  0.2112215E-05  0.1464801E-03 -0.4718157E-05 -0.2996709E-03
3127109.  0.3498751E-04  0.2476585E-02  0.9672937E-06  0.6931116E-04 -0.2284048E-05 -0.1539054E-03
3056531.  0.1575941E-04  0.1153768E-02  0.4316931E-06  0.3194959E-04 -0.1061601E-05 -0.7526223E-04
2985953.  0.6908345E-05  0.5228853E-03  0.1876387E-06  0.1434014E-04 -0.4751948E-06 -0.3525778E-04
2915375.  0.2945399E-05  0.2304132E-03  0.7937685E-07  0.6263374E-05 -0.2052169E-06 -0.1587961E-04
2844797.  0.1220473E-05  0.9866274E-04  0.3265404E-07  0.2660248E-05 -0.8558433E-07 -0.6890188E-05
2774219.  0.4910784E-06  0.4102214E-04  0.1305121E-07  0.1097829E-05 -0.3447975E-07 -0.2883420E-05
2703641.  0.1916834E-06  0.1654698E-04  0.5062729E-08  0.4397759E-06 -0.1341768E-07 -0.1164278E-05
2633062.  0.7250008E-07  0.6468532E-05  0.1903831E-08  0.1708199E-06 -0.5041137E-08 -0.4535668E-06
2562484.  0.2653878E-07  0.2447858E-05  0.6931592E-09  0.6426011E-07 -0.1827255E-08 -0.1704010E-06
2491906.  0.9388548E-08  0.8955376E-06  0.2439886E-09  0.2338000E-07 -0.6383197E-09 -0.6168804E-07
2421328.  0.3204905E-08  0.3162708E-06  0.8289897E-10  0.8214680E-08 -0.2146306E-09 -0.2149600E-07
2350750.  0.1053854E-08  0.1076458E-06  0.2713997E-10  0.2782602E-08 -0.6935872E-10 -0.7200360E-08
2280172.  0.3331660E-09  0.3524520E-07  0.8544885E-11  0.9070174E-09 -0.2150316E-10 -0.2314672E-08
2209594.  0.1010491E-09  0.1107848E-07  0.2581707E-11  0.2839127E-09 -0.6382940E-11 -0.7127636E-09
2139016.  0.2933389E-10  0.3335415E-08  0.7467535E-12  0.8514528E-10 -0.1809944E-11 -0.2097897E-09
2068438.  0.8128940E-11  0.9594199E-09  0.2062393E-12  0.2440248E-10 -0.4890087E-12 -0.5887595E-10
1997859.  0.2144123E-11  0.2629185E-09  0.5422577E-13  0.6664436E-11 -0.1255186E-12 -0.1571057E-10
1927281.  0.5365769E-12  0.6842590E-10  0.1352901E-13  0.1729020E-11 -0.3050903E-13 -0.3973871E-11
1856703.  0.1270086E-12  0.1684253E-10  0.3189507E-14  0.4248637E-12 -0.6991968E-14 -0.9500466E-12
1786125.  0.0000000E+00  0.0000000E+00  0.0000000E+00  0.0000000E+00  0.0000000E+00  0.0000000E+00
1715547.  0.0000000E+00  0.0000000E+00  0.0000000E+00  0.0000000E+00  0.0000000E+00  0.0000000E+00
1644969.  0.0000000E+00  0.0000000E+00  0.0000000E+00  0.0000000E+00  0.0000000E+00  0.0000000E+00
1574391.  0.0000000E+00  0.0000000E+00  0.0000000E+00  0.0000000E+00  0.0000000E+00  0.0000000E+00
1503812.  0.0000000E+00  0.0000000E+00  0.0000000E+00  0.0000000E+00  0.0000000E+00  0.0000000E+00
1433234.  0.0000000E+00  0.0000000E+00  0.0000000E+00  0.0000000E+00  0.0000000E+00  0.0000000E+00
1362656.  0.0000000E+00  0.0000000E+00  0.0000000E+00  0.0000000E+00  0.0000000E+00  0.0000000E+00
1292078.  0.0000000E+00  0.0000000E+00  0.0000000E+00  0.0000000E+00  0.0000000E+00  0.0000000E+00
1221500.  0.0000000E+00  0.0000000E+00  0.0000000E+00  0.0000000E+00  0.0000000E+00  0.0000000E+00
1221500.  0.0000000E+00  0.0000000E+00  0.0000000E+00  0.0000000E+00  0.0000000E+00  0.0000000E+00
1183328.  0.0000000E+00  0.0000000E+00  0.0000000E+00  0.0000000E+00  0.0000000E+00  0.0000000E+00
1145156.  0.0000000E+00  0.0000000E+00  0.0000000E+00  0.0000000E+00  0.0000000E+00  0.0000000E+00
1106984.  0.0000000E+00  0.0000000E+00  0.0000000E+00  0.0000000E+00  0.0000000E+00  0.0000000E+00
1068812.  0.0000000E+00  0.0000000E+00  0.0000000E+00  0.0000000E+00  0.0000000E+00  0.0000000E+00
1030641.  0.0000000E+00  0.0000000E+00  0.0000000E+00  0.0000000E+00  0.0000000E+00  0.0000000E+00
 992469.  0.0000000E+00  0.0000000E+00  0.0000000E+00  0.0000000E+00  0.0000000E+00  0.0000000E+00
 954297.  0.0000000E+00  0.0000000E+00  0.0000000E+00  0.0000000E+00  0.0000000E+00  0.0000000E+00
 916125.  0.0000000E+00  0.0000000E+00  0.0000000E+00  0.0000000E+00  0.0000000E+00  0.0000000E+00
 877953.  0.0000000E+00  0.0000000E+00  0.0000000E+00  0.0000000E+00  0.0000000E+00  0.0000000E+00
 839781.  0.0000000E+00  0.0000000E+00  0.0000000E+00  0.0000000E+00  0.0000000E+00  0.0000000E+00
 801609.  0.0000000E+00  0.0000000E+00  0.0000000E+00  0.0000000E+00  0.0000000E+00  0.0000000E+00
 763438.  0.0000000E+00  0.0000000E+00  0.0000000E+00  0.0000000E+00  0.0000000E+00  0.0000000E+00
 725266.  0.0000000E+00  0.0000000E+00  0.0000000E+00  0.0000000E+00  0.0000000E+00  0.0000000E+00
 687094.  0.0000000E+00  0.0000000E+00  0.0000000E+00  0.0000000E+00  0.0000000E+00  0.0000000E+00
 648922.  0.0000000E+00  0.0000000E+00  0.0000000E+00  0.0000000E+00  0.0000000E+00  0.0000000E+00
 610750.  0.0000000E+00  0.0000000E+00  0.0000000E+00  0.0000000E+00  0.0000000E+00  0.0000000E+00
 572578.  0.0000000E+00  0.0000000E+00  0.0000000E+00  0.0000000E+00  0.0000000E+00  0.0000000E+00
 534406.  0.0000000E+00  0.0000000E+00  0.0000000E+00  0.0000000E+00  0.0000000E+00  0.0000000E+00
 496234.  0.0000000E+00  0.0000000E+00  0.0000000E+00  0.0000000E+00  0.0000000E+00  0.0000000E+00
 458062.  0.0000000E+00  0.0000000E+00  0.0000000E+00  0.0000000E+00  0.0000000E+00  0.0000000E+00
 419891.  0.0000000E+00  0.0000000E+00  0.0000000E+00  0.0000000E+00  0.0000000E+00  0.0000000E+00
 381719.  0.0000000E+00  0.0000000E+00  0.0000000E+00  0.0000000E+00  0.0000000E+00  0.0000000E+00
 343547.  0.0000000E+00  0.0000000E+00  0.0000000E+00  0.0000000E+00  0.0000000E+00  0.0000000E+00
 305375.  0.0000000E+00  0.0000000E+00  0.0000000E+00  0.0000000E+00  0.0000000E+00  0.0000000E+00
 267203.  0.0000000E+00  0.0000000E+00  0.0000000E+00  0.0000000E+00  0.0000000E+00  0.0000000E+00
 229031.  0.0000000E+00  0.0000000E+00  0.0000000E+00  0.0000000E+00  0.0000000E+00  0.0000000E+00
 190859.  0.0000000E+00  0.0000000E+00  0.0000000E+00  0.0000000E+00  0.0000000E+00  0.0000000E+00
 152688.  0.0000000E+00  0.0000000E+00  0.0000000E+00  0.0000000E+00  0.0000000E+00  0.0000000E+00
 114516.  0.0000000E+00  0.0000000E+00  0.0000000E+00  0.0000000E+00  0.0000000E+00  0.0000000E+00
  76344.  0.0000000E+00  0.0000000E+00  0.0000000E+00  0.0000000E+00  0.0000000E+00  0.0000000E+00
  38172.  0.0000000E+00  0.0000000E+00  0.0000000E+00  0.0000000E+00  0.0000000E+00  0.0000000E+00
      0.  0.0000000E+00  0.0000000E+00  0.0000000E+00  0.0000000E+00  0.0000000E+00  0.0000000E+00
