      22        7 S      715        102.46570         52.08922          1.94189        222.06461      185    7
6371000. -0.1708718E-01 -0.1454952E+00 -0.7221897E-02  0.9865280E-02  0.1054911E-03  0.3137849E-01
6370000. -0.1706338E-01 -0.1576699E+00 -0.7222126E-02 -0.6960355E-02  0.1005600E-03  0.3145219E-01
6369000. -0.1703769E-01 -0.1697277E+00 -0.7219712E-02 -0.2379304E-01  0.9561772E-04  0.3152239E-01
6368000. -0.1701011E-01 -0.1816673E+00 -0.7214656E-02 -0.4062660E-01  0.9066465E-04  0.3158907E-01
6368000. -0.1701011E-01 -0.1816673E+00 -0.7214656E-02 -0.4062660E-01  0.9066465E-04  0.3158907E-01
6367000. -0.1698066E-01 -0.1934872E+00 -0.7206959E-02 -0.5745487E-01  0.8570139E-04  0.3165222E-01
6366000. -0.1694938E-01 -0.2051861E+00 -0.7196621E-02 -0.7427167E-01  0.8072849E-04  0.3171185E-01
6365000. -0.1691626E-01 -0.2167628E+00 -0.7183644E-02 -0.9107082E-01  0.7574651E-04  0.3176794E-01
6364000. -0.1688134E-01 -0.2282161E+00 -0.7168033E-02 -0.1078461E+00  0.7075600E-04  0.3182048E-01
6363000. -0.1684462E-01 -0.2395447E+00 -0.7149790E-02 -0.1245915E+00  0.6575753E-04  0.3186947E-01
6362000. -0.1680614E-01 -0.2507475E+00 -0.7128922E-02 -0.1413007E+00  0.6075165E-04  0.3191490E-01
6361000. -0.1676591E-01 -0.2618236E+00 -0.7105435E-02 -0.1579676E+00  0.5573891E-04  0.3195677E-01
6360000. -0.1672396E-01 -0.2727718E+00 -0.7079336E-02 -0.1745861E+00  0.5071989E-04  0.3199506E-01
6359000. -0.1668029E-01 -0.2835912E+00 -0.7050631E-02 -0.1911501E+00  0.4569513E-04  0.3202977E-01
6358000. -0.1663494E-01 -0.2942808E+00 -0.7019332E-02 -0.2076535E+00  0.4066521E-04  0.3206091E-01
6357000. -0.1658792E-01 -0.3048398E+00 -0.6985448E-02 -0.2240902E+00  0.3563068E-04  0.3208845E-01
6356000. -0.1653925E-01 -0.3152675E+00 -0.6948989E-02 -0.2404540E+00  0.3059211E-04  0.3211241E-01
6356000. -0.1653925E-01 -0.2369224E+00 -0.6948989E-02 -0.1413264E+00  0.3059211E-04  0.3571116E-01
6355000. -0.1650145E-01 -0.2446664E+00 -0.6925948E-02 -0.1522493E+00  0.2498295E-04  0.3576030E-01
6354000. -0.1646245E-01 -0.2523284E+00 -0.6901196E-02 -0.1631409E+00  0.1936630E-04  0.3580657E-01
6353000. -0.1642225E-01 -0.2599077E+00 -0.6874737E-02 -0.1739984E+00  0.1374261E-04  0.3584995E-01
6352000. -0.1638086E-01 -0.2674040E+00 -0.6846576E-02 -0.1848193E+00  0.8112343E-05  0.3589046E-01
6351000. -0.1633831E-01 -0.2748168E+00 -0.6816720E-02 -0.1956008E+00  0.2475944E-05  0.3592807E-01
6350000. -0.1629459E-01 -0.2821457E+00 -0.6785175E-02 -0.2063402E+00 -0.3166133E-05  0.3596279E-01
6349000. -0.1624974E-01 -0.2893904E+00 -0.6751948E-02 -0.2170349E+00 -0.8813431E-05  0.3599461E-01
6348000. -0.1620375E-01 -0.2965504E+00 -0.6717045E-02 -0.2276823E+00 -0.1446550E-04  0.3602353E-01
6347000. -0.1615665E-01 -0.3036255E+00 -0.6680476E-02 -0.2382797E+00 -0.2012187E-04  0.3604955E-01
6346600. -0.1613750E-01 -0.3064317E+00 -0.6665383E-02 -0.2425040E+00 -0.2238553E-04  0.3605914E-01
6346600. -0.1613750E-01 -0.2530781E+00 -0.6665383E-02 -0.1606356E+00 -0.2238553E-04  0.4168605E-01
6318800. -0.1475573E-01 -0.3721986E+00 -0.5486371E-02 -0.3734555E+00 -0.2057355E-03  0.4203683E-01
6291000. -0.1295841E-01 -0.4440527E+00 -0.3482980E-02 -0.5337633E+00 -0.3864803E-03  0.4049144E-01
6291000. -0.1295841E-01 -0.4511030E+00 -0.3482980E-02 -0.5517755E+00 -0.3864803E-03  0.4049144E-01
6263000. -0.1089980E-01 -0.4795387E+00 -0.8358336E-03 -0.6375399E+00 -0.5573845E-03  0.3697338E-01
6235000. -0.8786582E-02 -0.4785848E+00  0.1979396E-02 -0.6272205E+00 -0.7088776E-03  0.3168850E-01
6207000. -0.6711489E-02 -0.4650935E+00  0.4537665E-02 -0.5220571E+00 -0.8336545E-03  0.2485882E-01
6179000. -0.4692199E-02 -0.4557770E+00  0.6451622E-02 -0.3377312E+00 -0.9255438E-03  0.1677594E-01
6151000. -0.2679567E-02 -0.4638025E+00  0.7430456E-02 -0.1019212E+00 -0.9797813E-03  0.7785874E-02
6151000. -0.2679567E-02 -0.3394200E+00  0.7430456E-02 -0.8837093E-01 -0.9797813E-03  0.7934122E-02
6128500. -0.1469814E-02 -0.3485832E+00  0.7420960E-02  0.9336636E-01 -0.9961455E-03  0.1308195E-02
6106000. -0.1972664E-03 -0.3747742E+00  0.6782939E-02  0.2649918E+00 -0.9889443E-03 -0.5383159E-02
6083500.  0.1194448E-02 -0.4154331E+00  0.5578439E-02  0.4119095E+00 -0.9582441E-03 -0.1197173E-01
6061000.  0.2748332E-02 -0.4656195E+00  0.3917009E-02  0.5219989E+00 -0.9046991E-03 -0.1829371E-01
6038500.  0.4486489E-02 -0.5185415E+00  0.1945159E-02  0.5865827E+00 -0.8295281E-03 -0.2419384E-01
6016000.  0.6404758E-02 -0.5662422E+00 -0.1670160E-03  0.6010586E+00 -0.7344774E-03 -0.2952917E-01
5993500.  0.8469995E-02 -0.6004040E+00 -0.2240801E-02  0.5651593E+00 -0.6217712E-03 -0.3417272E-01
5971000.  0.1062028E-01 -0.6131818E+00 -0.4104102E-02  0.4828543E+00 -0.4940497E-03 -0.3801611E-01
5971000.  0.1062028E-01 -0.5632225E+00 -0.4104102E-02  0.4279290E+00 -0.4940497E-03 -0.3940639E-01
5937667.  0.1346177E-01 -0.5132945E+00 -0.5885068E-02  0.2458558E+00 -0.2772031E-03 -0.4313551E-01
5904333.  0.1588880E-01 -0.4047979E+00 -0.6635350E-02  0.3998630E-01 -0.4639425E-04 -0.4473526E-01
5871000.  0.1760385E-01 -0.2427610E+00 -0.6322586E-02 -0.1551721E+00  0.1872357E-03 -0.4423022E-01
5837667.  0.1835881E-01 -0.4061142E-01 -0.5079607E-02 -0.3116809E+00  0.4129851E-03 -0.4175287E-01
5804333.  0.1799232E-01  0.1823826E+00 -0.3161178E-02 -0.4111655E+00  0.6210833E-03 -0.3752331E-01
5771000.  0.1645245E-01  0.4041971E+00 -0.8907852E-03 -0.4458134E+00  0.8030759E-03 -0.3182797E-01
5771000.  0.1645245E-01  0.4041984E+00 -0.8907852E-03 -0.4457995E+00  0.8030759E-03 -0.3182797E-01
5701000.  0.9573421E-02  0.8222776E+00  0.3704557E-02 -0.3477995E+00  0.1066417E-02 -0.1543626E-01
5701000.  0.9573421E-02  0.6899010E+00  0.3704557E-02 -0.2764662E+00  0.1066417E-02 -0.1813466E-01
5667333.  0.5780512E-02  0.7449847E+00  0.4844250E-02 -0.1580100E+00  0.1143076E-02 -0.1095790E-01
5633667.  0.1702247E-02  0.7939781E+00  0.5387866E-02 -0.4679220E-01  0.1182400E-02 -0.3888972E-02
5600000. -0.2510662E-02  0.7909209E+00  0.5329240E-02  0.6864078E-01  0.1183888E-02  0.3322906E-02
5600000. -0.2510662E-02  0.7909209E+00  0.5329240E-02  0.6864078E-01  0.1183888E-02  0.3322906E-02
5563518. -0.6891076E-02  0.7292794E+00  0.4597345E-02  0.1841452E+00  0.1142780E-02  0.1098831E-01
5527037. -0.1075858E-01  0.6133363E+00  0.3265708E-02  0.2759961E+00  0.1058834E-02  0.1824203E-01
5490556. -0.1383323E-01  0.4546509E+00  0.1502847E-02  0.3332748E+00  0.9351246E-03  0.2483875E-01
5454074. -0.1591321E-01  0.2687361E+00 -0.4722317E-03  0.3494208E+00  0.7760368E-03  0.3056406E-01
5417593. -0.1689293E-01  0.7341216E-01 -0.2417213E-02  0.3229634E+00  0.5871080E-03  0.3523611E-01
5381111. -0.1677045E-01 -0.1133111E+00 -0.4096058E-02  0.2574396E+00  0.3747782E-03  0.3871566E-01
5344630. -0.1564328E-01 -0.2750068E+00 -0.5306137E-02  0.1609255E+00  0.1461915E-03  0.4090291E-01
5308148. -0.1369400E-01 -0.3986096E+00 -0.5901753E-02  0.4495151E-01 -0.9107396E-04  0.4173860E-01
5271667. -0.1116763E-01 -0.4756069E+00 -0.5809681E-02 -0.7691091E-01 -0.3292052E-03  0.4120842E-01
5235185. -0.8342500E-02 -0.5028740E+00 -0.5036527E-02 -0.1906412E+00 -0.5604415E-03  0.3933512E-01
5198704. -0.5499378E-02 -0.4827383E+00 -0.3666661E-02 -0.2833618E+00 -0.7772383E-03  0.3618092E-01
5162222. -0.2890934E-02 -0.4224717E+00 -0.1851456E-02 -0.3447257E+00 -0.9725407E-03  0.3184490E-01
5125741. -0.7161485E-03 -0.3334486E+00  0.2084619E-03 -0.3680916E+00 -0.1139930E-02  0.2645757E-01
5089259.  0.8993498E-03 -0.2295473E+00  0.2286706E-02 -0.3510808E+00 -0.1273838E-02  0.2017828E-01
5052778.  0.1912652E-02 -0.1255892E+00  0.4155805E-02 -0.2957769E+00 -0.1369668E-02  0.1319167E-01
5016296.  0.2364549E-02 -0.3564211E-01  0.5612690E-02 -0.2084397E+00 -0.1423950E-02  0.5701315E-02
4979815.  0.2370077E-02  0.2864586E-01  0.6499984E-02 -0.9867486E-01 -0.1434417E-02 -0.2074509E-02
4943333.  0.2101047E-02  0.5927563E-01  0.6722566E-02  0.2162701E-01 -0.1400078E-02 -0.9909673E-02
4906852.  0.1762480E-02  0.5276474E-01  0.6256760E-02  0.1396149E+00 -0.1321253E-02 -0.1757508E-01
4870370.  0.1565255E-02  0.1054498E-01  0.5151873E-02  0.2428677E+00 -0.1199552E-02 -0.2484711E-01
4833889.  0.1698557E-02 -0.6130942E-01  0.3524070E-02  0.3206964E+00 -0.1037856E-02 -0.3151181E-01
4797407.  0.2304990E-02 -0.1527503E+00  0.1542896E-02  0.3652370E+00 -0.8402013E-03 -0.3737352E-01
4760926.  0.3460712E-02 -0.2508619E+00 -0.5866781E-03  0.3721573E+00 -0.6117055E-03 -0.4225933E-01
4724444.  0.5163508E-02 -0.3414126E+00 -0.2646566E-02  0.3411591E+00 -0.3583722E-03 -0.4602489E-01
4687963.  0.7329275E-02 -0.4103445E+00 -0.4427963E-02  0.2758066E+00 -0.8696428E-04 -0.4855941E-01
4651482.  0.9797953E-02 -0.4454036E+00 -0.5752854E-02  0.1831430E+00  0.1952467E-03 -0.4978886E-01
4615000.  0.1234799E-01 -0.4375571E+00 -0.6491767E-02  0.7292575E-01  0.4806722E-03 -0.4967679E-01
4578518.  0.1471766E-01 -0.3820066E+00 -0.6576233E-02 -0.4345930E-01  0.7616178E-03 -0.4822832E-01
4542037.  0.1663169E-01 -0.2788807E+00 -0.6005004E-02 -0.1541409E+00  0.1030529E-02 -0.4548639E-01
4505556.  0.1783015E-01 -0.1333378E+00 -0.4843200E-02 -0.2480015E+00  0.1280217E-02 -0.4153027E-01
4469074.  0.1809622E-01  0.4479414E-01 -0.3214848E-02 -0.3157336E+00  0.1504053E-02 -0.3647686E-01
4432593.  0.1728082E-01  0.2418737E+00 -0.1289884E-02 -0.3507933E+00  0.1696139E-02 -0.3046849E-01
4396111.  0.1532083E-01  0.4417127E+00  0.7338410E-03 -0.3499663E+00  0.1851486E-02 -0.2367359E-01
4359630.  0.1225006E-01  0.6269849E+00  0.2650020E-02 -0.3136168E+00  0.1966119E-02 -0.1628207E-01
4323148.  0.8200070E-02  0.7810582E+00  0.4264999E-02 -0.2456751E+00  0.2037192E-02 -0.8491896E-02
4286667.  0.3392718E-02  0.8893853E+00  0.5416441E-02 -0.1531124E+00  0.2063007E-02 -0.5103531E-03
4250185. -0.1876907E-02  0.9410170E+00  0.5989209E-02 -0.4525901E-01  0.2043065E-02  0.7455915E-02
4213704. -0.7263689E-02  0.9297460E+00  0.5926113E-02  0.6712169E-01  0.1978035E-02  0.1520540E-01
4177222. -0.1240232E-01  0.8545929E+00  0.5233094E-02  0.1729262E+00  0.1869704E-02  0.2254834E-01
4140741. -0.1693726E-01  0.7201623E+00  0.3978230E-02  0.2617517E+00  0.1720918E-02  0.2930808E-01
4104259. -0.2055501E-01  0.5362083E+00  0.2284540E-02  0.3249192E+00  0.1535474E-02  0.3532652E-01
4067778. -0.2301016E-01  0.3167768E+00  0.3181887E-03  0.3562127E+00  0.1318017E-02  0.4047028E-01
4031296. -0.2414793E-01  0.7911941E-01 -0.1727992E-02  0.3525419E+00  0.1073887E-02  0.4462264E-01
3994815. -0.2391746E-01 -0.1579244E+00 -0.3652714E-02  0.3141202E+00  0.8090483E-03  0.4769380E-01
3958333. -0.2237646E-01 -0.3755617E+00 -0.5265493E-02  0.2444135E+00  0.5298630E-03  0.4962164E-01
3921852. -0.1968634E-01 -0.5566856E+00 -0.6404273E-02  0.1498626E+00  0.2430355E-03  0.5036036E-01
3885370. -0.1609759E-01 -0.6874241E+00 -0.6950847E-02  0.3916508E-01 -0.4457894E-04  0.4989293E-01
3848889. -0.1192834E-01 -0.7583300E+00 -0.6841431E-02 -0.7748066E-01 -0.3260610E-03  0.4822325E-01
3812407. -0.7535338E-02 -0.7653114E+00 -0.6072618E-02 -0.1893628E+00 -0.5945951E-03  0.4537361E-01
3775926. -0.3283324E-02 -0.7098508E+00 -0.4701613E-02 -0.2861929E+00 -0.8435287E-03  0.4138865E-01
3739444.  0.4880803E-03 -0.5990275E+00 -0.2840857E-02 -0.3590845E+00 -0.1066540E-02  0.3632890E-01
3702963.  0.3493901E-02 -0.4448275E+00 -0.6479336E-03 -0.4013202E+00 -0.1257676E-02  0.3027148E-01
3666482.  0.5529393E-02 -0.2629959E+00  0.1688751E-02 -0.4088835E+00 -0.1411484E-02  0.2330749E-01
3630000.  0.6487927E-02 -0.7182215E-01  0.3966731E-02 -0.3809129E+00 -0.1523070E-02  0.1554180E-01
3630000.  0.6487927E-02 -0.7182215E-01  0.3966731E-02 -0.3809129E+00 -0.1523070E-02  0.1554180E-01
3592500.  0.6352579E-02  0.1144071E+00  0.6038254E-02 -0.3174751E+00 -0.1589277E-02  0.6844301E-02
3555000.  0.5200089E-02  0.2706890E+00  0.7645925E-02 -0.2244914E+00 -0.1602482E-02 -0.2444255E-02
3517500.  0.3258186E-02  0.3801652E+00  0.8639301E-02 -0.1103217E+00 -0.1559624E-02 -0.1218096E-01
3480000.  0.8412319E-03  0.4304920E+00  0.8923098E-02  0.1479585E-01 -0.1458493E-02 -0.2221972E-01
3480000.  0.8412319E-03  0.2021937E-03 -0.2928896E-05  0.1545495E-02 -0.1458493E-02 -0.2491754E-01
3409422.  0.7315134E-03  0.1904727E-01 -0.1963149E-04  0.1403860E-02 -0.1197347E-02 -0.2201088E-01
3338844.  0.4391540E-03  0.3255280E-01 -0.3268686E-04  0.9005917E-03 -0.9750939E-03 -0.1795757E-01
3268266.  0.4047660E-04  0.3795069E-01 -0.3868171E-04  0.1544678E-03 -0.8018629E-03 -0.1326432E-01
3197688. -0.3689866E-03  0.3456162E-01 -0.3584179E-04 -0.6636939E-03 -0.6810718E-03 -0.8608343E-02
3127109. -0.6974133E-03  0.2367675E-01 -0.2438884E-04 -0.1371189E-02 -0.6084690E-03 -0.4669306E-02
3056531. -0.8759656E-03  0.8047697E-02 -0.6452088E-05 -0.1812413E-02 -0.5729746E-03 -0.1978895E-02
2985953. -0.8710484E-03 -0.8847999E-02  0.1441202E-04 -0.1889230E-02 -0.5589454E-03 -0.8163695E-03
2915375. -0.6880131E-03 -0.2357890E-01  0.3396195E-04 -0.1577637E-02 -0.5492664E-03 -0.1166634E-02
2844797. -0.3668452E-03 -0.3341713E-01  0.4811429E-04 -0.9291635E-03 -0.5285533E-03 -0.2740581E-02
2774219.  0.2828095E-04 -0.3677455E-01  0.5372217E-04 -0.5826223E-04 -0.4858302E-03 -0.5046656E-02
2703641.  0.4228184E-03 -0.3337245E-01  0.4915255E-04  0.8806597E-03 -0.4162194E-03 -0.7494061E-02
2633062.  0.7460908E-03 -0.2415366E-01  0.3457372E-04  0.1721675E-02 -0.3214165E-03 -0.9504938E-02
2562484.  0.9433450E-03 -0.1099098E-01  0.1192383E-04  0.2315775E-02 -0.2089796E-03 -0.1061409E-01
2491906.  0.9838491E-03  0.3729131E-02 -0.1541626E-04  0.2554778E-02 -0.9064572E-04 -0.1054041E-01
2421328.  0.8640580E-03  0.1755782E-01 -0.4317019E-04  0.2387070E-02  0.1992431E-04 -0.9220192E-02
2350750.  0.6059795E-03  0.2839129E-01 -0.6683495E-04  0.1823451E-02  0.1095586E-03 -0.6801335E-02
2280172.  0.2515650E-03  0.3477181E-01 -0.8235814E-04  0.9330350E-03  0.1677246E-03 -0.3603426E-02
2209594. -0.1454782E-03  0.3604916E-01 -0.8672114E-04 -0.1693582E-03  0.1880944E-03 -0.5407829E-04
2139016. -0.5288397E-03  0.3239438E-01 -0.7834680E-04 -0.1341702E-02  0.1693328E-03  0.3385580E-02
2068438. -0.8481729E-03  0.2468450E-01 -0.5728459E-04 -0.2435947E-02  0.1150602E-03  0.6293263E-02
1997859. -0.1065815E-02  0.1429139E-01 -0.2516101E-04 -0.3318526E-02  0.3307712E-04  0.8344622E-02
1927281. -0.1160853E-02  0.2823746E-02  0.1507696E-04 -0.3887283E-02 -0.6594822E-04  0.9351332E-02
1856703. -0.1130282E-02 -0.8136896E-02  0.5958191E-04 -0.4082907E-02 -0.1700950E-03  0.9275191E-02
1786125. -0.9874061E-03 -0.1726070E-01  0.1041103E-03 -0.3893442E-02 -0.2678147E-03  0.8218483E-02
1715547. -0.7580908E-03 -0.2362898E-01  0.1445412E-03 -0.3352116E-02 -0.3493449E-03  0.6395353E-02
1644969. -0.4757022E-03 -0.2681280E-01  0.1773368E-03 -0.2529152E-02 -0.4077295E-03  0.4090833E-02
1574391. -0.1756187E-03 -0.2687133E-01  0.1998857E-03 -0.1519271E-02 -0.4393526E-03  0.1615399E-02
1503812.  0.1098504E-03 -0.2428260E-01  0.2106935E-03 -0.4267476E-03 -0.4439797E-03 -0.7373547E-03
1433234.  0.3554840E-03 -0.1982906E-01  0.2094014E-03  0.6500802E-03 -0.4243796E-03 -0.2723122E-02
1362656.  0.5458202E-03 -0.1446643E-01  0.1966395E-03  0.1633471E-02 -0.3856634E-03 -0.4164909E-02
1292078.  0.6763886E-03 -0.9207714E-02  0.1737229E-03  0.2479578E-02 -0.3345241E-03 -0.4952264E-02
1221500.  0.7539219E-03 -0.5058320E-02  0.1422050E-03  0.3191557E-02 -0.2786050E-03 -0.5017980E-02
1221500.  0.7539219E-03 -0.9084704E-02  0.1277961E-03 -0.3265696E-02 -0.2786050E-03 -0.5344581E-02
1183328.  0.7720020E-03  0.3587243E-02  0.1521042E-03 -0.4432690E-02 -0.2468726E-03 -0.5230132E-02
1145156.  0.7088787E-03  0.1725911E-01  0.1757035E-03 -0.3026635E-02 -0.2161259E-03 -0.5018688E-02
1106984.  0.5725940E-03  0.2725095E-01  0.1841528E-03  0.4638307E-03 -0.1868891E-03 -0.4729333E-02
1068812.  0.3973815E-03  0.2978642E-01  0.1685507E-03  0.4741904E-02 -0.1595714E-03 -0.4381202E-02
1030641.  0.2335614E-03  0.2346528E-01  0.1289792E-03  0.8205093E-02 -0.1344704E-03 -0.3992551E-02
 992469.  0.1307908E-03  0.9929028E-02  0.7452037E-04  0.9546480E-02 -0.1117766E-03 -0.3580100E-02
 954297.  0.1205217E-03 -0.6537253E-02  0.1996644E-04  0.8225165E-02 -0.9158760E-04 -0.3158731E-02
 916125.  0.2037891E-03 -0.2034918E-01 -0.1946886E-04  0.4640718E-02 -0.7391736E-04 -0.2741301E-02
 877953.  0.3488202E-03 -0.2645318E-01 -0.3343541E-04 -0.3770837E-04 -0.5870873E-04 -0.2338684E-02
 839781.  0.4995097E-03 -0.2201761E-01 -0.1984924E-04 -0.4306107E-02 -0.4584524E-04 -0.1959807E-02
 801609.  0.5921301E-03 -0.7411479E-02  0.1468253E-04 -0.6852416E-02 -0.3516270E-04 -0.1611683E-02
 763438.  0.5748857E-03  0.1385083E-01  0.5738376E-04 -0.6983965E-02 -0.2646087E-04 -0.1299397E-02
 725266.  0.4240172E-03  0.3616957E-01  0.9372394E-04 -0.4813465E-02 -0.1951435E-04 -0.1026027E-02
 687094.  0.1514185E-03  0.5355075E-01  0.1120736E-03 -0.1159055E-02 -0.1408590E-04 -0.7926853E-03
 648922. -0.1984235E-03  0.6137850E-01  0.1070444E-03  0.2781261E-02 -0.9937067E-05 -0.5986110E-03
 610750. -0.5608888E-03  0.5769721E-01  0.8051716E-04  0.5848149E-02 -0.6839044E-05 -0.4414025E-03
 572578. -0.8688986E-03  0.4363077E-01  0.4027124E-04  0.7279893E-02 -0.4581361E-05 -0.3174111E-03
 534406. -0.1070246E-02  0.2286284E-01 -0.3057187E-05  0.6897461E-02 -0.2978017E-05 -0.2222001E-03
 496234. -0.1139512E-02  0.4084656E-03 -0.3948199E-04  0.5075090E-02 -0.1870728E-05 -0.1510339E-03
 458062. -0.1081557E-02 -0.1888428E-01 -0.6243619E-04  0.2535673E-02 -0.1129385E-05 -0.9930122E-04
 419891. -0.9264769E-03 -0.3161581E-01 -0.7002016E-04  0.6622617E-04 -0.6504436E-06 -0.6278991E-04
 381719. -0.7184608E-03 -0.3653170E-01 -0.6458234E-04 -0.1737370E-02 -0.3538448E-06 -0.3787743E-04
 343547. -0.5027111E-03 -0.3448951E-01 -0.5107804E-04 -0.2612675E-02 -0.1794392E-06 -0.2154983E-04
 305375. -0.3144569E-03 -0.2781387E-01 -0.3499641E-04 -0.2633255E-02 -0.8332735E-07 -0.1138410E-04
 267203. -0.1729908E-03 -0.1933278E-01 -0.2064064E-04 -0.2096378E-02 -0.3456750E-07 -0.5462777E-05
 229031. -0.8150118E-04 -0.1146240E-01 -0.1026339E-04 -0.1362244E-02 -0.1236317E-07 -0.2307231E-05
 190859. -0.3148998E-04 -0.5629599E-02 -0.4134748E-05 -0.7139575E-03 -0.3610969E-08 -0.8181598E-06
 152688. -0.9263019E-05 -0.2161796E-02 -0.1255725E-05 -0.2872854E-03 -0.7871845E-09 -0.2253217E-06
 114516. -0.1801214E-05 -0.5785613E-03 -0.2500034E-06 -0.7947772E-04 -0.1083497E-09 -0.4171517E-07
  76344. -0.1683578E-06 -0.8289447E-04 -0.2374961E-07 -0.1164296E-04 -0.6481272E-11 -0.3767278E-08
  38172. -0.2730772E-08 -0.2723268E-05 -0.3888905E-09 -0.3874141E-06 -0.5126558E-13 -0.5978273E-10
      0.  0.0000000E+00  0.0000000E+00  0.0000000E+00  0.0000000E+00  0.0000000E+00  0.0000000E+00
