       5       36 S      352        114.07740          9.61380          6.28018        233.56590      185    7
6371000. -0.1188738E-01  0.1264362E+01  0.2397447E-02  0.1428483E-01 -0.9650461E-03  0.5812353E-01
6370000. -0.1208519E-01  0.1255998E+01  0.2394942E-02  0.1763821E-01 -0.9741412E-03  0.5776557E-01
6369000. -0.1228164E-01  0.1247042E+01  0.2391910E-02  0.2098573E-01 -0.9831800E-03  0.5740772E-01
6368000. -0.1247663E-01  0.1237496E+01  0.2388354E-02  0.2432654E-01 -0.9921627E-03  0.5705001E-01
6368000. -0.1247663E-01  0.1237496E+01  0.2388354E-02  0.2432654E-01 -0.9921627E-03  0.5705001E-01
6367000. -0.1267008E-01  0.1227362E+01  0.2384274E-02  0.2765978E-01 -0.1001089E-02  0.5669246E-01
6366000. -0.1286190E-01  0.1216641E+01  0.2379672E-02  0.3098461E-01 -0.1009960E-02  0.5633510E-01
6365000. -0.1305198E-01  0.1205334E+01  0.2374548E-02  0.3430019E-01 -0.1018774E-02  0.5597793E-01
6364000. -0.1324025E-01  0.1193445E+01  0.2368905E-02  0.3760568E-01 -0.1027533E-02  0.5562100E-01
6363000. -0.1342660E-01  0.1180975E+01  0.2362743E-02  0.4090024E-01 -0.1036235E-02  0.5526432E-01
6362000. -0.1361095E-01  0.1167927E+01  0.2356066E-02  0.4418303E-01 -0.1044881E-02  0.5490792E-01
6361000. -0.1379321E-01  0.1154303E+01  0.2348874E-02  0.4745323E-01 -0.1053472E-02  0.5455182E-01
6360000. -0.1397328E-01  0.1140106E+01  0.2341170E-02  0.5071000E-01 -0.1062006E-02  0.5419604E-01
6359000. -0.1415109E-01  0.1125339E+01  0.2332956E-02  0.5395252E-01 -0.1070485E-02  0.5384061E-01
6358000. -0.1432652E-01  0.1110005E+01  0.2324234E-02  0.5717997E-01 -0.1078908E-02  0.5348556E-01
6357000. -0.1449951E-01  0.1094106E+01  0.2315006E-02  0.6039153E-01 -0.1087275E-02  0.5313091E-01
6356000. -0.1466996E-01  0.1077648E+01  0.2305276E-02  0.6358639E-01 -0.1095587E-02  0.5277668E-01
6356000. -0.1466996E-01  0.9751796E+00  0.2305276E-02  0.4512541E-01 -0.1095587E-02  0.5596869E-01
6355000. -0.1482214E-01  0.9638200E+00  0.2298053E-02  0.4691360E-01 -0.1104336E-02  0.5551301E-01
6354000. -0.1497251E-01  0.9521521E+00  0.2290549E-02  0.4869350E-01 -0.1113014E-02  0.5505827E-01
6353000. -0.1512102E-01  0.9401774E+00  0.2282767E-02  0.5046483E-01 -0.1121620E-02  0.5460449E-01
6352000. -0.1526763E-01  0.9278977E+00  0.2274708E-02  0.5222731E-01 -0.1130156E-02  0.5415168E-01
6351000. -0.1541229E-01  0.9153147E+00  0.2266373E-02  0.5398067E-01 -0.1138620E-02  0.5369985E-01
6350000. -0.1555496E-01  0.9024304E+00  0.2257762E-02  0.5572463E-01 -0.1147013E-02  0.5324901E-01
6349000. -0.1569557E-01  0.8892465E+00  0.2248880E-02  0.5745893E-01 -0.1155336E-02  0.5279917E-01
6348000. -0.1583409E-01  0.8757650E+00  0.2239726E-02  0.5918329E-01 -0.1163588E-02  0.5235033E-01
6347000. -0.1597048E-01  0.8619879E+00  0.2230301E-02  0.6089745E-01 -0.1171770E-02  0.5190252E-01
6346600. -0.1602442E-01  0.8563948E+00  0.2226457E-02  0.6158020E-01 -0.1175023E-02  0.5172369E-01
6346600. -0.1602442E-01  0.1092519E+01  0.2226457E-02  0.4752710E-01 -0.1175023E-02  0.5731117E-01
6318800. -0.2006962E-01  0.7380500E+00  0.1961471E-02  0.7297651E-01 -0.1397189E-02  0.4469428E-01
6291000. -0.2228396E-01  0.2592892E+00  0.1599405E-02  0.9169627E-01 -0.1566514E-02  0.3306897E-01
6291000. -0.2228396E-01  0.2782388E+00  0.1599405E-02  0.9398811E-01 -0.1566514E-02  0.3306897E-01
6263000. -0.2224501E-01 -0.3065033E+00  0.1158110E-02  0.1052044E+00 -0.1688158E-02  0.2241826E-01
6235000. -0.1954065E-01 -0.9245873E+00  0.6895056E-03  0.1063317E+00 -0.1764640E-02  0.1250141E-01
6207000. -0.1416097E-01 -0.1513371E+01  0.2382965E-03  0.9737421E-01 -0.1799002E-02  0.3240553E-02
6179000. -0.6372846E-02 -0.2010599E+01 -0.1530612E-03  0.7934451E-01 -0.1794026E-02 -0.5402972E-02
6151000.  0.3295803E-02 -0.2360788E+01 -0.4486302E-03  0.5417383E-01 -0.1752426E-02 -0.1342047E-01
6151000.  0.3295803E-02 -0.1953267E+01 -0.4486302E-03  0.4715456E-01 -0.1752426E-02 -0.1360282E-01
6128500.  0.1038601E-01 -0.2045818E+01 -0.5807328E-03  0.2746965E-01 -0.1699502E-02 -0.1626692E-01
6106000.  0.1762866E-01 -0.2039172E+01 -0.6420248E-03  0.7247344E-02 -0.1638240E-02 -0.1832695E-01
6083500.  0.2467214E-01 -0.1933514E+01 -0.6326344E-03 -0.1237406E-01 -0.1570749E-02 -0.1979705E-01
6061000.  0.3117498E-01 -0.1734325E+01 -0.5565798E-03 -0.3033919E-01 -0.1499083E-02 -0.2069401E-01
6038500.  0.3682377E-01 -0.1451948E+01 -0.4213830E-03 -0.4572694E-01 -0.1425236E-02 -0.2103535E-01
6016000.  0.4134924E-01 -0.1100871E+01 -0.2375189E-03 -0.5779218E-01 -0.1351140E-02 -0.2083829E-01
5993500.  0.4453929E-01 -0.6988526E+00 -0.1773847E-04 -0.6599486E-01 -0.1278665E-02 -0.2011909E-01
5971000.  0.4624889E-01 -0.2659238E+00  0.2236891E-03 -0.7001700E-01 -0.1209634E-02 -0.1888927E-01
5971000.  0.4624889E-01 -0.2335646E+00  0.2236891E-03 -0.6771358E-01 -0.1209634E-02 -0.2494363E-01
5937667.  0.4585082E-01  0.3795759E+00  0.5760785E-03 -0.6573804E-01 -0.1083664E-02 -0.2311190E-01
5904333.  0.4238485E-01  0.9312233E+00  0.8999248E-03 -0.5709232E-01 -0.9685726E-03 -0.2082922E-01
5871000.  0.3628469E-01  0.1381056E+01  0.1165162E-02 -0.4366840E-01 -0.8660528E-03 -0.1834478E-01
5837667.  0.2815612E-01  0.1703585E+01  0.1351993E-02 -0.2744408E-01 -0.7766255E-03 -0.1585147E-01
5804333.  0.1870004E-01  0.1887654E+01  0.1450675E-02 -0.1025623E-01 -0.6999667E-03 -0.1347952E-01
5771000.  0.8642795E-02  0.1934649E+01  0.1460355E-02  0.6348514E-02 -0.6352399E-03 -0.1129747E-01
5771000.  0.8642795E-02  0.1934774E+01  0.1460355E-02  0.6348048E-02 -0.6352399E-03 -0.1129747E-01
5701000. -0.1180188E-01  0.1696891E+01  0.1208737E-02  0.3842164E-01 -0.5388850E-03 -0.6090076E-02
5701000. -0.1180188E-01  0.1486842E+01  0.1208737E-02  0.3342430E-01 -0.5388850E-03 -0.2763549E-02
5667333. -0.1887034E-01  0.1199380E+01  0.1022120E-02  0.3689608E-01 -0.5207694E-03 -0.4174805E-02
5633667. -0.2455587E-01  0.9518968E+00  0.8200550E-03  0.3946565E-01 -0.4952250E-03 -0.5393833E-02
5600000. -0.2887587E-01  0.6791587E+00  0.6073203E-03  0.4080782E-01 -0.4645015E-03 -0.6183515E-02
5600000. -0.2887587E-01  0.6791587E+00  0.6073203E-03  0.4080782E-01 -0.4645015E-03 -0.6183515E-02
5563518. -0.3187812E-01  0.3678231E+00  0.3730919E-03  0.4074609E-01 -0.4274462E-03 -0.6709115E-02
5527037. -0.3308249E-01  0.5343889E-01  0.1434881E-03  0.3921641E-01 -0.3881546E-03 -0.6977909E-02
5490556. -0.3250880E-01 -0.2511797E+00 -0.7352579E-04  0.3638050E-01 -0.3478979E-03 -0.7055054E-02
5454074. -0.3024645E-01 -0.5346007E+00 -0.2710675E-03  0.3245237E-01 -0.3076367E-03 -0.6986169E-02
5417593. -0.2644530E-01 -0.7872528E+00 -0.4435709E-03  0.2768021E-01 -0.2680932E-03 -0.6809938E-02
5381111. -0.2130384E-01 -0.1001624E+01 -0.5869649E-03  0.2232839E-01 -0.2298071E-03 -0.6549888E-02
5344630. -0.1505779E-01 -0.1172436E+01 -0.6986873E-03  0.1666284E-01 -0.1932063E-03 -0.6224705E-02
5308148. -0.7965746E-02 -0.1296721E+01 -0.7776766E-03  0.1093483E-01 -0.1586124E-03 -0.5850734E-02
5271667. -0.2982834E-03 -0.1373503E+01 -0.8242368E-03  0.5372454E-02 -0.1262761E-03 -0.5438147E-02
5235185.  0.7675305E-02 -0.1403909E+01 -0.8398970E-03  0.1714965E-03 -0.9638737E-04 -0.4997194E-02
5198704.  0.1569628E-01 -0.1390697E+01 -0.8271950E-03 -0.4511027E-02 -0.6908389E-04 -0.4537076E-02
5162222.  0.2352620E-01 -0.1337893E+01 -0.7894485E-03 -0.8559300E-02 -0.4444496E-04 -0.4067526E-02
5125741.  0.3095261E-01 -0.1250771E+01 -0.7305371E-03 -0.1189422E-01 -0.2251132E-04 -0.3593332E-02
5089259.  0.3779595E-01 -0.1135189E+01 -0.6546653E-03 -0.1447963E-01 -0.3285100E-05 -0.3123444E-02
5052778.  0.4391066E-01 -0.9974004E+00 -0.5661480E-03 -0.1631361E-01  0.1328402E-04 -0.2666172E-02
5016296.  0.4918826E-01 -0.8438115E+00 -0.4692252E-03 -0.1742144E-01  0.2727623E-04 -0.2224097E-02
4979815.  0.5355585E-01 -0.6806033E+00 -0.3679139E-03 -0.1785815E-01  0.3880115E-04 -0.1805922E-02
4943333.  0.5697542E-01 -0.5135829E+00 -0.2658543E-03 -0.1769448E-01  0.4801195E-04 -0.1415649E-02
4906852.  0.5944037E-01 -0.3480258E+00 -0.1662607E-03 -0.1701307E-01  0.5506500E-04 -0.1053358E-02
4870370.  0.6097257E-01 -0.1884732E+00 -0.7181685E-04 -0.1591085E-01  0.6014899E-04 -0.7285586E-03
4833889.  0.6161761E-01 -0.3873719E-01  0.1532679E-04 -0.1447910E-01  0.6347221E-04 -0.4374261E-03
4797407.  0.6144070E-01  0.9817924E-01  0.9354896E-04 -0.1281011E-01  0.6522141E-04 -0.1800590E-03
4760926.  0.6052198E-01  0.2200623E+00  0.1617634E-03 -0.1099834E-01  0.6561656E-04  0.3585638E-04
4724444.  0.5895190E-01  0.3254988E+00  0.2193713E-03 -0.9116676E-02  0.6486839E-04  0.2203389E-03
4687963.  0.5682718E-01  0.4137304E+00  0.2661777E-03 -0.7237859E-02  0.6315870E-04  0.3708263E-03
4651482.  0.5424689E-01  0.4846535E+00  0.3023861E-03 -0.5423456E-02  0.6068846E-04  0.4870621E-03
4615000.  0.5130897E-01  0.5387246E+00  0.3284923E-03 -0.3715894E-02  0.5762887E-04  0.5772020E-03
4578518.  0.4810777E-01  0.5767915E+00  0.3452247E-03 -0.2155168E-02  0.5413264E-04  0.6393635E-03
4542037.  0.4473162E-01  0.6000918E+00  0.3535021E-03 -0.7653898E-03  0.5035312E-04  0.6775682E-03
4505556.  0.4126081E-01  0.6101084E+00  0.3543382E-03  0.4417775E-03  0.4640456E-04  0.6983962E-03
4469074.  0.3776682E-01  0.6084408E+00  0.3488162E-03  0.1454650E-02  0.4239629E-04  0.6986542E-03
4432593.  0.3431173E-01  0.5968453E+00  0.3380394E-03  0.2278806E-02  0.3842729E-04  0.6859942E-03
4396111.  0.3094726E-01  0.5770380E+00  0.3230641E-03  0.2921950E-02  0.3455911E-04  0.6631503E-03
4359630.  0.2771584E-01  0.5506834E+00  0.3049079E-03  0.3392453E-02  0.3085572E-04  0.6289916E-03
4323148.  0.2465006E-01  0.5194114E+00  0.2845039E-03  0.3710038E-02  0.2736496E-04  0.5895576E-03
4286667.  0.2177402E-01  0.4846710E+00  0.2626809E-03  0.3890891E-02  0.2411315E-04  0.5454529E-03
4250185.  0.1910359E-01  0.4477802E+00  0.2401717E-03  0.3952984E-02  0.2112617E-04  0.4974948E-03
4213704.  0.1664776E-01  0.4099147E+00  0.2175955E-03  0.3917664E-02  0.1841663E-04  0.4487924E-03
4177222.  0.1440915E-01  0.3720409E+00  0.1954602E-03  0.3801521E-02  0.1598937E-04  0.3987935E-03
4140741.  0.1238546E-01  0.3349947E+00  0.1741789E-03  0.3622736E-02  0.1385024E-04  0.3485477E-03
4104259.  0.1056985E-01  0.2994384E+00  0.1540580E-03  0.3398367E-02  0.1199492E-04  0.2994929E-03
4067778.  0.8952413E-02  0.2658698E+00  0.1353240E-03  0.3140656E-02  0.1042265E-04  0.2495961E-03
4031296.  0.7520482E-02  0.2346849E+00  0.1181272E-03  0.2863424E-02  0.9135925E-05  0.1998692E-03
3994815.  0.6259687E-02  0.2061414E+00  0.1025480E-03  0.2577242E-02  0.8134899E-05  0.1494494E-03
3958333.  0.5154367E-02  0.1803907E+00  0.8861483E-04  0.2289686E-02  0.7430445E-05  0.9604217E-04
3921852.  0.4188291E-02  0.1575237E+00  0.7631257E-04  0.2008896E-02  0.7042356E-05  0.3865343E-04
3885370.  0.3344857E-02  0.1375415E+00  0.6558506E-04  0.1740326E-02  0.7001198E-05 -0.2573409E-04
3848889.  0.2607710E-02  0.1203968E+00  0.5634960E-04  0.1488689E-02  0.7357497E-05 -0.1008029E-03
3812407.  0.1960798E-02  0.1059973E+00  0.4849404E-04  0.1259070E-02  0.8184320E-05 -0.1909855E-03
3775926.  0.1388841E-02  0.9419402E-01  0.4187944E-04  0.1056225E-02  0.9586092E-05 -0.3028503E-03
3739444.  0.8774803E-03  0.8478941E-01  0.3633391E-04  0.8870020E-03  0.1170951E-04 -0.4445594E-03
3702963.  0.4137541E-03  0.7750466E-01  0.3163798E-04  0.7615573E-03  0.1475455E-04 -0.6268350E-03
3666482. -0.1337815E-04  0.7192522E-01  0.2749992E-04  0.6954109E-03  0.1899240E-04 -0.8638310E-03
3630000. -0.4120507E-03  0.6743290E-01  0.2351352E-04  0.7137992E-03  0.2478607E-04 -0.1173582E-02
3630000. -0.4120507E-03  0.6743290E-01  0.2351352E-04  0.7137992E-03  0.2478607E-04 -0.1173582E-02
3592500. -0.7959438E-03  0.6290960E-01  0.1895094E-04  0.8633668E-03  0.3286830E-04 -0.1591868E-02
3555000. -0.1149517E-02  0.5676783E-01  0.1295552E-04  0.1215360E-02  0.4378417E-04 -0.2142117E-02
3517500. -0.1455596E-02  0.4617263E-01  0.4028551E-05  0.1883098E-02  0.5841747E-04 -0.2861710E-02
3480000. -0.1675315E-02  0.2643336E-01 -0.1018182E-04  0.3048438E-02  0.7788734E-04 -0.3792805E-02
3480000. -0.1675315E-02 -0.7951304E-01 -0.5977598E-04 -0.2956608E-02  0.7788734E-04  0.1579904E-02
3409422. -0.9773944E-03 -0.4868908E-01 -0.3415184E-04 -0.1762183E-02  0.5718334E-04  0.1945968E-02
3338844. -0.5556886E-03 -0.2896570E-01 -0.1905682E-04 -0.1023829E-02  0.3738891E-04  0.1574539E-02
3268266. -0.3079947E-03 -0.1675844E-01 -0.1038619E-04 -0.5801013E-03  0.2268883E-04  0.1084423E-02
3197688. -0.1664511E-03 -0.9435739E-02 -0.5528393E-05 -0.3206101E-03  0.1302461E-04  0.6806885E-03
3127109. -0.8771390E-04 -0.5172387E-02 -0.2873363E-05 -0.1728502E-03  0.7145241E-05  0.4004541E-03
3056531. -0.4506532E-04 -0.2761035E-02 -0.1457832E-05 -0.9089722E-04  0.3768156E-05  0.2239129E-03
2985953. -0.2256795E-04 -0.1435215E-02 -0.7217184E-06 -0.4661411E-04  0.1917038E-05  0.1199197E-03
2915375. -0.1101155E-04 -0.7263646E-03 -0.3484558E-06 -0.2330316E-04  0.9428530E-06  0.6179639E-04
2844797. -0.5232255E-05 -0.3578042E-03 -0.1639752E-06 -0.1135104E-04  0.4488433E-06  0.3072393E-04
2774219. -0.2419566E-05 -0.1714689E-03 -0.7515260E-07 -0.5384172E-05  0.2069359E-06  0.1476096E-04
2703641. -0.1088091E-05 -0.7989301E-04 -0.3351825E-07 -0.2485138E-05  0.9241005E-07  0.6858440E-05
2633062. -0.4754262E-06 -0.3616463E-04 -0.1453358E-07 -0.1115215E-05  0.3996086E-07  0.3082572E-05
2562484. -0.2016327E-06 -0.1589033E-04 -0.6120155E-08 -0.4861057E-06  0.1672475E-07  0.1340032E-05
2491906. -0.8290758E-07 -0.6770154E-05 -0.2499903E-08 -0.2055797E-06  0.6769277E-08  0.5631260E-06
2421328. -0.3300802E-07 -0.2793595E-05 -0.9891736E-09 -0.8424865E-07  0.2646878E-08  0.2285789E-06
2350750. -0.1270589E-07 -0.1114909E-05 -0.3785839E-09 -0.3340949E-07  0.9985901E-09  0.8952475E-07
2280172. -0.4721113E-08 -0.4296970E-06 -0.1399170E-09 -0.1280022E-07  0.3629592E-09  0.3378740E-07
2209594. -0.1690245E-08 -0.1596565E-06 -0.4984212E-10 -0.4729801E-08  0.1268820E-09  0.1226847E-07
2139016. -0.5818919E-09 -0.5707885E-07 -0.1707848E-10 -0.1682265E-08  0.4257579E-10  0.4278171E-08
2068438. -0.1921950E-09 -0.1959259E-07 -0.5616153E-11 -0.5746751E-09  0.1368298E-10  0.1429714E-08
1997859. -0.6075018E-10 -0.6441394E-08 -0.1767888E-11 -0.1880873E-09  0.4201044E-11  0.4567952E-09
1927281. -0.1832527E-10 -0.2022911E-08 -0.5312263E-12 -0.5882101E-10  0.1228790E-11  0.1391604E-09
1856703. -0.5258651E-11 -0.6049996E-09 -0.1518898E-12 -0.1752294E-10  0.3413102E-12  0.4029922E-10
1786125. -0.1430520E-11 -0.1717178E-09 -0.4117601E-13 -0.4955679E-11  0.8970065E-13  0.1105543E-10
1715547. -0.3676209E-12 -0.4605080E-10 -0.1053578E-13 -0.1326100E-11  0.2220238E-13  0.2863574E-11
1644969.  0.0000000E+00  0.0000000E+00  0.0000000E+00  0.0000000E+00  0.0000000E+00  0.0000000E+00
1574391.  0.0000000E+00  0.0000000E+00  0.0000000E+00  0.0000000E+00  0.0000000E+00  0.0000000E+00
1503812.  0.0000000E+00  0.0000000E+00  0.0000000E+00  0.0000000E+00  0.0000000E+00  0.0000000E+00
1433234.  0.0000000E+00  0.0000000E+00  0.0000000E+00  0.0000000E+00  0.0000000E+00  0.0000000E+00
1362656.  0.0000000E+00  0.0000000E+00  0.0000000E+00  0.0000000E+00  0.0000000E+00  0.0000000E+00
1292078.  0.0000000E+00  0.0000000E+00  0.0000000E+00  0.0000000E+00  0.0000000E+00  0.0000000E+00
1221500.  0.0000000E+00  0.0000000E+00  0.0000000E+00  0.0000000E+00  0.0000000E+00  0.0000000E+00
1221500.  0.0000000E+00  0.0000000E+00  0.0000000E+00  0.0000000E+00  0.0000000E+00  0.0000000E+00
1183328.  0.0000000E+00  0.0000000E+00  0.0000000E+00  0.0000000E+00  0.0000000E+00  0.0000000E+00
1145156.  0.0000000E+00  0.0000000E+00  0.0000000E+00  0.0000000E+00  0.0000000E+00  0.0000000E+00
1106984.  0.0000000E+00  0.0000000E+00  0.0000000E+00  0.0000000E+00  0.0000000E+00  0.0000000E+00
1068812.  0.0000000E+00  0.0000000E+00  0.0000000E+00  0.0000000E+00  0.0000000E+00  0.0000000E+00
1030641.  0.0000000E+00  0.0000000E+00  0.0000000E+00  0.0000000E+00  0.0000000E+00  0.0000000E+00
 992469.  0.0000000E+00  0.0000000E+00  0.0000000E+00  0.0000000E+00  0.0000000E+00  0.0000000E+00
 954297.  0.0000000E+00  0.0000000E+00  0.0000000E+00  0.0000000E+00  0.0000000E+00  0.0000000E+00
 916125.  0.0000000E+00  0.0000000E+00  0.0000000E+00  0.0000000E+00  0.0000000E+00  0.0000000E+00
 877953.  0.0000000E+00  0.0000000E+00  0.0000000E+00  0.0000000E+00  0.0000000E+00  0.0000000E+00
 839781.  0.0000000E+00  0.0000000E+00  0.0000000E+00  0.0000000E+00  0.0000000E+00  0.0000000E+00
 801609.  0.0000000E+00  0.0000000E+00  0.0000000E+00  0.0000000E+00  0.0000000E+00  0.0000000E+00
 763438.  0.0000000E+00  0.0000000E+00  0.0000000E+00  0.0000000E+00  0.0000000E+00  0.0000000E+00
 725266.  0.0000000E+00  0.0000000E+00  0.0000000E+00  0.0000000E+00  0.0000000E+00  0.0000000E+00
 687094.  0.0000000E+00  0.0000000E+00  0.0000000E+00  0.0000000E+00  0.0000000E+00  0.0000000E+00
 648922.  0.0000000E+00  0.0000000E+00  0.0000000E+00  0.0000000E+00  0.0000000E+00  0.0000000E+00
 610750.  0.0000000E+00  0.0000000E+00  0.0000000E+00  0.0000000E+00  0.0000000E+00  0.0000000E+00
 572578.  0.0000000E+00  0.0000000E+00  0.0000000E+00  0.0000000E+00  0.0000000E+00  0.0000000E+00
 534406.  0.0000000E+00  0.0000000E+00  0.0000000E+00  0.0000000E+00  0.0000000E+00  0.0000000E+00
 496234.  0.0000000E+00  0.0000000E+00  0.0000000E+00  0.0000000E+00  0.0000000E+00  0.0000000E+00
 458062.  0.0000000E+00  0.0000000E+00  0.0000000E+00  0.0000000E+00  0.0000000E+00  0.0000000E+00
 419891.  0.0000000E+00  0.0000000E+00  0.0000000E+00  0.0000000E+00  0.0000000E+00  0.0000000E+00
 381719.  0.0000000E+00  0.0000000E+00  0.0000000E+00  0.0000000E+00  0.0000000E+00  0.0000000E+00
 343547.  0.0000000E+00  0.0000000E+00  0.0000000E+00  0.0000000E+00  0.0000000E+00  0.0000000E+00
 305375.  0.0000000E+00  0.0000000E+00  0.0000000E+00  0.0000000E+00  0.0000000E+00  0.0000000E+00
 267203.  0.0000000E+00  0.0000000E+00  0.0000000E+00  0.0000000E+00  0.0000000E+00  0.0000000E+00
 229031.  0.0000000E+00  0.0000000E+00  0.0000000E+00  0.0000000E+00  0.0000000E+00  0.0000000E+00
 190859.  0.0000000E+00  0.0000000E+00  0.0000000E+00  0.0000000E+00  0.0000000E+00  0.0000000E+00
 152688.  0.0000000E+00  0.0000000E+00  0.0000000E+00  0.0000000E+00  0.0000000E+00  0.0000000E+00
 114516.  0.0000000E+00  0.0000000E+00  0.0000000E+00  0.0000000E+00  0.0000000E+00  0.0000000E+00
  76344.  0.0000000E+00  0.0000000E+00  0.0000000E+00  0.0000000E+00  0.0000000E+00  0.0000000E+00
  38172.  0.0000000E+00  0.0000000E+00  0.0000000E+00  0.0000000E+00  0.0000000E+00  0.0000000E+00
      0.  0.0000000E+00  0.0000000E+00  0.0000000E+00  0.0000000E+00  0.0000000E+00  0.0000000E+00
