       5       14 S      330        193.16789         14.29172          7.91141        363.64560      185    7
6371000.  0.9543481E-01 -0.2907321E+00 -0.2612007E-02 -0.9804682E-01 -0.3828749E-03 -0.1742246E+00
6370000.  0.9547883E-01 -0.2702066E+00 -0.2596495E-02 -0.9961253E-01 -0.3555356E-03 -0.1741317E+00
6369000.  0.9551963E-01 -0.2496310E+00 -0.2580737E-02 -0.1011626E+00 -0.3282112E-03 -0.1740346E+00
6368000.  0.9555720E-01 -0.2290063E+00 -0.2564738E-02 -0.1026969E+00 -0.3009025E-03 -0.1739331E+00
6368000.  0.9555720E-01 -0.2290063E+00 -0.2564738E-02 -0.1026969E+00 -0.3009025E-03 -0.1739331E+00
6367000.  0.9559152E-01 -0.2083334E+00 -0.2548499E-02 -0.1042153E+00 -0.2736099E-03 -0.1738274E+00
6366000.  0.9562260E-01 -0.1876133E+00 -0.2532023E-02 -0.1057175E+00 -0.2463344E-03 -0.1737173E+00
6365000.  0.9565041E-01 -0.1668469E+00 -0.2515313E-02 -0.1072035E+00 -0.2190764E-03 -0.1736030E+00
6364000.  0.9567497E-01 -0.1460353E+00 -0.2498371E-02 -0.1086732E+00 -0.1918367E-03 -0.1734844E+00
6363000.  0.9569626E-01 -0.1251794E+00 -0.2481199E-02 -0.1101262E+00 -0.1646160E-03 -0.1733615E+00
6362000.  0.9571426E-01 -0.1042801E+00 -0.2463800E-02 -0.1115626E+00 -0.1374149E-03 -0.1732343E+00
6361000.  0.9572899E-01 -0.8333857E-01 -0.2446178E-02 -0.1129820E+00 -0.1102341E-03 -0.1731028E+00
6360000.  0.9574042E-01 -0.6235571E-01 -0.2428334E-02 -0.1143846E+00 -0.8307424E-04 -0.1729671E+00
6359000.  0.9574856E-01 -0.4133254E-01 -0.2410271E-02 -0.1157699E+00 -0.5593605E-04 -0.1728271E+00
6358000.  0.9575339E-01 -0.2027006E-01 -0.2391992E-02 -0.1171380E+00 -0.2882016E-04 -0.1726828E+00
6357000.  0.9575492E-01  0.8307113E-03 -0.2373500E-02 -0.1184887E+00 -0.1727260E-05 -0.1725342E+00
6356000.  0.9575313E-01  0.2196876E-01 -0.2354797E-02 -0.1198218E+00  0.2534199E-04 -0.1723814E+00
6356000.  0.9575313E-01 -0.4594652E-01 -0.2354797E-02 -0.1113061E+00  0.2534199E-04 -0.1932162E+00
6355000.  0.9575913E-01 -0.3047237E-01 -0.2337261E-02 -0.1121322E+00  0.5565757E-04 -0.1930645E+00
6354000.  0.9576270E-01 -0.1497445E-01 -0.2319596E-02 -0.1129475E+00  0.8594911E-04 -0.1929098E+00
6353000.  0.9576383E-01  0.5466944E-03 -0.2301805E-02 -0.1137518E+00  0.1162161E-03 -0.1927522E+00
6352000.  0.9576253E-01  0.1609049E-01 -0.2283888E-02 -0.1145451E+00  0.1464582E-03 -0.1925917E+00
6351000.  0.9575878E-01  0.3165638E-01 -0.2265847E-02 -0.1153274E+00  0.1766748E-03 -0.1924281E+00
6350000.  0.9575259E-01  0.4724381E-01 -0.2247684E-02 -0.1160986E+00  0.2068656E-03 -0.1922616E+00
6349000.  0.9574395E-01  0.6285220E-01 -0.2229402E-02 -0.1168587E+00  0.2370299E-03 -0.1920922E+00
6348000.  0.9573285E-01  0.7848099E-01 -0.2211000E-02 -0.1176076E+00  0.2671675E-03 -0.1919198E+00
6347000.  0.9571931E-01  0.9412961E-01 -0.2192483E-02 -0.1183452E+00  0.2972777E-03 -0.1917445E+00
6346600.  0.9571321E-01  0.1003945E+00 -0.2185043E-02 -0.1186371E+00  0.3093141E-03 -0.1916735E+00
6346600.  0.9571321E-01 -0.6069804E-01 -0.2185043E-02 -0.1120222E+00  0.3093141E-03 -0.2250473E+00
6318800.  0.9525698E-01  0.2721978E+00 -0.1669688E-02 -0.1230633E+00  0.1280845E-02 -0.2199937E+00
6291000.  0.9332265E-01  0.6154308E+00 -0.1121153E-02 -0.1271774E+00  0.2226969E-02 -0.2134006E+00
6291000.  0.9332265E-01  0.6213771E+00 -0.1121153E-02 -0.1283721E+00  0.2226969E-02 -0.2134006E+00
6263000.  0.8981258E-01  0.9754817E+00 -0.5611593E-03 -0.1252009E+00  0.3147220E-02 -0.2051107E+00
6235000.  0.8475963E-01  0.1321878E+01 -0.3159969E-04 -0.1145719E+00  0.4027511E-02 -0.1952205E+00
6207000.  0.7821902E-01  0.1650871E+01  0.4356373E-03 -0.9694219E-01  0.4860886E-02 -0.1837687E+00
6179000.  0.7028816E-01  0.1952999E+01  0.8113566E-03 -0.7307662E-01  0.5640606E-02 -0.1708161E+00
6151000.  0.6110496E-01  0.2219351E+01  0.1070349E-02 -0.4401842E-01  0.6360256E-02 -0.1564481E+00
6151000.  0.6110496E-01  0.1796552E+01  0.1070349E-02 -0.4624598E-01  0.6360256E-02 -0.1598288E+00
6128500.  0.5454873E-01  0.1912107E+01  0.1195210E-02 -0.2420498E-01  0.6910278E-02 -0.1515956E+00
6106000.  0.4763032E-01  0.2001477E+01  0.1239836E-02 -0.9067605E-03  0.7430628E-02 -0.1430347E+00
6083500.  0.4044391E-01  0.2063771E+01  0.1200838E-02  0.2305182E-01  0.7920249E-02 -0.1342024E+00
6061000.  0.3308599E-01  0.2098588E+01  0.1076943E-02  0.4707308E-01  0.8378282E-02 -0.1251550E+00
6038500.  0.2565353E-01  0.2106036E+01  0.8689647E-03  0.7057309E-01  0.8804061E-02 -0.1159460E+00
6016000.  0.1824231E-01  0.2086693E+01  0.5797395E-03  0.9299410E-01  0.9197109E-02 -0.1066272E+00
5993500.  0.1094525E-01  0.2041590E+01  0.2140102E-03  0.1138150E+00  0.9557127E-02 -0.9724925E-01
5971000.  0.3850833E-02  0.1972212E+01 -0.2217226E-03  0.1325636E+00  0.9883992E-02 -0.8785971E-01
5971000.  0.3850833E-02  0.1782244E+01 -0.2217226E-03  0.1174808E+00  0.9883992E-02 -0.8836382E-01
5937667. -0.5036104E-02  0.1609989E+01 -0.8803137E-03  0.1333351E+00  0.1031402E-01 -0.7611950E-01
5904333. -0.1295287E-01  0.1412746E+01 -0.1607115E-02  0.1435527E+00  0.1068162E-01 -0.6450810E-01
5871000. -0.1979059E-01  0.1198975E+01 -0.2372909E-02  0.1482961E+00  0.1099025E-01 -0.5358710E-01
5837667. -0.2548393E-01  0.9765537E+00 -0.3149996E-02  0.1479493E+00  0.1124362E-01 -0.4338953E-01
5804333. -0.3000676E-01  0.7525999E+00 -0.3913136E-02  0.1430569E+00  0.1144557E-01 -0.3392977E-01
5771000. -0.3336748E-01  0.5333360E+00 -0.4640166E-02  0.1342690E+00  0.1159995E-01 -0.2520729E-01
5771000. -0.3336748E-01  0.5332968E+00 -0.4640166E-02  0.1342656E+00  0.1159995E-01 -0.2520729E-01
5701000. -0.3710042E-01  0.1500925E+00 -0.6003091E-02  0.1110601E+00  0.1179479E-01 -0.1070314E-01
5701000. -0.3710042E-01  0.6399614E-01 -0.6003091E-02  0.9501339E-01  0.1179479E-01 -0.2458673E-03
5667333. -0.3698090E-01 -0.1007672E+00 -0.6459839E-02  0.7915712E-01  0.1177844E-01  0.6363091E-02
5633667. -0.3609219E-01 -0.2331137E+00 -0.6847509E-02  0.6758972E-01  0.1172780E-01  0.1276067E-01
5600000. -0.3453632E-01 -0.3536300E+00 -0.7170859E-02  0.5454483E-01  0.1164443E-01  0.1871154E-01
5600000. -0.3453632E-01 -0.3536300E+00 -0.7170859E-02  0.5454483E-01  0.1164443E-01  0.1871154E-01
5563518. -0.3217440E-01 -0.4684112E+00 -0.7439829E-02  0.3922055E-01  0.1152001E-01  0.2465782E-01
5527037. -0.2920770E-01 -0.5645781E+00 -0.7618386E-02  0.2303550E-01  0.1136302E-01  0.3009260E-01
5490556. -0.2574759E-01 -0.6405212E+00 -0.7702771E-02  0.6396066E-02  0.1117632E-01  0.3503378E-01
5454074. -0.2191317E-01 -0.6951391E+00 -0.7691544E-02 -0.1029206E-01  0.1096270E-01  0.3950050E-01
5417593. -0.1782876E-01 -0.7278183E+00 -0.7585554E-02 -0.2664069E-01  0.1072483E-01  0.4350717E-01
5381111. -0.1362009E-01 -0.7385417E+00 -0.7387793E-02 -0.4228467E-01  0.1046528E-01  0.4707314E-01
5344630. -0.9412006E-02 -0.7277650E+00 -0.7103284E-02 -0.5688951E-01  0.1018654E-01  0.5021590E-01
5308148. -0.5324987E-02 -0.6964113E+00 -0.6738808E-02 -0.7016662E-01  0.9890964E-02  0.5295222E-01
5271667. -0.1473282E-02 -0.6458772E+00 -0.6302744E-02 -0.8185892E-01  0.9580850E-02  0.5530042E-01
5235185.  0.2038345E-02 -0.5779113E+00 -0.5804732E-02 -0.9177013E-01  0.9258351E-02  0.5727744E-01
5198704.  0.5115669E-02 -0.4945907E+00 -0.5255448E-02 -0.9975041E-01  0.8925564E-02  0.5890021E-01
5162222.  0.7677655E-02 -0.3983000E+00 -0.4666258E-02 -0.1056895E+00  0.8584450E-02  0.6018507E-01
5125741.  0.9657088E-02 -0.2915745E+00 -0.4049028E-02 -0.1095468E+00  0.8236914E-02  0.6114953E-01
5089259.  0.1100199E-01 -0.1771189E+00 -0.3415672E-02 -0.1113186E+00  0.7884723E-02  0.6180983E-01
5052778.  0.1167604E-01 -0.5773436E-01 -0.2778076E-02 -0.1110454E+00  0.7529595E-02  0.6218179E-01
5016296.  0.1165892E-01  0.6383580E-01 -0.2147664E-02 -0.1088210E+00  0.7173111E-02  0.6228300E-01
4979815.  0.1094607E-01  0.1848192E+00 -0.1535316E-02 -0.1047655E+00  0.6816794E-02  0.6212934E-01
4943333.  0.9548406E-02  0.3025929E+00 -0.9510461E-03 -0.9903807E-01  0.6462038E-02  0.6173758E-01
4906852.  0.7491474E-02  0.4147047E+00 -0.4039246E-03 -0.9182820E-01  0.6110173E-02  0.6112552E-01
4870370.  0.4814331E-02  0.5188318E+00  0.9815269E-04 -0.8333609E-01  0.5762396E-02  0.6030934E-01
4833889.  0.1568740E-02  0.6129716E+00  0.5484607E-03 -0.7379036E-01  0.5419844E-02  0.5930705E-01
4797407. -0.2183196E-02  0.6953737E+00  0.9416608E-03 -0.6342401E-01  0.5083512E-02  0.5813667E-01
4760926. -0.6369468E-02  0.7644944E+00  0.1273690E-02 -0.5246856E-01  0.4754328E-02  0.5681632E-01
4724444. -0.1091097E-01  0.8192457E+00  0.1541890E-02 -0.4116670E-01  0.4433084E-02  0.5536361E-01
4687963. -0.1572256E-01  0.8587527E+00  0.1744922E-02 -0.2974591E-01  0.4120499E-02  0.5379816E-01
4651482. -0.2071531E-01  0.8824667E+00  0.1882735E-02 -0.1842371E-01  0.3817155E-02  0.5213930E-01
4615000. -0.2579835E-01  0.8902295E+00  0.1956504E-02 -0.7408119E-02  0.3523528E-02  0.5040435E-01
4578518. -0.3088021E-01  0.8820925E+00  0.1968515E-02  0.3116978E-02  0.3240001E-02  0.4861498E-01
4542037. -0.3587069E-01  0.8584518E+00  0.1922066E-02  0.1298394E-01  0.2966839E-02  0.4679007E-01
4505556. -0.4068299E-01  0.8199864E+00  0.1821355E-02  0.2204825E-01  0.2704189E-02  0.4494693E-01
4469074. -0.4523464E-01  0.7675300E+00  0.1671314E-02  0.3019447E-01  0.2452075E-02  0.4311113E-01
4432593. -0.4944843E-01  0.7022322E+00  0.1477500E-02  0.3732462E-01  0.2210423E-02  0.4129748E-01
4396111. -0.5325469E-01  0.6253707E+00  0.1245930E-02  0.4337070E-01  0.1979041E-02  0.3952644E-01
4359630. -0.5659093E-01  0.5383478E+00  0.9829546E-03  0.4829051E-01  0.1757618E-02  0.3782438E-01
4323148. -0.5940359E-01  0.4427399E+00  0.6950869E-03  0.5206054E-01  0.1545708E-02  0.3620475E-01
4286667. -0.6164799E-01  0.3401615E+00  0.3889277E-03  0.5468462E-01  0.1342784E-02  0.3469218E-01
4250185. -0.6328905E-01  0.2322734E+00  0.7096132E-04  0.5618658E-01  0.1148150E-02  0.3331036E-01
4213704. -0.6430117E-01  0.1207766E+00 -0.2524724E-03  0.5660574E-01  0.9610209E-03  0.3207650E-01
4177222. -0.6466848E-01  0.7325119E-02 -0.5753575E-03  0.5600316E-01  0.7804586E-03  0.3102001E-01
4140741. -0.6438446E-01 -0.1064491E+00 -0.8920260E-03  0.5444998E-01  0.6053848E-03  0.3016415E-01
4104259. -0.6345171E-01 -0.2190020E+00 -0.1197278E-02  0.5202788E-01  0.4345872E-03  0.2953045E-01
4067778. -0.6188157E-01 -0.3288541E+00 -0.1486396E-02  0.4883356E-01  0.2666857E-03  0.2915971E-01
4031296. -0.5969328E-01 -0.4346732E+00 -0.1755243E-02  0.4496135E-01  0.1000962E-03  0.2907467E-01
3994815. -0.5691364E-01 -0.5352281E+00 -0.2000208E-02  0.4051240E-01 -0.6690117E-04  0.2931169E-01
3958333. -0.5357589E-01 -0.6294074E+00 -0.2218308E-02  0.3559247E-01 -0.2363034E-03  0.2991995E-01
3921852. -0.4971944E-01 -0.7162904E+00 -0.2407111E-02  0.3029771E-01 -0.4103326E-03  0.3093693E-01
3885370. -0.4538823E-01 -0.7950612E+00 -0.2564759E-02  0.2472512E-01 -0.5914961E-03  0.3242082E-01
3848889. -0.4063099E-01 -0.8650445E+00 -0.2689919E-02  0.1896600E-01 -0.7826417E-03  0.3443577E-01
3812407. -0.3549920E-01 -0.9257591E+00 -0.2781756E-02  0.1309754E-01 -0.9870101E-03  0.3705069E-01
3775926. -0.3004751E-01 -0.9767669E+00 -0.2839853E-02  0.7193788E-02 -0.1208280E-02  0.4035731E-01
3739444. -0.2433201E-01 -0.1017817E+01 -0.2864185E-02  0.1311875E-02 -0.1450709E-02  0.4445644E-01
3702963. -0.1841049E-01 -0.1048756E+01 -0.2855002E-02 -0.4505517E-02 -0.1719151E-02  0.4946836E-01
3666482. -0.1234119E-01 -0.1069420E+01 -0.2812775E-02 -0.1022580E-01 -0.2019259E-02  0.5554318E-01
3630000. -0.6182786E-02 -0.1079821E+01 -0.2738097E-02 -0.1583927E-01 -0.2357609E-02  0.6285363E-01
3630000. -0.6182786E-02 -0.1079821E+01 -0.2738097E-02 -0.1583927E-01 -0.2357609E-02  0.6285363E-01
3592500.  0.1781410E-03 -0.1079732E+01 -0.2628150E-02 -0.2150315E-01 -0.2753315E-02  0.7187805E-01
3555000.  0.6506271E-02 -0.1068671E+01 -0.2485118E-02 -0.2708813E-01 -0.3207300E-02  0.8270644E-01
3517500.  0.1273689E-01 -0.1046570E+01 -0.2309314E-02 -0.3265008E-01 -0.3731134E-02  0.9567316E-01
3480000.  0.1880427E-01 -0.1013147E+01 -0.2100645E-02 -0.3827161E-01 -0.4338557E-02  0.1111830E+00
3480000.  0.1880427E-01  0.1640886E-01  0.2888984E-02  0.2908620E-01 -0.4338557E-02  0.5087798E-01
3409422.  0.1829324E-01  0.7300616E-01  0.2564178E-02  0.2936149E-01 -0.4669017E-02  0.1121231E-01
3338844.  0.1724711E-01  0.1132762E+00  0.2242224E-02  0.2861449E-01 -0.4634777E-02 -0.1549325E-01
3268266.  0.1583705E-01  0.1390582E+00  0.1933042E-02  0.2709583E-01 -0.4362685E-02 -0.3218087E-01
3197688.  0.1421134E-01  0.1526017E+00  0.1643881E-02  0.2503654E-01 -0.3949528E-02 -0.4133899E-01
3127109.  0.1249231E-01  0.1563038E+00  0.1379567E-02  0.2264081E-01 -0.3466918E-02 -0.4502789E-01
3056531.  0.1077594E-01  0.1524997E+00  0.1142850E-02  0.2008088E-01 -0.2965878E-02 -0.4491485E-01
2985953.  0.9133294E-02  0.1433314E+00  0.9347460E-03  0.1749516E-01 -0.2480924E-02 -0.4231621E-01
2915375.  0.7613166E-02  0.1306654E+00  0.7549269E-03  0.1498954E-01 -0.2033737E-02 -0.3824189E-01
2844797.  0.6245418E-02  0.1160525E+00  0.6020569E-03  0.1264026E-01 -0.1636290E-02 -0.3344171E-01
2774219.  0.5044513E-02  0.1007231E+00  0.4741044E-03  0.1049735E-01 -0.1293487E-02 -0.2845015E-01
2703641.  0.4012989E-02  0.8560304E-01  0.3686099E-03  0.8588785E-02 -0.1005306E-02 -0.2362810E-01
2633062.  0.3144664E-02  0.7134566E-01  0.2829045E-03  0.6924975E-02 -0.7685098E-03 -0.1920052E-01
2562484.  0.2427476E-02  0.5837233E-01  0.2142848E-03  0.5502942E-02 -0.5779771E-03 -0.1528984E-01
2491906.  0.1845754E-02  0.4691375E-01  0.1601352E-03  0.4309788E-02 -0.4276577E-03 -0.1194349E-01
2421328.  0.1382138E-02  0.3705350E-01  0.1180226E-03  0.3326219E-02 -0.3112847E-03 -0.9157232E-02
2350750.  0.1018979E-02  0.2876619E-01  0.8575021E-04  0.2529247E-02 -0.2228380E-03 -0.6893509E-02
2280172.  0.7393495E-03  0.2195179E-01  0.6138642E-04  0.1894270E-02 -0.1568308E-03 -0.5095614E-02
2209594.  0.5277132E-03  0.1646392E-01  0.4327321E-04  0.1396774E-02 -0.1084608E-03 -0.3698131E-02
2139016.  0.3703035E-03  0.1213247E-01  0.3001792E-04  0.1013502E-02 -0.7366321E-04 -0.2634333E-02
2068438.  0.2552886E-03  0.8780804E-02  0.2047494E-04  0.7232256E-03 -0.4909639E-04 -0.1841038E-02
1997859.  0.1727698E-03  0.6237964E-02  0.1372026E-04  0.5071784E-03 -0.3208453E-04 -0.1261508E-02
1927281.  0.1146747E-03  0.4346847E-02  0.9023531E-05  0.3492396E-03 -0.2053824E-04 -0.8468773E-03
1856703.  0.7456937E-04  0.2968678E-02  0.5818101E-05  0.2359038E-03 -0.1286335E-04 -0.5564715E-03
1786125.  0.4744596E-04  0.1985128E-02  0.3673173E-05  0.1561325E-03 -0.7872307E-05 -0.3574949E-03
1715547.  0.2949325E-04  0.1298376E-02  0.2267687E-05  0.1011067E-03 -0.4700732E-05 -0.2242455E-03
1644969.  0.1787525E-04  0.8298958E-03  0.1367316E-05  0.6393620E-04 -0.2734203E-05 -0.1371248E-03
1574391.  0.1052780E-04  0.5185173E-03  0.8048186E-06  0.3934648E-04 -0.1546472E-05 -0.8158421E-04
1503812.  0.5978158E-05  0.3182767E-03  0.4638920E-06  0.2336258E-04 -0.8492080E-06 -0.4710890E-04
1433234.  0.3187199E-05  0.1966676E-03  0.2665695E-06  0.1298364E-04 -0.4525072E-06 -0.2630813E-04
1362656.  0.1403881E-05  0.1343246E-03  0.1644489E-06  0.5795611E-05 -0.2346518E-06 -0.1414216E-04
1292078.  0.4613957E-08  0.1288789E-03  0.1352512E-06 -0.6433455E-06 -0.1195818E-06 -0.7326702E-05
1221500. -0.1765885E-05  0.2110887E-03  0.1896437E-06 -0.1019809E-04 -0.5969178E-07 -0.3978481E-05
1221500. -0.1765885E-05  0.1727871E-04  0.1724921E-07  0.9300329E-05 -0.5969178E-07 -0.3213493E-05
1183328. -0.1743709E-05 -0.2074199E-04 -0.2323614E-07  0.4566649E-05 -0.4264837E-07 -0.2488012E-05
1145156. -0.1556074E-05 -0.3928830E-04 -0.4105184E-07  0.1630034E-05 -0.2968447E-07 -0.1857989E-05
1106984. -0.1297789E-05 -0.4531504E-04 -0.4525741E-07 -0.5596747E-07 -0.2014989E-07 -0.1344409E-05
1068812. -0.1027845E-05 -0.4388637E-04 -0.4204034E-07 -0.9072847E-06 -0.1334542E-07 -0.9450703E-06
1030641. -0.7796348E-06 -0.3854389E-04 -0.3543255E-07 -0.1231110E-05 -0.8623868E-08 -0.6463723E-06
 992469. -0.5690339E-06 -0.3163922E-04 -0.2789927E-07 -0.1246299E-05 -0.5434817E-08 -0.4303808E-06
 954297. -0.4006669E-06 -0.2462779E-04 -0.2081262E-07 -0.1102004E-05 -0.3337698E-08 -0.2789805E-06
 916125. -0.2724861E-06 -0.1831708E-04 -0.1481765E-07 -0.8942882E-06 -0.1995294E-08 -0.1759715E-06
 877953. -0.1790274E-06 -0.1306997E-04 -0.1010659E-07 -0.6803964E-06 -0.1159412E-08 -0.1079062E-06
 839781. -0.1135759E-06 -0.8964414E-05 -0.6615339E-08 -0.4904057E-06 -0.6536846E-09 -0.6423930E-07
 801609. -0.6949409E-07 -0.5913424E-05 -0.4156872E-08 -0.3366260E-06 -0.3568325E-09 -0.3706349E-07
 763438. -0.4094125E-07 -0.3749898E-05 -0.2505781E-08 -0.2205692E-06 -0.1881126E-09 -0.2067916E-07
 725266. -0.2316910E-07 -0.2282830E-05 -0.1446700E-08 -0.1380206E-06 -0.9547600E-10 -0.1112701E-07
 687094. -0.1255801E-07 -0.1331310E-05 -0.7980442E-09 -0.8240235E-07 -0.4648696E-10 -0.5755733E-08
 648922. -0.6495487E-08 -0.7415953E-06 -0.4192514E-09 -0.4684063E-07 -0.2162026E-10 -0.2850957E-08
 610750. -0.3191801E-08 -0.3930869E-06 -0.2088839E-09 -0.2526998E-07 -0.9555686E-11 -0.1345933E-08
 572578. -0.1481865E-08 -0.1973144E-06 -0.9818251E-10 -0.1288224E-07 -0.3988912E-11 -0.6022013E-09
 534406. -0.6456545E-09 -0.9323183E-07 -0.4325244E-10 -0.6170386E-08 -0.1560946E-11 -0.2535979E-09
 496234. -0.2618077E-09 -0.4115574E-07 -0.1771207E-10 -0.2756779E-08 -0.5673837E-12 -0.9966634E-10
 458062. -0.9777216E-10 -0.1681228E-07 -0.6673003E-11 -0.1138192E-08 -0.1893929E-12 -0.3617159E-10
 419891. -0.3318554E-10 -0.6279064E-08 -0.2282746E-11 -0.4291029E-09 -0.5722629E-13 -0.1196195E-10
 381719. -0.1006266E-10 -0.2110476E-08 -0.6970147E-12 -0.1454257E-09 -0.1536307E-13 -0.3542822E-11
 343547. -0.2664927E-11 -0.6252425E-09 -0.1857285E-12 -0.4339695E-10 -0.3575882E-14 -0.9186456E-12
 305375. -0.5977509E-12 -0.1587124E-09 -0.4188385E-13 -0.1108575E-10 -0.6980744E-15 -0.2022185E-12
 267203. -0.1087627E-12 -0.3317348E-10 -0.7656402E-14 -0.2329751E-11 -0.1090979E-15 -0.3619137E-13
 229031. -0.1506953E-13 -0.5385872E-11 -0.1065033E-14 -0.3800003E-12 -0.1275010E-16 -0.4943131E-14
 190859. -0.1441596E-14 -0.6204111E-12 -0.1022069E-15 -0.4393470E-13 -0.1002594E-17 -0.4667989E-15
 152688.  0.0000000E+00  0.0000000E+00  0.0000000E+00  0.0000000E+00  0.0000000E+00  0.0000000E+00
 114516.  0.0000000E+00  0.0000000E+00  0.0000000E+00  0.0000000E+00  0.0000000E+00  0.0000000E+00
  76344.  0.0000000E+00  0.0000000E+00  0.0000000E+00  0.0000000E+00  0.0000000E+00  0.0000000E+00
  38172.  0.0000000E+00  0.0000000E+00  0.0000000E+00  0.0000000E+00  0.0000000E+00  0.0000000E+00
      0.  0.0000000E+00  0.0000000E+00  0.0000000E+00  0.0000000E+00  0.0000000E+00  0.0000000E+00
