       1       16 S      112        299.01031          8.11367          6.29908        162.78780      185    7
6371000.  0.1582585E+00  0.8153350E+00  0.8783831E-02 -0.1494747E+00 -0.1460563E-01 -0.5014285E-01
6370000.  0.1581293E+00  0.8311036E+00  0.8807178E-02 -0.1480095E+00 -0.1459777E-01 -0.4990592E-01
6369000.  0.1579976E+00  0.8468235E+00  0.8830294E-02 -0.1465354E+00 -0.1458996E-01 -0.4966644E-01
6368000.  0.1578634E+00  0.8624944E+00  0.8853178E-02 -0.1450523E+00 -0.1458218E-01 -0.4942441E-01
6368000.  0.1578634E+00  0.8624944E+00  0.8853178E-02 -0.1450523E+00 -0.1458218E-01 -0.4942441E-01
6367000.  0.1577268E+00  0.8781158E+00  0.8875828E-02 -0.1435605E+00 -0.1457444E-01 -0.4917981E-01
6366000.  0.1575878E+00  0.8936872E+00  0.8898245E-02 -0.1420598E+00 -0.1456674E-01 -0.4893266E-01
6365000.  0.1574463E+00  0.9092082E+00  0.8920425E-02 -0.1405504E+00 -0.1455908E-01 -0.4868294E-01
6364000.  0.1573024E+00  0.9246783E+00  0.8942367E-02 -0.1390323E+00 -0.1455146E-01 -0.4843065E-01
6363000.  0.1571560E+00  0.9400971E+00  0.8964069E-02 -0.1375055E+00 -0.1454388E-01 -0.4817578E-01
6362000.  0.1570072E+00  0.9554641E+00  0.8985532E-02 -0.1359701E+00 -0.1453634E-01 -0.4791833E-01
6361000.  0.1568561E+00  0.9707789E+00  0.9006753E-02 -0.1344262E+00 -0.1452884E-01 -0.4765830E-01
6360000.  0.1567025E+00  0.9860409E+00  0.9027731E-02 -0.1328738E+00 -0.1452138E-01 -0.4739568E-01
6359000.  0.1565465E+00  0.1001250E+01  0.9048464E-02 -0.1313129E+00 -0.1451396E-01 -0.4713046E-01
6358000.  0.1563882E+00  0.1016405E+01  0.9068952E-02 -0.1297436E+00 -0.1450658E-01 -0.4686265E-01
6357000.  0.1562275E+00  0.1031507E+01  0.9089194E-02 -0.1281659E+00 -0.1449925E-01 -0.4659224E-01
6356000.  0.1560644E+00  0.1046553E+01  0.9109186E-02 -0.1265800E+00 -0.1449196E-01 -0.4631921E-01
6356000.  0.1560644E+00  0.8731558E+00  0.9109186E-02 -0.1347943E+00 -0.1449196E-01 -0.8027701E-01
6355000.  0.1559264E+00  0.8846560E+00  0.9130281E-02 -0.1339936E+00 -0.1447937E-01 -0.8010831E-01
6354000.  0.1557867E+00  0.8961301E+00  0.9151249E-02 -0.1331882E+00 -0.1446681E-01 -0.7993820E-01
6353000.  0.1556451E+00  0.9075779E+00  0.9172091E-02 -0.1323781E+00 -0.1445427E-01 -0.7976670E-01
6352000.  0.1555018E+00  0.9189993E+00  0.9192806E-02 -0.1315632E+00 -0.1444177E-01 -0.7959379E-01
6351000.  0.1553566E+00  0.9303938E+00  0.9213392E-02 -0.1307437E+00 -0.1442929E-01 -0.7941948E-01
6350000.  0.1552097E+00  0.9417614E+00  0.9233848E-02 -0.1299194E+00 -0.1441684E-01 -0.7924376E-01
6349000.  0.1550610E+00  0.9531017E+00  0.9254176E-02 -0.1290904E+00 -0.1440441E-01 -0.7906663E-01
6348000.  0.1549105E+00  0.9644146E+00  0.9274373E-02 -0.1282568E+00 -0.1439202E-01 -0.7888808E-01
6347000.  0.1547582E+00  0.9756997E+00  0.9294438E-02 -0.1274185E+00 -0.1437965E-01 -0.7870812E-01
6346600.  0.1546968E+00  0.9802060E+00  0.9302428E-02 -0.1270819E+00 -0.1437471E-01 -0.7863574E-01
6346600.  0.1546968E+00  0.1022794E+01  0.9302428E-02 -0.1332125E+00 -0.1437471E-01 -0.1325763E+00
6318800.  0.1496670E+00  0.1281167E+01  0.9857992E-02 -0.1210166E+00 -0.1380405E-01 -0.1289139E+00
6291000.  0.1435312E+00  0.1529128E+01  0.1035504E-01 -0.1064103E+00 -0.1325029E-01 -0.1248252E+00
6291000.  0.1435312E+00  0.1575812E+01  0.1035504E-01 -0.1052382E+00 -0.1325029E-01 -0.1248252E+00
6263000.  0.1360736E+00  0.1814999E+01  0.1077697E-01 -0.8637274E-01 -0.1271274E-01 -0.1197100E+00
6235000.  0.1276069E+00  0.2034361E+01  0.1111090E-01 -0.6523106E-01 -0.1219888E-01 -0.1140340E+00
6207000.  0.1182263E+00  0.2230288E+01  0.1134735E-01 -0.4205114E-01 -0.1171127E-01 -0.1077620E+00
6179000.  0.1080424E+00  0.2399369E+01  0.1147794E-01 -0.1710410E-01 -0.1125260E-01 -0.1008596E+00
6151000.  0.9718028E-01  0.2538440E+01  0.1149555E-01  0.9307700E-02 -0.1082570E-01 -0.9329546E-01
6151000.  0.9718028E-01  0.2283623E+01  0.1149555E-01 -0.2859169E-02 -0.1082570E-01 -0.9867200E-01
6128500.  0.8899835E-01  0.2347411E+01  0.1147942E-01  0.1199933E-01 -0.1048236E-01 -0.9574155E-01
6106000.  0.8061960E-01  0.2395079E+01  0.1141083E-01  0.2683090E-01 -0.1014963E-01 -0.9265961E-01
6083500.  0.7210096E-01  0.2426638E+01  0.1129006E-01  0.4153232E-01 -0.9828053E-02 -0.8942809E-01
6061000.  0.6349918E-01  0.2442185E+01  0.1111774E-01  0.5600559E-01 -0.9518150E-02 -0.8604878E-01
6038500.  0.5487049E-01  0.2441919E+01  0.1089485E-01  0.7016031E-01 -0.9220444E-02 -0.8251999E-01
6016000.  0.4627023E-01  0.2426132E+01  0.1062266E-01  0.8391337E-01 -0.8935469E-02 -0.7883815E-01
5993500.  0.3775261E-01  0.2395180E+01  0.1030272E-01  0.9718818E-01 -0.8663774E-02 -0.7499888E-01
5971000.  0.2937042E-01  0.2349510E+01  0.9936838E-02  0.1099175E+00 -0.8405927E-02 -0.7099441E-01
5971000.  0.2937042E-01  0.2215810E+01  0.9936838E-02  0.9552389E-01 -0.8405927E-02 -0.7483925E-01
5937667.  0.1805930E-01  0.2105318E+01  0.9413107E-02  0.1042738E+00 -0.8022951E-02 -0.7158584E-01
5904333.  0.7363229E-02  0.1981231E+01  0.8849755E-02  0.1106991E+00 -0.7656565E-02 -0.6849226E-01
5871000. -0.2655797E-02  0.1847214E+01  0.8258397E-02  0.1150250E+00 -0.7305976E-02 -0.6554960E-01
5837667. -0.1195480E-01  0.1706510E+01  0.7649381E-02  0.1174889E+00 -0.6970420E-02 -0.6274261E-01
5804333. -0.2050666E-01  0.1561956E+01  0.7031802E-02  0.1183318E+00 -0.6649229E-02 -0.6005111E-01
5771000. -0.2829728E-01  0.1415999E+01  0.6413554E-02  0.1177903E+00 -0.6341878E-02 -0.5745097E-01
5771000. -0.2829728E-01  0.1416110E+01  0.6413554E-02  0.1177877E+00 -0.6341878E-02 -0.5745097E-01
5701000. -0.4237320E-01  0.1142316E+01  0.5106652E-02  0.1196255E+00 -0.5733263E-02 -0.5322973E-01
5701000. -0.4237320E-01  0.1018645E+01  0.5106652E-02  0.1055701E+00 -0.5733263E-02 -0.4128624E-01
5667333. -0.4732920E-01  0.8686359E+00  0.4573296E-02  0.9703061E-01 -0.5512692E-02 -0.4217067E-01
5633667. -0.5164704E-01  0.7691430E+00  0.4074726E-02  0.9191326E-01 -0.5288652E-02 -0.4252463E-01
5600000. -0.5545762E-01  0.6732192E+00  0.3602259E-02  0.8686067E-01 -0.5063722E-02 -0.4257192E-01
5600000. -0.5545762E-01  0.6732192E+00  0.3602259E-02  0.8686067E-01 -0.5063722E-02 -0.4257192E-01
5563518. -0.5902547E-01  0.5737504E+00  0.3120624E-02  0.8136068E-01 -0.4820463E-02 -0.4234690E-01
5527037. -0.6203768E-01  0.4792215E+00  0.2670436E-02  0.7588723E-01 -0.4579210E-02 -0.4188026E-01
5490556. -0.6452335E-01  0.3898732E+00  0.2251440E-02  0.7047112E-01 -0.4341233E-02 -0.4120779E-01
5454074. -0.6651275E-01  0.3058844E+00  0.1863212E-02  0.6514114E-01 -0.4107623E-02 -0.4035849E-01
5417593. -0.6803682E-01  0.2273804E+00  0.1505208E-02  0.5992240E-01 -0.3879294E-02 -0.3937079E-01
5381111. -0.6912732E-01  0.1544429E+00  0.1176702E-02  0.5483879E-01 -0.3656957E-02 -0.3826682E-01
5344630. -0.6981619E-01  0.8710392E-01  0.8768762E-03  0.4991086E-01 -0.3441226E-02 -0.3707042E-01
5308148. -0.7013544E-01  0.2533640E-01  0.6047801E-03  0.4515378E-01 -0.3232533E-02 -0.3580933E-01
5271667. -0.7011690E-01 -0.3088839E-01  0.3593950E-03  0.4058640E-01 -0.3031234E-02 -0.3449263E-01
5235185. -0.6979205E-01 -0.8167391E-01  0.1395920E-03  0.3621744E-01 -0.2837571E-02 -0.3314426E-01
5198704. -0.6919169E-01 -0.1271381E+00 -0.5577555E-04  0.3205592E-01 -0.2651681E-02 -0.3178031E-01
5162222. -0.6834594E-01 -0.1673992E+00 -0.2279459E-03  0.2811453E-01 -0.2473638E-02 -0.3040385E-01
5125741. -0.6728413E-01 -0.2026517E+00 -0.3781709E-03  0.2439239E-01 -0.2303464E-02 -0.2903679E-01
5089259. -0.6603434E-01 -0.2330696E+00 -0.5077232E-03  0.2089394E-01 -0.2141069E-02 -0.2768546E-01
5052778. -0.6462383E-01 -0.2588401E+00 -0.6178918E-03  0.1762296E-01 -0.1986361E-02 -0.2635529E-01
5016296. -0.6307844E-01 -0.2801991E+00 -0.7099700E-03  0.1457397E-01 -0.1839171E-02 -0.2505972E-01
4979815. -0.6142296E-01 -0.2973475E+00 -0.7852258E-03  0.1174825E-01 -0.1699299E-02 -0.2380100E-01
4943333. -0.5968073E-01 -0.3105185E+00 -0.8449323E-03  0.9140866E-02 -0.1566512E-02 -0.2258543E-01
4906852. -0.5787394E-01 -0.3199533E+00 -0.8903109E-03  0.6743805E-02 -0.1440540E-02 -0.2142229E-01
4870370. -0.5602329E-01 -0.3258585E+00 -0.9225658E-03  0.4555912E-02 -0.1321083E-02 -0.2030898E-01
4833889. -0.5414839E-01 -0.3284829E+00 -0.9428647E-03  0.2565920E-02 -0.1207840E-02 -0.1925488E-01
4797407. -0.5226725E-01 -0.3280515E+00 -0.9523101E-03  0.7644156E-03 -0.1100447E-02 -0.1826426E-01
4760926. -0.5039693E-01 -0.3247588E+00 -0.9519774E-03 -0.8508594E-03 -0.9985596E-03 -0.1733358E-01
4724444. -0.4855303E-01 -0.3188445E+00 -0.9428884E-03 -0.2296252E-02 -0.9017994E-03 -0.1647379E-01
4687963. -0.4675009E-01 -0.3104964E+00 -0.9259912E-03 -0.3578887E-02 -0.8097616E-03 -0.1568456E-01
4651482. -0.4500150E-01 -0.2998982E+00 -0.9022003E-03 -0.4706158E-02 -0.7220414E-03 -0.1496684E-01
4615000. -0.4331950E-01 -0.2872442E+00 -0.8723618E-03 -0.5692700E-02 -0.6382032E-03 -0.1432845E-01
4578518. -0.4171550E-01 -0.2726848E+00 -0.8372631E-03 -0.6544324E-02 -0.5577954E-03 -0.1376867E-01
4542037. -0.4019998E-01 -0.2563781E+00 -0.7976520E-03 -0.7271531E-02 -0.4803613E-03 -0.1329196E-01
4505556. -0.3878249E-01 -0.2384678E+00 -0.7542005E-03 -0.7886670E-02 -0.4053996E-03 -0.1290537E-01
4469074. -0.3747186E-01 -0.2190603E+00 -0.7075417E-03 -0.8392497E-02 -0.3323973E-03 -0.1260741E-01
4432593. -0.3627637E-01 -0.1982806E+00 -0.6582706E-03 -0.8801636E-02 -0.2608264E-03 -0.1240783E-01
4396111. -0.3520355E-01 -0.1762187E+00 -0.6069127E-03 -0.9121086E-02 -0.1900992E-03 -0.1231233E-01
4359630. -0.3426058E-01 -0.1529493E+00 -0.5539831E-03 -0.9352142E-02 -0.1196193E-03 -0.1232346E-01
4323148. -0.3345409E-01 -0.1285526E+00 -0.4999568E-03 -0.9504771E-02 -0.4873830E-04 -0.1245355E-01
4286667. -0.3279041E-01 -0.1030824E+00 -0.4452801E-03 -0.9579432E-02  0.2324342E-04 -0.1270964E-01
4250185. -0.3227552E-01 -0.7658911E-01 -0.3904001E-03 -0.9575747E-02  0.9707433E-04 -0.1310093E-01
4213704. -0.3191514E-01 -0.4912390E-01 -0.3357590E-03 -0.9495965E-02  0.1735671E-03 -0.1364219E-01
4177222. -0.3171472E-01 -0.2072766E-01 -0.2818107E-03 -0.9331794E-02  0.2536160E-03 -0.1434430E-01
4140741. -0.3167943E-01  0.8543398E-02 -0.2290610E-03 -0.9076937E-02  0.3381814E-03 -0.1522398E-01
4104259. -0.3181412E-01  0.3863041E-01 -0.1780486E-03 -0.8721456E-02  0.4283468E-03 -0.1630210E-01
4067778. -0.3212322E-01  0.6944233E-01 -0.1294173E-03 -0.8242201E-02  0.5252843E-03 -0.1759373E-01
4031296. -0.3261056E-01  0.1008616E+00 -0.8392754E-04 -0.7619943E-02  0.6303000E-03 -0.1912769E-01
3994815. -0.3327916E-01  0.1327208E+00 -0.4248373E-04 -0.6822483E-02  0.7448557E-03 -0.2093085E-01
3958333. -0.3413088E-01  0.1647694E+00 -0.6219114E-05 -0.5802809E-02  0.8705698E-03 -0.2302951E-01
3921852. -0.3516588E-01  0.1966767E+00  0.2345708E-04 -0.4511863E-02  0.1009240E-02 -0.2546412E-01
3885370. -0.3638212E-01  0.2279699E+00  0.4479664E-04 -0.2876815E-02  0.1162905E-02 -0.2827132E-01
3848889. -0.3777423E-01  0.2579914E+00  0.5557343E-04 -0.8064932E-03  0.1333806E-02 -0.3149430E-01
3812407. -0.3933266E-01  0.2858772E+00  0.5299611E-04  0.1808934E-02  0.1524487E-02 -0.3518685E-01
3775926. -0.4104181E-01  0.3104158E+00  0.3353220E-04  0.5119266E-02  0.1737767E-02 -0.3939854E-01
3739444. -0.4287825E-01  0.3300198E+00 -0.7301189E-05  0.9305823E-02  0.1976807E-02 -0.4419333E-01
3702963. -0.4480790E-01  0.3425818E+00 -0.7514622E-04  0.1459841E-01  0.2245131E-02 -0.4964007E-01
3666482. -0.4678270E-01  0.3452506E+00 -0.1771671E-03  0.2129766E-01  0.2546659E-02 -0.5580277E-01
3630000. -0.4873598E-01  0.3343470E+00 -0.3224334E-03  0.2977078E-01  0.2885734E-02 -0.6276561E-01
3630000. -0.4873598E-01  0.3343470E+00 -0.3224334E-03  0.2977078E-01  0.2885734E-02 -0.6276561E-01
3592500. -0.5062522E-01  0.3038147E+00 -0.5289043E-03  0.4083112E-01  0.3278446E-02 -0.7083359E-01
3555000. -0.5226060E-01  0.2467599E+00 -0.8090341E-03  0.5492112E-01  0.3721575E-02 -0.7991223E-01
3517500. -0.5346028E-01  0.1540170E+00 -0.1183000E-02  0.7287227E-01  0.4221346E-02 -0.9009340E-01
3480000. -0.5398011E-01  0.1344126E-01 -0.1676549E-02  0.9575459E-01  0.4784463E-02 -0.1014472E+00
3480000. -0.5398011E-01 -0.1211524E+01 -0.3903215E-02 -0.9161483E-01  0.4784463E-02  0.7166614E-01
3409422. -0.4189577E-01 -0.9765527E+00 -0.2996670E-02 -0.7265560E-01  0.3994641E-02  0.6993809E-01
3338844. -0.3220708E-01 -0.7785161E+00 -0.2280935E-02 -0.5708743E-01  0.3251119E-02  0.6378331E-01
3268266. -0.2452308E-01 -0.6140118E+00 -0.1721048E-02 -0.4444262E-01  0.2589050E-02  0.5554436E-01
3197688. -0.1849341E-01 -0.4791885E+00 -0.1287104E-02 -0.3427957E-01  0.2022558E-02  0.4672213E-01
3127109. -0.1381115E-01 -0.3700849E+00 -0.9538758E-03 -0.2619491E-01  0.1552625E-02  0.3822277E-01
3056531. -0.1021296E-01 -0.2828633E+00 -0.7003832E-03 -0.1982891E-01  0.1172626E-02  0.3054336E-01
2985953. -0.7476461E-02 -0.2139500E+00 -0.5093685E-03 -0.1486653E-01  0.8720298E-03  0.2390795E-01
2915375. -0.5417007E-02 -0.1601266E+00 -0.3668213E-03 -0.1103719E-01  0.6388687E-03  0.1836664E-01
2844797. -0.3883461E-02 -0.1185658E+00 -0.2614934E-03 -0.8112215E-02  0.4612499E-03  0.1386567E-01
2774219. -0.2753802E-02 -0.8683708E-01 -0.1844554E-03 -0.5901012E-02  0.3282206E-03  0.1029555E-01
2703641. -0.1930805E-02 -0.6288999E-01 -0.1286970E-03 -0.4246898E-02  0.2301961E-03  0.7522987E-02
2633062. -0.1337985E-02 -0.4502397E-01 -0.8877572E-04 -0.3022785E-02  0.1591016E-03  0.5411130E-02
2562484. -0.9159465E-03 -0.3185142E-01 -0.6051401E-04 -0.2126925E-02  0.1083418E-03  0.3831680E-02
2491906. -0.6191047E-03 -0.2225570E-01 -0.4073910E-04 -0.1478742E-02  0.7266277E-04  0.2670943E-02
2421328. -0.4129321E-03 -0.1535192E-01 -0.2707056E-04 -0.1015295E-02  0.4797671E-04  0.1832408E-02
2350750. -0.2716008E-03 -0.1044829E-01 -0.1774282E-04 -0.6880079E-03  0.3116868E-04  0.1236842E-02
2280172. -0.1760386E-03 -0.7011499E-02 -0.1146216E-04 -0.4598379E-03  0.1991130E-04  0.8209965E-03
2209594. -0.1123471E-03 -0.4636044E-02 -0.7292469E-05 -0.3029034E-03  0.1249836E-04  0.5356133E-03
2139016. -0.7053550E-04 -0.3017913E-02 -0.4565156E-05 -0.1964867E-03  0.7702126E-05  0.3431943E-03
2068438. -0.4352284E-04 -0.1932409E-02 -0.2809160E-05 -0.1253992E-03  0.4655358E-05  0.2157983E-03
1997859. -0.2636398E-04 -0.1215867E-02 -0.1697278E-05 -0.7865806E-04  0.2756779E-05  0.1330319E-03
1927281. -0.1565902E-04 -0.7509056E-03 -0.1005671E-05 -0.4843837E-04  0.1597446E-05  0.8031392E-04
1856703. -0.9107126E-05 -0.4546201E-03 -0.5835599E-06 -0.2924679E-04  0.9045133E-06  0.4742432E-04
1786125. -0.5178397E-05 -0.2694400E-03 -0.3311114E-06 -0.1728978E-04  0.4996682E-06  0.2735024E-04
1715547. -0.2873790E-05 -0.1560764E-03 -0.1833891E-06 -0.9991270E-05  0.2688120E-06  0.1538004E-04
1644969. -0.1553462E-05 -0.8820822E-04 -0.9895793E-07 -0.5633366E-05  0.1405511E-06  0.8417323E-05
1574391. -0.8160350E-06 -0.4854731E-04 -0.5191650E-07 -0.3092176E-05  0.7125859E-07  0.4473790E-05
1503812. -0.4152189E-06 -0.2598079E-04 -0.2643184E-07 -0.1647176E-05  0.3494002E-07  0.2303434E-05
1433234. -0.2033342E-06 -0.1354103E-04 -0.1306532E-07 -0.8458215E-06  0.1652164E-07  0.1145533E-05
1362656. -0.9361414E-07 -0.7008169E-05 -0.6362051E-08 -0.4079670E-06  0.7512110E-08  0.5483204E-06
1292078. -0.3510559E-07 -0.4031569E-05 -0.3343125E-08 -0.1566332E-06  0.3276833E-08  0.2517206E-06
1221500.  0.5591846E-08 -0.3795995E-05 -0.2696986E-08  0.4321249E-07  0.1364935E-08  0.1117646E-06
1221500.  0.5591846E-08  0.1007321E-07 -0.1570404E-10 -0.2924740E-07  0.1364935E-08  0.1093422E-06
1183328.  0.5075126E-08  0.1407331E-06  0.9556911E-10 -0.1002766E-07  0.8375672E-09  0.6946513E-07
1145156.  0.4094971E-08  0.1753943E-06  0.1240020E-09 -0.6800071E-09  0.5050599E-09  0.4340509E-07
1106984.  0.3064423E-08  0.1637503E-06  0.1145749E-09  0.3173496E-08  0.2989525E-09  0.2664810E-07
1068812.  0.2167965E-08  0.1340230E-06  0.9158011E-10  0.4182194E-08  0.1734863E-09  0.1605641E-07
1030641.  0.1464362E-08  0.1010605E-06  0.6703192E-10  0.3879406E-08  0.9857030E-10  0.9482952E-08
 992469.  0.9493997E-09  0.7173787E-07  0.4601500E-10  0.3100920E-08  0.5474830E-10  0.5481803E-08
 954297.  0.5924971E-09  0.4845848E-07  0.2997408E-10  0.2263770E-08  0.2967592E-10  0.3096719E-08
 916125.  0.3563723E-09  0.3132646E-07  0.1864053E-10  0.1546166E-08  0.1566798E-10  0.1706484E-08
 877953.  0.2066205E-09  0.1943624E-07  0.1110044E-10  0.9995850E-09  0.8039986E-11  0.9154700E-09
 839781.  0.1154012E-09  0.1158608E-07  0.6336761E-11  0.6152364E-09  0.4000006E-11  0.4770119E-09
 801609.  0.6200816E-10  0.6634381E-08  0.3466870E-11  0.3614693E-09  0.1924003E-11  0.2407779E-09
 763438.  0.3199811E-10  0.3644946E-08  0.1815610E-11  0.2028017E-09  0.8918638E-12  0.1173763E-09
 725266.  0.1582264E-10  0.1918724E-08  0.9089552E-12  0.1083249E-09  0.3970168E-12  0.5503514E-10
 687094.  0.0000000E+00  0.0000000E+00  0.0000000E+00  0.0000000E+00  0.0000000E+00  0.0000000E+00
 648922.  0.0000000E+00  0.0000000E+00  0.0000000E+00  0.0000000E+00  0.0000000E+00  0.0000000E+00
 610750.  0.0000000E+00  0.0000000E+00  0.0000000E+00  0.0000000E+00  0.0000000E+00  0.0000000E+00
 572578.  0.0000000E+00  0.0000000E+00  0.0000000E+00  0.0000000E+00  0.0000000E+00  0.0000000E+00
 534406.  0.0000000E+00  0.0000000E+00  0.0000000E+00  0.0000000E+00  0.0000000E+00  0.0000000E+00
 496234.  0.0000000E+00  0.0000000E+00  0.0000000E+00  0.0000000E+00  0.0000000E+00  0.0000000E+00
 458062.  0.0000000E+00  0.0000000E+00  0.0000000E+00  0.0000000E+00  0.0000000E+00  0.0000000E+00
 419891.  0.0000000E+00  0.0000000E+00  0.0000000E+00  0.0000000E+00  0.0000000E+00  0.0000000E+00
 381719.  0.0000000E+00  0.0000000E+00  0.0000000E+00  0.0000000E+00  0.0000000E+00  0.0000000E+00
 343547.  0.0000000E+00  0.0000000E+00  0.0000000E+00  0.0000000E+00  0.0000000E+00  0.0000000E+00
 305375.  0.0000000E+00  0.0000000E+00  0.0000000E+00  0.0000000E+00  0.0000000E+00  0.0000000E+00
 267203.  0.0000000E+00  0.0000000E+00  0.0000000E+00  0.0000000E+00  0.0000000E+00  0.0000000E+00
 229031.  0.0000000E+00  0.0000000E+00  0.0000000E+00  0.0000000E+00  0.0000000E+00  0.0000000E+00
 190859.  0.0000000E+00  0.0000000E+00  0.0000000E+00  0.0000000E+00  0.0000000E+00  0.0000000E+00
 152688.  0.0000000E+00  0.0000000E+00  0.0000000E+00  0.0000000E+00  0.0000000E+00  0.0000000E+00
 114516.  0.0000000E+00  0.0000000E+00  0.0000000E+00  0.0000000E+00  0.0000000E+00  0.0000000E+00
  76344.  0.0000000E+00  0.0000000E+00  0.0000000E+00  0.0000000E+00  0.0000000E+00  0.0000000E+00
  38172.  0.0000000E+00  0.0000000E+00  0.0000000E+00  0.0000000E+00  0.0000000E+00  0.0000000E+00
      0.  0.0000000E+00  0.0000000E+00  0.0000000E+00  0.0000000E+00  0.0000000E+00  0.0000000E+00
