      15        3 S      616        164.71339         69.43695         14.46658        783.37372      185    7
6371000.  0.5661512E-01 -0.7483389E-01 -0.6426426E-02 -0.6304155E-01 -0.6789511E-04 -0.1064913E+00
6370000.  0.5662563E-01 -0.5910724E-01 -0.6416072E-02 -0.6888740E-01 -0.5118029E-04 -0.1064881E+00
6369000.  0.5663367E-01 -0.4336543E-01 -0.6404801E-02 -0.7471964E-01 -0.3446634E-04 -0.1064803E+00
6368000.  0.5663924E-01 -0.2760914E-01 -0.6392617E-02 -0.8053742E-01 -0.1775397E-04 -0.1064679E+00
6368000.  0.5663924E-01 -0.2760914E-01 -0.6392617E-02 -0.8053742E-01 -0.1775397E-04 -0.1064679E+00
6367000.  0.5664234E-01 -0.1183908E-01 -0.6379520E-02 -0.8633994E-01 -0.1043906E-05 -0.1064510E+00
6366000.  0.5664296E-01  0.3944050E-02 -0.6365513E-02 -0.9212632E-01  0.1566313E-04 -0.1064294E+00
6365000.  0.5664110E-01  0.1973956E-01 -0.6350600E-02 -0.9789575E-01  0.3236642E-04 -0.1064032E+00
6364000.  0.5663676E-01  0.3554675E-01 -0.6334782E-02 -0.1036474E+00  0.4906524E-04 -0.1063724E+00
6363000.  0.5662994E-01  0.5136491E-01 -0.6318063E-02 -0.1093804E+00  0.6575886E-04 -0.1063370E+00
6362000.  0.5662064E-01  0.6719333E-01 -0.6300447E-02 -0.1150941E+00  0.8244657E-04 -0.1062970E+00
6361000.  0.5660885E-01  0.8303131E-01 -0.6281934E-02 -0.1207874E+00  0.9912764E-04 -0.1062524E+00
6360000.  0.5659457E-01  0.9887815E-01 -0.6262530E-02 -0.1264597E+00  0.1158013E-03 -0.1062032E+00
6359000.  0.5657781E-01  0.1147331E+00 -0.6242237E-02 -0.1321101E+00  0.1324670E-03 -0.1061494E+00
6358000.  0.5655855E-01  0.1305955E+00 -0.6221059E-02 -0.1377378E+00  0.1491238E-03 -0.1060910E+00
6357000.  0.5653681E-01  0.1464647E+00 -0.6198999E-02 -0.1433420E+00  0.1657711E-03 -0.1060280E+00
6356000.  0.5651258E-01  0.1623398E+00 -0.6176061E-02 -0.1489218E+00  0.1824081E-03 -0.1059605E+00
6356000.  0.5651258E-01  0.8946522E-01 -0.6176061E-02 -0.1147973E+00  0.1824081E-03 -0.1182569E+00
6355000.  0.5649763E-01  0.1009946E+00 -0.6157750E-02 -0.1185294E+00  0.2009656E-03 -0.1182012E+00
6354000.  0.5648087E-01  0.1125293E+00 -0.6138853E-02 -0.1222477E+00  0.2195139E-03 -0.1181417E+00
6353000.  0.5646230E-01  0.1240687E+00 -0.6119375E-02 -0.1259517E+00  0.2380527E-03 -0.1180785E+00
6352000.  0.5644192E-01  0.1356126E+00 -0.6099315E-02 -0.1296412E+00  0.2565812E-03 -0.1180116E+00
6351000.  0.5641973E-01  0.1471605E+00 -0.6078678E-02 -0.1333158E+00  0.2750990E-03 -0.1179410E+00
6350000.  0.5639572E-01  0.1587121E+00 -0.6057465E-02 -0.1369751E+00  0.2936054E-03 -0.1178667E+00
6349000.  0.5636991E-01  0.1702670E+00 -0.6035679E-02 -0.1406188E+00  0.3120998E-03 -0.1177887E+00
6348000.  0.5634227E-01  0.1818248E+00 -0.6013323E-02 -0.1442465E+00  0.3305817E-03 -0.1177070E+00
6347000.  0.5631283E-01  0.1933851E+00 -0.5990398E-02 -0.1478578E+00  0.3490505E-03 -0.1176216E+00
6346600.  0.5630054E-01  0.1980099E+00 -0.5981069E-02 -0.1492977E+00  0.3564342E-03 -0.1175864E+00
6346600.  0.5630054E-01  0.8727859E-01 -0.5981069E-02 -0.1211076E+00  0.3564342E-03 -0.1372176E+00
6318800.  0.5540961E-01  0.3219263E+00 -0.5289214E-02 -0.1941244E+00  0.9494834E-03 -0.1342048E+00
6291000.  0.5348695E-01  0.5593971E+00 -0.4306255E-02 -0.2538871E+00  0.1524169E-02 -0.1288030E+00
6291000.  0.5348695E-01  0.5663586E+00 -0.4306255E-02 -0.2610553E+00  0.1524169E-02 -0.1288030E+00
6263000.  0.5046684E-01  0.8072236E+00 -0.3053699E-02 -0.3056891E+00  0.2073738E-02 -0.1208923E+00
6235000.  0.4640250E-01  0.1040650E+01 -0.1649604E-02 -0.3296808E+00  0.2583365E-02 -0.1106448E+00
6207000.  0.4133873E-01  0.1261104E+01 -0.1881345E-03 -0.3316886E+00  0.3043053E-02 -0.9819163E-01
6179000.  0.3534476E-01  0.1463040E+01  0.1233651E-02 -0.3117413E+00  0.3443479E-02 -0.8370978E-01
6151000.  0.2851396E-01  0.1641029E+01  0.2521823E-02 -0.2712260E+00  0.3776201E-02 -0.6742218E-01
6151000.  0.2851396E-01  0.1320319E+01  0.2521823E-02 -0.2413923E+00  0.3776201E-02 -0.6899973E-01
6128500.  0.2371890E-01  0.1392575E+01  0.3303522E-02 -0.1999612E+00  0.4000232E-02 -0.5776733E-01
6106000.  0.1869698E-01  0.1448704E+01  0.3925833E-02 -0.1514290E+00  0.4183557E-02 -0.4596664E-01
6083500.  0.1350591E-01  0.1488334E+01  0.4366960E-02 -0.9768271E-01  0.4324378E-02 -0.3371736E-01
6061000.  0.8204265E-02  0.1511313E+01  0.4612033E-02 -0.4074593E-01  0.4421327E-02 -0.2114141E-01
6038500.  0.2850780E-02  0.1517726E+01  0.4653464E-02  0.1729218E-01  0.4473465E-02 -0.8360896E-02
6016000. -0.2496496E-02  0.1507863E+01  0.4491050E-02  0.7435130E-01  0.4480285E-02  0.4502535E-02
5993500. -0.7780896E-02  0.1482219E+01  0.4131818E-02  0.1284291E+00  0.4441706E-02  0.1732892E-01
5971000. -0.1294788E-01  0.1441500E+01  0.3589628E-02  0.1776672E+00  0.4358068E-02  0.3000103E-01
5971000. -0.1294788E-01  0.1306349E+01  0.3589628E-02  0.1600381E+00  0.4358068E-02  0.3169602E-01
5937667. -0.1949530E-01  0.1193322E+01  0.2614934E-02  0.2097284E+00  0.4146370E-02  0.4905553E-01
5904333. -0.2540647E-01  0.1063886E+01  0.1425686E-02  0.2418684E+00  0.3846768E-02  0.6525511E-01
5871000. -0.3060779E-01  0.9228149E+00  0.1153193E-03  0.2560852E+00  0.3465936E-02  0.8007850E-01
5837667. -0.3505037E-01  0.7745613E+00 -0.1224083E-02  0.2531879E+00  0.3011529E-02  0.9335441E-01
5804333. -0.3870753E-01  0.6231790E+00 -0.2507217E-02  0.2349142E+00  0.2491991E-02  0.1049517E+00
5771000. -0.4157230E-01  0.4722616E+00 -0.3659616E-02  0.2036711E+00  0.1916394E-02  0.1147771E+00
5771000. -0.4157230E-01  0.4722700E+00 -0.3659616E-02  0.2036658E+00  0.1916394E-02  0.1147771E+00
5701000. -0.4517818E-01  0.1828877E+00 -0.5446009E-02  0.1140946E+00  0.5787837E-03  0.1273609E+00
5701000. -0.4517818E-01  0.1525163E+00 -0.5446009E-02  0.9946082E-01  0.5787837E-03  0.1400950E+00
5667333. -0.4563694E-01  0.2559482E-01 -0.5838617E-02  0.5039132E-01 -0.1696532E-03  0.1429358E+00
5633667. -0.4547114E-01 -0.8779344E-01 -0.5980677E-02  0.2895255E-02 -0.9296383E-03  0.1444495E+00
5600000. -0.4471790E-01 -0.1961865E+00 -0.5867035E-02 -0.4586119E-01 -0.1693028E-02  0.1441644E+00
5600000. -0.4471790E-01 -0.1961865E+00 -0.5867035E-02 -0.4586119E-01 -0.1693028E-02  0.1441644E+00
5563518. -0.4327495E-01 -0.3064283E+00 -0.5454750E-02 -0.9778310E-01 -0.2512915E-02  0.1418502E+00
5527037. -0.4122545E-01 -0.4078542E+00 -0.4753550E-02 -0.1463808E+00 -0.3313637E-02  0.1374882E+00
5490556. -0.3862308E-01 -0.4993695E+00 -0.3789057E-02 -0.1893857E+00 -0.4083690E-02  0.1311530E+00
5454074. -0.3552705E-01 -0.5801437E+00 -0.2599158E-02 -0.2247968E+00 -0.4812075E-02  0.1229456E+00
5417593. -0.3200042E-01 -0.6497504E+00 -0.1232160E-02 -0.2510214E+00 -0.5488356E-02  0.1129828E+00
5381111. -0.2810777E-01 -0.7079176E+00  0.2557701E-03 -0.2668580E+00 -0.6102916E-02  0.1014082E+00
5344630. -0.2391495E-01 -0.7546695E+00  0.1802769E-02 -0.2715931E+00 -0.6646952E-02  0.8838338E-01
5308148. -0.1948625E-01 -0.7903105E+00  0.3344558E-02 -0.2650264E+00 -0.7112674E-02  0.7408173E-01
5271667. -0.1488473E-01 -0.8151537E+00  0.4816798E-02 -0.2474001E+00 -0.7493298E-02  0.5869742E-01
5235185. -0.1017026E-01 -0.8298320E+00  0.6158195E-02 -0.2194777E+00 -0.7783209E-02  0.4242943E-01
5198704. -0.5399322E-02 -0.8350232E+00  0.7312904E-02 -0.1824307E+00 -0.7977930E-02  0.2548776E-01
5162222. -0.6243447E-03 -0.8313200E+00  0.8232896E-02 -0.1377720E+00 -0.8074229E-02  0.8088166E-02
5125741.  0.4105929E-02 -0.8195927E+00  0.8879731E-02 -0.8735919E-01 -0.8070105E-02 -0.9550295E-02
5089259.  0.8747877E-02 -0.8005271E+00  0.9226255E-02 -0.3322900E-01 -0.7964813E-02 -0.2721022E-01
5052778.  0.1326102E-01 -0.7747706E+00  0.9257336E-02  0.2244607E-01 -0.7758860E-02 -0.4467399E-01
5016296.  0.1760941E-01 -0.7430400E+00  0.8970441E-02  0.7746620E-01 -0.7453968E-02 -0.6172959E-01
4979815.  0.2176009E-01 -0.7058324E+00  0.8375533E-02  0.1296820E+00 -0.7053083E-02 -0.7817221E-01
4943333.  0.2568330E-01 -0.6636357E+00  0.7494450E-02  0.1770968E+00 -0.6560254E-02 -0.9380641E-01
4906852.  0.2935158E-01 -0.6168822E+00  0.6359918E-02  0.2179400E+00 -0.5980681E-02 -0.1084452E+00
4870370.  0.3273974E-01 -0.5658046E+00  0.5013961E-02  0.2507072E+00 -0.5320519E-02 -0.1219210E+00
4833889.  0.3582366E-01 -0.5106926E+00  0.3506328E-02  0.2742670E+00 -0.4586928E-02 -0.1340731E+00
4797407.  0.3858099E-01 -0.4517216E+00  0.1891992E-02  0.2878623E+00 -0.3787860E-02 -0.1447614E+00
4760926.  0.4098970E-01 -0.3889820E+00  0.2294336E-03  0.2911001E+00 -0.2932089E-02 -0.1538670E+00
4724444.  0.4302885E-01 -0.3226402E+00 -0.1422168E-02  0.2840654E+00 -0.2028954E-02 -0.1612796E+00
4687963.  0.4467800E-01 -0.2528047E+00 -0.3004984E-02  0.2671926E+00 -0.1088446E-02 -0.1669171E+00
4651482.  0.4591760E-01 -0.1796234E+00 -0.4464853E-02  0.2412912E+00 -0.1208944E-03 -0.1707161E+00
4615000.  0.4672911E-01 -0.1033123E+00 -0.5753338E-02  0.2075378E+00  0.8630509E-03 -0.1726276E+00
4578518.  0.4709532E-01 -0.2415226E-01 -0.6829385E-02  0.1673508E+00  0.1852485E-02 -0.1726315E+00
4542037.  0.4700098E-01  0.5747652E-01 -0.7660790E-02  0.1223944E+00  0.2836439E-02 -0.1707232E+00
4505556.  0.4643324E-01  0.1411042E+00 -0.8225434E-02  0.7448506E-01  0.3804013E-02 -0.1669156E+00
4469074.  0.4538237E-01  0.2261035E+00 -0.8511744E-02  0.2549309E-01  0.4744474E-02 -0.1612518E+00
4432593.  0.4384254E-01  0.3117737E+00 -0.8518974E-02 -0.2267513E-01  0.5647278E-02 -0.1537816E+00
4396111.  0.4181210E-01  0.3972857E+00 -0.8257106E-02 -0.6820147E-01  0.6502325E-02 -0.1445777E+00
4359630.  0.3929494E-01  0.4816247E+00 -0.7746189E-02 -0.1093976E+00  0.7299910E-02 -0.1337360E+00
4323148.  0.3630046E-01  0.5638053E+00 -0.7015354E-02 -0.1447798E+00  0.8030980E-02 -0.1213566E+00
4286667.  0.3284441E-01  0.6426628E+00 -0.6101598E-02 -0.1731112E+00  0.8687030E-02 -0.1075624E+00
4250185.  0.2894914E-01  0.7169802E+00 -0.5048093E-02 -0.1934520E+00  0.9260378E-02 -0.9248766E-01
4213704.  0.2464418E-01  0.7855960E+00 -0.3902540E-02 -0.2051984E+00  0.9744061E-02 -0.7627529E-01
4177222.  0.1996559E-01  0.8472258E+00 -0.2715042E-02 -0.2080743E+00  0.1013203E-01 -0.5908148E-01
4140741.  0.1495705E-01  0.9007074E+00 -0.1536383E-02 -0.2021678E+00  0.1041912E-01 -0.4106962E-01
4104259.  0.9667952E-02  0.9449788E+00 -0.4156998E-03 -0.1879105E+00  0.1060113E-01 -0.2240624E-01
4067778.  0.4154667E-02  0.9788992E+00  0.6010681E-03 -0.1660326E+00  0.1067483E-01 -0.3268511E-02
4031296. -0.1521497E-02  0.1001701E+01  0.1473206E-02 -0.1375828E+00  0.1063799E-01  0.1616872E-01
3994815. -0.7294540E-02  0.1012669E+01  0.2166611E-02 -0.1038425E+00  0.1048943E-01  0.3572687E-01
3958333. -0.1309506E-01  0.1011178E+01  0.2655132E-02 -0.6627738E-01  0.1022894E-01  0.5523004E-01
3921852. -0.1885076E-01  0.9970509E+00  0.2921453E-02 -0.2651562E-01  0.9857360E-02  0.7450029E-01
3885370. -0.2448919E-01  0.9701545E+00  0.2957818E-02  0.1375706E-01  0.9376497E-02  0.9336898E-01
3848889. -0.2993715E-01  0.9306384E+00  0.2766195E-02  0.5283231E-01  0.8789152E-02  0.1116693E+00
3812407. -0.3512401E-01  0.8789984E+00  0.2358211E-02  0.8905542E-01  0.8099013E-02  0.1292399E+00
3775926. -0.3998163E-01  0.8158104E+00  0.1754715E-02  0.1208780E+00  0.7310725E-02  0.1459331E+00
3739444. -0.4444665E-01  0.7420140E+00  0.9849127E-03  0.1469226E+00  0.6429684E-02  0.1616044E+00
3702963. -0.4846136E-01  0.6587588E+00  0.8536638E-04  0.1660281E+00  0.5462187E-02  0.1761183E+00
3666482. -0.5197510E-01  0.5672726E+00 -0.9014659E-03  0.1772815E+00  0.4415162E-02  0.1893627E+00
3630000. -0.5494516E-01  0.4690979E+00 -0.1928757E-02  0.1800732E+00  0.3296185E-02  0.2012206E+00
3630000. -0.5494516E-01  0.4690979E+00 -0.1928757E-02  0.1800732E+00  0.3296185E-02  0.2012206E+00
3592500. -0.5739583E-01  0.3628640E+00 -0.2974779E-02  0.1737970E+00  0.2079660E-02  0.2118704E+00
3555000. -0.5920985E-01  0.2530903E+00 -0.3956543E-02  0.1582738E+00  0.8052625E-03  0.2208704E+00
3517500. -0.6037206E-01  0.1417073E+00 -0.4820581E-02  0.1338870E+00 -0.5170428E-03  0.2281374E+00
3480000. -0.6087860E-01  0.3061892E-01 -0.5516668E-02  0.1013537E+00 -0.1876889E-02  0.2336186E+00
3480000. -0.6087860E-01  0.1919617E+00 -0.7200611E-04 -0.1113226E+00 -0.1876889E-02  0.4288554E+00
3409422. -0.5983960E-01 -0.3745432E+00  0.1186940E-02 -0.1140530E+00 -0.6658835E-02  0.4268501E+00
3338844. -0.5278483E-01 -0.8859782E+00  0.2412587E-02 -0.1053443E+00 -0.1116944E-01  0.3803712E+00
3268266. -0.4057430E-01 -0.1299136E+01  0.3481175E-02 -0.8589471E-01 -0.1494012E-01  0.2944077E+00
3197688. -0.2447938E-01 -0.1583237E+01  0.4281849E-02 -0.5731022E-01 -0.1757727E-01  0.1773646E+00
3127109. -0.6038033E-02 -0.1720950E+01  0.4725783E-02 -0.2192845E-01 -0.1879498E-01  0.4009874E-01
3056531.  0.1309343E-01 -0.1708274E+01  0.4753124E-02  0.1739194E-01 -0.1843622E-01 -0.1051462E+00
2985953.  0.3128425E-01 -0.1553428E+01  0.4337510E-02  0.5750581E-01 -0.1648225E-01 -0.2458405E+00
2915375.  0.4705380E-01 -0.1274982E+01  0.3487926E-02  0.9521495E-01 -0.1304998E-01 -0.3701776E+00
2844797.  0.5917384E-01 -0.8995115E+00  0.2248025E-02  0.1274934E+00 -0.8378951E-02 -0.4679556E+00
2774219.  0.6674265E-01 -0.4589349E+00  0.6931088E-03  0.1516846E+00 -0.2809552E-02 -0.5312700E+00
2703641.  0.6922921E-01  0.1218845E-01 -0.1074914E-02  0.1656649E+00  0.3245279E-02 -0.5549859E+00
2633062.  0.6648775E-01  0.4792743E+00 -0.2934180E-02  0.1679675E+00  0.9332368E-02 -0.5369790E+00
2562484.  0.5874508E-01  0.9100248E+00 -0.4750502E-02  0.1578577E+00  0.1499160E-01 -0.4781523E+00
2491906.  0.4656352E-01  0.1276437E+01 -0.6385862E-02  0.1353659E+00  0.1978907E-01 -0.3822388E+00
2421328.  0.3078478E-01  0.1556294E+01 -0.7706750E-02  0.1012737E+00  0.2334614E-01 -0.2554246E+00
2350750.  0.1245962E-01  0.1734198E+01 -0.8592210E-02  0.5705341E-01  0.2536399E-01 -0.1058332E+00
2280172. -0.7230885E-02  0.1802062E+01 -0.8941033E-02  0.4781013E-02  0.2564167E-01  0.5709089E-01
2209594. -0.2705700E-01  0.1759152E+01 -0.8677801E-02 -0.5298756E-01  0.2408714E-01  0.2232487E+00
2139016. -0.4581971E-01  0.1611650E+01 -0.7757403E-02 -0.1133598E+00  0.2072073E-01  0.3825612E+00
2068438. -0.6242338E-01  0.1371867E+01 -0.6167921E-02 -0.1732650E+00  0.1567133E-01  0.5256072E+00
1997859. -0.7593763E-01  0.1057091E+01 -0.3931649E-02 -0.2296161E+00  0.9165809E-02  0.6441909E+00
1927281. -0.8564480E-01  0.6883032E+00 -0.1104566E-02 -0.2794630E+00  0.1513172E-02  0.7317975E+00
1856703. -0.9107368E-01  0.2886635E+00  0.2226253E-02 -0.3201474E+00 -0.6916680E-02  0.7839409E+00
1786125. -0.9201472E-01 -0.1179662E+00  0.5946443E-02 -0.3494256E+00 -0.1571625E-01  0.7983588E+00
1715547. -0.8851974E-01 -0.5084905E+00  0.9919577E-02 -0.3655744E+00 -0.2446563E-01  0.7750717E+00
1644969. -0.8088601E-01 -0.8619107E+00  0.1399338E-01 -0.3674634E+00 -0.3275749E-01  0.7163057E+00
1574391. -0.6962632E-01 -0.1160477E+01  0.1800653E-01 -0.3545951E+00 -0.4022053E-01  0.6262959E+00
1503812. -0.5542752E-01 -0.1390617E+01  0.2179581E-01 -0.3271115E+00 -0.4654019E-01  0.5109807E+00
1433234. -0.3910122E-01 -0.1543580E+01  0.2520279E-01 -0.2857567E+00 -0.5147523E-01  0.3776373E+00
1362656. -0.2152653E-01 -0.1615863E+01  0.2808047E-01 -0.2318041E+00 -0.5487075E-01  0.2344588E+00
1292078. -0.3591703E-02 -0.1609362E+01  0.3029827E-01 -0.1669249E+00 -0.5666573E-01  0.9015244E-01
1221500.  0.1386581E-01 -0.1531355E+01  0.3174556E-01 -0.9302751E-01 -0.5689676E-01 -0.4641495E-01
1221500.  0.1386581E-01 -0.7549247E+00  0.4404704E-01  0.1574168E+00 -0.5689676E-01 -0.5242168E-01
1183328.  0.1836892E-01 -0.7620535E+00  0.4229639E-01  0.4182660E+00 -0.5635057E-01 -0.1291227E+00
1145156.  0.2315514E-01 -0.8476322E+00  0.3917490E-01  0.6093849E+00 -0.5535959E-01 -0.2007598E+00
1106984.  0.2864755E-01 -0.9935862E+00  0.3518932E-01  0.7032592E+00 -0.5395650E-01 -0.2665702E+00
1068812.  0.3512032E-01 -0.1168777E+01  0.3096832E-01  0.6872472E+00 -0.5217824E-01 -0.3258926E+00
1030641.  0.4263091E-01 -0.1332850E+01  0.2716617E-01  0.5655992E+00 -0.5006544E-01 -0.3781736E+00
 992469.  0.5098121E-01 -0.1441644E+01  0.2436169E-01  0.3588407E+00 -0.4766155E-01 -0.4229839E+00
 954297.  0.5971179E-01 -0.1453366E+01  0.2296931E-01  0.1007130E+00 -0.4501235E-01 -0.4600163E+00
 916125.  0.6813616E-01 -0.1334947E+01  0.2317393E-01 -0.1669042E+00 -0.4216504E-01 -0.4890940E+00
 877953.  0.7540950E-01 -0.1067392E+01  0.2490060E-01 -0.4002618E+00 -0.3916749E-01 -0.5101742E+00
 839781.  0.8062555E-01 -0.6496596E+00  0.2782308E-01 -0.5602704E+00 -0.3606741E-01 -0.5233436E+00
 801609.  0.8293018E-01 -0.1002651E+00  0.3140969E-01 -0.6183063E+00 -0.3291162E-01 -0.5288146E+00
 763438.  0.8163743E-01  0.5435407E+00  0.3499958E-01 -0.5604527E+00 -0.2974540E-01 -0.5269198E+00
 725266.  0.7633264E-01  0.1229162E+01  0.3789865E-01 -0.3895680E+00 -0.2661144E-01 -0.5181006E+00
 687094.  0.6694949E-01  0.1893999E+01  0.3947956E-01 -0.1249106E+00 -0.2354974E-01 -0.5028956E+00
 648922.  0.5380931E-01  0.2472499E+01  0.3927328E-01  0.2006030E+00 -0.2059672E-01 -0.4819320E+00
 610750.  0.3761606E-01  0.2903773E+01  0.3703756E-01  0.5451008E+00 -0.1778484E-01 -0.4559066E+00
 572578.  0.1940578E-01  0.3139015E+01  0.3279322E-01  0.8636969E+00 -0.1514218E-01 -0.4255760E+00
 534406.  0.4547612E-03  0.3147745E+01  0.2682316E-01  0.1114824E+01 -0.1269214E-01 -0.3917421E+00
 496234. -0.1784427E-01  0.2922090E+01  0.1963463E-01  0.1266047E+01 -0.1045325E-01 -0.3552386E+00
 458062. -0.3412421E-01  0.2478535E+01  0.1189025E-01  0.1298530E+01 -0.8438932E-02 -0.3169185E+00
 419891. -0.4718752E-01  0.1856899E+01  0.4318124E-02  0.1209550E+01 -0.6657552E-02 -0.2776429E+00
 381719. -0.5613709E-01  0.1116460E+01 -0.2387256E-02  0.1012688E+01 -0.5112175E-02 -0.2382653E+00
 343547. -0.6047374E-01  0.3299281E+00 -0.7656377E-02  0.7357526E+00 -0.3800934E-02 -0.1996251E+00
 305375. -0.6015510E-01 -0.4244356E+00 -0.1111938E-01  0.4166932E+00 -0.2716963E-02 -0.1625331E+00
 267203. -0.5560297E-01 -0.1071398E+01 -0.1265074E-01  0.9813981E-01 -0.1848659E-02 -0.1277590E+00
 229031. -0.4765966E-01 -0.1547146E+01 -0.1237920E-01 -0.1786852E+00 -0.1179955E-02 -0.9602013E-01
 190859. -0.3749725E-01 -0.1806473E+01 -0.1066164E-01 -0.3797495E+00 -0.6906717E-03 -0.6797028E-01
 152688. -0.2648959E-01 -0.1827989E+01 -0.8025129E-02 -0.4829637E+00 -0.3569444E-03 -0.4418699E-01
 114516. -0.1605950E-01 -0.1616615E+01 -0.5085075E-02 -0.4811787E+00 -0.1516829E-03 -0.2515872E-01
  76344. -0.7522730E-02 -0.1203149E+01 -0.2452648E-02 -0.3829820E+00 -0.4517666E-04 -0.1127888E-01
  38172. -0.1940269E-02 -0.6409499E+00 -0.6432400E-03 -0.2113111E+00 -0.5664692E-05 -0.2834322E-02
      0.  0.0000000E+00  0.0000000E+00  0.0000000E+00  0.0000000E+00  0.0000000E+00  0.0000000E+00
