       0       27 S       26        281.91489          5.16341          3.62127        195.04280      185    7
6371000.  0.2277523E+00 -0.1868775E+01 -0.5681783E-02 -0.2334340E+00 -0.7137851E-02 -0.2296277E+00
6370000.  0.2280430E+00 -0.1836235E+01 -0.5645123E-02 -0.2336982E+00 -0.7101936E-02 -0.2280005E+00
6369000.  0.2283287E+00 -0.1803649E+01 -0.5608421E-02 -0.2339530E+00 -0.7066276E-02 -0.2263750E+00
6368000.  0.2286092E+00 -0.1771018E+01 -0.5571680E-02 -0.2341986E+00 -0.7030872E-02 -0.2247511E+00
6368000.  0.2286092E+00 -0.1771018E+01 -0.5571680E-02 -0.2341986E+00 -0.7030872E-02 -0.2247511E+00
6367000.  0.2288847E+00 -0.1738343E+01 -0.5534902E-02 -0.2344348E+00 -0.6995722E-02 -0.2231289E+00
6366000.  0.2291549E+00 -0.1705624E+01 -0.5498087E-02 -0.2346616E+00 -0.6960826E-02 -0.2215082E+00
6365000.  0.2294201E+00 -0.1672864E+01 -0.5461236E-02 -0.2348792E+00 -0.6926185E-02 -0.2198891E+00
6364000.  0.2296801E+00 -0.1640062E+01 -0.5424353E-02 -0.2350873E+00 -0.6891798E-02 -0.2182715E+00
6363000.  0.2299349E+00 -0.1607221E+01 -0.5387438E-02 -0.2352861E+00 -0.6857665E-02 -0.2166555E+00
6362000.  0.2301846E+00 -0.1574340E+01 -0.5350491E-02 -0.2354756E+00 -0.6823785E-02 -0.2150409E+00
6361000.  0.2304292E+00 -0.1541422E+01 -0.5313517E-02 -0.2356556E+00 -0.6790158E-02 -0.2134277E+00
6360000.  0.2306685E+00 -0.1508468E+01 -0.5276514E-02 -0.2358263E+00 -0.6756785E-02 -0.2118160E+00
6359000.  0.2309027E+00 -0.1475477E+01 -0.5239486E-02 -0.2359875E+00 -0.6723665E-02 -0.2102057E+00
6358000.  0.2311317E+00 -0.1442452E+01 -0.5202433E-02 -0.2361393E+00 -0.6690797E-02 -0.2085968E+00
6357000.  0.2313555E+00 -0.1409394E+01 -0.5165357E-02 -0.2362818E+00 -0.6658182E-02 -0.2069892E+00
6356000.  0.2315741E+00 -0.1376303E+01 -0.5128260E-02 -0.2364148E+00 -0.6625818E-02 -0.2053829E+00
6356000.  0.2315741E+00 -0.1279438E+01 -0.5128260E-02 -0.2367502E+00 -0.6625818E-02 -0.2557707E+00
6355000.  0.2317730E+00 -0.1253980E+01 -0.5091129E-02 -0.2363687E+00 -0.6585807E-02 -0.2540497E+00
6354000.  0.2319678E+00 -0.1228540E+01 -0.5054059E-02 -0.2359840E+00 -0.6546066E-02 -0.2523332E+00
6353000.  0.2321586E+00 -0.1203117E+01 -0.5017048E-02 -0.2355961E+00 -0.6506594E-02 -0.2506211E+00
6352000.  0.2323455E+00 -0.1177712E+01 -0.4980100E-02 -0.2352050E+00 -0.6467390E-02 -0.2489135E+00
6351000.  0.2325283E+00 -0.1152325E+01 -0.4943212E-02 -0.2348107E+00 -0.6428454E-02 -0.2472102E+00
6350000.  0.2327072E+00 -0.1126957E+01 -0.4906388E-02 -0.2344132E+00 -0.6389785E-02 -0.2455114E+00
6349000.  0.2328821E+00 -0.1101608E+01 -0.4869625E-02 -0.2340126E+00 -0.6351382E-02 -0.2438169E+00
6348000.  0.2330530E+00 -0.1076278E+01 -0.4832926E-02 -0.2336088E+00 -0.6313245E-02 -0.2421267E+00
6347000.  0.2332200E+00 -0.1050968E+01 -0.4796290E-02 -0.2332018E+00 -0.6275373E-02 -0.2404408E+00
6346600.  0.2332857E+00 -0.1040850E+01 -0.4781654E-02 -0.2330382E+00 -0.6260298E-02 -0.2397677E+00
6346600.  0.2332857E+00 -0.1410953E+01 -0.4781654E-02 -0.2349693E+00 -0.6260298E-02 -0.3211110E+00
6318800.  0.2381344E+00 -0.8166802E+00 -0.3801005E-02 -0.2145872E+00 -0.4958316E-02 -0.2765063E+00
6291000.  0.2404597E+00 -0.2546277E+00 -0.2908403E-02 -0.1945766E+00 -0.3840277E-02 -0.2366747E+00
6291000.  0.2404597E+00 -0.2814679E+00 -0.2908403E-02 -0.1924629E+00 -0.3840277E-02 -0.2366747E+00
6263000.  0.2404910E+00  0.2610849E+00 -0.2106617E-02 -0.1723682E+00 -0.2880172E-02 -0.2008354E+00
6235000.  0.2382208E+00  0.7653428E+00 -0.1393786E-02 -0.1519540E+00 -0.2070233E-02 -0.1682296E+00
6207000.  0.2338253E+00  0.1227582E+01 -0.7716656E-03 -0.1310641E+00 -0.1397652E-02 -0.1382256E+00
6179000.  0.2274980E+00  0.1643771E+01 -0.2426535E-03 -0.1095618E+00 -0.8523196E-03 -0.1102257E+00
6151000.  0.2194506E+00  0.2009563E+01  0.1902933E-03 -0.8732910E-01 -0.4266852E-03 -0.8366068E-01
6151000.  0.2194506E+00  0.1594049E+01  0.1902933E-03 -0.1046450E+00 -0.4266852E-03 -0.9580190E-01
6128500.  0.2134395E+00  0.1805311E+01  0.5347556E-03 -0.9047589E-01 -0.1142253E-03 -0.8136272E-01
6106000.  0.2067338E+00  0.1987438E+01  0.8296851E-03 -0.7659250E-01  0.1494142E-03 -0.6812426E-01
6083500.  0.1994359E+00  0.2140714E+01  0.1076071E-02 -0.6298252E-01  0.3681581E-03 -0.5590919E-01
6061000.  0.1916473E+00  0.2265418E+01  0.1274848E-02 -0.4962720E-01  0.5453239E-03 -0.4455043E-01
6038500.  0.1834683E+00  0.2361820E+01  0.1426869E-02 -0.3649867E-01  0.6836403E-03 -0.3388035E-01
6016000.  0.1749986E+00  0.2430133E+01  0.1532873E-02 -0.2356076E-01  0.7852454E-03 -0.2373344E-01
5993500.  0.1663369E+00  0.2470492E+01  0.1593460E-02 -0.1077008E-01  0.8517025E-03 -0.1394812E-01
5971000.  0.1575820E+00  0.2482960E+01  0.1609057E-02  0.1927474E-02  0.8839918E-03 -0.4355568E-02
5971000.  0.1575820E+00  0.2276948E+01  0.1609057E-02 -0.1661901E-01  0.8839918E-03 -0.2498439E-01
5937667.  0.1457380E+00  0.2245227E+01  0.1671403E-02 -0.7448103E-02  0.9911339E-03 -0.1621918E-01
5904333.  0.1341377E+00  0.2184587E+01  0.1689342E-02  0.3758165E-03  0.1056095E-02 -0.8822054E-02
5871000.  0.1229188E+00  0.2100420E+01  0.1669600E-02  0.6978602E-02  0.1085454E-02 -0.2575045E-02
5837667.  0.1121914E+00  0.1997455E+01  0.1618196E-02  0.1250374E-01  0.1084684E-02  0.2729189E-02
5804333.  0.1020426E+00  0.1879739E+01  0.1540367E-02  0.1710550E-01  0.1058187E-02  0.7291807E-02
5771000.  0.9254113E-01  0.1750615E+01  0.1440538E-02  0.2094094E-01  0.1009340E-02  0.1130452E-01
5771000.  0.9254113E-01  0.1750685E+01  0.1440538E-02  0.2093698E-01  0.1009340E-02  0.1130452E-01
5701000.  0.7453422E-01  0.1509471E+01  0.1121784E-02  0.3718035E-01  0.8132602E-03  0.2466083E-01
5701000.  0.7453422E-01  0.1283045E+01  0.1121784E-02  0.1202070E-01  0.8132602E-03  0.3652315E-02
5667333.  0.6817520E-01  0.1141577E+01  0.1076048E-02  0.6734586E-02  0.7845458E-03  0.6754613E-02
5633667.  0.6232422E-01  0.1077806E+01  0.1037619E-02  0.8294712E-02  0.7453113E-03  0.7949474E-02
5600000.  0.5679965E-01  0.1011999E+01  0.9902170E-03  0.9468332E-02  0.7010952E-03  0.8727051E-02
5600000.  0.5679965E-01  0.1011999E+01  0.9902170E-03  0.9468332E-02  0.7010952E-03  0.8727051E-02
5563518.  0.5121011E-01  0.9403147E+00  0.9334470E-03  0.1029276E-01  0.6497380E-03  0.9148860E-02
5527037.  0.4602952E-01  0.8693836E+00  0.8730321E-03  0.1075498E-01  0.5969324E-03  0.9248876E-02
5490556.  0.4125075E-01  0.8000903E+00  0.8108348E-03  0.1092559E-01  0.5442754E-03  0.9108636E-02
5454074.  0.3686234E-01  0.7331077E+00  0.7483583E-03  0.1086161E-01  0.4929557E-03  0.8791520E-02
5417593.  0.3284947E-01  0.6690370E+00  0.6867791E-03  0.1062119E-01  0.4438170E-03  0.8355536E-02
5381111.  0.2919419E-01  0.6082165E+00  0.6269805E-03  0.1024511E-01  0.3974166E-03  0.7840288E-02
5344630.  0.2587733E-01  0.5509117E+00  0.5696379E-03  0.9770077E-02  0.3541166E-03  0.7278317E-02
5308148.  0.2287800E-01  0.4972903E+00  0.5152150E-03  0.9229109E-02  0.3140977E-03  0.6697379E-02
5271667.  0.2017518E-01  0.4473796E+00  0.4640297E-03  0.8643270E-02  0.2774231E-03  0.6113100E-02
5235185.  0.1774740E-01  0.4011985E+00  0.4162713E-03  0.8035252E-02  0.2440635E-03  0.5541651E-02
5198704.  0.1557356E-01  0.3586831E+00  0.3720172E-03  0.7421673E-02  0.2139130E-03  0.4993549E-02
5162222.  0.1363296E-01  0.3196971E+00  0.3312693E-03  0.6812112E-02  0.1868233E-03  0.4473274E-02
5125741.  0.1190578E-01  0.2841314E+00  0.2939703E-03  0.6219104E-02  0.1626172E-03  0.3987421E-02
5089259.  0.1037284E-01  0.2518074E+00  0.2600021E-03  0.5649166E-02  0.1410890E-03  0.3537776E-02
5052778.  0.9016200E-02  0.2225392E+00  0.2292220E-03  0.5106688E-02  0.1220316E-03  0.3124734E-02
5016296.  0.7818792E-02  0.1961448E+00  0.2014568E-03  0.4596403E-02  0.1052320E-03  0.2748983E-02
4979815.  0.6764814E-02  0.1724192E+00  0.1765187E-03  0.4119639E-02  0.9048118E-04  0.2408988E-02
4943333.  0.5839494E-02  0.1511664E+00  0.1542112E-03  0.3677592E-02  0.7757828E-04  0.2103210E-02
4906852.  0.5029265E-02  0.1321952E+00  0.1343338E-03  0.3270963E-02  0.6633184E-04  0.1830151E-02
4870370.  0.4321594E-02  0.1153069E+00  0.1166863E-03  0.2898399E-02  0.5656200E-04  0.1586954E-02
4833889.  0.3705104E-02  0.1003250E+00  0.1010762E-03  0.2559420E-02  0.4810403E-04  0.1371732E-02
4797407.  0.3169348E-02  0.8707340E-01  0.8731326E-04  0.2252707E-02  0.4080343E-04  0.1182172E-02
4760926.  0.2704942E-02  0.7538258E-01  0.7522046E-04  0.1975936E-02  0.3452186E-04  0.1015505E-02
4724444.  0.2303357E-02  0.6510296E-01  0.6462936E-04  0.1727831E-02  0.2913324E-04  0.8699022E-03
4687963.  0.1956955E-02  0.5608798E-01  0.5538217E-04  0.1506232E-02  0.2452367E-04  0.7430548E-03
4651482.  0.1658878E-02  0.4820286E-01  0.4733341E-04  0.1308944E-02  0.2059195E-04  0.6328416E-03
4615000.  0.1403000E-02  0.4132671E-01  0.4034860E-04  0.1134218E-02  0.1724761E-04  0.5375665E-03
4578518.  0.1183882E-02  0.3534506E-01  0.3430492E-04  0.9798849E-03  0.1441056E-04  0.4553660E-03
4542037.  0.9967068E-03  0.3015615E-01  0.2909127E-04  0.8440858E-03  0.1201064E-04  0.3846860E-03
4505556.  0.8371957E-03  0.2566733E-01  0.2460613E-04  0.7251186E-03  0.9985626E-05  0.3241781E-03
4469074.  0.7015874E-03  0.2179284E-01  0.2075856E-04  0.6210797E-03  0.8281401E-05  0.2724179E-03
4432593.  0.5865878E-03  0.1845861E-01  0.1746759E-04  0.5305112E-03  0.6851114E-05  0.2283478E-03
4396111.  0.4892949E-03  0.1559636E-01  0.1466010E-04  0.4519271E-03  0.5653572E-05  0.1909407E-03
4359630.  0.4071905E-03  0.1314512E-01  0.1227190E-04  0.3838767E-03  0.4653553E-05  0.1592284E-03
4323148.  0.3380711E-03  0.1105184E-01  0.1024590E-04  0.3252099E-03  0.3820580E-05  0.1324677E-03
4286667.  0.2800307E-03  0.9268547E-02  0.8531802E-05  0.2747647E-03  0.3128416E-05  0.1099396E-03
4250185.  0.2314150E-03  0.7753001E-02  0.7085512E-05  0.2315022E-03  0.2554644E-05  0.9101820E-04
4213704.  0.1908005E-03  0.6468545E-02  0.5868506E-05  0.1945501E-03  0.2080129E-05  0.7519442E-04
4177222.  0.1569579E-03  0.5382285E-02  0.4847066E-05  0.1630531E-03  0.1688507E-05  0.6198762E-04
4140741.  0.1288369E-03  0.4466022E-02  0.3992123E-05  0.1362969E-03  0.1365985E-05  0.5100488E-04
4104259.  0.1055350E-03  0.3694970E-02  0.3278305E-05  0.1136500E-03  0.1100766E-05  0.4191618E-04
4067778.  0.8628571E-04  0.3047402E-02  0.2683873E-05  0.9451542E-04  0.8829367E-06  0.3440932E-04
4031296.  0.7043522E-04  0.2504809E-02  0.2190100E-05  0.7841243E-04  0.7041277E-06  0.2824982E-04
3994815.  0.5743060E-04  0.2051021E-02  0.1780918E-05  0.6490295E-04  0.5572396E-06  0.2322781E-04
3958333.  0.4680390E-04  0.1672010E-02  0.1442629E-05  0.5358851E-04  0.4363043E-06  0.1915736E-04
3921852.  0.3816220E-04  0.1355962E-02  0.1163629E-05  0.4414680E-04  0.3362903E-06  0.1589996E-04
3885370.  0.3117471E-04  0.1092578E-02  0.9340458E-06  0.3627852E-04  0.2529022E-06  0.1333035E-04
3848889.  0.2556585E-04  0.8731752E-03  0.7456529E-06  0.2972240E-04  0.1825073E-06  0.1134811E-04
3812407.  0.2110499E-04  0.6904402E-03  0.5915815E-06  0.2425267E-04  0.1219662E-06  0.9876115E-05
3775926.  0.1760054E-04  0.5382419E-03  0.4662414E-06  0.1965444E-04  0.6855728E-07  0.8847903E-05
3739444.  0.1489213E-04  0.4116473E-03  0.3652041E-06  0.1573147E-04  0.1988279E-07  0.8215245E-05
3702963.  0.1284471E-04  0.3068511E-03  0.2851581E-06  0.1229012E-04 -0.2621086E-07  0.7941047E-05
3666482.  0.1134157E-04  0.2212121E-03  0.2239370E-06  0.9120198E-05 -0.7168046E-07  0.7992691E-05
3630000.  0.1027727E-04  0.1534785E-03  0.1806305E-06  0.5990373E-05 -0.1183222E-06  0.8345928E-05
3630000.  0.1027727E-04  0.1534785E-03  0.1806305E-06  0.5990373E-05 -0.1183222E-06  0.8345928E-05
3592500.  0.9532539E-05  0.1029524E-03  0.1553898E-06  0.2512635E-05 -0.1692167E-06  0.8992260E-05
3555000.  0.9021923E-05  0.7465798E-04  0.1523440E-06 -0.1628433E-05 -0.2246623E-06  0.9883775E-05
3517500.  0.8598005E-05  0.7490050E-04  0.1769235E-06 -0.6981704E-05 -0.2859206E-06  0.1095250E-04
3480000.  0.8062546E-05  0.1149640E-03  0.2384142E-06 -0.1432401E-04 -0.3537125E-06  0.1207785E-04
3480000.  0.8062546E-05  0.3607262E-03  0.3145303E-06  0.1417991E-04 -0.3537125E-06 -0.1377861E-04
3409422.  0.4880757E-05  0.2239330E-03  0.1897137E-06  0.8763951E-05 -0.2269000E-06 -0.9339924E-05
3338844.  0.2917083E-05  0.1372496E-03  0.1130069E-06  0.5349847E-05 -0.1421866E-06 -0.6141086E-05
3268266.  0.1720696E-05  0.8302963E-04  0.6645310E-07  0.3224465E-05 -0.8718412E-07 -0.3931835E-05
3197688.  0.1001339E-05  0.4956084E-04  0.3856086E-07  0.1918166E-05 -0.5236438E-07 -0.2457435E-05
3127109.  0.5746256E-06  0.2917813E-04  0.2206959E-07  0.1125752E-05 -0.3082753E-07 -0.1501798E-05
3056531.  0.3250192E-06  0.1693583E-04  0.1245214E-07  0.6515278E-06 -0.1779541E-07 -0.8983428E-06
2985953.  0.1810988E-06  0.9686563E-05  0.6922289E-08  0.3716475E-06 -0.1007383E-07 -0.5263111E-06
2915375.  0.9934544E-07  0.5456465E-05  0.3789209E-08  0.2088293E-06 -0.5592016E-08 -0.3020969E-06
2844797.  0.5361970E-07  0.3025317E-05  0.2041048E-08  0.1155170E-06 -0.3043195E-08 -0.1698946E-06
2774219.  0.2845361E-07  0.1649914E-05  0.1081063E-08  0.6286385E-07 -0.1622998E-08 -0.9360142E-07
2703641.  0.1483377E-07  0.8844379E-06  0.5626019E-09  0.3363061E-07 -0.8478425E-09 -0.5050346E-07
2633062.  0.7590961E-08  0.4656290E-06  0.2874288E-09  0.1767228E-07 -0.4335578E-09 -0.2667407E-07
2562484.  0.3809615E-08  0.2405519E-06  0.1440266E-09  0.9113821E-08 -0.2168701E-09 -0.1378266E-07
2491906.  0.1873117E-08  0.1218301E-06  0.7071217E-10  0.4608244E-08 -0.1060216E-09 -0.6961937E-08
2421328.  0.9013070E-09  0.6042563E-07  0.3397840E-10  0.2282134E-08 -0.5060561E-10 -0.3434826E-08
2350750.  0.4239284E-09  0.2931571E-07  0.1596006E-10  0.1105677E-08 -0.2355621E-10 -0.1653647E-08
2280172.  0.1946726E-09  0.1389268E-07  0.7317498E-11  0.5234846E-09 -0.1067693E-10 -0.7762057E-09
2209594.  0.8721292E-10  0.6417154E-08  0.3267863E-11  0.2420399E-09 -0.4697978E-11 -0.3553676E-09
2139016.  0.0000000E+00  0.0000000E+00  0.0000000E+00  0.0000000E+00  0.0000000E+00  0.0000000E+00
2068438.  0.0000000E+00  0.0000000E+00  0.0000000E+00  0.0000000E+00  0.0000000E+00  0.0000000E+00
1997859.  0.0000000E+00  0.0000000E+00  0.0000000E+00  0.0000000E+00  0.0000000E+00  0.0000000E+00
1927281.  0.0000000E+00  0.0000000E+00  0.0000000E+00  0.0000000E+00  0.0000000E+00  0.0000000E+00
1856703.  0.0000000E+00  0.0000000E+00  0.0000000E+00  0.0000000E+00  0.0000000E+00  0.0000000E+00
1786125.  0.0000000E+00  0.0000000E+00  0.0000000E+00  0.0000000E+00  0.0000000E+00  0.0000000E+00
1715547.  0.0000000E+00  0.0000000E+00  0.0000000E+00  0.0000000E+00  0.0000000E+00  0.0000000E+00
1644969.  0.0000000E+00  0.0000000E+00  0.0000000E+00  0.0000000E+00  0.0000000E+00  0.0000000E+00
1574391.  0.0000000E+00  0.0000000E+00  0.0000000E+00  0.0000000E+00  0.0000000E+00  0.0000000E+00
1503812.  0.0000000E+00  0.0000000E+00  0.0000000E+00  0.0000000E+00  0.0000000E+00  0.0000000E+00
1433234.  0.0000000E+00  0.0000000E+00  0.0000000E+00  0.0000000E+00  0.0000000E+00  0.0000000E+00
1362656.  0.0000000E+00  0.0000000E+00  0.0000000E+00  0.0000000E+00  0.0000000E+00  0.0000000E+00
1292078.  0.0000000E+00  0.0000000E+00  0.0000000E+00  0.0000000E+00  0.0000000E+00  0.0000000E+00
1221500.  0.0000000E+00  0.0000000E+00  0.0000000E+00  0.0000000E+00  0.0000000E+00  0.0000000E+00
1221500.  0.0000000E+00  0.0000000E+00  0.0000000E+00  0.0000000E+00  0.0000000E+00  0.0000000E+00
1183328.  0.0000000E+00  0.0000000E+00  0.0000000E+00  0.0000000E+00  0.0000000E+00  0.0000000E+00
1145156.  0.0000000E+00  0.0000000E+00  0.0000000E+00  0.0000000E+00  0.0000000E+00  0.0000000E+00
1106984.  0.0000000E+00  0.0000000E+00  0.0000000E+00  0.0000000E+00  0.0000000E+00  0.0000000E+00
1068812.  0.0000000E+00  0.0000000E+00  0.0000000E+00  0.0000000E+00  0.0000000E+00  0.0000000E+00
1030641.  0.0000000E+00  0.0000000E+00  0.0000000E+00  0.0000000E+00  0.0000000E+00  0.0000000E+00
 992469.  0.0000000E+00  0.0000000E+00  0.0000000E+00  0.0000000E+00  0.0000000E+00  0.0000000E+00
 954297.  0.0000000E+00  0.0000000E+00  0.0000000E+00  0.0000000E+00  0.0000000E+00  0.0000000E+00
 916125.  0.0000000E+00  0.0000000E+00  0.0000000E+00  0.0000000E+00  0.0000000E+00  0.0000000E+00
 877953.  0.0000000E+00  0.0000000E+00  0.0000000E+00  0.0000000E+00  0.0000000E+00  0.0000000E+00
 839781.  0.0000000E+00  0.0000000E+00  0.0000000E+00  0.0000000E+00  0.0000000E+00  0.0000000E+00
 801609.  0.0000000E+00  0.0000000E+00  0.0000000E+00  0.0000000E+00  0.0000000E+00  0.0000000E+00
 763438.  0.0000000E+00  0.0000000E+00  0.0000000E+00  0.0000000E+00  0.0000000E+00  0.0000000E+00
 725266.  0.0000000E+00  0.0000000E+00  0.0000000E+00  0.0000000E+00  0.0000000E+00  0.0000000E+00
 687094.  0.0000000E+00  0.0000000E+00  0.0000000E+00  0.0000000E+00  0.0000000E+00  0.0000000E+00
 648922.  0.0000000E+00  0.0000000E+00  0.0000000E+00  0.0000000E+00  0.0000000E+00  0.0000000E+00
 610750.  0.0000000E+00  0.0000000E+00  0.0000000E+00  0.0000000E+00  0.0000000E+00  0.0000000E+00
 572578.  0.0000000E+00  0.0000000E+00  0.0000000E+00  0.0000000E+00  0.0000000E+00  0.0000000E+00
 534406.  0.0000000E+00  0.0000000E+00  0.0000000E+00  0.0000000E+00  0.0000000E+00  0.0000000E+00
 496234.  0.0000000E+00  0.0000000E+00  0.0000000E+00  0.0000000E+00  0.0000000E+00  0.0000000E+00
 458062.  0.0000000E+00  0.0000000E+00  0.0000000E+00  0.0000000E+00  0.0000000E+00  0.0000000E+00
 419891.  0.0000000E+00  0.0000000E+00  0.0000000E+00  0.0000000E+00  0.0000000E+00  0.0000000E+00
 381719.  0.0000000E+00  0.0000000E+00  0.0000000E+00  0.0000000E+00  0.0000000E+00  0.0000000E+00
 343547.  0.0000000E+00  0.0000000E+00  0.0000000E+00  0.0000000E+00  0.0000000E+00  0.0000000E+00
 305375.  0.0000000E+00  0.0000000E+00  0.0000000E+00  0.0000000E+00  0.0000000E+00  0.0000000E+00
 267203.  0.0000000E+00  0.0000000E+00  0.0000000E+00  0.0000000E+00  0.0000000E+00  0.0000000E+00
 229031.  0.0000000E+00  0.0000000E+00  0.0000000E+00  0.0000000E+00  0.0000000E+00  0.0000000E+00
 190859.  0.0000000E+00  0.0000000E+00  0.0000000E+00  0.0000000E+00  0.0000000E+00  0.0000000E+00
 152688.  0.0000000E+00  0.0000000E+00  0.0000000E+00  0.0000000E+00  0.0000000E+00  0.0000000E+00
 114516.  0.0000000E+00  0.0000000E+00  0.0000000E+00  0.0000000E+00  0.0000000E+00  0.0000000E+00
  76344.  0.0000000E+00  0.0000000E+00  0.0000000E+00  0.0000000E+00  0.0000000E+00  0.0000000E+00
  38172.  0.0000000E+00  0.0000000E+00  0.0000000E+00  0.0000000E+00  0.0000000E+00  0.0000000E+00
      0.  0.0000000E+00  0.0000000E+00  0.0000000E+00  0.0000000E+00  0.0000000E+00  0.0000000E+00
