       5       18 S      334        170.47980         12.69237          6.43217        288.64191      185    7
6371000. -0.4813356E-01  0.6052162E+00  0.4219614E-02  0.5235317E-01 -0.6078124E-03  0.1023171E+00
6370000. -0.4822749E-01  0.5915823E+00  0.4211157E-02  0.5541881E-01 -0.6238556E-03  0.1021041E+00
6369000. -0.4831926E-01  0.5778074E+00  0.4202218E-02  0.5847443E-01 -0.6398651E-03  0.1018886E+00
6368000. -0.4840887E-01  0.5638924E+00  0.4192801E-02  0.6151963E-01 -0.6558406E-03  0.1016706E+00
6368000. -0.4840887E-01  0.5638924E+00  0.4192801E-02  0.6151963E-01 -0.6558406E-03  0.1016706E+00
6367000. -0.4849627E-01  0.5498381E+00  0.4182906E-02  0.6455407E-01 -0.6717816E-03  0.1014501E+00
6366000. -0.4858146E-01  0.5356454E+00  0.4172536E-02  0.6757733E-01 -0.6876879E-03  0.1012272E+00
6365000. -0.4866442E-01  0.5213151E+00  0.4161692E-02  0.7058908E-01 -0.7035590E-03  0.1010018E+00
6364000. -0.4874511E-01  0.5068482E+00  0.4150377E-02  0.7358894E-01 -0.7193945E-03  0.1007739E+00
6363000. -0.4882352E-01  0.4922456E+00  0.4138592E-02  0.7657652E-01 -0.7351941E-03  0.1005436E+00
6362000. -0.4889963E-01  0.4775084E+00  0.4126339E-02  0.7955147E-01 -0.7509572E-03  0.1003108E+00
6361000. -0.4897342E-01  0.4626374E+00  0.4113620E-02  0.8251341E-01 -0.7666837E-03  0.1000756E+00
6360000. -0.4904485E-01  0.4476337E+00  0.4100437E-02  0.8546200E-01 -0.7823731E-03  0.9983797E-01
6359000. -0.4911393E-01  0.4324982E+00  0.4086792E-02  0.8839685E-01 -0.7980250E-03  0.9959791E-01
6358000. -0.4918062E-01  0.4172320E+00  0.4072688E-02  0.9131761E-01 -0.8136390E-03  0.9935543E-01
6357000. -0.4924490E-01  0.4018362E+00  0.4058126E-02  0.9422392E-01 -0.8292148E-03  0.9911054E-01
6356000. -0.4930676E-01  0.3863119E+00  0.4043110E-02  0.9711542E-01 -0.8447519E-03  0.9886325E-01
6356000. -0.4930676E-01  0.3821546E+00  0.4043110E-02  0.7981648E-01 -0.8447519E-03  0.1095918E+00
6355000. -0.4936586E-01  0.3709390E+00  0.4030442E-02  0.8159368E-01 -0.8619312E-03  0.1093071E+00
6354000. -0.4942320E-01  0.3596458E+00  0.4017496E-02  0.8336240E-01 -0.8790658E-03  0.1090208E+00
6353000. -0.4947876E-01  0.3482754E+00  0.4004273E-02  0.8512249E-01 -0.8961553E-03  0.1087329E+00
6352000. -0.4953253E-01  0.3368285E+00  0.3990775E-02  0.8687379E-01 -0.9131994E-03  0.1084436E+00
6351000. -0.4958449E-01  0.3253057E+00  0.3977002E-02  0.8861618E-01 -0.9301981E-03  0.1081528E+00
6350000. -0.4963464E-01  0.3137075E+00  0.3962956E-02  0.9034953E-01 -0.9471509E-03  0.1078604E+00
6349000. -0.4968297E-01  0.3020346E+00  0.3948640E-02  0.9207369E-01 -0.9640577E-03  0.1075666E+00
6348000. -0.4972946E-01  0.2902875E+00  0.3934053E-02  0.9378853E-01 -0.9809184E-03  0.1072712E+00
6347000. -0.4977409E-01  0.2784669E+00  0.3919198E-02  0.9549390E-01 -0.9977325E-03  0.1069744E+00
6346600. -0.4979143E-01  0.2737182E+00  0.3913181E-02  0.9617338E-01 -0.1004445E-02  0.1068553E+00
6346600. -0.4979143E-01  0.4396668E+00  0.3913181E-02  0.8244411E-01 -0.1004445E-02  0.1242168E+00
6318800. -0.5114533E-01  0.1736893E+00  0.3485620E-02  0.1125605E+00 -0.1528014E-02  0.1156551E+00
6291000. -0.5125102E-01 -0.1308425E+00  0.2940232E-02  0.1362437E+00 -0.2012882E-02  0.1064816E+00
6291000. -0.5125102E-01 -0.1242252E+00  0.2940232E-02  0.1392502E+00 -0.2012882E-02  0.1064816E+00
6263000. -0.4995830E-01 -0.4679233E+00  0.2287595E-02  0.1563158E+00 -0.2459586E-02  0.9669638E-01
6235000. -0.4711449E-01 -0.8276348E+00  0.1579305E-02  0.1644807E+00 -0.2861936E-02  0.8630325E-01
6207000. -0.4268252E-01 -0.1188007E+01  0.8553927E-03  0.1634086E+00 -0.3217346E-02  0.7534333E-01
6179000. -0.3669484E-01 -0.1532862E+01  0.1563229E-03  0.1532381E+00 -0.3523441E-02  0.6387211E-01
6151000. -0.2925551E-01 -0.1845944E+01 -0.4790836E-03  0.1345768E+00 -0.3778129E-02  0.5196328E-01
6151000. -0.2925551E-01 -0.1496212E+01 -0.4790836E-03  0.1217706E+00 -0.3778129E-02  0.5358186E-01
6128500. -0.2369319E-01 -0.1649120E+01 -0.8785790E-03  0.1039304E+00 -0.3955714E-02  0.4700827E-01
6106000. -0.1764305E-01 -0.1771892E+01 -0.1209759E-02  0.8319342E-01 -0.4110336E-02  0.4058356E-01
6083500. -0.1121724E-01 -0.1861430E+01 -0.1463597E-02  0.6024953E-01 -0.4242587E-02  0.3434595E-01
6061000. -0.4537340E-02 -0.1915498E+01 -0.1633576E-02  0.3582692E-01 -0.4353193E-02  0.2833079E-01
6038500.  0.2268821E-02 -0.1932792E+01 -0.1715790E-02  0.1067135E-01 -0.4442994E-02  0.2256970E-01
6016000.  0.9070417E-02 -0.1912925E+01 -0.1708962E-02 -0.1447597E-01 -0.4512941E-02  0.1709095E-01
5993500.  0.1573688E-01 -0.1856429E+01 -0.1614399E-02 -0.3889822E-01 -0.4564074E-02  0.1191925E-01
5971000.  0.2214114E-01 -0.1764745E+01 -0.1435865E-02 -0.6192145E-01 -0.4597517E-02  0.7076122E-02
5971000.  0.2214114E-01 -0.1614661E+01 -0.1435865E-02 -0.5787117E-01 -0.4597517E-02  0.4177660E-02
5937667.  0.3004674E-01 -0.1399518E+01 -0.1065197E-02 -0.8280112E-01 -0.4604603E-02 -0.1290545E-02
5904333.  0.3671615E-01 -0.1144306E+01 -0.5805194E-03 -0.1013821E+00 -0.4585833E-02 -0.5714979E-02
5871000.  0.4197495E-01 -0.8626297E+00 -0.1571685E-04 -0.1134421E+00 -0.4546502E-02 -0.9164214E-02
5837667.  0.4571965E-01 -0.5676548E+00  0.5955242E-03 -0.1191975E+00 -0.4491490E-02 -0.1172451E-01
5804333.  0.4791310E-01 -0.2715520E+00  0.1221469E-02 -0.1191610E+00 -0.4425199E-02 -0.1349126E-01
5771000.  0.4857815E-01  0.1490630E-01  0.1833591E-02 -0.1140540E+00 -0.4351525E-02 -0.1456482E-01
5771000.  0.4857815E-01  0.1493357E-01  0.1833591E-02 -0.1140520E+00 -0.4351525E-02 -0.1456482E-01
5701000.  0.4536679E-01  0.5578203E+00  0.2989321E-02 -0.9311852E-01 -0.4201340E-02 -0.1234610E-01
5701000.  0.4536679E-01  0.5085396E+00  0.2989321E-02 -0.8350682E-01 -0.4201340E-02 -0.2513336E-01
5667333.  0.4222342E-01  0.6791325E+00  0.3393756E-02 -0.7029034E-01 -0.4068848E-02 -0.2512996E-01
5633667.  0.3818325E-01  0.8492203E+00  0.3735832E-02 -0.5904962E-01 -0.3934824E-02 -0.2560233E-01
5600000.  0.3329479E-01  0.9960960E+00  0.4014491E-02 -0.4617107E-01 -0.3798697E-02 -0.2588707E-01
5600000.  0.3329479E-01  0.9960960E+00  0.4014491E-02 -0.4617107E-01 -0.3798697E-02 -0.2588707E-01
5563518.  0.2720573E-01  0.1125182E+01  0.4235860E-02 -0.3096775E-01 -0.3649917E-02 -0.2605318E-01
5527037.  0.2047439E-01  0.1220074E+01  0.4367607E-02 -0.1495703E-01 -0.3500570E-02 -0.2609159E-01
5490556.  0.1330255E-01  0.1278793E+01  0.4406602E-02  0.1343064E-02 -0.3351300E-02 -0.2603063E-01
5454074.  0.5900351E-02  0.1300408E+01  0.4352634E-02  0.1743058E-01 -0.3202599E-02 -0.2589468E-01
5417593. -0.1519509E-02  0.1285154E+01  0.4208281E-02  0.3283953E-01 -0.3054853E-02 -0.2570128E-01
5381111. -0.8749224E-02  0.1234196E+01  0.3978644E-02  0.4715019E-01 -0.2908339E-02 -0.2546501E-01
5344630. -0.1558961E-01  0.1149669E+01  0.3671102E-02  0.5999710E-01 -0.2763279E-02 -0.2519675E-01
5308148. -0.2185699E-01  0.1034549E+01  0.3294898E-02  0.7108369E-01 -0.2619821E-02 -0.2490485E-01
5271667. -0.2738593E-01  0.8924642E+00  0.2860845E-02  0.8017321E-01 -0.2478102E-02 -0.2459102E-01
5235185. -0.3203426E-01  0.7276737E+00  0.2380845E-02  0.8710716E-01 -0.2338228E-02 -0.2425971E-01
5198704. -0.3568493E-01  0.5448393E+00  0.1867554E-02  0.9179521E-01 -0.2200302E-02 -0.2391113E-01
5162222. -0.3824877E-01  0.3488825E+00  0.1333921E-02  0.9420867E-01 -0.2064436E-02 -0.2353875E-01
5125741. -0.3966509E-01  0.1449068E+00  0.7929005E-03  0.9439267E-01 -0.1930766E-02 -0.2314540E-01
5089259. -0.3990258E-01 -0.6202568E-01  0.2569754E-03  0.9244419E-01 -0.1799417E-02 -0.2272551E-01
5052778. -0.3895862E-01 -0.2669453E+00 -0.2620119E-03  0.8851081E-01 -0.1670568E-02 -0.2227344E-01
5016296. -0.3685817E-01 -0.4651897E+00 -0.7532649E-03  0.8278778E-01 -0.1544394E-02 -0.2178922E-01
4979815. -0.3365228E-01 -0.6523875E+00 -0.1207140E-02  0.7550034E-01 -0.1421102E-02 -0.2126723E-01
4943333. -0.2941538E-01 -0.8246550E+00 -0.1615419E-02  0.6690206E-01 -0.1300911E-02 -0.2070541E-01
4906852. -0.2424308E-01 -0.9786303E+00 -0.1971345E-02  0.5726466E-01 -0.1184050E-02 -0.2010469E-01
4870370. -0.1824829E-01 -0.1111454E+01 -0.2269777E-02  0.4686417E-01 -0.1070747E-02 -0.1946160E-01
4833889. -0.1155902E-01 -0.1220949E+01 -0.2507136E-02  0.3598265E-01 -0.9612442E-03 -0.1877901E-01
4797407. -0.4313222E-02 -0.1305546E+01 -0.2681464E-02  0.2489129E-01 -0.8557537E-03 -0.1805953E-01
4760926.  0.3342790E-02 -0.1364190E+01 -0.2792294E-02  0.1384797E-01 -0.7544865E-03 -0.1730555E-01
4724444.  0.1125974E-01 -0.1396607E+01 -0.2840612E-02  0.3094573E-02 -0.6576219E-03 -0.1652176E-01
4687963.  0.1928730E-01 -0.1402973E+01 -0.2828702E-02 -0.7154223E-02 -0.5653180E-03 -0.1571482E-01
4651482.  0.2727830E-01 -0.1384007E+01 -0.2760005E-02 -0.1671036E-01 -0.4776828E-03 -0.1489212E-01
4615000.  0.3509137E-01 -0.1340996E+01 -0.2638959E-02 -0.2541392E-01 -0.3947892E-03 -0.1405922E-01
4578518.  0.4259305E-01 -0.1275547E+01 -0.2470821E-02 -0.3313941E-01 -0.3166664E-03 -0.1322784E-01
4542037.  0.4966027E-01 -0.1189692E+01 -0.2261489E-02 -0.3979049E-01 -0.2432799E-03 -0.1240648E-01
4505556.  0.5618301E-01 -0.1085768E+01 -0.2017310E-02 -0.4530297E-01 -0.1745554E-03 -0.1160193E-01
4469074.  0.6206492E-01 -0.9662415E+00 -0.1744894E-02 -0.4964717E-01 -0.1103407E-03 -0.1083277E-01
4432593.  0.6722409E-01 -0.8338415E+00 -0.1450981E-02 -0.5281517E-01 -0.5042125E-04 -0.1010291E-01
4396111.  0.7159494E-01 -0.6913165E+00 -0.1142240E-02 -0.5482964E-01  0.5457440E-05 -0.9424266E-02
4359630.  0.7512715E-01 -0.5414242E+00 -0.8251618E-03 -0.5573917E-01  0.5764756E-04 -0.8816835E-02
4323148.  0.7778664E-01 -0.3869174E+00 -0.5058914E-03 -0.5560424E-01  0.1065696E-03 -0.8283498E-02
4286667.  0.7955445E-01 -0.2304304E+00 -0.1901950E-03 -0.5450943E-01  0.1526882E-03 -0.7841722E-02
4250185.  0.8042653E-01 -0.7444545E-01  0.1167218E-03 -0.5255098E-01  0.1965835E-03 -0.7507983E-02
4213704.  0.8041243E-01  0.7872164E-01  0.4101789E-03 -0.4982913E-01  0.2388909E-03 -0.7290106E-02
4177222.  0.7953434E-01  0.2269843E+00  0.6861458E-03 -0.4645870E-01  0.2803394E-03 -0.7211424E-02
4140741.  0.7782586E-01  0.3684896E+00  0.9412155E-03 -0.4255065E-01  0.3217749E-03 -0.7287358E-02
4104259.  0.7533020E-01  0.5016621E+00  0.1172630E-02 -0.3821331E-01  0.3641135E-03 -0.7531186E-02
4067778.  0.7209925E-01  0.6251333E+00  0.1378254E-02 -0.3356256E-01  0.4084189E-03 -0.7979192E-02
4031296.  0.6819147E-01  0.7378803E+00  0.1556583E-02 -0.2869350E-01  0.4559103E-03 -0.8646332E-02
3994815.  0.6367090E-01  0.8390855E+00  0.1706622E-02 -0.2369836E-01  0.5079152E-03 -0.9563392E-02
3958333.  0.5860525E-01  0.9281450E+00  0.1827915E-02 -0.1866458E-01  0.5660013E-03 -0.1077604E-01
3921852.  0.5306530E-01  0.1004760E+01  0.1920420E-02 -0.1365385E-01  0.6319504E-03 -0.1231729E-01
3885370.  0.4712258E-01  0.1068746E+01  0.1984435E-02 -0.8721220E-02  0.7077992E-03 -0.1424374E-01
3848889.  0.4084992E-01  0.1120079E+01  0.2020526E-02 -0.3905370E-02  0.7959331E-03 -0.1661966E-01
3812407.  0.3431897E-01  0.1158916E+01  0.2029408E-02  0.7809656E-03  0.8991259E-03 -0.1951657E-01
3775926.  0.2760138E-01  0.1185359E+01  0.2011837E-02  0.5335733E-02  0.1020625E-02 -0.2303221E-01
3739444.  0.2076721E-01  0.1199604E+01  0.1968504E-02  0.9785399E-02  0.1164292E-02 -0.2727819E-01
3702963.  0.1388622E-01  0.1201773E+01  0.1899875E-02  0.1418195E-01  0.1334677E-02 -0.3239144E-01
3666482.  0.7027686E-02  0.1191733E+01  0.1806055E-02  0.1859910E-01  0.1537231E-02 -0.3854557E-01
3630000.  0.2618912E-03  0.1169247E+01  0.1686620E-02  0.2314926E-01  0.1778496E-02 -0.4594844E-01
3630000.  0.2618912E-03  0.1169247E+01  0.1686620E-02  0.2314926E-01  0.1778496E-02 -0.4594844E-01
3592500. -0.6518899E-02  0.1132385E+01  0.1535929E-02  0.2811843E-01  0.2075116E-02 -0.5513088E-01
3555000. -0.1303871E-01  0.1080300E+01  0.1354626E-02  0.3359067E-01  0.2431300E-02 -0.6625166E-01
3517500. -0.1920242E-01  0.1010960E+01  0.1138984E-02  0.3983687E-01  0.2859681E-02 -0.7974270E-01
3480000. -0.2489971E-01  0.9211832E+00  0.8834734E-03  0.4720249E-01  0.3375729E-02 -0.9613881E-01
3480000. -0.2489971E-01 -0.3122630E+00 -0.2329320E-02 -0.4128009E-01  0.3375729E-02 -0.1628581E-01
3409422. -0.2139958E-01 -0.3160000E+00 -0.1898597E-02 -0.3641792E-01  0.3358897E-02  0.1620539E-01
3338844. -0.1796569E-01 -0.3014798E+00 -0.1523141E-02 -0.3136328E-01  0.3073712E-02  0.3319115E-01
3268266. -0.1476330E-01 -0.2751895E+00 -0.1203257E-02 -0.2642837E-01  0.2660919E-02  0.3999827E-01
3197688. -0.1189235E-01 -0.2424228E+00 -0.9363516E-03 -0.2182701E-01  0.2210709E-02  0.4048503E-01
3127109. -0.9400901E-02 -0.2072455E+00 -0.7179303E-03 -0.1769038E-01  0.1777141E-02  0.3736435E-01
3056531. -0.7298584E-02 -0.1725745E+00 -0.5424386E-03 -0.1408327E-01  0.1389305E-02  0.3247613E-01
2985953. -0.5568265E-02 -0.1403336E+00 -0.4038887E-03 -0.1101998E-01  0.1059672E-02  0.2701101E-01
2915375. -0.4176168E-02 -0.1116420E+00 -0.2963465E-03 -0.8479459E-02  0.7902748E-03  0.2169044E-01
2844797. -0.3079708E-02 -0.8700210E-01 -0.2142474E-03 -0.6417912E-02  0.5770833E-03  0.1690828E-01
2774219. -0.2233326E-02 -0.6647473E-01 -0.1525904E-03 -0.4778862E-02  0.4130054E-03  0.1283897E-01
2703641. -0.1592544E-02 -0.4982712E-01 -0.1070339E-03 -0.3500818E-02  0.2898508E-03  0.9517701E-02
2633062. -0.1116512E-02 -0.3665312E-01 -0.7391825E-04 -0.2522838E-02  0.1995337E-03  0.6898162E-02
2562484. -0.7694237E-03 -0.2646467E-01 -0.5023967E-04 -0.1788166E-02  0.1347450E-03  0.4892516E-02
2491906. -0.5210092E-03 -0.1875542E-01 -0.3358884E-04 -0.1246219E-02  0.8924992E-04  0.3397414E-02
2421328. -0.3465057E-03 -0.1304442E-01 -0.2207772E-04 -0.8536495E-03  0.5796652E-04  0.2310306E-02
2350750. -0.2262165E-03 -0.8900857E-02 -0.1425757E-04 -0.5744529E-03  0.3690049E-04  0.1538420E-02
2280172. -0.1448794E-03 -0.5956098E-02 -0.9039641E-05 -0.3795455E-03  0.2301032E-04  0.1002893E-02
2209594. -0.9095565E-04 -0.3906367E-02 -0.5622267E-05 -0.2460411E-03  0.1404554E-04  0.6397556E-03
2139016. -0.5592625E-04 -0.2509376E-02 -0.3427050E-05 -0.1563641E-03  0.8385105E-05  0.3991020E-03
2068438. -0.3364591E-04 -0.1577542E-02 -0.2045135E-05 -0.9733115E-04  0.4890996E-05  0.2432867E-03
1997859. -0.1978261E-04 -0.9696029E-03 -0.1193433E-05 -0.5927782E-04  0.2784187E-05  0.1447751E-03
1927281. -0.1135317E-04 -0.5819954E-03 -0.6801087E-06 -0.3528107E-04  0.1544688E-05  0.8400733E-04
1856703. -0.6350326E-05 -0.3407140E-03 -0.3779277E-06 -0.2049301E-04  0.8339921E-06  0.4746791E-04
1786125. -0.3456210E-05 -0.1942478E-03 -0.2044355E-06 -0.1159875E-04  0.4374313E-06  0.2607745E-04
1715547. -0.1826882E-05 -0.1076654E-03 -0.1074469E-06 -0.6385420E-05  0.2224480E-06  0.1390372E-04
1644969. -0.9358050E-06 -0.5790455E-04 -0.5475122E-07 -0.3412364E-05  0.1094316E-06  0.7179526E-05
1574391. -0.4633413E-06 -0.3015514E-04 -0.2698646E-07 -0.1765807E-05  0.5194535E-07  0.3581932E-05
1503812. -0.2209518E-06 -0.1518080E-04 -0.1283945E-07 -0.8817099E-06  0.2372460E-07  0.1721730E-05
1433234. -0.1006904E-06 -0.7405513E-05 -0.5903083E-08 -0.4213670E-06  0.1039518E-07  0.7945833E-06
1362656. -0.4237791E-07 -0.3605821E-05 -0.2683959E-08 -0.1855981E-06  0.4360994E-08  0.3504317E-06
1292078. -0.1245056E-07 -0.2106596E-05 -0.1408216E-08 -0.5445594E-07  0.1756340E-08  0.1469533E-06
1221500.  0.1114915E-07 -0.2524375E-05 -0.1430863E-08  0.6560334E-07  0.6801474E-09  0.6083579E-07
1221500.  0.1114915E-07 -0.8508167E-07 -0.7921434E-10 -0.5856397E-07  0.6801474E-09  0.5600593E-07
1183328.  0.1047142E-07  0.2577829E-06  0.1467624E-09 -0.2096562E-07  0.4104801E-09  0.3539742E-07
1145156.  0.8532407E-08  0.3616349E-06  0.2098518E-09 -0.2465882E-08  0.2419588E-09  0.2182980E-07
1106984.  0.6369774E-08  0.3477063E-06  0.1975924E-09  0.5270906E-08  0.1392020E-09  0.1313312E-07
1068812.  0.4458856E-08  0.2861075E-06  0.1577752E-09  0.7385522E-08  0.7809008E-10  0.7703314E-08
1030641.  0.2960453E-08  0.2142898E-06  0.1141991E-09  0.6896812E-08  0.4266680E-10  0.4401636E-08
 992469.  0.1875594E-08  0.1498327E-06  0.7695777E-10  0.5465133E-08  0.2267246E-10  0.2447205E-08
 954297.  0.1137392E-08  0.9900256E-07  0.4890346E-10  0.3920086E-08  0.1169773E-10  0.1321994E-08
 916125.  0.6610441E-09  0.6220474E-07  0.2949214E-10  0.2612050E-08  0.5848586E-11  0.6927099E-09
 877953.  0.3682336E-09  0.3727702E-07  0.1693041E-10  0.1636636E-08  0.2827212E-11  0.3513558E-09
 839781.  0.1964328E-09  0.2132727E-07  0.9260530E-11  0.9699654E-09  0.1317887E-11  0.1720991E-09
 801609.  0.1001866E-09  0.1164482E-07  0.4823876E-11  0.5451021E-09  0.5905692E-12  0.8117705E-10
 763438.  0.4875217E-10  0.6058655E-08  0.2389230E-11  0.2905165E-09  0.2535045E-12  0.3674621E-10
 725266.  0.2257700E-10  0.2998326E-08  0.1123179E-11  0.1463219E-09  0.1039150E-12  0.1585717E-10
 687094.  0.0000000E+00  0.0000000E+00  0.0000000E+00  0.0000000E+00  0.0000000E+00  0.0000000E+00
 648922.  0.0000000E+00  0.0000000E+00  0.0000000E+00  0.0000000E+00  0.0000000E+00  0.0000000E+00
 610750.  0.0000000E+00  0.0000000E+00  0.0000000E+00  0.0000000E+00  0.0000000E+00  0.0000000E+00
 572578.  0.0000000E+00  0.0000000E+00  0.0000000E+00  0.0000000E+00  0.0000000E+00  0.0000000E+00
 534406.  0.0000000E+00  0.0000000E+00  0.0000000E+00  0.0000000E+00  0.0000000E+00  0.0000000E+00
 496234.  0.0000000E+00  0.0000000E+00  0.0000000E+00  0.0000000E+00  0.0000000E+00  0.0000000E+00
 458062.  0.0000000E+00  0.0000000E+00  0.0000000E+00  0.0000000E+00  0.0000000E+00  0.0000000E+00
 419891.  0.0000000E+00  0.0000000E+00  0.0000000E+00  0.0000000E+00  0.0000000E+00  0.0000000E+00
 381719.  0.0000000E+00  0.0000000E+00  0.0000000E+00  0.0000000E+00  0.0000000E+00  0.0000000E+00
 343547.  0.0000000E+00  0.0000000E+00  0.0000000E+00  0.0000000E+00  0.0000000E+00  0.0000000E+00
 305375.  0.0000000E+00  0.0000000E+00  0.0000000E+00  0.0000000E+00  0.0000000E+00  0.0000000E+00
 267203.  0.0000000E+00  0.0000000E+00  0.0000000E+00  0.0000000E+00  0.0000000E+00  0.0000000E+00
 229031.  0.0000000E+00  0.0000000E+00  0.0000000E+00  0.0000000E+00  0.0000000E+00  0.0000000E+00
 190859.  0.0000000E+00  0.0000000E+00  0.0000000E+00  0.0000000E+00  0.0000000E+00  0.0000000E+00
 152688.  0.0000000E+00  0.0000000E+00  0.0000000E+00  0.0000000E+00  0.0000000E+00  0.0000000E+00
 114516.  0.0000000E+00  0.0000000E+00  0.0000000E+00  0.0000000E+00  0.0000000E+00  0.0000000E+00
  76344.  0.0000000E+00  0.0000000E+00  0.0000000E+00  0.0000000E+00  0.0000000E+00  0.0000000E+00
  38172.  0.0000000E+00  0.0000000E+00  0.0000000E+00  0.0000000E+00  0.0000000E+00  0.0000000E+00
      0.  0.0000000E+00  0.0000000E+00  0.0000000E+00  0.0000000E+00  0.0000000E+00  0.0000000E+00
