       3        4 S      224        545.46033         16.30842         16.25587         89.98374      185    7
6371000. -0.3558499E-02  0.2183435E-01  0.2417816E-02  0.5976315E-02 -0.1135616E-03  0.7278305E-02
6370000. -0.3561918E-02  0.2173422E-01  0.2416864E-02  0.6161773E-02 -0.1147035E-03  0.7270976E-02
6369000. -0.3565322E-02  0.2163357E-01  0.2415882E-02  0.6347177E-02 -0.1158442E-03  0.7263620E-02
6368000. -0.3568709E-02  0.2153241E-01  0.2414871E-02  0.6532524E-02 -0.1169837E-03  0.7256237E-02
6368000. -0.3568709E-02  0.2153241E-01  0.2414871E-02  0.6532524E-02 -0.1169837E-03  0.7256237E-02
6367000. -0.3572081E-02  0.2143072E-01  0.2413831E-02  0.6717812E-02 -0.1181220E-03  0.7248828E-02
6366000. -0.3575437E-02  0.2132851E-01  0.2412762E-02  0.6903039E-02 -0.1192592E-03  0.7241392E-02
6365000. -0.3578777E-02  0.2122579E-01  0.2411664E-02  0.7088202E-02 -0.1203953E-03  0.7233928E-02
6364000. -0.3582100E-02  0.2112255E-01  0.2410537E-02  0.7273299E-02 -0.1215301E-03  0.7226439E-02
6363000. -0.3585408E-02  0.2101879E-01  0.2409381E-02  0.7458328E-02 -0.1226638E-03  0.7218922E-02
6362000. -0.3588698E-02  0.2091452E-01  0.2408196E-02  0.7643286E-02 -0.1237963E-03  0.7211379E-02
6361000. -0.3591973E-02  0.2080972E-01  0.2406981E-02  0.7828172E-02 -0.1249276E-03  0.7203809E-02
6360000. -0.3595231E-02  0.2070442E-01  0.2405738E-02  0.8012981E-02 -0.1260578E-03  0.7196213E-02
6359000. -0.3598473E-02  0.2059859E-01  0.2404466E-02  0.8197715E-02 -0.1271867E-03  0.7188590E-02
6358000. -0.3601697E-02  0.2049225E-01  0.2403165E-02  0.8382367E-02 -0.1283144E-03  0.7180940E-02
6357000. -0.3604905E-02  0.2038540E-01  0.2401835E-02  0.8566938E-02 -0.1294409E-03  0.7173263E-02
6356000. -0.3608097E-02  0.2027802E-01  0.2400476E-02  0.8751425E-02 -0.1305663E-03  0.7165560E-02
6356000. -0.3608097E-02  0.1808932E-01  0.2400476E-02  0.7669767E-02 -0.1305663E-03  0.7950640E-02
6355000. -0.3610930E-02  0.1801403E-01  0.2399262E-02  0.7788141E-02 -0.1318135E-03  0.7941240E-02
6354000. -0.3613752E-02  0.1793842E-01  0.2398031E-02  0.7906465E-02 -0.1330592E-03  0.7931821E-02
6353000. -0.3616561E-02  0.1786248E-01  0.2396780E-02  0.8024737E-02 -0.1343034E-03  0.7922381E-02
6352000. -0.3619359E-02  0.1778623E-01  0.2395511E-02  0.8142957E-02 -0.1355462E-03  0.7912921E-02
6351000. -0.3622145E-02  0.1770965E-01  0.2394224E-02  0.8261122E-02 -0.1367875E-03  0.7903441E-02
6350000. -0.3624919E-02  0.1763275E-01  0.2392918E-02  0.8379234E-02 -0.1380273E-03  0.7893940E-02
6349000. -0.3627680E-02  0.1755553E-01  0.2391594E-02  0.8497290E-02 -0.1392656E-03  0.7884420E-02
6348000. -0.3630430E-02  0.1747798E-01  0.2390251E-02  0.8615291E-02 -0.1405024E-03  0.7874881E-02
6347000. -0.3633167E-02  0.1740012E-01  0.2388889E-02  0.8733233E-02 -0.1417377E-03  0.7865321E-02
6346600. -0.3634258E-02  0.1736888E-01  0.2388339E-02  0.8780394E-02 -0.1422314E-03  0.7861491E-02
6346600. -0.3634258E-02  0.2108557E-01  0.2388339E-02  0.7892022E-02 -0.1422314E-03  0.9128704E-02
6318800. -0.3723040E-02  0.1956966E-01  0.2348652E-02  0.1029071E-01 -0.1814439E-03  0.8842418E-02
6291000. -0.3804714E-02  0.1782772E-01  0.2298607E-02  0.1263773E-01 -0.2193840E-03  0.8545470E-02
6291000. -0.3804714E-02  0.1865926E-01  0.2298607E-02  0.1293316E-01 -0.2193840E-03  0.8545470E-02
6263000. -0.3882313E-02  0.1661373E-01  0.2236411E-02  0.1535791E-01 -0.2562829E-03  0.8244243E-02
6235000. -0.3950385E-02  0.1432388E-01  0.2163733E-02  0.1770117E-01 -0.2918328E-03  0.7931627E-02
6207000. -0.4007859E-02  0.1179111E-01  0.2080958E-02  0.1995075E-01 -0.3259835E-03  0.7607413E-02
6179000. -0.4053674E-02  0.9018233E-02  0.1988524E-02  0.2209500E-01 -0.3586833E-03  0.7271371E-02
6151000. -0.4086783E-02  0.6009907E-02  0.1886918E-02  0.2412257E-01 -0.3898801E-03  0.6923351E-02
6151000. -0.4086783E-02  0.8577613E-02  0.1886918E-02  0.2186150E-01 -0.3898801E-03  0.7149454E-02
6128500. -0.4113939E-02  0.6793341E-02  0.1807593E-02  0.2304632E-01 -0.4147362E-03  0.6926268E-02
6106000. -0.4134687E-02  0.4948839E-02  0.1724240E-02  0.2414294E-01 -0.4387980E-03  0.6699574E-02
6083500. -0.4148821E-02  0.3048773E-02  0.1637171E-02  0.2515008E-01 -0.4620532E-03  0.6469610E-02
6061000. -0.4156155E-02  0.1097788E-02  0.1546705E-02  0.2606662E-01 -0.4844910E-03  0.6236703E-02
6038500. -0.4156515E-02 -0.8994963E-03  0.1453163E-02  0.2689191E-01 -0.5061014E-03  0.6001088E-02
6016000. -0.4149747E-02 -0.2938097E-02  0.1356868E-02  0.2762560E-01 -0.5268753E-03  0.5762998E-02
5993500. -0.4135714E-02 -0.5013077E-02  0.1258145E-02  0.2826743E-01 -0.5468044E-03  0.5522755E-02
5971000. -0.4114296E-02 -0.7119653E-02  0.1157316E-02  0.2881768E-01 -0.5658816E-03  0.5280555E-02
5971000. -0.4114296E-02 -0.5365239E-02  0.1157316E-02  0.2626259E-01 -0.5658816E-03  0.5819151E-02
5937667. -0.4079942E-02 -0.7754835E-02  0.1020155E-02  0.2613959E-01 -0.5955659E-03  0.5528162E-02
5904333. -0.4033293E-02 -0.1006351E-01  0.8840740E-03  0.2585241E-01 -0.6237310E-03  0.5238310E-02
5871000. -0.3974791E-02 -0.1228520E-01  0.7498806E-03  0.2542284E-01 -0.6503846E-03  0.4950903E-02
5837667. -0.3904903E-02 -0.1441533E-01  0.6182632E-03  0.2487094E-01 -0.6755435E-03  0.4667155E-02
5804333. -0.3824113E-02 -0.1645065E-01  0.4898089E-03  0.2421513E-01 -0.6992305E-03  0.4388100E-02
5771000. -0.3732932E-02 -0.1838837E-01  0.3650249E-03  0.2347205E-01 -0.7214713E-03  0.4114812E-02
5771000. -0.3732932E-02 -0.1838786E-01  0.3650249E-03  0.2347143E-01 -0.7214713E-03  0.4114812E-02
5701000. -0.3500170E-02 -0.2397055E-01  0.1094616E-03  0.2297404E-01 -0.7625044E-03  0.3355329E-02
5701000. -0.3500170E-02 -0.1933895E-01  0.1094616E-03  0.1895229E-01 -0.7625044E-03  0.4341901E-02
5667333. -0.3397299E-02 -0.1985340E-01  0.1422627E-04  0.1736151E-01 -0.7845818E-03  0.4025887E-02
5633667. -0.3287686E-02 -0.2175042E-01 -0.7635689E-04  0.1700852E-01 -0.8051525E-03  0.3763314E-02
5600000. -0.3167708E-02 -0.2362875E-01 -0.1652399E-03  0.1660445E-01 -0.8243507E-03  0.3502624E-02
5600000. -0.3167708E-02 -0.2362875E-01 -0.1652399E-03  0.1660445E-01 -0.8243507E-03  0.3502624E-02
5563518. -0.3026655E-02 -0.2563145E-01 -0.2589375E-03  0.1611218E-01 -0.8436095E-03  0.3224556E-02
5527037. -0.2874237E-02 -0.2759913E-01 -0.3496634E-03  0.1556798E-01 -0.8612876E-03  0.2950765E-02
5490556. -0.2710666E-02 -0.2952514E-01 -0.4371320E-03  0.1497486E-01 -0.8774113E-03  0.2681719E-02
5454074. -0.2536202E-02 -0.3140187E-01 -0.5210719E-03  0.1433535E-01 -0.8920099E-03  0.2417969E-02
5417593. -0.2351141E-02 -0.3322774E-01 -0.6012268E-03  0.1365431E-01 -0.9051128E-03  0.2159514E-02
5381111. -0.2155781E-02 -0.3499549E-01 -0.6773717E-03  0.1293446E-01 -0.9167523E-03  0.1906787E-02
5344630. -0.1950484E-02 -0.3670044E-01 -0.7492898E-03  0.1217943E-01 -0.9269616E-03  0.1660069E-02
5308148. -0.1735602E-02 -0.3834054E-01 -0.8167960E-03  0.1139338E-01 -0.9357755E-03  0.1419374E-02
5271667. -0.1511540E-02 -0.3990762E-01 -0.8797162E-03  0.1057879E-01 -0.9432293E-03  0.1185176E-02
5235185. -0.1278712E-02 -0.4140044E-01 -0.9379019E-03  0.9739940E-02 -0.9493609E-03  0.9574750E-03
5198704. -0.1037560E-02 -0.4281585E-01 -0.9912223E-03  0.8880393E-02 -0.9542073E-03  0.7363969E-03
5162222. -0.7885389E-03 -0.4414598E-01 -0.1039568E-02  0.8002554E-02 -0.9578076E-03  0.5222274E-03
5125741. -0.5321497E-03 -0.4539191E-01 -0.1082844E-02  0.7110840E-02 -0.9602012E-03  0.3149468E-03
5089259. -0.2688698E-03 -0.4654914E-01 -0.1120983E-02  0.6208146E-02 -0.9614278E-03  0.1146486E-03
5052778.  0.7623042E-06 -0.4761297E-01 -0.1153927E-02  0.5297445E-02 -0.9615278E-03 -0.7856730E-04
5016296.  0.2762283E-03 -0.4858385E-01 -0.1181643E-02  0.4382310E-02 -0.9605416E-03 -0.2646894E-03
4979815.  0.5569680E-03 -0.4945689E-01 -0.1204112E-02  0.3465438E-02 -0.9585100E-03 -0.4437077E-03
4943333.  0.8424298E-03 -0.5023052E-01 -0.1221333E-02  0.2549843E-02 -0.9554736E-03 -0.6156249E-03
4906852.  0.1132030E-02 -0.5090461E-01 -0.1233322E-02  0.1638612E-02 -0.9514734E-03 -0.7804203E-03
4870370.  0.1425200E-02 -0.5147415E-01 -0.1240111E-02  0.7340434E-03 -0.9465492E-03 -0.9382700E-03
4833889.  0.1721326E-02 -0.5194028E-01 -0.1241747E-02 -0.1608795E-03 -0.9407414E-03 -0.1089104E-02
4797407.  0.2019834E-02 -0.5230236E-01 -0.1238292E-02 -0.1043707E-02 -0.9340897E-03 -0.1233016E-02
4760926.  0.2320096E-02 -0.5255568E-01 -0.1229821E-02 -0.1912303E-02 -0.9266330E-03 -0.1370345E-02
4724444.  0.2621514E-02 -0.5270371E-01 -0.1216424E-02 -0.2764114E-02 -0.9184090E-03 -0.1500889E-02
4687963.  0.2923466E-02 -0.5274434E-01 -0.1198202E-02 -0.3597128E-02 -0.9094566E-03 -0.1624973E-02
4651482.  0.3225337E-02 -0.5267598E-01 -0.1175268E-02 -0.4409424E-02 -0.8998112E-03 -0.1742880E-02
4615000.  0.3526521E-02 -0.5250131E-01 -0.1147747E-02 -0.5199047E-02 -0.8895086E-03 -0.1854484E-02
4578518.  0.3826394E-02 -0.5221812E-01 -0.1115772E-02 -0.5964374E-02 -0.8785837E-03 -0.1960305E-02
4542037.  0.4124329E-02 -0.5182746E-01 -0.1079490E-02 -0.6703761E-02 -0.8670692E-03 -0.2060477E-02
4505556.  0.4419726E-02 -0.5133152E-01 -0.1039052E-02 -0.7415810E-02 -0.8549978E-03 -0.2154956E-02
4469074.  0.4711982E-02 -0.5072768E-01 -0.9946161E-03 -0.8099292E-02 -0.8423988E-03 -0.2244652E-02
4432593.  0.5000473E-02 -0.5001963E-01 -0.9463528E-03 -0.8753004E-02 -0.8293010E-03 -0.2329278E-02
4396111.  0.5284622E-02 -0.4920828E-01 -0.8944321E-03 -0.9376050E-02 -0.8157322E-03 -0.2409173E-02
4359630.  0.5563817E-02 -0.4829230E-01 -0.8390353E-03 -0.9967514E-02 -0.8017174E-03 -0.2485246E-02
4323148.  0.5837486E-02 -0.4727601E-01 -0.7803420E-03 -0.1052679E-01 -0.7872785E-03 -0.2557132E-02
4286667.  0.6105042E-02 -0.4615953E-01 -0.7185413E-03 -0.1105333E-01 -0.7724389E-03 -0.2625524E-02
4250185.  0.6365925E-02 -0.4494366E-01 -0.6538185E-03 -0.1154673E-01 -0.7572155E-03 -0.2691015E-02
4213704.  0.6619565E-02 -0.4363201E-01 -0.5863676E-03 -0.1200683E-01 -0.7416264E-03 -0.2753471E-02
4177222.  0.6865425E-02 -0.4222422E-01 -0.5163758E-03 -0.1243352E-01 -0.7256854E-03 -0.2813933E-02
4140741.  0.7102948E-02 -0.4072292E-01 -0.4440381E-03 -0.1282687E-01 -0.7094035E-03 -0.2872660E-02
4104259.  0.7331621E-02 -0.3913084E-01 -0.3695407E-03 -0.1318722E-01 -0.6927905E-03 -0.2929573E-02
4067778.  0.7550908E-02 -0.3744730E-01 -0.2930760E-03 -0.1351479E-01 -0.6758525E-03 -0.2986495E-02
4031296.  0.7760309E-02 -0.3567612E-01 -0.2148257E-03 -0.1381025E-01 -0.6585895E-03 -0.3042834E-02
3994815.  0.7959316E-02 -0.3381896E-01 -0.1349761E-03 -0.1407428E-01 -0.6410050E-03 -0.3099215E-02
3958333.  0.8147446E-02 -0.3187558E-01 -0.5370057E-04 -0.1430764E-01 -0.6230923E-03 -0.3157386E-02
3921852.  0.8324206E-02 -0.2984962E-01  0.2882373E-04 -0.1451143E-01 -0.6048438E-03 -0.3216657E-02
3885370.  0.8489134E-02 -0.2774145E-01  0.1124352E-03 -0.1468675E-01 -0.5862491E-03 -0.3278428E-02
3848889.  0.8641752E-02 -0.2555200E-01  0.1969698E-03 -0.1483489E-01 -0.5672912E-03 -0.3343680E-02
3812407.  0.8781611E-02 -0.2328338E-01  0.2822808E-03 -0.1495738E-01 -0.5479501E-03 -0.3412261E-02
3775926.  0.8908248E-02 -0.2093519E-01  0.3682211E-03 -0.1505578E-01 -0.5282022E-03 -0.3486210E-02
3739444.  0.9021216E-02 -0.1850841E-01  0.4546625E-03 -0.1513188E-01 -0.5080140E-03 -0.3565786E-02
3702963.  0.9120062E-02 -0.1600380E-01  0.5414780E-03 -0.1518766E-01 -0.4873545E-03 -0.3651356E-02
3666482.  0.9204341E-02 -0.1341988E-01  0.6285598E-03 -0.1522520E-01 -0.4661808E-03 -0.3745602E-02
3630000.  0.9273599E-02 -0.1075690E-01  0.7158121E-03 -0.1524680E-01 -0.4444431E-03 -0.3848113E-02
3630000.  0.9273599E-02 -0.1075690E-01  0.7158121E-03 -0.1524680E-01 -0.4444431E-03 -0.3848113E-02
3592500.  0.9328653E-02 -0.7935338E-02  0.8055858E-03 -0.1525497E-01 -0.4214559E-03 -0.3964637E-02
3555000.  0.9366843E-02 -0.5026628E-02  0.8953728E-03 -0.1525180E-01 -0.3977460E-03 -0.4093772E-02
3517500.  0.9387651E-02 -0.2028559E-02  0.9851151E-03 -0.1524038E-01 -0.3732390E-03 -0.4235697E-02
3480000.  0.9390540E-02  0.1062710E-02  0.1074774E-02 -0.1522407E-01 -0.3478525E-03 -0.4393027E-02
3480000.  0.9390540E-02 -0.2704472E-01  0.2599474E-03  0.1671495E-01 -0.3478525E-03 -0.3450834E-01
3409422.  0.9688042E-02 -0.2685336E-01  0.6784549E-04  0.1797866E-01  0.4537107E-04 -0.3643049E-01
3338844.  0.9989827E-02 -0.2783348E-01 -0.1387099E-03  0.1932966E-01  0.4581946E-03 -0.3805277E-01
3268266.  0.1030944E-01 -0.3009123E-01 -0.3608730E-03  0.2080279E-01  0.8874947E-03 -0.3941121E-01
3197688.  0.1066174E-01 -0.3376178E-01 -0.6002199E-03  0.2243949E-01  0.1330551E-02 -0.4054247E-01
3127109.  0.1106332E-01 -0.3901796E-01 -0.8588320E-03  0.2428927E-01  0.1785060E-02 -0.4148382E-01
3056531.  0.1153289E-01 -0.4607988E-01 -0.1139382E-02  0.2641166E-01  0.2249111E-02 -0.4227290E-01
2985953.  0.1209196E-01 -0.5522869E-01 -0.1445283E-02  0.2887941E-01  0.2721237E-02 -0.4294779E-01
2915375.  0.1276556E-01 -0.6682365E-01 -0.1780838E-02  0.3178211E-01  0.3200382E-02 -0.4354658E-01
2844797.  0.1358322E-01 -0.8132412E-01 -0.2151459E-02  0.3523045E-01  0.3685915E-02 -0.4410732E-01
2774219.  0.1458026E-01 -0.9931972E-01 -0.2563926E-02  0.3936262E-01  0.4177625E-02 -0.4466802E-01
2703641.  0.1579943E-01 -0.1215693E+00 -0.3026743E-02  0.4435341E-01  0.4675720E-02 -0.4526632E-01
2633062.  0.1729307E-01 -0.1490540E+00 -0.3550611E-02  0.5042462E-01  0.5180828E-02 -0.4593891E-01
2562484.  0.1912588E-01 -0.1830482E+00 -0.4148982E-02  0.5785885E-01  0.5693957E-02 -0.4672155E-01
2491906.  0.2137882E-01 -0.2252177E+00 -0.4838907E-02  0.6702308E-01  0.6216524E-02 -0.4764818E-01
2421328.  0.2415401E-01 -0.2777542E+00 -0.5642082E-02  0.7839523E-01  0.6750296E-02 -0.4874929E-01
2350750.  0.2758162E-01 -0.3435597E+00 -0.6586272E-02  0.9260077E-01  0.7297354E-02 -0.5005056E-01
2280172.  0.3182907E-01 -0.4265095E+00 -0.7707243E-02  0.1104706E+00  0.7860026E-02 -0.5157045E-01
2209594.  0.3711372E-01 -0.5318213E+00 -0.9051450E-02  0.1331166E+00  0.8440783E-02 -0.5331536E-01
2139016.  0.4372055E-01 -0.6665845E+00 -0.1067970E-01  0.1620418E+00  0.9042075E-02 -0.5527394E-01
2068438.  0.5202680E-01 -0.8405266E+00 -0.1267232E-01  0.1992977E+00  0.9666081E-02 -0.5740655E-01
1997859.  0.6253727E-01 -0.1067141E+01 -0.1513646E-01  0.2477165E+00  0.1031434E-01 -0.5963217E-01
1927281.  0.7593393E-01 -0.1365340E+01 -0.1821641E-01  0.3112575E+00  0.1098712E-01 -0.6180414E-01
1856703.  0.9314990E-01 -0.1761989E+01 -0.2210891E-01  0.3955200E+00  0.1168258E-01 -0.6367560E-01
1786125.  0.1154767E+00 -0.2295727E+01 -0.2708527E-01  0.5085301E+00  0.1239535E-01 -0.6484565E-01
1715547.  0.1447252E+00 -0.3022928E+01 -0.3352454E-01  0.6619703E+00  0.1311439E-01 -0.6467260E-01
1644969.  0.1834705E+00 -0.4027124E+01 -0.4196386E-01  0.8730909E+00  0.1381958E-01 -0.6213467E-01
1574391.  0.2354297E+00 -0.5434132E+01 -0.5317580E-01  0.1167806E+01  0.1447645E-01 -0.5561332E-01
1503812.  0.3060575E+00 -0.7436965E+01 -0.6829050E-01  0.1585776E+01  0.1502769E-01 -0.4252381E-01
1433234.  0.4034973E+00 -0.1033744E+02 -0.8898966E-01  0.2188858E+01  0.1537934E-01 -0.1871422E-01
1362656.  0.5401540E+00 -0.1461806E+02 -0.1178274E+00  0.3075737E+01  0.1537831E-01  0.2257106E-01
1292078.  0.7353246E+00 -0.2106854E+02 -0.1587658E+00  0.4407538E+01  0.1477445E-01  0.9247949E-01
1221500.  0.1019747E+01 -0.3101563E+02 -0.2180988E+00  0.6454495E+01  0.1315610E-01  0.2097297E+00
1221500.  0.1019747E+01 -0.3372008E+01  0.3792796E-01 -0.5120891E+01  0.1315610E-01 -0.2320288E+00
1183328.  0.1032870E+01 -0.1042434E+01  0.6601889E-01 -0.4262487E+01  0.1423256E-01 -0.1304116E+00
1145156.  0.1032658E+01  0.1077572E+01  0.8909056E-01 -0.3446594E+01  0.1475428E-01 -0.4654120E-01
1106984.  0.1020391E+01  0.2980356E+01  0.1074174E+00 -0.2679615E+01  0.1482200E-01  0.2142984E-01
1068812.  0.9973875E+00  0.4660963E+01  0.1213091E+00 -0.1966967E+01  0.1452581E-01  0.7521630E-01
1030641.  0.9649873E+00  0.6117082E+01  0.1311047E+00 -0.1313060E+01  0.1394571E-01  0.1164728E+00
 992469.  0.9245340E+00  0.7349119E+01  0.1371672E+00 -0.7212185E+00  0.1315204E-01  0.1467490E+00
 954297.  0.8773637E+00  0.8359843E+01  0.1398757E+00 -0.1937968E+00  0.1220626E-01  0.1674813E+00
 916125.  0.8247882E+00  0.9154480E+01  0.1396207E+00  0.2678691E+00  0.1116139E-01  0.1800456E+00
 877953.  0.7680808E+00  0.9740485E+01  0.1367976E+00  0.6635011E+00  0.1006257E-01  0.1856920E+00
 839781.  0.7084641E+00  0.1012737E+02  0.1318006E+00  0.9936631E+00  0.8947701E-02  0.1855885E+00
 801609.  0.6470977E+00  0.1032658E+02  0.1250179E+00  0.1259934E+01  0.7847959E-02  0.1808148E+00
 763438.  0.5850694E+00  0.1035122E+02  0.1168259E+00  0.1464598E+01  0.6788376E-02  0.1723479E+00
 725266.  0.5233786E+00  0.1021592E+02  0.1075843E+00  0.1610836E+01  0.5788320E-02  0.1610770E+00
 687094.  0.4629383E+00  0.9936547E+01  0.9763231E-01  0.1702392E+01  0.4862150E-02  0.1478094E+00
 648922.  0.4045614E+00  0.9530056E+01  0.8728471E-01  0.1743674E+01  0.4019693E-02  0.1332439E+00
 610750.  0.3489567E+00  0.9014202E+01  0.7682823E-01  0.1739594E+01  0.3266803E-02  0.1180094E+00
 572578.  0.2967248E+00  0.8407310E+01  0.6651891E-01  0.1695469E+01  0.2605831E-02  0.1026431E+00
 534406.  0.2483553E+00  0.7728048E+01  0.5657994E-01  0.1616933E+01  0.2036173E-02  0.8759771E-01
 496234.  0.2042257E+00  0.6995193E+01  0.4720005E-01  0.1509835E+01  0.1554743E-02  0.7324841E-01
 458062.  0.1646009E+00  0.6227393E+01  0.3853250E-01  0.1380153E+01  0.1156434E-02  0.5989544E-01
 419891.  0.1296362E+00  0.5442964E+01  0.3069484E-01  0.1233880E+01  0.8345751E-03  0.4776339E-01
 381719.  0.9937601E-01  0.4659586E+01  0.2376827E-01  0.1076934E+01  0.5813311E-03  0.3700947E-01
 343547.  0.7376380E-01  0.3894227E+01  0.1779966E-01  0.9150512E+00  0.3881478E-03  0.2772510E-01
 305375.  0.5264310E-01  0.3162872E+01  0.1280190E-01  0.7537536E+00  0.2460942E-03  0.1994287E-01
 267203.  0.3576525E-01  0.2480319E+01  0.8755889E-02  0.5981811E+00  0.1462135E-03  0.1363945E-01
 229031.  0.2279669E-01  0.1860065E+01  0.5612856E-02  0.4530902E+00  0.7984008E-04  0.8742098E-02
 190859.  0.1332746E-01  0.1314103E+01  0.3297000E-02  0.3227319E+00  0.3887820E-04  0.5134138E-02
 152688.  0.6880571E-02  0.8528416E+00  0.1708674E-02  0.2108229E+00  0.1605062E-04  0.2660225E-02
 114516.  0.2921441E-02  0.4849170E+00  0.7276333E-03  0.1204709E+00  0.5109425E-05  0.1132614E-02
  76344.  0.8695749E-03  0.2171717E+00  0.2170345E-03  0.5414291E-01  0.1013614E-05  0.3377701E-03
  38172.  0.1089957E-03  0.5454056E-01  0.2723741E-04  0.1362554E-01  0.6351304E-07  0.4238098E-04
      0.  0.0000000E+00  0.0000000E+00  0.0000000E+00  0.0000000E+00  0.0000000E+00  0.0000000E+00
