       6       23 S      383        137.51700         12.38692          7.22018        287.77670      185    7
6371000.  0.7188378E-01 -0.3851618E+00 -0.1514675E-02 -0.7339846E-01 -0.2312893E-03 -0.1300051E+00
6370000.  0.7194180E-01 -0.3540622E+00 -0.1503022E-02 -0.7508865E-01 -0.2108959E-03 -0.1298470E+00
6369000.  0.7199492E-01 -0.3228314E+00 -0.1491105E-02 -0.7675601E-01 -0.1905277E-03 -0.1296832E+00
6368000.  0.7204314E-01 -0.2914726E+00 -0.1478928E-02 -0.7840022E-01 -0.1701857E-03 -0.1295138E+00
6368000.  0.7204314E-01 -0.2914726E+00 -0.1478928E-02 -0.7840022E-01 -0.1701857E-03 -0.1295138E+00
6367000.  0.7208642E-01 -0.2599888E+00 -0.1466494E-02 -0.8002095E-01 -0.1498707E-03 -0.1293388E+00
6366000.  0.7212475E-01 -0.2283833E+00 -0.1453809E-02 -0.8161791E-01 -0.1295837E-03 -0.1291581E+00
6365000.  0.7215811E-01 -0.1966593E+00 -0.1440874E-02 -0.8319077E-01 -0.1093254E-03 -0.1289717E+00
6364000.  0.7218648E-01 -0.1648201E+00 -0.1427694E-02 -0.8473924E-01 -0.8909684E-04 -0.1287798E+00
6363000.  0.7220984E-01 -0.1328690E+00 -0.1414274E-02 -0.8626302E-01 -0.6889884E-04 -0.1285822E+00
6362000.  0.7222818E-01 -0.1008092E+00 -0.1400616E-02 -0.8776182E-01 -0.4873231E-04 -0.1283789E+00
6361000.  0.7224148E-01 -0.6864412E-01 -0.1386724E-02 -0.8923536E-01 -0.2859810E-04 -0.1281701E+00
6360000.  0.7224973E-01 -0.3637706E-01 -0.1372604E-02 -0.9068333E-01 -0.8497121E-05 -0.1279557E+00
6359000.  0.7225289E-01 -0.4011414E-02 -0.1358258E-02 -0.9210549E-01  0.1156976E-04 -0.1277356E+00
6358000.  0.7225098E-01  0.2844941E-01 -0.1343691E-02 -0.9350154E-01  0.3160168E-04 -0.1275100E+00
6357000.  0.7224396E-01  0.6100200E-01 -0.1328907E-02 -0.9487124E-01  0.5159774E-04 -0.1272788E+00
6356000.  0.7223182E-01  0.9364289E-01 -0.1313911E-02 -0.9621430E-01  0.7155707E-04 -0.1270421E+00
6356000.  0.7223182E-01 -0.1529404E-01 -0.1313911E-02 -0.8729719E-01  0.7155707E-04 -0.1427589E+00
6355000.  0.7223235E-01  0.8625625E-02 -0.1300145E-02 -0.8810526E-01  0.9394641E-04 -0.1425255E+00
6354000.  0.7222912E-01  0.3259927E-01 -0.1286253E-02 -0.8889727E-01  0.1162988E-03 -0.1422885E+00
6353000.  0.7222211E-01  0.5662500E-01 -0.1272239E-02 -0.8967313E-01  0.1386138E-03 -0.1420481E+00
6352000.  0.7221133E-01  0.8070093E-01 -0.1258104E-02 -0.9043273E-01  0.1608907E-03 -0.1418041E+00
6351000.  0.7219677E-01  0.1048251E+00 -0.1243851E-02 -0.9117600E-01  0.1831291E-03 -0.1415566E+00
6350000.  0.7217842E-01  0.1289957E+00 -0.1229482E-02 -0.9190283E-01  0.2053283E-03 -0.1413055E+00
6349000.  0.7215628E-01  0.1532108E+00 -0.1215001E-02 -0.9261313E-01  0.2274879E-03 -0.1410510E+00
6348000.  0.7213033E-01  0.1774684E+00 -0.1200410E-02 -0.9330683E-01  0.2496072E-03 -0.1407929E+00
6347000.  0.7210056E-01  0.2017666E+00 -0.1185711E-02 -0.9398383E-01  0.2716858E-03 -0.1405314E+00
6346600.  0.7208759E-01  0.2114968E+00 -0.1179802E-02 -0.9424993E-01  0.2805057E-03 -0.1404258E+00
6346600.  0.7208759E-01 -0.1954229E-01 -0.1179802E-02 -0.8752509E-01  0.2805057E-03 -0.1655617E+00
6318800.  0.7103714E-01  0.5045354E+00 -0.7774477E-03 -0.9527616E-01  0.9879464E-03 -0.1584351E+00
6291000.  0.6767419E-01  0.1035631E+01 -0.3626746E-03 -0.9318513E-01  0.1660952E-02 -0.1497805E+00
6291000.  0.6767419E-01  0.1047747E+01 -0.3626746E-03 -0.9404336E-01  0.1660952E-02 -0.1497805E+00
6263000.  0.6190848E-01  0.1569554E+01  0.2705228E-04 -0.8165351E-01  0.2296940E-02 -0.1393773E+00
6235000.  0.5395781E-01  0.2037049E+01  0.3414234E-03 -0.5999051E-01  0.2883813E-02 -0.1274459E+00
6207000.  0.4412457E-01  0.2421851E+01  0.5433783E-03 -0.3085336E-01  0.3415104E-02 -0.1141071E+00
6179000.  0.3282635E-01  0.2700261E+01  0.6052055E-03  0.3329359E-02  0.3884979E-02 -0.9953027E-01
6151000.  0.2057119E-01  0.2855085E+01  0.5109236E-03  0.3968208E-01  0.4288462E-02 -0.8393380E-01
6151000.  0.2057119E-01  0.2321333E+01  0.5109236E-03  0.3233470E-01  0.4288462E-02 -0.8507191E-01
6128500.  0.1238847E-01  0.2302027E+01  0.3544753E-03  0.5605311E-01  0.4573983E-02 -0.7662027E-01
6106000.  0.4385272E-02  0.2220251E+01  0.1171274E-03  0.7797413E-01  0.4829688E-02 -0.6819993E-01
6083500. -0.3225333E-02  0.2080636E+01 -0.1929901E-03  0.9710952E-01  0.5055822E-02 -0.5988567E-01
6061000. -0.1025025E-01  0.1889821E+01 -0.5645007E-03  0.1126148E+00  0.5252883E-02 -0.5174761E-01
6038500. -0.1652298E-01  0.1656169E+01 -0.9833472E-03  0.1238205E+00  0.5421613E-02 -0.4385110E-01
6016000. -0.2190903E-01  0.1389365E+01 -0.1433450E-02  0.1302534E+00  0.5562971E-02 -0.3625713E-01
5993500. -0.2630982E-01  0.1100023E+01 -0.1897419E-02  0.1316466E+00  0.5678129E-02 -0.2902212E-01
5971000. -0.2966535E-01  0.7992805E+00 -0.2357298E-02  0.1279454E+00  0.5768448E-02 -0.2219932E-01
5971000. -0.2966535E-01  0.6807411E+00 -0.2357298E-02  0.1170601E+00  0.5768448E-02 -0.1831587E-01
5937667. -0.3209373E-01  0.2537397E+00 -0.2932976E-02  0.1018419E+00  0.5838921E-02 -0.8814840E-02
5904333. -0.3240476E-01 -0.1250906E+00 -0.3412688E-02  0.8072541E-01  0.5862656E-02 -0.4424652E-03
5871000. -0.3089993E-01 -0.4380310E+00 -0.3771177E-02  0.5586741E-01  0.5845446E-02  0.6844700E-02
5837667. -0.2795484E-01 -0.6744291E+00 -0.3994415E-02  0.2935757E-01  0.5792839E-02  0.1309696E-01
5804333. -0.2398335E-01 -0.8301511E+00 -0.4078777E-02  0.3067560E-02  0.5710119E-02  0.1836192E-01
5771000. -0.1940608E-01 -0.9067116E+00 -0.4029636E-02 -0.2144508E-01  0.5602349E-02  0.2268014E-01
5771000. -0.1940608E-01 -0.9068354E+00 -0.4029636E-02 -0.2144383E-01  0.5602349E-02  0.2268014E-01
5701000. -0.9571427E-02 -0.8323401E+00 -0.3523915E-02 -0.6899850E-01  0.5322497E-02  0.2749264E-01
5701000. -0.9571427E-02 -0.7862467E+00 -0.3523915E-02 -0.5311842E-01  0.5322497E-02  0.3019048E-01
5667333. -0.5695058E-02 -0.6816261E+00 -0.3230223E-02 -0.5817068E-01  0.5152988E-02  0.3389804E-01
5633667. -0.2370871E-02 -0.5734543E+00 -0.2904767E-02 -0.6511763E-01  0.4965218E-02  0.3705407E-01
5600000.  0.3188981E-03 -0.4409015E+00 -0.2546425E-02 -0.7003941E-01  0.4762603E-02  0.3952125E-01
5600000.  0.3188981E-03 -0.4409015E+00 -0.2546425E-02 -0.7003941E-01  0.4762603E-02  0.3952125E-01
5563518.  0.2384143E-02 -0.2777365E+00 -0.2136171E-02 -0.7280602E-01  0.4530305E-02  0.4149845E-01
5527037.  0.3476882E-02 -0.1027284E+00 -0.1717672E-02 -0.7293248E-01  0.4288589E-02  0.4282499E-01
5490556.  0.3554940E-02  0.7519514E-01 -0.1305762E-02 -0.7053229E-01  0.4040972E-02  0.4357046E-01
5454074.  0.2626643E-02  0.2473764E+00 -0.9143350E-03 -0.6581867E-01  0.3790591E-02  0.4379845E-01
5417593.  0.7479733E-03  0.4059028E+00 -0.5558043E-03 -0.5910364E-01  0.3540250E-02  0.4356888E-01
5381111. -0.1982324E-02  0.5437259E+00 -0.2405830E-03 -0.5075412E-01  0.3292392E-02  0.4293732E-01
5344630. -0.5428237E-02  0.6550364E+00  0.2312554E-04 -0.4118709E-01  0.3049183E-02  0.4195584E-01
5308148. -0.9425001E-02  0.7354712E+00  0.2296267E-03 -0.3084449E-01  0.2812473E-02  0.4067359E-01
5271667. -0.1378623E-01  0.7820103E+00  0.3757254E-03 -0.2016467E-01  0.2583857E-02  0.3913845E-01
5235185. -0.1831343E-01  0.7932997E+00  0.4607369E-03 -0.9576548E-02  0.2364646E-02  0.3739344E-01
5198704. -0.2280413E-01  0.7694294E+00  0.4863302E-03  0.5266824E-03  0.2155934E-02  0.3548078E-01
5162222. -0.2706056E-01  0.7117915E+00  0.4562873E-03  0.9802131E-02  0.1958545E-02  0.3344305E-01
5125741. -0.3089662E-01  0.6231998E+00  0.3762181E-03  0.1795684E-01  0.1773107E-02  0.3131406E-01
5089259. -0.3414566E-01  0.5074292E+00  0.2532079E-03  0.2476777E-01  0.1600029E-02  0.2913057E-01
5052778. -0.3666480E-01  0.3691337E+00  0.9543766E-04  0.3007829E-01  0.1439531E-02  0.2692665E-01
5016296. -0.3834021E-01  0.2136367E+00 -0.8822107E-04  0.3379919E-01  0.1291645E-02  0.2472875E-01
4979815. -0.3908945E-01  0.4662022E-01 -0.2885639E-03  0.3590915E-01  0.1156260E-02  0.2256639E-01
4943333. -0.3886329E-01 -0.1260670E+00 -0.4964624E-03  0.3644737E-01  0.1033094E-02  0.2046270E-01
4906852. -0.3764598E-01 -0.2986274E+00 -0.7031472E-03  0.3550705E-01  0.9217685E-03  0.1843562E-01
4870370. -0.3545412E-01 -0.4655483E+00 -0.9005471E-03  0.3322918E-01  0.8217741E-03  0.1650672E-01
4833889. -0.3233492E-01 -0.6217560E+00 -0.1081482E-02  0.2979007E-01  0.7325199E-03  0.1468654E-01
4797407. -0.2836261E-01 -0.7627916E+00 -0.1239883E-02  0.2539246E-01  0.6533523E-03  0.1298509E-01
4760926. -0.2363556E-01 -0.8848448E+00 -0.1370881E-02  0.2025824E-01  0.5835594E-03  0.1141376E-01
4724444. -0.1827100E-01 -0.9849902E+00 -0.1470914E-02  0.1461376E-01  0.5223894E-03  0.9972871E-02
4687963. -0.1240123E-01 -0.1061062E+01 -0.1537702E-02  0.8684639E-02  0.4690911E-03  0.8665329E-02
4651482. -0.6168154E-02 -0.1111746E+01 -0.1570244E-02  0.2687180E-02  0.4228978E-03  0.7490675E-02
4615000.  0.2814396E-03 -0.1136614E+01 -0.1568727E-02 -0.3180116E-02  0.3830598E-03  0.6444403E-02
4578518.  0.6799985E-02 -0.1135937E+01 -0.1534413E-02 -0.8740160E-02  0.3488577E-03  0.5521177E-02
4542037.  0.1324364E-01 -0.1110750E+01 -0.1469511E-02 -0.1384141E-01  0.3196076E-03  0.4713876E-02
4505556.  0.1947679E-01 -0.1062730E+01 -0.1377009E-02 -0.1836223E-01  0.2946667E-03  0.4014264E-02
4469074.  0.2537468E-01 -0.9939928E+00 -0.1260504E-02 -0.2221151E-01  0.2734536E-03  0.3409826E-02
4432593.  0.3082572E-01 -0.9071743E+00 -0.1124041E-02 -0.2532594E-01  0.2554491E-03  0.2892405E-02
4396111.  0.3573484E-01 -0.8051579E+00 -0.9719279E-03 -0.2767372E-01  0.2401844E-03  0.2450065E-02
4359630.  0.4002340E-01 -0.6909984E+00 -0.8085845E-03 -0.2925086E-01  0.2272781E-03  0.2066945E-02
4323148.  0.4363123E-01 -0.5678892E+00 -0.6383783E-03 -0.3007400E-01  0.2164129E-03  0.1735455E-02
4286667.  0.4651593E-01 -0.4389687E+00 -0.4655269E-03 -0.3018505E-01  0.2073332E-03  0.1440514E-02
4250185.  0.4865308E-01 -0.3072637E+00 -0.2939365E-03 -0.2964248E-01  0.1998740E-03  0.1167771E-02
4213704.  0.5003498E-01 -0.1756437E+00 -0.1271686E-03 -0.2851511E-01  0.1939325E-03  0.9083154E-03
4177222.  0.5066970E-01 -0.4669828E-01  0.3167317E-04 -0.2688701E-01  0.1894811E-03  0.6443649E-03
4140741.  0.5057932E-01  0.7726323E-01  0.1799589E-03 -0.2484371E-01  0.1865856E-03  0.3636417E-03
4104259.  0.4979812E-01  0.1942802E+00  0.3155638E-03 -0.2247184E-01  0.1853656E-03  0.5589394E-04
4067778.  0.4837078E-01  0.3027186E+00  0.4368674E-03 -0.1986443E-01  0.1860465E-03 -0.3032871E-03
4031296.  0.4635003E-01  0.4013489E+00  0.5427590E-03 -0.1710029E-01  0.1889542E-03 -0.7235587E-03
3994815.  0.4379491E-01  0.4892606E+00  0.6325530E-03 -0.1425573E-01  0.1944855E-03 -0.1224322E-02
3958333.  0.4076849E-01  0.5658683E+00  0.7060066E-03 -0.1140246E-01  0.2031862E-03 -0.1834256E-02
3921852.  0.3733647E-01  0.6309379E+00  0.7632202E-03 -0.8591967E-02  0.2157352E-03 -0.2572683E-02
3885370.  0.3356488E-01  0.6844528E+00  0.8045738E-03 -0.5869268E-02  0.2329618E-03 -0.3474517E-02
3848889.  0.2951963E-01  0.7266143E+00  0.8306665E-03 -0.3265279E-02  0.2559148E-03 -0.4579553E-02
3812407.  0.2526440E-01  0.7578200E+00  0.8422151E-03 -0.7900720E-03  0.2858796E-03 -0.5932276E-02
3775926.  0.2086101E-01  0.7784789E+00  0.8399633E-03  0.1556413E-02  0.3244470E-03 -0.7595989E-02
3739444.  0.1636827E-01  0.7890653E+00  0.8245936E-03  0.3797496E-02  0.3736048E-03 -0.9644242E-02
3702963.  0.1184291E-01  0.7899566E+00  0.7965903E-03  0.5978061E-02  0.4358061E-03 -0.1217026E-01
3666482.  0.7339893E-02  0.7812609E+00  0.7561272E-03  0.8162780E-02  0.5141257E-03 -0.1529647E-01
3630000.  0.2914213E-02  0.7628411E+00  0.7029141E-03  0.1044984E-01  0.6124181E-03 -0.1917376E-01
3630000.  0.2914213E-02  0.7628411E+00  0.7029141E-03  0.1044984E-01  0.6124181E-03 -0.1917376E-01
3592500. -0.1493751E-02  0.7329960E+00  0.6339321E-03  0.1304472E-01  0.7393619E-03 -0.2414703E-01
3555000. -0.5689938E-02  0.6905413E+00  0.5484981E-03  0.1607665E-01  0.8991658E-03 -0.3039018E-01
3517500. -0.9592929E-02  0.6328025E+00  0.4433230E-03  0.1980140E-01  0.1100289E-02 -0.3825278E-01
3480000. -0.1310094E-01  0.5554509E+00  0.3133772E-03  0.2455823E-01  0.1353534E-02 -0.4818573E-01
3480000. -0.1310094E-01 -0.2454333E+00 -0.9389463E-03 -0.2224913E-01  0.1353534E-02 -0.6171200E-02
3409422. -0.1049170E-01 -0.2236916E+00 -0.7147421E-03 -0.1826118E-01  0.1310780E-02  0.1160775E-01
3338844. -0.8175161E-02 -0.1936682E+00 -0.5332119E-03 -0.1457792E-01  0.1135366E-02  0.1874033E-01
3268266. -0.6210853E-02 -0.1608593E+00 -0.3900794E-03 -0.1134513E-01  0.9173587E-03  0.1991522E-01
3197688. -0.4607549E-02 -0.1289780E+00 -0.2799604E-03 -0.8621750E-02  0.7050504E-03  0.1809238E-01
3127109. -0.3341423E-02 -0.1002470E+00 -0.1971756E-03 -0.6405964E-02  0.5208983E-03  0.1505325E-01
3056531. -0.2370737E-02 -0.7574607E-01 -0.1362999E-03 -0.4657648E-02  0.3722567E-03  0.1180050E-01
2985953. -0.1646491E-02 -0.5575101E-01 -0.9247824E-04 -0.3315956E-02  0.2583271E-03  0.8841062E-02
2915375. -0.1119708E-02 -0.4002805E-01 -0.6158265E-04 -0.2312509E-02  0.1745067E-03  0.6381809E-02
2844797. -0.7457426E-03 -0.2806196E-01 -0.4024220E-04 -0.1580107E-02  0.1149369E-03  0.4460002E-02
2774219. -0.4864238E-03 -0.1922168E-01 -0.2579870E-04 -0.1057903E-02  0.7388202E-04  0.3026955E-02
2703641. -0.3106883E-03 -0.1286899E-01 -0.1622014E-04 -0.6939432E-03  0.4637549E-04  0.1998918E-02
2633062. -0.1942689E-03 -0.8422452E-02 -0.9996727E-05 -0.4458898E-03  0.2843156E-04  0.1285917E-02
2562484. -0.1188748E-03 -0.5388386E-02 -0.6036441E-05 -0.2805559E-03  0.1702407E-04  0.8064005E-03
2491906. -0.7114802E-04 -0.3369045E-02 -0.3568996E-05 -0.1727823E-03  0.9953128E-05  0.4930850E-03
2421328. -0.4162485E-04 -0.2057876E-02 -0.2064598E-05 -0.1040923E-03  0.5679263E-05  0.2939719E-03
2350750. -0.2378678E-04 -0.1227340E-02 -0.1167577E-05 -0.6130271E-04  0.3160724E-05  0.1708326E-03
2280172. -0.1326578E-04 -0.7142461E-03 -0.6448825E-06 -0.3526371E-04  0.1714335E-05  0.9671364E-04
2209594. -0.7212842E-05 -0.4052341E-03 -0.3474985E-06 -0.1979486E-04  0.9053131E-06  0.5330110E-04
2139016. -0.3819049E-05 -0.2239281E-03 -0.1824627E-06 -0.1083129E-04  0.4649433E-06  0.2856991E-04
2068438. -0.1966568E-05 -0.1203794E-03 -0.9322906E-07 -0.5769962E-05  0.2319129E-06  0.1487684E-04
1997859. -0.9833686E-06 -0.6287103E-04 -0.4628202E-07 -0.2988231E-05  0.1121786E-06  0.7515403E-05
1927281. -0.4767099E-06 -0.3185251E-04 -0.2228516E-07 -0.1502162E-05  0.5253053E-07  0.3677570E-05
1856703. -0.2236095E-06 -0.1562660E-04 -0.1038757E-07 -0.7316287E-06  0.2376680E-07  0.1739988E-05
1786125. -0.1012715E-06 -0.7408687E-05 -0.4676870E-08 -0.3445442E-06  0.1036609E-07  0.7943390E-06
1715547. -0.4417560E-07 -0.3386728E-05 -0.2028918E-08 -0.1565191E-06  0.4347502E-08  0.3490658E-06
1644969. -0.1850834E-07 -0.1488842E-05 -0.8457159E-09 -0.6840810E-07  0.1748187E-08  0.1472540E-06
1574391. -0.7424358E-08 -0.6275602E-06 -0.3376402E-09 -0.2867785E-07  0.6717772E-09  0.5944693E-07
1503812. -0.2840671E-08 -0.2527936E-06 -0.1286515E-09 -0.1148993E-07  0.2457591E-09  0.2288353E-07
1433234. -0.1031242E-08 -0.9705907E-07 -0.4664133E-10 -0.4376891E-08  0.8523572E-10  0.8364092E-08
1362656. -0.3493507E-09 -0.3582462E-07 -0.1618958E-10 -0.1557742E-08  0.2791190E-10  0.2887089E-08
1292078. -0.9410584E-10 -0.1451017E-07 -0.6021238E-11 -0.4343638E-09  0.8632629E-11  0.9338510E-09
1221500.  0.4628089E-10 -0.1414577E-07 -0.5014051E-11  0.2675035E-09  0.2541706E-11  0.2918335E-09
1221500.  0.4628089E-10 -0.4076754E-09 -0.2909282E-12 -0.2429055E-09  0.2541706E-11  0.2717844E-09
1183328.  0.4140443E-10  0.1604791E-08  0.5371505E-12 -0.6006681E-10  0.1319832E-11  0.1476069E-09
1145156.  0.3043969E-10  0.1883929E-08  0.6517698E-12  0.9355601E-11  0.6652692E-12  0.7774761E-10
1106984.  0.2003115E-10  0.1541586E-08  0.5247967E-12  0.2781047E-10  0.3252126E-12  0.3970058E-10
1068812.  0.1218900E-10  0.1078055E-08  0.3571055E-12  0.2639242E-10  0.1539952E-12  0.1963303E-10
1030641.  0.6965889E-11  0.6836434E-09  0.2193633E-12  0.1927158E-10  0.7059158E-13  0.9371883E-11
 992469.  0.0000000E+00  0.0000000E+00  0.0000000E+00  0.0000000E+00  0.0000000E+00  0.0000000E+00
 954297.  0.0000000E+00  0.0000000E+00  0.0000000E+00  0.0000000E+00  0.0000000E+00  0.0000000E+00
 916125.  0.0000000E+00  0.0000000E+00  0.0000000E+00  0.0000000E+00  0.0000000E+00  0.0000000E+00
 877953.  0.0000000E+00  0.0000000E+00  0.0000000E+00  0.0000000E+00  0.0000000E+00  0.0000000E+00
 839781.  0.0000000E+00  0.0000000E+00  0.0000000E+00  0.0000000E+00  0.0000000E+00  0.0000000E+00
 801609.  0.0000000E+00  0.0000000E+00  0.0000000E+00  0.0000000E+00  0.0000000E+00  0.0000000E+00
 763438.  0.0000000E+00  0.0000000E+00  0.0000000E+00  0.0000000E+00  0.0000000E+00  0.0000000E+00
 725266.  0.0000000E+00  0.0000000E+00  0.0000000E+00  0.0000000E+00  0.0000000E+00  0.0000000E+00
 687094.  0.0000000E+00  0.0000000E+00  0.0000000E+00  0.0000000E+00  0.0000000E+00  0.0000000E+00
 648922.  0.0000000E+00  0.0000000E+00  0.0000000E+00  0.0000000E+00  0.0000000E+00  0.0000000E+00
 610750.  0.0000000E+00  0.0000000E+00  0.0000000E+00  0.0000000E+00  0.0000000E+00  0.0000000E+00
 572578.  0.0000000E+00  0.0000000E+00  0.0000000E+00  0.0000000E+00  0.0000000E+00  0.0000000E+00
 534406.  0.0000000E+00  0.0000000E+00  0.0000000E+00  0.0000000E+00  0.0000000E+00  0.0000000E+00
 496234.  0.0000000E+00  0.0000000E+00  0.0000000E+00  0.0000000E+00  0.0000000E+00  0.0000000E+00
 458062.  0.0000000E+00  0.0000000E+00  0.0000000E+00  0.0000000E+00  0.0000000E+00  0.0000000E+00
 419891.  0.0000000E+00  0.0000000E+00  0.0000000E+00  0.0000000E+00  0.0000000E+00  0.0000000E+00
 381719.  0.0000000E+00  0.0000000E+00  0.0000000E+00  0.0000000E+00  0.0000000E+00  0.0000000E+00
 343547.  0.0000000E+00  0.0000000E+00  0.0000000E+00  0.0000000E+00  0.0000000E+00  0.0000000E+00
 305375.  0.0000000E+00  0.0000000E+00  0.0000000E+00  0.0000000E+00  0.0000000E+00  0.0000000E+00
 267203.  0.0000000E+00  0.0000000E+00  0.0000000E+00  0.0000000E+00  0.0000000E+00  0.0000000E+00
 229031.  0.0000000E+00  0.0000000E+00  0.0000000E+00  0.0000000E+00  0.0000000E+00  0.0000000E+00
 190859.  0.0000000E+00  0.0000000E+00  0.0000000E+00  0.0000000E+00  0.0000000E+00  0.0000000E+00
 152688.  0.0000000E+00  0.0000000E+00  0.0000000E+00  0.0000000E+00  0.0000000E+00  0.0000000E+00
 114516.  0.0000000E+00  0.0000000E+00  0.0000000E+00  0.0000000E+00  0.0000000E+00  0.0000000E+00
  76344.  0.0000000E+00  0.0000000E+00  0.0000000E+00  0.0000000E+00  0.0000000E+00  0.0000000E+00
  38172.  0.0000000E+00  0.0000000E+00  0.0000000E+00  0.0000000E+00  0.0000000E+00  0.0000000E+00
      0.  0.0000000E+00  0.0000000E+00  0.0000000E+00  0.0000000E+00  0.0000000E+00  0.0000000E+00
