      24        3 S      728        108.38130        105.52730         24.45774         92.64958      185    7
6371000.  0.1330739E-01 -0.1034190E-01  0.2487187E-04 -0.1328252E-01 -0.8319284E-05 -0.2506135E-01
6370000.  0.1330835E-01 -0.1834726E-02  0.2695297E-04 -0.1323359E-01 -0.4385443E-05 -0.2506323E-01
6369000.  0.1330797E-01  0.6675234E-02  0.2902580E-04 -0.1317723E-01 -0.4515050E-06 -0.2506259E-01
6368000.  0.1330625E-01  0.1518712E-01  0.3108921E-04 -0.1311345E-01  0.3482137E-05 -0.2505946E-01
6368000.  0.1330625E-01  0.1518712E-01  0.3108921E-04 -0.1311345E-01  0.3482137E-05 -0.2505946E-01
6367000.  0.1330320E-01  0.2370007E-01  0.3314202E-04 -0.1304227E-01  0.7415090E-05 -0.2505382E-01
6366000.  0.1329881E-01  0.3221323E-01  0.3518309E-04 -0.1296371E-01  0.1134696E-04 -0.2504567E-01
6365000.  0.1329309E-01  0.4072573E-01  0.3721124E-04 -0.1287779E-01  0.1527736E-04 -0.2503502E-01
6364000.  0.1328603E-01  0.4923671E-01  0.3922533E-04 -0.1278455E-01  0.1920589E-04 -0.2502186E-01
6363000.  0.1327763E-01  0.5774531E-01  0.4122421E-04 -0.1268400E-01  0.2313215E-04 -0.2500620E-01
6362000.  0.1326790E-01  0.6625066E-01  0.4320674E-04 -0.1257617E-01  0.2705576E-04 -0.2498804E-01
6361000.  0.1325683E-01  0.7475191E-01  0.4517178E-04 -0.1246111E-01  0.3097633E-04 -0.2496737E-01
6360000.  0.1324444E-01  0.8324820E-01  0.4711818E-04 -0.1233885E-01  0.3489345E-04 -0.2494421E-01
6359000.  0.1323070E-01  0.9173866E-01  0.4904485E-04 -0.1220942E-01  0.3880674E-04 -0.2491854E-01
6358000.  0.1321564E-01  0.1002224E+00  0.5095063E-04 -0.1207288E-01  0.4271581E-04 -0.2489037E-01
6357000.  0.1319924E-01  0.1086986E+00  0.5283442E-04 -0.1192925E-01  0.4662026E-04 -0.2485972E-01
6356000.  0.1318151E-01  0.1171665E+00  0.5469512E-04 -0.1177860E-01  0.5051970E-04 -0.2482656E-01
6356000.  0.1318151E-01  0.7417724E-01  0.5469512E-04 -0.1232532E-01  0.5051970E-04 -0.2769471E-01
6355000.  0.1316939E-01  0.8033061E-01  0.5662165E-04 -0.1222176E-01  0.5486475E-04 -0.2766951E-01
6354000.  0.1315630E-01  0.8647995E-01  0.5853156E-04 -0.1211348E-01  0.5920568E-04 -0.2764230E-01
6353000.  0.1314224E-01  0.9262478E-01  0.6042410E-04 -0.1200050E-01  0.6354218E-04 -0.2761308E-01
6352000.  0.1312722E-01  0.9876466E-01  0.6229855E-04 -0.1188286E-01  0.6787394E-04 -0.2758185E-01
6351000.  0.1311124E-01  0.1048991E+00  0.6415416E-04 -0.1176057E-01  0.7220064E-04 -0.2754860E-01
6350000.  0.1309429E-01  0.1110277E+00  0.6599021E-04 -0.1163367E-01  0.7652196E-04 -0.2751335E-01
6349000.  0.1307638E-01  0.1171500E+00  0.6780598E-04 -0.1150217E-01  0.8083759E-04 -0.2747609E-01
6348000.  0.1305751E-01  0.1232656E+00  0.6960076E-04 -0.1136612E-01  0.8514721E-04 -0.2743682E-01
6347000.  0.1303769E-01  0.1293739E+00  0.7137383E-04 -0.1122553E-01  0.8945052E-04 -0.2739556E-01
6346600.  0.1302949E-01  0.1318151E+00  0.7207681E-04 -0.1116804E-01  0.9117000E-04 -0.2737849E-01
6346600.  0.1302949E-01  0.7648671E-01  0.7207681E-04 -0.1176552E-01  0.9117000E-04 -0.3192168E-01
6318800.  0.1242951E-01  0.1980681E+00  0.1146849E-03 -0.7334778E-02  0.2277042E-03 -0.3044387E-01
6291000.  0.1130856E-01  0.3144106E+00  0.1328764E-03 -0.7077922E-03  0.3550182E-03 -0.2770502E-01
6291000.  0.1130856E-01  0.3184758E+00  0.1328764E-03 -0.3516433E-03  0.3550182E-03 -0.2770502E-01
6263000.  0.9666556E-02  0.4265220E+00  0.1166500E-03  0.7845073E-02  0.4684091E-03 -0.2370415E-01
6235000.  0.7582771E-02  0.5187111E+00  0.6392699E-04  0.1603513E-01  0.5618033E-03 -0.1863302E-01
6207000.  0.5137083E-02  0.5905150E+00 -0.2234570E-04  0.2289862E-01  0.6309014E-03 -0.1268360E-01
6179000.  0.2427686E-02  0.6381608E+00 -0.1336601E-03  0.2725522E-01  0.6723479E-03 -0.6092314E-02
6151000. -0.4326450E-03  0.6588166E+00 -0.2569437E-03  0.2823365E-01  0.6839092E-03  0.8685121E-03
6151000. -0.4326450E-03  0.5311028E+00 -0.2569437E-03  0.2484654E-01  0.6839092E-03  0.8924484E-03
6128500. -0.2288376E-02  0.5178459E+00 -0.3414618E-03  0.2269298E-01  0.6725303E-03  0.5539688E-02
6106000. -0.4076694E-02  0.4930615E+00 -0.4150233E-03  0.1866997E-01  0.6449264E-03  0.1006356E-01
6083500. -0.5758459E-02  0.4576744E+00 -0.4714091E-03  0.1301739E-01  0.6017137E-03  0.1436276E-01
6061000. -0.7298155E-02  0.4128074E+00 -0.5054764E-03  0.6100672E-02  0.5438544E-03  0.1834302E-01
6038500. -0.8664533E-02  0.3597472E+00 -0.5135522E-03 -0.1618820E-02  0.4726288E-03  0.2191884E-01
6016000. -0.9831112E-02  0.2998984E+00 -0.4937095E-03 -0.9620141E-02  0.3896010E-03  0.2501518E-01
5993500. -0.1077652E-01  0.2347474E+00 -0.4459084E-03 -0.1736235E-01  0.2965795E-03  0.2756895E-01
5971000. -0.1148473E-01  0.1658285E+00 -0.3719948E-03 -0.2432489E-01  0.1955732E-03  0.2952967E-01
5971000. -0.1148473E-01  0.1506381E+00 -0.3719948E-03 -0.2033882E-01  0.1955732E-03  0.3103312E-01
5937667. -0.1200509E-01  0.4886254E-01 -0.2473110E-03 -0.2685148E-01  0.2782451E-04  0.3285367E-01
5904333. -0.1200560E-01 -0.4745568E-01 -0.9634534E-04 -0.3032435E-01 -0.1457391E-03  0.3325823E-01
5871000. -0.1152389E-01 -0.1349889E+00  0.6445066E-04 -0.3062491E-01 -0.3178150E-03  0.3230034E-01
5837667. -0.1061278E-01 -0.2112518E+00  0.2190318E-03 -0.2802201E-01 -0.4815313E-03  0.3008354E-01
5804333. -0.9335960E-02 -0.2745461E+00  0.3535954E-03 -0.2308508E-01 -0.6306652E-03  0.2675098E-01
5771000. -0.7764264E-02 -0.3238797E+00  0.4578335E-03 -0.1656519E-01 -0.7598136E-03  0.2247643E-01
5771000. -0.7764264E-02 -0.3238830E+00  0.4578335E-03 -0.1656436E-01 -0.7598136E-03  0.2247643E-01
5701000. -0.3699195E-02 -0.4062761E+00  0.5619216E-03 -0.2019450E-02 -0.9446751E-03  0.1071809E-01
5701000. -0.3699195E-02 -0.3354022E+00  0.5619216E-03 -0.6011241E-03 -0.9446751E-03  0.1176076E-01
5667333. -0.1953784E-02 -0.3279399E+00  0.5473173E-03  0.5790309E-02 -0.9919901E-03  0.6172834E-02
5633667. -0.2071558E-03 -0.3333382E+00  0.5026153E-03  0.1100879E-01 -0.1009893E-02  0.5803452E-03
5600000.  0.1548404E-02 -0.3291525E+00  0.4330668E-03  0.1508256E-01 -0.9979896E-03 -0.5078781E-02
5600000.  0.1548404E-02 -0.3291525E+00  0.4330668E-03  0.1508256E-01 -0.9979896E-03 -0.5078781E-02
5563518.  0.3395173E-02 -0.3141013E+00  0.3376955E-03  0.1794350E-01 -0.9516360E-03 -0.1107099E-01
5527037.  0.5126093E-02 -0.2888470E+00  0.2308884E-03  0.1907285E-01 -0.8718495E-03 -0.1672403E-01
5490556.  0.6685453E-02 -0.2543618E+00  0.1224690E-03  0.1853112E-01 -0.7611145E-03 -0.2185102E-01
5454074.  0.8023825E-02 -0.2118793E+00  0.2143133E-04  0.1654415E-01 -0.6229269E-03 -0.2628525E-01
5417593.  0.9099574E-02 -0.1629086E+00 -0.6493230E-04  0.1347588E-01 -0.4616848E-03 -0.2988335E-01
5381111.  0.9880211E-02 -0.1090804E+00 -0.1316838E-03  0.9772275E-02 -0.2825045E-03 -0.3253271E-01
5344630.  0.1034292E-01 -0.5217430E-01 -0.1765572E-03  0.5915512E-02 -0.9107785E-04 -0.3415141E-01
5308148.  0.1047535E-01  0.5972190E-02 -0.2000259E-03  0.2368288E-02  0.1065460E-03 -0.3469020E-01
5271667.  0.1027569E-01  0.6351113E-01 -0.2050237E-03 -0.4784114E-03  0.3041195E-03 -0.3413629E-01
5235185.  0.9752577E-02  0.1186529E+00 -0.1964360E-03 -0.2339966E-02  0.4954342E-03 -0.3250807E-01
5198704.  0.8924635E-02  0.1697155E+00 -0.1803987E-03 -0.3068072E-02  0.6744600E-03 -0.2985734E-01
5162222.  0.7819699E-02  0.2151513E+00 -0.1634729E-03 -0.2661974E-02  0.8355771E-03 -0.2626741E-01
5125741.  0.6473877E-02  0.2536667E+00 -0.1518203E-03 -0.1260606E-02  0.9736964E-03 -0.2184642E-01
5089259.  0.4929915E-02  0.2841813E+00 -0.1504417E-03  0.8741601E-03  0.1084435E-02 -0.1672696E-01
5052778.  0.3236206E-02  0.3058783E+00 -0.1625617E-03  0.3390091E-02  0.1164217E-02 -0.1106126E-01
5016296.  0.1444645E-02  0.3182841E+00 -0.1892299E-03  0.5886623E-02  0.1210384E-02 -0.5014505E-02
4979815. -0.3906875E-03  0.3211712E+00 -0.2291615E-03  0.7957253E-02  0.1221253E-02  0.1237654E-02
4943333. -0.2215509E-02  0.3146404E+00 -0.2788424E-03  0.9235919E-02  0.1196160E-02  0.7516033E-02
4906852. -0.3976825E-02  0.2990907E+00 -0.3328687E-03  0.9436036E-02  0.1135469E-02  0.1364171E-01
4870370. -0.5624703E-02  0.2751287E+00 -0.3845025E-03  0.8380776E-02  0.1040550E-02  0.1944260E-01
4833889. -0.7113330E-02  0.2436502E+00 -0.4263559E-03  0.6024186E-02  0.9137389E-03  0.2475544E-01
4797407. -0.8402726E-02  0.2057147E+00 -0.4511730E-03  0.2456475E-02  0.7582553E-03  0.2943281E-01
4760926. -0.9459165E-02  0.1625081E+00 -0.4525924E-03 -0.2101118E-02  0.5781237E-03  0.3334604E-01
4724444. -0.1025630E-01  0.1153624E+00 -0.4258438E-03 -0.7319026E-02  0.3780327E-03  0.3638607E-01
4687963. -0.1077541E-01  0.6563773E-01 -0.3682964E-03 -0.1278503E-01  0.1632447E-03  0.3846965E-01
4651482. -0.1100570E-01  0.1471308E-01 -0.2798236E-03 -0.1804343E-01 -0.6059303E-04  0.3953937E-01
4615000. -0.1094420E-01 -0.3605618E-01 -0.1629214E-03 -0.2263969E-01 -0.2875760E-03  0.3956314E-01
4578518. -0.1059554E-01 -0.8537481E-01 -0.2261298E-04 -0.2615386E-01 -0.5116877E-03  0.3853839E-01
4542037. -0.9971539E-02 -0.1320400E+00  0.1338794E-03 -0.2824556E-01 -0.7269736E-03  0.3648856E-01
4505556. -0.9090514E-02 -0.1749767E+00  0.2976972E-03 -0.2868341E-01 -0.9276971E-03  0.3346258E-01
4469074. -0.7976631E-02 -0.2132139E+00  0.4589958E-03 -0.2735772E-01 -0.1108479E-02  0.2953610E-01
4432593. -0.6659209E-02 -0.2459615E+00  0.6077010E-03 -0.2430372E-01 -0.1264418E-02  0.2480503E-01
4396111. -0.5171516E-02 -0.2725716E+00  0.7343416E-03 -0.1968779E-01 -0.1391239E-02  0.1938548E-01
4359630. -0.3550377E-02 -0.2925164E+00  0.8307298E-03 -0.1379548E-01 -0.1485370E-02  0.1341155E-01
4323148. -0.1834834E-02 -0.3054881E+00  0.8906291E-03 -0.7012997E-02 -0.1544051E-02  0.7028611E-02
4286667. -0.6554244E-04 -0.3112821E+00  0.9101999E-03  0.2116396E-03 -0.1565382E-02  0.3927927E-03
4250185.  0.1716247E-02 -0.3098441E+00  0.8882696E-03  0.7402535E-02 -0.1548374E-02 -0.6334766E-02
4213704.  0.3469324E-02 -0.3012980E+00  0.8263791E-03  0.1409455E-01 -0.1492972E-02 -0.1299055E-01
4177222.  0.5153620E-02 -0.2858513E+00  0.7286076E-03  0.1987005E-01 -0.1400044E-02 -0.1941422E-01
4140741.  0.6730516E-02 -0.2638773E+00  0.6012199E-03  0.2439211E-01 -0.1271374E-02 -0.2545018E-01
4104259.  0.8164112E-02 -0.2358720E+00  0.4520994E-03  0.2743006E-01 -0.1109598E-02 -0.3095274E-01
4067778.  0.9421360E-02 -0.2024057E+00  0.2901447E-03  0.2886783E-01 -0.9181631E-03 -0.3579006E-01
4031296.  0.1047309E-01 -0.1642077E+00  0.1245243E-03  0.2872189E-01 -0.7012140E-03 -0.3984382E-01
3994815.  0.1129442E-01 -0.1220800E+00 -0.3601264E-04  0.2712457E-01 -0.4635440E-03 -0.4301490E-01
3958333.  0.1186534E-01 -0.7689986E-01 -0.1837831E-03  0.2430849E-01 -0.2104242E-03 -0.4522625E-01
3921852.  0.1217114E-01 -0.2964491E-01 -0.3126870E-03  0.2059467E-01  0.5245671E-04 -0.4641889E-01
3885370.  0.1220281E-01  0.1867026E-01 -0.4186222E-03  0.1634813E-01  0.3191732E-03 -0.4655991E-01
3848889.  0.1195733E-01  0.6697974E-01 -0.4996280E-03  0.1195244E-01  0.5836497E-03 -0.4563908E-01
3812407.  0.1143777E-01  0.1142168E+00 -0.5559307E-03  0.7777413E-02  0.8398414E-03 -0.4366789E-01
3775926.  0.1065341E-01  0.1592956E+00 -0.5897289E-03  0.4140254E-02  0.1081816E-02 -0.4068393E-01
3739444.  0.9619551E-02  0.2011881E+00 -0.6048476E-03  0.1286673E-02  0.1303942E-02 -0.3674414E-01
3702963.  0.8357267E-02  0.2389289E+00 -0.6062568E-03 -0.6316983E-03  0.1500947E-02 -0.3192643E-01
3666482.  0.6893006E-02  0.2715938E+00 -0.5994886E-03 -0.1570861E-02  0.1668083E-02 -0.2632949E-01
3630000.  0.5257989E-02  0.2984407E+00 -0.5900291E-03 -0.1590137E-02  0.1801207E-02 -0.2006554E-01
3630000.  0.5257989E-02  0.2984407E+00 -0.5900291E-03 -0.1590137E-02  0.1801207E-02 -0.2006554E-01
3592500.  0.3436562E-02  0.3192658E+00 -0.5825996E-03 -0.8199572E-03  0.1898959E-02 -0.1306681E-01
3555000.  0.1514073E-02  0.3327131E+00 -0.5814395E-03  0.4899738E-03  0.1954210E-02 -0.5650041E-02
3517500. -0.4650994E-03  0.3384888E+00 -0.5887866E-03  0.2012414E-02  0.1964964E-02  0.2025187E-02
3480000. -0.2455261E-02  0.3364400E+00 -0.6048405E-03  0.3387652E-02  0.1930187E-02  0.9793339E-02
3480000. -0.2455261E-02  0.5756725E+00 -0.5053309E-03 -0.3560846E-02  0.1930187E-02  0.1766732E-01
3409422. -0.8270566E-02  0.4533908E+00 -0.4025028E-03 -0.1469782E-01  0.1491015E-02  0.6013687E-01
3338844. -0.1212149E-01  0.2291011E+00 -0.1911209E-03 -0.2276348E-01  0.6480996E-03  0.8910253E-01
3268266. -0.1317483E-01 -0.4150806E-01  0.8329976E-04 -0.2584516E-01 -0.4080409E-03  0.9789216E-01
3197688. -0.1125767E-01 -0.2972647E+00  0.3600068E-03 -0.2314739E-01 -0.1438491E-02  0.8455829E-01
3127109. -0.6843298E-02 -0.4846428E+00  0.5763220E-03 -0.1511618E-01 -0.2210137E-02  0.5202819E-01
3056531. -0.9078880E-03 -0.5677264E+00  0.6808894E-03 -0.3310549E-02 -0.2545672E-02  0.7239208E-02
2985953.  0.5299610E-02 -0.5336348E+00  0.6443168E-03  0.9934396E-02 -0.2359683E-02 -0.4047248E-01
2915375.  0.1051945E-01 -0.3930019E+00  0.4652624E-03  0.2197286E-01 -0.1674435E-02 -0.8133749E-01
2844797.  0.1372381E-01 -0.1761156E+00  0.1710789E-03  0.3035220E-01 -0.6138069E-03 -0.1070759E+00
2774219.  0.1429793E-01  0.7409032E-01 -0.1869092E-03  0.3326385E-01  0.6221555E-03 -0.1124241E+00
2703641.  0.1213341E-01  0.3105989E+00 -0.5424855E-03  0.2986862E-01  0.1796236E-02 -0.9602109E-01
2633062.  0.7625501E-02  0.4908262E+00 -0.8262981E-03  0.2044824E-01  0.2678748E-02 -0.6054521E-01
2562484.  0.1583337E-02  0.5836597E+00 -0.9782214E-03  0.6366928E-02  0.3089637E-02 -0.1213438E-01
2491906. -0.4925644E-02  0.5740720E+00 -0.9583262E-03 -0.1014441E-01  0.2930894E-02  0.4077303E-01
2421328. -0.1076545E-01  0.4647434E+00 -0.7546137E-03 -0.2634102E-01  0.2203887E-02  0.8893601E-01
2350750. -0.1492306E-01  0.2747493E+00 -0.3863554E-03 -0.3939743E-01  0.1009482E-02  0.1238882E+00
2280172. -0.1667092E-01  0.3573956E-01  0.9749745E-04 -0.4685246E-01 -0.4685507E-03  0.1393331E+00
2209594. -0.1567674E-01 -0.2135828E+00  0.6246038E-03 -0.4700266E-01 -0.1993544E-02  0.1321430E+00
2139016. -0.1204715E-01 -0.4337368E+00  0.1109327E-02 -0.3918733E-01 -0.3314171E-02  0.1028280E+00
2068438. -0.6302195E-02 -0.5905054E+00  0.1465200E-02 -0.2392620E-01 -0.4204647E-02  0.5542419E-01
1997859.  0.7116974E-03 -0.6598513E+00  0.1618000E-02 -0.2892175E-02 -0.4500662E-02 -0.3154176E-02
1927281.  0.7953560E-02 -0.6311068E+00  0.1517637E-02  0.2127332E-01 -0.4125685E-02 -0.6417507E-01
1856703.  0.1434455E-01 -0.5080440E+00  0.1147212E-02  0.4528348E-01 -0.3104006E-02 -0.1183978E+00
1786125.  0.1892363E-01 -0.3078414E+00  0.5279427E-03  0.6561597E-01 -0.1558869E-02 -0.1574136E+00
1715547.  0.2098168E-01 -0.5818322E-01 -0.2806972E-03  0.7896181E-01  0.3035435E-03 -0.1748329E+00
1644969.  0.2015534E-01  0.2069736E+00 -0.1185765E-02  0.8265400E-01  0.2221618E-02 -0.1671484E+00
1574391.  0.1646956E-01  0.4523211E+00 -0.2070005E-02  0.7502031E-01  0.3913056E-02 -0.1341642E+00
1503812.  0.1032500E-01  0.6461042E+00 -0.2804301E-02  0.5561672E-01  0.5111708E-02 -0.7893927E-01
1433234.  0.2434766E-02  0.7643237E+00 -0.3261850E-02  0.2531139E-01  0.5601114E-02 -0.7273297E-02
1362656. -0.6279997E-02  0.7937600E+00 -0.3332472E-02 -0.1379622E-01  0.5240243E-02  0.7320144E-01
1292078. -0.1481879E-01  0.7334228E+00 -0.2935017E-02 -0.5861398E-01  0.3977469E-02  0.1541823E+00
1221500. -0.2223780E-01  0.5943815E+00 -0.2026419E-02 -0.1054312E+00  0.1850924E-02  0.2279835E+00
1221500. -0.2223780E-01  0.3553641E+01  0.5869685E-01  0.4221323E+00  0.1850924E-02  0.2376170E+00
1183328. -0.4225105E-01  0.2885972E+01  0.4503291E-01  0.4008427E+01  0.4554360E-03  0.2274890E+00
1145156. -0.5418041E-01  0.9144497E+00  0.1356813E-01  0.6158150E+01 -0.8668537E-03  0.2132434E+00
1106984. -0.5178307E-01 -0.1758984E+01 -0.2404729E-01  0.5977944E+01 -0.2092554E-02  0.1953393E+00
1068812. -0.3359054E-01 -0.4187096E+01 -0.5328456E-01  0.3434972E+01 -0.3201533E-02  0.1743937E+00
1030641. -0.4055751E-02 -0.5402070E+01 -0.6217150E-01 -0.6077771E+00 -0.4177601E-02  0.1510989E+00
 992469.  0.2742923E-01 -0.4779135E+01 -0.4591820E-01 -0.4689410E+01 -0.5008814E-02  0.1261436E+00
 954297.  0.4947688E-01 -0.2309418E+01 -0.9000530E-02 -0.7274621E+01 -0.5687137E-02  0.1001625E+00
 916125.  0.5274333E-01  0.1323552E+01  0.3611334E-01 -0.7316761E+01 -0.6208147E-02  0.7372004E-01
 877953.  0.3369934E-01  0.4909498E+01  0.7321069E-01 -0.4656046E+01 -0.6570634E-02  0.4733020E-01
 839781. -0.3245570E-02  0.7082946E+01  0.8808725E-01 -0.1078461E+00 -0.6776432E-02  0.2150296E-01
 801609. -0.4620383E-01  0.6791560E+01  0.7378183E-01  0.4794385E+01 -0.6830528E-02 -0.3212388E-02
 763438. -0.7899197E-01  0.3710316E+01  0.3342026E-01  0.8316910E+01 -0.6741381E-02 -0.2620664E-01
 725266. -0.8626452E-01 -0.1543691E+01 -0.2040177E-01  0.9127334E+01 -0.6521230E-02 -0.4683199E-01
 687094. -0.5908560E-01 -0.7485286E+01 -0.6955488E-01  0.6771207E+01 -0.6186188E-02 -0.6445716E-01
 648922.  0.8364719E-03 -0.1212923E+02 -0.9637638E-01  0.1860016E+01 -0.5755900E-02 -0.7854939E-01
 610750.  0.7979891E-01 -0.1356128E+02 -0.8971888E-01 -0.4100395E+01 -0.5252681E-02 -0.8876371E-01
 572578.  0.1543915E+00 -0.1055098E+02 -0.4900068E-01 -0.9186935E+01 -0.4700195E-02 -0.9500051E-01
 534406.  0.1971125E+00 -0.3019810E+01  0.1514694E-01 -0.1168586E+02 -0.4121910E-02 -0.9742410E-01
 496234.  0.1839515E+00  0.7790961E+01  0.8391865E-01 -0.1066145E+02 -0.3539597E-02 -0.9642731E-01
 458062.  0.1018636E+00  0.1952810E+02  0.1361202E+00 -0.6277561E+01 -0.2972168E-02 -0.9255535E-01
 419891. -0.4606875E-01  0.2927773E+02  0.1548413E+00  0.2361244E+00 -0.2435051E-02 -0.8641578E-01
 381719. -0.2395150E+00  0.3432590E+02  0.1328533E+00  0.6965491E+01 -0.1940037E-02 -0.7858756E-01
 343547. -0.4444060E+00  0.3292039E+02  0.7496472E-01  0.1191568E+02 -0.1495716E-02 -0.6956902E-01
 305375. -0.6205215E+00  0.2482263E+02 -0.3430444E-02  0.1364483E+02 -0.1107957E-02 -0.5976745E-01
 267203. -0.7312817E+00  0.1147796E+02 -0.8116448E-01  0.1171940E+02 -0.7804154E-03 -0.4952133E-01
 229031. -0.7532316E+00 -0.4260182E+01 -0.1379122E+00  0.6844813E+01 -0.5147703E-03 -0.3916388E-01
 190859. -0.6826383E+00 -0.1879851E+02 -0.1604823E+00  0.6294813E+00 -0.3105672E-03 -0.2908157E-01
 152688. -0.5373080E+00 -0.2869795E+02 -0.1467629E+00 -0.4940561E+01 -0.1648228E-03 -0.1973365E-01
 114516. -0.3529209E+00 -0.3156099E+02 -0.1060584E+00 -0.8146050E+01 -0.7158615E-04 -0.1164464E-01
  76344. -0.1747260E+00 -0.2667076E+02 -0.5574637E-01 -0.8085984E+01 -0.2166901E-04 -0.5362351E-02
  38172. -0.4655480E-01 -0.1521182E+02 -0.1535385E-01 -0.4961783E+01 -0.2744751E-05 -0.1368599E-02
      0.  0.0000000E+00  0.0000000E+00  0.0000000E+00  0.0000000E+00  0.0000000E+00  0.0000000E+00
