      25        5 S      736         98.02073         74.25177         14.67444        742.24719      185    7
6371000. -0.3546744E-01  0.4928927E-01  0.1816679E-02  0.3728411E-01  0.0000000E+00  0.0000000E+00
6370000. -0.3547300E-01  0.2154327E-01  0.1810462E-02  0.4193760E-01  0.0000000E+00  0.0000000E+00
6369000. -0.3547420E-01 -0.6229301E-02  0.1803516E-02  0.4656572E-01  0.0000000E+00  0.0000000E+00
6368000. -0.3547104E-01 -0.3402497E-01  0.1795845E-02  0.5116661E-01  0.0000000E+00  0.0000000E+00
6368000. -0.3547104E-01 -0.3402497E-01  0.1795845E-02  0.5116661E-01  0.0000000E+00  0.0000000E+00
6367000. -0.3546352E-01 -0.6184026E-01  0.1787455E-02  0.5573840E-01  0.0000000E+00  0.0000000E+00
6366000. -0.3545162E-01 -0.8967168E-01  0.1778349E-02  0.6027925E-01  0.0000000E+00  0.0000000E+00
6365000. -0.3543536E-01 -0.1175157E+00  0.1768533E-02  0.6478731E-01  0.0000000E+00  0.0000000E+00
6364000. -0.3541473E-01 -0.1453689E+00  0.1758013E-02  0.6926078E-01  0.0000000E+00  0.0000000E+00
6363000. -0.3538973E-01 -0.1732277E+00  0.1746793E-02  0.7369782E-01  0.0000000E+00  0.0000000E+00
6362000. -0.3536035E-01 -0.2010887E+00  0.1734879E-02  0.7809665E-01  0.0000000E+00  0.0000000E+00
6361000. -0.3532660E-01 -0.2289481E+00  0.1722279E-02  0.8245550E-01  0.0000000E+00  0.0000000E+00
6360000. -0.3528848E-01 -0.2568026E+00  0.1708997E-02  0.8677260E-01  0.0000000E+00  0.0000000E+00
6359000. -0.3524599E-01 -0.2846487E+00  0.1695041E-02  0.9104621E-01  0.0000000E+00  0.0000000E+00
6358000. -0.3519912E-01 -0.3124826E+00  0.1680418E-02  0.9527460E-01  0.0000000E+00  0.0000000E+00
6357000. -0.3514789E-01 -0.3403010E+00  0.1665135E-02  0.9945607E-01  0.0000000E+00  0.0000000E+00
6356000. -0.3509230E-01 -0.3681002E+00  0.1649199E-02  0.1035889E+00  0.0000000E+00  0.0000000E+00
6356000. -0.3509230E-01 -0.2296274E+00  0.1649199E-02  0.7712469E-01  0.0000000E+00  0.0000000E+00
6355000. -0.3505467E-01 -0.2498038E+00  0.1636877E-02  0.7987916E-01  0.0000000E+00  0.0000000E+00
6354000. -0.3501388E-01 -0.2699730E+00  0.1624124E-02  0.8260647E-01  0.0000000E+00  0.0000000E+00
6353000. -0.3496992E-01 -0.2901333E+00  0.1610946E-02  0.8530589E-01  0.0000000E+00  0.0000000E+00
6352000. -0.3492280E-01 -0.3102827E+00  0.1597347E-02  0.8797669E-01  0.0000000E+00  0.0000000E+00
6351000. -0.3487252E-01 -0.3304194E+00  0.1583330E-02  0.9061813E-01  0.0000000E+00  0.0000000E+00
6350000. -0.3481907E-01 -0.3505414E+00  0.1568901E-02  0.9322951E-01  0.0000000E+00  0.0000000E+00
6349000. -0.3476248E-01 -0.3706470E+00  0.1554065E-02  0.9581012E-01  0.0000000E+00  0.0000000E+00
6348000. -0.3470272E-01 -0.3907341E+00  0.1538826E-02  0.9835925E-01  0.0000000E+00  0.0000000E+00
6347000. -0.3463982E-01 -0.4108009E+00  0.1523189E-02  0.1008762E+00  0.0000000E+00  0.0000000E+00
6346600. -0.3461377E-01 -0.4188215E+00  0.1516824E-02  0.1018738E+00  0.0000000E+00  0.0000000E+00
6346600. -0.3461377E-01 -0.2364933E+00  0.1516824E-02  0.8056171E-01  0.0000000E+00  0.0000000E+00
6318800. -0.3270495E-01 -0.6371832E+00  0.1060581E-02  0.1250539E+00  0.0000000E+00  0.0000000E+00
6291000. -0.2907999E-01 -0.1019332E+01  0.4604231E-03  0.1456557E+00  0.0000000E+00  0.0000000E+00
6291000. -0.2907999E-01 -0.1032199E+01  0.4604231E-03  0.1494543E+00  0.0000000E+00  0.0000000E+00
6263000. -0.2375922E-01 -0.1380075E+01 -0.1914388E-03  0.1423675E+00  0.0000000E+00  0.0000000E+00
6235000. -0.1704513E-01 -0.1662699E+01 -0.7509732E-03  0.1081448E+00  0.0000000E+00  0.0000000E+00
6207000. -0.9268943E-02 -0.1860470E+01 -0.1111560E-02  0.5325696E-01  0.0000000E+00  0.0000000E+00
6179000. -0.8386017E-03 -0.1958321E+01 -0.1203494E-02 -0.1221517E-01  0.0000000E+00  0.0000000E+00
6151000.  0.7784103E-02 -0.1947010E+01 -0.1006200E-02 -0.7632213E-01  0.0000000E+00  0.0000000E+00
6151000.  0.7784103E-02 -0.1574117E+01 -0.1006200E-02 -0.6822801E-01  0.0000000E+00  0.0000000E+00
6128500.  0.1317800E-01 -0.1473117E+01 -0.6971013E-03 -0.1052201E+00  0.0000000E+00  0.0000000E+00
6106000.  0.1813948E-01 -0.1330124E+01 -0.2763555E-03 -0.1309105E+00  0.0000000E+00  0.0000000E+00
6083500.  0.2253040E-01 -0.1151085E+01  0.2111080E-03 -0.1426792E+00  0.0000000E+00  0.0000000E+00
6061000.  0.2623546E-01 -0.9429249E+00  0.7135520E-03 -0.1393167E+00  0.0000000E+00  0.0000000E+00
6038500.  0.2916506E-01 -0.7132221E+00  0.1177602E-02 -0.1211070E+00  0.0000000E+00  0.0000000E+00
6016000.  0.3125697E-01 -0.4698433E+00  0.1553451E-02 -0.8976299E-01  0.0000000E+00  0.0000000E+00
5993500.  0.3247676E-01 -0.2206163E+00  0.1799590E-02 -0.4823025E-01  0.0000000E+00  0.0000000E+00
5971000.  0.3281717E-01  0.2697233E-01  0.1886660E-02 -0.3847776E-03  0.0000000E+00  0.0000000E+00
5971000.  0.3281717E-01  0.2409194E-01  0.1886660E-02 -0.3978172E-02  0.0000000E+00  0.0000000E+00
5937667.  0.3182574E-01  0.3478158E+00  0.1733259E-02  0.6161847E-01  0.0000000E+00  0.0000000E+00
5904333.  0.2926173E-01  0.6234448E+00  0.1261756E-02  0.1159288E+00  0.0000000E+00  0.0000000E+00
5871000.  0.2539976E-01  0.8431290E+00  0.5544132E-03  0.1507470E+00  0.0000000E+00  0.0000000E+00
5837667.  0.2054216E-01  0.1003897E+01 -0.2744147E-03  0.1620574E+00  0.0000000E+00  0.0000000E+00
5804333.  0.1499615E-01  0.1106628E+01 -0.1100411E-02  0.1499947E+00  0.0000000E+00  0.0000000E+00
5771000.  0.9057172E-02  0.1154962E+01 -0.1809359E-02  0.1181602E+00  0.0000000E+00  0.0000000E+00
5771000.  0.9057172E-02  0.1154974E+01 -0.1809359E-02  0.1181560E+00  0.0000000E+00  0.0000000E+00
5701000. -0.3953327E-02  0.1179443E+01 -0.2592186E-02  0.1707217E-01  0.0000000E+00  0.0000000E+00
5701000. -0.3953327E-02  0.9723158E+00 -0.2592186E-02  0.1382272E-01  0.0000000E+00  0.0000000E+00
5667333. -0.8764474E-02  0.8584718E+00 -0.2537694E-02 -0.3298259E-01  0.0000000E+00  0.0000000E+00
5633667. -0.1310659E-01  0.7856407E+00 -0.2250042E-02 -0.7534914E-01  0.0000000E+00  0.0000000E+00
5600000. -0.1701904E-01  0.6908739E+00 -0.1756139E-02 -0.1097886E+00  0.0000000E+00  0.0000000E+00
5600000. -0.1701904E-01  0.6908739E+00 -0.1756139E-02 -0.1097886E+00  0.0000000E+00  0.0000000E+00
5563518. -0.2062927E-01  0.5666574E+00 -0.1050445E-02 -0.1341883E+00  0.0000000E+00  0.0000000E+00
5527037. -0.2347317E-01  0.4238974E+00 -0.2499207E-03 -0.1426514E+00  0.0000000E+00  0.0000000E+00
5490556. -0.2545604E-01  0.2666088E+00  0.5516512E-03 -0.1346399E+00  0.0000000E+00  0.0000000E+00
5454074. -0.2650701E-01  0.9916399E-01  0.1263374E-02 -0.1116831E+00  0.0000000E+00  0.0000000E+00
5417593. -0.2658155E-01 -0.7358802E-01  0.1808512E-02 -0.7714867E-01  0.0000000E+00  0.0000000E+00
5381111. -0.2566416E-01 -0.2463619E+00  0.2133644E-02 -0.3569133E-01  0.0000000E+00  0.0000000E+00
5344630. -0.2377109E-01 -0.4133919E+00  0.2214267E-02  0.7337651E-02  0.0000000E+00  0.0000000E+00
5308148. -0.2095228E-01 -0.5686487E+00  0.2056828E-02  0.4660640E-01  0.0000000E+00  0.0000000E+00
5271667. -0.1729323E-01 -0.7058652E+00  0.1696658E-02  0.7746114E-01  0.0000000E+00  0.0000000E+00
5235185. -0.1291426E-01 -0.8191137E+00  0.1192388E-02  0.9649070E-01  0.0000000E+00  0.0000000E+00
5198704. -0.7968593E-02 -0.9029895E+00  0.6177229E-03  0.1019000E+00  0.0000000E+00  0.0000000E+00
5162222. -0.2637905E-02 -0.9528983E+00  0.5154375E-04  0.9366863E-01  0.0000000E+00  0.0000000E+00
5125741.  0.2873633E-02 -0.9658290E+00 -0.4321742E-03  0.7352322E-01  0.0000000E+00  0.0000000E+00
5089259.  0.8349407E-02 -0.9402354E+00 -0.7737079E-03  0.4463138E-01  0.0000000E+00  0.0000000E+00
5052778.  0.1356840E-01 -0.8764225E+00 -0.9345858E-03  0.1118371E-01  0.0000000E+00  0.0000000E+00
5016296.  0.1831794E-01 -0.7767667E+00 -0.9019963E-03 -0.2215764E-01  0.0000000E+00  0.0000000E+00
4979815.  0.2240349E-01 -0.6453834E+00 -0.6897469E-03 -0.5085127E-01  0.0000000E+00  0.0000000E+00
4943333.  0.2565959E-01 -0.4881309E+00 -0.3359448E-03 -0.7103454E-01  0.0000000E+00  0.0000000E+00
4906852.  0.2795808E-01 -0.3122253E+00  0.1022298E-03 -0.7998416E-01  0.0000000E+00  0.0000000E+00
4870370.  0.2921494E-01 -0.1256950E+00  0.5560849E-03 -0.7642573E-01  0.0000000E+00  0.0000000E+00
4833889.  0.2939353E-01  0.6297154E-01  0.9541177E-03 -0.6067586E-01  0.0000000E+00  0.0000000E+00
4797407.  0.2850551E-01  0.2454989E+00  0.1231123E-02 -0.3457416E-01  0.0000000E+00  0.0000000E+00
4760926.  0.2660846E-01  0.4142138E+00  0.1336239E-02 -0.1253299E-02  0.0000000E+00  0.0000000E+00
4724444.  0.2380059E-01  0.5626373E+00  0.1239368E-02  0.3525123E-01  0.0000000E+00  0.0000000E+00
4687963.  0.2021356E-01  0.6856623E+00  0.9349852E-03  0.7047421E-01  0.0000000E+00  0.0000000E+00
4651482.  0.1600349E-01  0.7798308E+00  0.4431074E-03  0.1000477E+00  0.0000000E+00  0.0000000E+00
4615000.  0.1134098E-01  0.8435026E+00 -0.1927875E-03  0.1202177E+00  0.0000000E+00  0.0000000E+00
4578518.  0.6401867E-02  0.8765470E+00 -0.9104192E-03  0.1282433E+00  0.0000000E+00  0.0000000E+00
4542037.  0.1358345E-02  0.8803692E+00 -0.1635540E-02  0.1227318E+00  0.0000000E+00  0.0000000E+00
4505556. -0.3629409E-02  0.8575600E+00 -0.2290232E-02  0.1037845E+00  0.0000000E+00  0.0000000E+00
4469074. -0.8417986E-02  0.8113551E+00 -0.2801358E-02  0.7296021E-01  0.0000000E+00  0.0000000E+00
4432593. -0.1288401E-01  0.7456022E+00 -0.3108566E-02  0.3313795E-01  0.0000000E+00  0.0000000E+00
4396111. -0.1692686E-01  0.6641206E+00 -0.3170997E-02 -0.1183291E-01  0.0000000E+00  0.0000000E+00
4359630. -0.2046643E-01  0.5704229E+00 -0.2971668E-02 -0.5752829E-01  0.0000000E+00  0.0000000E+00
4323148. -0.2344234E-01  0.4676978E+00 -0.2519397E-02 -0.9944300E-01  0.0000000E+00  0.0000000E+00
4286667. -0.2581024E-01  0.3584437E+00 -0.1847973E-02 -0.1334436E+00  0.0000000E+00  0.0000000E+00
4250185. -0.2753853E-01  0.2445600E+00 -0.1012667E-02 -0.1562115E+00  0.0000000E+00  0.0000000E+00
4213704. -0.2860492E-01  0.1274609E+00 -0.8462080E-04 -0.1655914E+00  0.0000000E+00  0.0000000E+00
4177222. -0.2899401E-01  0.8143869E-02  0.8565324E-03 -0.1607635E+00  0.0000000E+00  0.0000000E+00
4140741. -0.2869563E-01 -0.1125122E+00  0.1730490E-02 -0.1423533E+00  0.0000000E+00  0.0000000E+00
4104259. -0.2770465E-01 -0.2335758E+00  0.2464572E-02 -0.1123274E+00  0.0000000E+00  0.0000000E+00
4067778. -0.2602236E-01 -0.3537316E+00  0.3000531E-02 -0.7375087E-01  0.0000000E+00  0.0000000E+00
4031296. -0.2365855E-01 -0.4712608E+00  0.3300249E-02 -0.3050146E-01  0.0000000E+00  0.0000000E+00
3994815. -0.2063483E-01 -0.5837876E+00  0.3349035E-02  0.1317681E-01  0.0000000E+00  0.0000000E+00
3958333. -0.1698823E-01 -0.6882312E+00  0.3156525E-02  0.5310645E-01  0.0000000E+00  0.0000000E+00
3921852. -0.1277499E-01 -0.7811200E+00  0.2755114E-02  0.8558896E-01  0.0000000E+00  0.0000000E+00
3885370. -0.8072248E-02 -0.8584636E+00  0.2196031E-02  0.1077853E+00  0.0000000E+00  0.0000000E+00
3848889. -0.2981116E-02 -0.9161631E+00  0.1543713E-02  0.1179791E+00  0.0000000E+00  0.0000000E+00
3812407.  0.2375245E-02 -0.9504384E+00  0.8686890E-03  0.1157472E+00  0.0000000E+00  0.0000000E+00
3775926.  0.7852249E-02 -0.9578510E+00  0.2402858E-03  0.1019505E+00  0.0000000E+00  0.0000000E+00
3739444.  0.1328895E-01 -0.9360119E+00 -0.2806826E-03  0.7865050E-01  0.0000000E+00  0.0000000E+00
3702963.  0.1851355E-01 -0.8837112E+00 -0.6480336E-03  0.4886453E-01  0.0000000E+00  0.0000000E+00
3666482.  0.2335114E-01 -0.8009900E+00 -0.8348234E-03  0.1622438E-01  0.0000000E+00  0.0000000E+00
3630000.  0.2763203E-01 -0.6896513E+00 -0.8358302E-03 -0.1537852E-01  0.0000000E+00  0.0000000E+00
3630000.  0.2763203E-01 -0.6896513E+00 -0.8358302E-03 -0.1537852E-01  0.0000000E+00  0.0000000E+00
3592500.  0.3128871E-01 -0.5487546E+00 -0.6610181E-03 -0.4287133E-01  0.0000000E+00  0.0000000E+00
3555000.  0.3404933E-01 -0.3861657E+00 -0.3478191E-03 -0.6189899E-01  0.0000000E+00  0.0000000E+00
3517500.  0.3580483E-01 -0.2083970E+00  0.4614852E-04 -0.7000349E-01  0.0000000E+00  0.0000000E+00
3480000.  0.3648729E-01 -0.2285386E-01  0.4523640E-03 -0.6597084E-01  0.0000000E+00  0.0000000E+00
3480000.  0.3648729E-01 -0.8577502E-01 -0.7154442E-05  0.6681272E-01  0.0000000E+00  0.0000000E+00
3409422.  0.3211155E-01  0.8509434E+00 -0.7353780E-03  0.6138846E-01  0.0000000E+00  0.0000000E+00
3338844.  0.1862360E-01  0.1522849E+01 -0.1300435E-02  0.3802810E-01  0.0000000E+00  0.0000000E+00
3268266. -0.3163646E-04  0.1766519E+01 -0.1534229E-02  0.2935517E-02  0.0000000E+00  0.0000000E+00
3197688. -0.1877241E-01  0.1542277E+01 -0.1356025E-02 -0.3469787E-01  0.0000000E+00  0.0000000E+00
3127109. -0.3275973E-01  0.9303176E+00 -0.7922858E-03 -0.6512891E-01  0.0000000E+00  0.0000000E+00
3056531. -0.3856973E-01  0.9898271E-01  0.3074994E-04 -0.8045832E-01  0.0000000E+00  0.0000000E+00
2985953. -0.3491331E-01 -0.7434620E+00  0.9183674E-03 -0.7645015E-01  0.0000000E+00  0.0000000E+00
2915375. -0.2279053E-01 -0.1400128E+01  0.1653762E-02 -0.5341345E-01  0.0000000E+00  0.0000000E+00
2844797. -0.5114859E-02 -0.1728418E+01  0.2048428E-02 -0.1603609E-01  0.0000000E+00  0.0000000E+00
2774219.  0.1405226E-01 -0.1666465E+01  0.1985319E-02  0.2771773E-01  0.0000000E+00  0.0000000E+00
2703641.  0.3045102E-01 -0.1239771E+01  0.1445889E-02  0.6835308E-01  0.0000000E+00  0.0000000E+00
2633062.  0.4053986E-01 -0.5491045E+00  0.5160121E-03  0.9684342E-01  0.0000000E+00  0.0000000E+00
2562484.  0.4219403E-01  0.2556247E+00 -0.6296689E-03  0.1064696E+00  0.0000000E+00  0.0000000E+00
2491906.  0.3506865E-01  0.1008867E+01 -0.1761393E-02  0.9416017E-01  0.0000000E+00  0.0000000E+00
2421328.  0.2058295E-01  0.1562879E+01 -0.2638744E-02  0.6109913E-01  0.0000000E+00  0.0000000E+00
2350750.  0.1564370E-02  0.1814895E+01 -0.3057432E-02  0.1252555E-01  0.0000000E+00  0.0000000E+00
2280172. -0.1835154E-01  0.1723480E+01 -0.2889641E-02 -0.4320104E-01  0.0000000E+00  0.0000000E+00
2209594. -0.3543298E-01  0.1312241E+01 -0.2110806E-02 -0.9607761E-01  0.0000000E+00  0.0000000E+00
2139016. -0.4653589E-01  0.6613826E+00 -0.8082751E-03 -0.1361977E+00  0.0000000E+00  0.0000000E+00
2068438. -0.4963900E-01 -0.1101693E+00  0.8293327E-03 -0.1554487E+00  0.0000000E+00  0.0000000E+00
1997859. -0.4414637E-01 -0.8680824E+00  0.2540036E-02 -0.1488822E+00  0.0000000E+00  0.0000000E+00
1927281. -0.3092374E-01 -0.1486709E+01  0.4028622E-02 -0.1155468E+00  0.0000000E+00  0.0000000E+00
1856703. -0.1208184E-01 -0.1869859E+01  0.5012673E-02 -0.5866260E-01  0.0000000E+00  0.0000000E+00
1786125.  0.9434679E-02 -0.1964861E+01  0.5266566E-02  0.1486395E-01  0.0000000E+00  0.0000000E+00
1715547.  0.3036880E-01 -0.1768189E+01  0.4656998E-02  0.9548470E-01  0.0000000E+00  0.0000000E+00
1644969.  0.4768660E-01 -0.1322474E+01  0.3164600E-02  0.1724361E+00  0.0000000E+00  0.0000000E+00
1574391.  0.5903700E-01 -0.7061448E+00  0.8887274E-03  0.2353065E+00  0.0000000E+00  0.0000000E+00
1503812.  0.6306665E-01 -0.1805488E-01 -0.1964806E-02  0.2755055E+00  0.0000000E+00  0.0000000E+00
1433234.  0.5955018E-01  0.6398740E+00 -0.5110484E-02  0.2874114E+00  0.0000000E+00  0.0000000E+00
1362656.  0.4933109E-01  0.1179139E+01 -0.8220428E-02  0.2690401E+00  0.0000000E+00  0.0000000E+00
1292078.  0.3409731E-01  0.1537534E+01 -0.1096556E-01  0.2221317E+00  0.0000000E+00  0.0000000E+00
1221500.  0.1604191E-01  0.1686888E+01 -0.1305471E-01  0.1516664E+00  0.0000000E+00  0.0000000E+00
1221500.  0.1604191E-01  0.9543428E+00 -0.1755606E-01 -0.1752376E+00  0.0000000E+00  0.0000000E+00
1183328.  0.9456899E-02  0.1270336E+01 -0.1580346E-01 -0.3783663E+00  0.0000000E+00  0.0000000E+00
1145156.  0.6733484E-03  0.1657153E+01 -0.1345545E-01 -0.3678620E+00  0.0000000E+00  0.0000000E+00
1106984. -0.1013182E-01  0.1910059E+01 -0.1180016E-01 -0.1578353E+00  0.0000000E+00  0.0000000E+00
1068812. -0.2157824E-01  0.1847955E+01 -0.1175795E-01  0.1476808E+00  0.0000000E+00  0.0000000E+00
1030641. -0.3149346E-01  0.1399595E+01 -0.1346210E-01  0.4000018E+00  0.0000000E+00  0.0000000E+00
 992469. -0.3773566E-01  0.6487555E+00 -0.1618309E-01  0.4707274E+00  0.0000000E+00  0.0000000E+00
 954297. -0.3909998E-01 -0.1838525E+00 -0.1862950E-01  0.3079660E+00  0.0000000E+00  0.0000000E+00
 916125. -0.3593087E-01 -0.8187091E+00 -0.1949773E-01 -0.4006637E-01  0.0000000E+00  0.0000000E+00
 877953. -0.3015088E-01 -0.1027289E+01 -0.1803583E-01 -0.4439495E+00  0.0000000E+00  0.0000000E+00
 839781. -0.2464428E-01 -0.7301439E+00 -0.1438369E-01 -0.7460375E+00  0.0000000E+00  0.0000000E+00
 801609. -0.2219199E-01 -0.4299724E-01 -0.9547458E-02 -0.8250890E+00  0.0000000E+00  0.0000000E+00
 763438. -0.2434753E-01  0.7510741E+00 -0.5019906E-02 -0.6456854E+00  0.0000000E+00  0.0000000E+00
 725266. -0.3069237E-01  0.1296888E+01 -0.2202365E-02 -0.2725698E+00  0.0000000E+00  0.0000000E+00
 687094. -0.3878536E-01  0.1296505E+01 -0.1864274E-02  0.1552350E+00  0.0000000E+00  0.0000000E+00
 648922. -0.4487304E-01  0.6255149E+00 -0.3852176E-02  0.4791589E+00  0.0000000E+00  0.0000000E+00
 610750. -0.4514244E-01 -0.6082393E+00 -0.7158884E-02  0.5821422E+00  0.0000000E+00  0.0000000E+00
 572578. -0.3708657E-01 -0.2087403E+01 -0.1031533E-01  0.4316960E+00  0.0000000E+00  0.0000000E+00
 534406. -0.2049639E-01 -0.3383557E+01 -0.1194299E-01  0.8884124E-01  0.0000000E+00  0.0000000E+00
 496234.  0.2285317E-02 -0.4097714E+01 -0.1124904E-01 -0.3189908E+00  0.0000000E+00  0.0000000E+00
 458062.  0.2695564E-01 -0.3993443E+01 -0.8279142E-02 -0.6487043E+00  0.0000000E+00  0.0000000E+00
 419891.  0.4849718E-01 -0.3075575E+01 -0.3847279E-02 -0.7949033E+00  0.0000000E+00  0.0000000E+00
 381719.  0.6265918E-01 -0.1586881E+01  0.8093158E-03 -0.7250919E+00  0.0000000E+00  0.0000000E+00
 343547.  0.6716598E-01  0.7476114E-01  0.4496613E-02 -0.4843913E+00  0.0000000E+00  0.0000000E+00
 305375.  0.6226600E-01  0.1488598E+01  0.6466927E-02 -0.1704841E+00  0.0000000E+00  0.0000000E+00
 267203.  0.5045572E-01  0.2344738E+01  0.6610909E-02  0.1087931E+00  0.0000000E+00  0.0000000E+00
 229031.  0.3551840E-01  0.2532559E+01  0.5389314E-02  0.2768046E+00  0.0000000E+00  0.0000000E+00
 190859.  0.2124835E-01  0.2154603E+01  0.3563258E-02  0.3118251E+00  0.0000000E+00  0.0000000E+00
 152688.  0.1032496E-01  0.1465075E+01  0.1857373E-02  0.2454014E+00  0.0000000E+00  0.0000000E+00
 114516.  0.3719606E-02  0.7593711E+00  0.7026966E-03  0.1387534E+00  0.0000000E+00  0.0000000E+00
  76344.  0.8048570E-03  0.2589360E+00  0.1570619E-03  0.4986965E-01  0.0000000E+00  0.0000000E+00
  38172.  0.5310052E-04  0.3513137E-01  0.1055604E-04  0.6962452E-02  0.0000000E+00  0.0000000E+00
      0.  0.0000000E+00  0.0000000E+00  0.0000000E+00  0.0000000E+00  0.0000000E+00  0.0000000E+00
