      13       15 S      589        116.63060         22.14335         12.67740        474.67181      185    7
6371000.  0.5061594E-01  0.2245012E-01  0.6598129E-03 -0.4995613E-01 -0.2459009E-03 -0.9151541E-01
6370000.  0.5061017E-01  0.5108517E-01  0.6675662E-03 -0.4883233E-01 -0.2315344E-03 -0.9154145E-01
6369000.  0.5059991E-01  0.7969496E-01  0.6751412E-03 -0.4768494E-01 -0.2171644E-03 -0.9156013E-01
6368000.  0.5058515E-01  0.1082764E+00  0.6825343E-03 -0.4651426E-01 -0.2027920E-03 -0.9157143E-01
6368000.  0.5058515E-01  0.1082764E+00  0.6825343E-03 -0.4651426E-01 -0.2027920E-03 -0.9157143E-01
6367000.  0.5056592E-01  0.1368265E+00  0.6897419E-03 -0.4532060E-01 -0.1884184E-03 -0.9157535E-01
6366000.  0.5054220E-01  0.1653422E+00  0.6967603E-03 -0.4410427E-01 -0.1740448E-03 -0.9157190E-01
6365000.  0.5051401E-01  0.1938205E+00  0.7035860E-03 -0.4286562E-01 -0.1596723E-03 -0.9156106E-01
6364000.  0.5048136E-01  0.2222584E+00  0.7102156E-03 -0.4160497E-01 -0.1453021E-03 -0.9154284E-01
6363000.  0.5044425E-01  0.2506528E+00  0.7166456E-03 -0.4032265E-01 -0.1309354E-03 -0.9151724E-01
6362000.  0.5040267E-01  0.2790008E+00  0.7228727E-03 -0.3901903E-01 -0.1165732E-03 -0.9148425E-01
6361000.  0.5035666E-01  0.3072995E+00  0.7288935E-03 -0.3769444E-01 -0.1022168E-03 -0.9144387E-01
6360000.  0.5030621E-01  0.3355457E+00  0.7347047E-03 -0.3634926E-01 -0.8786729E-04 -0.9139612E-01
6359000.  0.5025133E-01  0.3637367E+00  0.7403033E-03 -0.3498384E-01 -0.7352588E-04 -0.9134097E-01
6358000.  0.5019203E-01  0.3918693E+00  0.7456859E-03 -0.3359857E-01 -0.5919370E-04 -0.9127846E-01
6357000.  0.5012831E-01  0.4199409E+00  0.7508495E-03 -0.3219382E-01 -0.4487190E-04 -0.9120855E-01
6356000.  0.5006020E-01  0.4479483E+00  0.7557913E-03 -0.3076999E-01 -0.3056167E-04 -0.9113128E-01
6356000.  0.5006020E-01  0.2993573E+00  0.7557913E-03 -0.3816324E-01 -0.3056167E-04 -0.1020238E+00
6355000.  0.5001161E-01  0.3198688E+00  0.7617076E-03 -0.3722012E-01 -0.1455125E-04 -0.1019800E+00
6354000.  0.4995979E-01  0.3403432E+00  0.7674748E-03 -0.3626366E-01  0.1451844E-05 -0.1019305E+00
6353000.  0.4990476E-01  0.3607787E+00  0.7730909E-03 -0.3529404E-01  0.1744672E-04 -0.1018753E+00
6352000.  0.4984654E-01  0.3811738E+00  0.7785537E-03 -0.3431142E-01  0.3343250E-04 -0.1018145E+00
6351000.  0.4978511E-01  0.4015270E+00  0.7838613E-03 -0.3331599E-01  0.4940829E-04 -0.1017480E+00
6350000.  0.4972049E-01  0.4218366E+00  0.7890117E-03 -0.3230794E-01  0.6537319E-04 -0.1016759E+00
6349000.  0.4965269E-01  0.4421011E+00  0.7940028E-03 -0.3128744E-01  0.8132633E-04 -0.1015981E+00
6348000.  0.4958171E-01  0.4623188E+00  0.7988329E-03 -0.3025469E-01  0.9726681E-04 -0.1015146E+00
6347000.  0.4950756E-01  0.4824882E+00  0.8034999E-03 -0.2920986E-01  0.1131937E-03 -0.1014255E+00
6346600.  0.4947701E-01  0.4905421E+00  0.8053206E-03 -0.2878860E-01  0.1195605E-03 -0.1013882E+00
6346600.  0.4947701E-01  0.3200735E+00  0.8053206E-03 -0.3530858E-01  0.1195605E-03 -0.1186402E+00
6318800.  0.4719630E-01  0.7208340E+00  0.9055643E-03 -0.9554716E-02  0.6317914E-03 -0.1155648E+00
6291000.  0.4323865E-01  0.1085675E+01  0.8814980E-03  0.2113162E-01  0.1123126E-02 -0.1090737E+00
6291000.  0.4323865E-01  0.1101345E+01  0.8814980E-03  0.2331582E-01  0.1123126E-02 -0.1090737E+00
6263000.  0.3767896E-01  0.1418298E+01  0.7051702E-03  0.5680056E-01  0.1581591E-02 -0.9901102E-01
6235000.  0.3087200E-01  0.1667227E+01  0.3863797E-03  0.8746000E-01  0.1988800E-02 -0.8580124E-01
6207000.  0.2313537E-01  0.1840556E+01 -0.5365446E-04  0.1113608E+00  0.2331694E-02 -0.6981328E-01
6179000.  0.1480801E-01  0.1936124E+01 -0.5777074E-03  0.1252245E+00  0.2599067E-02 -0.5152097E-01
6151000.  0.6227058E-02  0.1956829E+01 -0.1136309E-02  0.1268135E+00  0.2782001E-02 -0.3148789E-01
6151000.  0.6227058E-02  0.1554436E+01 -0.1136309E-02  0.1105482E+00  0.2782001E-02 -0.3183240E-01
6128500.  0.8377028E-03  0.1493520E+01 -0.1513453E-02  0.1019608E+00  0.2870438E-02 -0.1819738E-01
6106000. -0.4296411E-02  0.1410908E+01 -0.1849227E-02  0.8722198E-01  0.2910293E-02 -0.4357646E-02
6083500. -0.9109448E-02  0.1312683E+01 -0.2123200E-02  0.6712205E-01  0.2901244E-02  0.9459374E-02
6061000. -0.1355659E-01  0.1204613E+01 -0.2318315E-02  0.4277289E-01  0.2843766E-02  0.2303266E-01
6038500. -0.1761239E-01  0.1091845E+01 -0.2421905E-02  0.1553175E-01  0.2739095E-02  0.3615059E-01
6016000. -0.2126806E-01  0.9786366E+00 -0.2426393E-02 -0.1308931E-01  0.2589196E-02  0.4861385E-01
5993500. -0.2452803E-01  0.8681977E+00 -0.2329678E-02 -0.4151943E-01  0.2396711E-02  0.6023848E-01
5971000. -0.2740610E-01  0.7626175E+00 -0.2135165E-02 -0.6822582E-01  0.2164902E-02  0.7085728E-01
5971000. -0.2740610E-01  0.6742933E+00 -0.2135165E-02 -0.5773908E-01  0.2164902E-02  0.7444497E-01
5937667. -0.3049792E-01  0.5114229E+00 -0.1755281E-02 -0.8603303E-01  0.1738526E-02  0.8808228E-01
5904333. -0.3279582E-01  0.3703144E+00 -0.1251409E-02 -0.1049062E+00  0.1248186E-02  0.9886196E-01
5871000. -0.3440392E-01  0.2469131E+00 -0.6752527E-03 -0.1136563E+00  0.7092236E-03  0.1066626E+00
5837667. -0.3540073E-01  0.1356698E+00 -0.7902450E-04 -0.1127386E+00  0.1373085E-03  0.1114626E+00
5804333. -0.3583480E-01  0.3088749E-01  0.4899192E-03 -0.1035035E+00 -0.4520119E-03  0.1133268E+00
5771000. -0.3572675E-01 -0.7225187E-01  0.9929135E-03 -0.8789191E-01 -0.1043680E-02  0.1123959E+00
5771000. -0.3572675E-01 -0.7223704E-01  0.9929135E-03 -0.8788772E-01 -0.1043680E-02  0.1123959E+00
5701000. -0.3359956E-01 -0.3213345E+00  0.1765356E-02 -0.5011696E-01 -0.2221555E-02  0.1001947E+00
5701000. -0.3359956E-01 -0.2408822E+00  0.1765356E-02 -0.3135613E-01 -0.2221555E-02  0.1096652E+00
5667333. -0.3207551E-01 -0.3401468E+00  0.1867422E-02 -0.9202793E-02 -0.2777725E-02  0.1006799E+00
5633667. -0.2994838E-01 -0.4681283E+00  0.1876663E-02  0.5089708E-02 -0.3283831E-02  0.9064554E-01
5600000. -0.2713297E-01 -0.5964103E+00  0.1817174E-02  0.1699910E-01 -0.3733088E-02  0.7916371E-01
5600000. -0.2713297E-01 -0.5964103E+00  0.1817174E-02  0.1699910E-01 -0.3733088E-02  0.7916371E-01
5563518. -0.2333100E-01 -0.7300690E+00  0.1690876E-02  0.2647295E-01 -0.4147582E-02  0.6539907E-01
5527037. -0.1879475E-01 -0.8517872E+00  0.1521629E-02  0.3196102E-01 -0.4479993E-02  0.5054973E-01
5490556. -0.1361184E-01 -0.9548275E+00  0.1332585E-02  0.3340985E-01 -0.4725022E-02  0.3493200E-01
5454074. -0.7907447E-02 -0.1032932E+01  0.1146149E-02  0.3112804E-01 -0.4879184E-02  0.1886261E-01
5417593. -0.1839499E-02 -0.1081132E+01  0.9820284E-03  0.2574517E-01 -0.4940770E-02  0.2648724E-02
5381111.  0.4409645E-02 -0.1095675E+01  0.8555701E-03  0.1813389E-01 -0.4909800E-02 -0.1341711E-01
5344630.  0.1064061E-01 -0.1074718E+01  0.7766339E-03  0.9329015E-02 -0.4787922E-02 -0.2906006E-01
5308148.  0.1665021E-01 -0.1018476E+01  0.7489090E-03  0.4296848E-03 -0.4578277E-02 -0.4403136E-01
5271667.  0.2224083E-01 -0.9289470E+00  0.7698511E-03 -0.7498626E-02 -0.4285365E-02 -0.5811074E-01
5235185.  0.2723305E-01 -0.8102611E+00  0.8311097E-03 -0.1350737E-01 -0.3914843E-02 -0.7110554E-01
5198704.  0.3147539E-01 -0.6681238E+00  0.9194234E-03 -0.1684324E-01 -0.3473418E-02 -0.8285563E-01
5162222.  0.3485282E-01 -0.5093849E+00  0.1017929E-02 -0.1700514E-01 -0.2968559E-02 -0.9323861E-01
5125741.  0.3729247E-01 -0.3419546E+00  0.1107669E-02 -0.1376992E-01 -0.2408422E-02 -0.1021538E+00
5089259.  0.3876781E-01 -0.1739035E+00  0.1169262E-02 -0.7209827E-02 -0.1801576E-02 -0.1095399E+00
5052778.  0.3929805E-01 -0.1314654E-01  0.1184551E-02  0.2322505E-02 -0.1156914E-02 -0.1153642E+00
5016296.  0.3894619E-01  0.1330741E+00  0.1138104E-02  0.1423611E-01 -0.4833853E-03 -0.1196168E+00
4979815.  0.3781355E-01  0.2586661E+00  0.1018473E-02  0.2773987E-01  0.2100199E-03 -0.1223187E+00
4943333.  0.3603215E-01  0.3590231E+00  0.8191238E-03  0.4191905E-01  0.9145713E-03 -0.1235112E+00
4906852.  0.3375568E-01  0.4312761E+00  0.5389639E-03  0.5580363E-01  0.1621743E-02 -0.1232529E+00
4870370.  0.3114884E-01  0.4743651E+00  0.1824506E-03  0.6842896E-01  0.2323497E-02 -0.1216264E+00
4833889.  0.2837725E-01  0.4891433E+00 -0.2406392E-03  0.7892729E-01  0.3012212E-02 -0.1187219E+00
4797407.  0.2559626E-01  0.4781662E+00 -0.7159995E-03  0.8657306E-01  0.3680901E-02 -0.1146437E+00
4760926.  0.2294283E-01  0.4453943E+00 -0.1225596E-02  0.9081889E-01  0.4323139E-02 -0.1095097E+00
4724444.  0.2052699E-01  0.3961051E+00 -0.1749022E-02  0.9136805E-01  0.4933252E-02 -0.1034372E+00
4687963.  0.1842671E-01  0.3362240E+00 -0.2264764E-02  0.8814698E-01  0.5506193E-02 -0.9655389E-01
4651482.  0.1668471E-01  0.2720224E+00 -0.2751607E-02  0.8132307E-01  0.6037707E-02 -0.8898907E-01
4615000.  0.1530758E-01  0.2097767E+00 -0.3189985E-02  0.7129794E-01  0.6524269E-02 -0.8087000E-01
4578518.  0.1426766E-01  0.1551224E+00 -0.3563130E-02  0.5864960E-01  0.6963062E-02 -0.7232651E-01
4542037.  0.1350719E-01  0.1129030E+00 -0.3858053E-02  0.4411284E-01  0.7352009E-02 -0.6348432E-01
4505556.  0.1294372E-01  0.8680229E-01 -0.4066301E-02  0.2851847E-01  0.7689756E-02 -0.5446343E-01
4469074.  0.1247805E-01  0.7898837E-01 -0.4184284E-02  0.1272979E-01  0.7975628E-02 -0.4538158E-01
4432593.  0.1200242E-01  0.9030016E-01 -0.4213364E-02 -0.2393676E-02  0.8209574E-02 -0.3634709E-01
4396111.  0.1140861E-01  0.1199977E+00 -0.4159644E-02 -0.1606719E-01  0.8392169E-02 -0.2746046E-01
4359630.  0.1059729E-01  0.1658071E+00 -0.4033423E-02 -0.2761653E-01  0.8524525E-02 -0.1881606E-01
4323148.  0.9485129E-02  0.2244129E+00 -0.3848434E-02 -0.3651834E-01  0.8608273E-02 -0.1049475E-01
4286667.  0.8011225E-02  0.2913487E+00 -0.3620932E-02 -0.4242469E-01  0.8645471E-02 -0.2569220E-02
4250185.  0.6142370E-02  0.3614595E+00 -0.3368605E-02 -0.4517662E-01  0.8638568E-02  0.4899517E-02
4213704.  0.3875806E-02  0.4293589E+00 -0.3109520E-02 -0.4480857E-01  0.8590327E-02  0.1186249E-01
4177222.  0.1239983E-02  0.4895076E+00 -0.2861005E-02 -0.4153151E-01  0.8503752E-02  0.1828247E-01
4140741. -0.1705707E-02  0.5368291E+00 -0.2638733E-02 -0.3571908E-01  0.8382036E-02  0.2413386E-01
4104259. -0.4875162E-02  0.5669528E+00 -0.2455820E-02 -0.2787508E-01  0.8228471E-02  0.2940453E-01
4067778. -0.8158791E-02  0.5762430E+00 -0.2322246E-02 -0.1859343E-01  0.8046394E-02  0.3409413E-01
4031296. -0.1143046E-01  0.5624769E+00 -0.2244381E-02 -0.8527306E-02  0.7839101E-02  0.3821330E-01
3994815. -0.1455438E-01  0.5245848E+00 -0.2224814E-02  0.1658792E-02  0.7609806E-02  0.4178594E-01
3958333. -0.1739233E-01  0.4627260E+00 -0.2262391E-02  0.1132925E-01  0.7361525E-02  0.4484920E-01
3921852. -0.1981120E-01  0.3786148E+00 -0.2352468E-02  0.1990704E-01  0.7097067E-02  0.4744735E-01
3885370. -0.2169102E-01  0.2749723E+00 -0.2487365E-02  0.2691168E-01  0.6818913E-02  0.4964119E-01
3848889. -0.2293028E-01  0.1556207E+00 -0.2656963E-02  0.3197884E-01  0.6529195E-02  0.5150146E-01
3812407. -0.2345228E-01  0.2527527E-01 -0.2849451E-02  0.3487757E-01  0.6229584E-02  0.5310873E-01
3775926. -0.2320858E-01 -0.1109298E+00 -0.3052074E-02  0.3551756E-01  0.5921268E-02  0.5456190E-01
3739444. -0.2218125E-01 -0.2474899E+00 -0.3251988E-02  0.3394929E-01  0.5604810E-02  0.5596909E-01
3702963. -0.2038411E-01 -0.3789432E+00 -0.3436998E-02  0.3035425E-01  0.5280142E-02  0.5745516E-01
3666482. -0.1786097E-01 -0.5002554E+00 -0.3596308E-02  0.2503132E-01  0.4946387E-02  0.5916877E-01
3630000. -0.1468319E-01 -0.6068749E+00 -0.3721119E-02  0.1837618E-01  0.4601774E-02  0.6127410E-01
3630000. -0.1468319E-01 -0.6068749E+00 -0.3721119E-02  0.1837618E-01  0.4601774E-02  0.6127410E-01
3592500. -0.1083459E-01 -0.6973458E+00 -0.3806827E-02  0.1063967E-01  0.4233293E-02  0.6405371E-01
3555000. -0.6517720E-02 -0.7656185E+00 -0.3845679E-02  0.2550940E-02  0.3846022E-02  0.6770378E-01
3517500. -0.1868471E-02 -0.8101449E+00 -0.3837306E-02 -0.5309932E-02  0.3433994E-02  0.7251970E-01
3480000.  0.2972388E-02 -0.8308282E+00 -0.3784744E-02 -0.1237060E-01  0.2989330E-02  0.7885865E-01
3480000.  0.2972388E-02 -0.5048769E-01  0.8158799E-04  0.5290966E-02  0.2989330E-02  0.6932625E-01
3409422.  0.3339690E-02 -0.1599585E-01  0.1729128E-04  0.6208239E-02  0.2371183E-02  0.4372234E-01
3338844.  0.3338791E-02  0.1529877E-01 -0.5354362E-04  0.6473521E-02  0.1991208E-02  0.2608081E-01
3268266.  0.3024985E-02  0.4008015E-01 -0.1239131E-03  0.6138849E-02  0.1769445E-02  0.1490971E-01
3197688.  0.2481274E-02  0.5665079E-01 -0.1877566E-03  0.5318022E-02  0.1642441E-02  0.8731940E-02
3127109.  0.1801222E-02  0.6475446E-01 -0.2404923E-03  0.4159617E-02  0.1562690E-02  0.6158004E-02
3056531.  0.1074766E-02  0.6524435E-01 -0.2792571E-03  0.2821865E-02  0.1497279E-02  0.5953407E-02
2985953.  0.3780350E-03  0.5968753E-01 -0.3028987E-03  0.1452120E-02  0.1425871E-02  0.7087735E-02
2915375. -0.2323484E-03  0.4998100E-01 -0.3117678E-03  0.1726386E-03  0.1338285E-02  0.8760116E-02
2844797. -0.7210949E-03  0.3803236E-01 -0.3073905E-03 -0.9274443E-03  0.1231926E-02  0.1040054E-01
2774219. -0.1072975E-02  0.2552455E-01 -0.2920850E-03 -0.1794199E-02  0.1109312E-02  0.1165113E-01
2703641. -0.1289479E-02  0.1377738E-01 -0.2685815E-03 -0.2406428E-02  0.9758994E-03  0.1233327E-01
2633062. -0.1384415E-02  0.3691877E-02 -0.2396872E-03 -0.2770337E-02  0.8383122E-03  0.1240709E-01
2562484. -0.1379277E-02 -0.4238997E-02 -0.2080221E-03 -0.2912417E-02  0.7030494E-03  0.1192935E-01
2491906. -0.1299013E-02 -0.9872423E-02 -0.1758348E-03 -0.2871834E-02  0.5756228E-03  0.1101436E-01
2421328. -0.1168587E-02 -0.1333346E-01 -0.1449020E-03 -0.2693618E-02  0.4601159E-03  0.9801174E-02
2350750. -0.1010513E-02 -0.1492460E-01 -0.1164957E-03 -0.2422981E-02  0.3590537E-03  0.8428717E-02
2280172. -0.8433594E-03 -0.1504265E-01 -0.9140711E-04 -0.2100993E-02  0.2735030E-03  0.7019112E-02
2209594. -0.6811101E-03 -0.1410833E-01 -0.7000799E-04 -0.1761966E-02  0.2033172E-03  0.5668345E-02
2139016. -0.5332006E-03 -0.1251504E-01 -0.5233377E-04 -0.1432196E-02  0.1474478E-03  0.4443159E-02
2068438. -0.4050194E-03 -0.1059616E-01 -0.3817394E-04 -0.1129875E-02  0.1042644E-03  0.3382379E-02
1997859. -0.2986702E-03 -0.8609688E-02 -0.2715813E-04 -0.8657944E-03  0.7184227E-04  0.2501090E-02
1927281. -0.2138372E-03 -0.6735759E-02 -0.1883226E-04 -0.6446034E-03  0.4819669E-04  0.1796243E-02
1856703. -0.1486052E-03 -0.5083929E-02 -0.1271765E-04 -0.4662647E-03  0.3144921E-04  0.1252422E-02
1786125. -0.1001819E-03 -0.3705692E-02 -0.8355204E-05 -0.3275350E-03  0.1993588E-04  0.8472034E-03
1715547. -0.6545735E-04 -0.2609369E-02 -0.5333376E-05 -0.2232805E-03  0.1225958E-04  0.5554640E-03
1644969. -0.4140105E-04 -0.1774569E-02 -0.3302845E-05 -0.1475566E-03  0.7301364E-05  0.3525391E-03
1574391. -0.2530851E-04 -0.1164735E-02 -0.1980837E-05 -0.9440134E-04  0.4203097E-05  0.2162517E-03
1503812. -0.1492275E-04 -0.7369865E-03 -0.1148182E-05 -0.5835947E-04  0.2333301E-05  0.1279629E-03
1433234. -0.8464031E-05 -0.4490458E-03 -0.6419294E-06 -0.3477291E-04  0.1245736E-05  0.7288515E-04
1362656. -0.4596471E-05 -0.2635019E-03 -0.3457734E-06 -0.1987539E-04  0.6373446E-06  0.3987921E-04
1292078. -0.2360333E-05 -0.1501528E-03 -0.1803406E-06 -0.1075019E-04  0.3103823E-06  0.2098513E-04
1221500. -0.1084207E-05 -0.8738131E-04 -0.9457683E-07 -0.5162299E-05  0.1402409E-06  0.1087204E-04
1221500. -0.1084207E-05  0.1118796E-03  0.8557339E-07  0.6101244E-05  0.1402409E-06  0.1134172E-04
1183328. -0.1652473E-05  0.7731603E-04  0.4966173E-07  0.5797577E-05  0.8568210E-07  0.7166303E-05
1145156. -0.2008830E-05  0.4181388E-04  0.1709551E-07  0.4999506E-05  0.5144930E-07  0.4458859E-05
1106984. -0.2159375E-05  0.9205733E-05 -0.9537509E-08  0.3847552E-05  0.3031112E-07  0.2728031E-05
1068812. -0.2131026E-05 -0.1749727E-04 -0.2870335E-07  0.2541919E-05  0.1748559E-07  0.1638475E-05
1030641. -0.1965079E-05 -0.3655036E-04 -0.4009085E-07  0.1281708E-05  0.9853220E-08  0.9640735E-06
 992469. -0.1709171E-05 -0.4756634E-04 -0.4446459E-07  0.2211231E-06  0.5408108E-08  0.5543391E-06
 954297. -0.1409656E-05 -0.5131244E-04 -0.4331866E-07 -0.5520005E-06  0.2881380E-08  0.3105829E-06
 916125. -0.1105739E-05 -0.4933529E-04 -0.3846761E-07 -0.1017344E-05  0.1484018E-08  0.1689401E-06
 877953. -0.8261111E-06 -0.4352714E-04 -0.3167709E-07 -0.1208378E-05  0.7351003E-09  0.8883361E-07
 839781. -0.5880778E-06 -0.3573978E-04 -0.2440429E-07 -0.1190823E-05  0.3479288E-09  0.4491496E-07
 801609. -0.3986861E-06 -0.2751115E-04 -0.1766995E-07 -0.1041322E-05  0.1559984E-09  0.2168657E-07
 763438. -0.2570951E-06 -0.1992551E-04 -0.1204799E-07 -0.8301002E-06  0.6546133E-10  0.9910808E-08
 725266. -0.1573833E-06 -0.1359639E-04 -0.7737239E-08 -0.6109075E-06  0.2522637E-10  0.4233906E-08
 687094. -0.9121172E-07 -0.8737815E-05 -0.4674519E-08 -0.4175144E-06  0.8635057E-11  0.1657307E-08
 648922. -0.4986947E-07 -0.5279606E-05 -0.2650431E-08 -0.2655257E-06  0.2438555E-11  0.5749713E-09
 610750. -0.2560738E-07 -0.2990319E-05 -0.1405213E-08 -0.1570488E-06  0.4357515E-12  0.1638211E-09
 572578. -0.1228023E-07 -0.1580786E-05 -0.6931966E-09 -0.8615766E-07 -0.6098415E-13  0.2917079E-10
 534406. -0.5461613E-08 -0.7754330E-06 -0.3161097E-09 -0.4363820E-07 -0.1081143E-12 -0.4423705E-11
 496234. -0.2233085E-08 -0.3502959E-06 -0.1321466E-09 -0.2026873E-07 -0.6566906E-13 -0.7492443E-11
 458062. -0.8301628E-09 -0.1443045E-06 -0.5010166E-10 -0.8554307E-08 -0.2919535E-13 -0.4490679E-11
 419891. -0.2766841E-09 -0.5352499E-07 -0.1699135E-10 -0.3240635E-08 -0.1052791E-13 -0.1956186E-11
 381719. -0.8117031E-10 -0.1757880E-07 -0.5061795E-11 -0.1084061E-08 -0.3147614E-14 -0.6834694E-12
 343547. -0.2045919E-10 -0.4999360E-08 -0.1293129E-11 -0.3132697E-09 -0.7746187E-15 -0.1946105E-12
 305375. -0.4286884E-11 -0.1194334E-08 -0.2741497E-12 -0.7587931E-10 -0.1530650E-15 -0.4453050E-13
 267203. -0.7128970E-12 -0.2296134E-09 -0.4605333E-13 -0.1476127E-10 -0.2324141E-16 -0.7898172E-14
 229031. -0.8790365E-13 -0.3335501E-10 -0.5727545E-14 -0.2165797E-11 -0.2530479E-17 -0.1019832E-14
 190859. -0.7231549E-14 -0.3319603E-11 -0.4745612E-15 -0.2173341E-12 -0.1769067E-18 -0.8664266E-16
 152688. -0.3325981E-15 -0.1920717E-12 -0.2195033E-16 -0.1265738E-13 -0.6583761E-20 -0.4026735E-17
 114516.  0.0000000E+00  0.0000000E+00  0.0000000E+00  0.0000000E+00  0.0000000E+00  0.0000000E+00
  76344.  0.0000000E+00  0.0000000E+00  0.0000000E+00  0.0000000E+00  0.0000000E+00  0.0000000E+00
  38172.  0.0000000E+00  0.0000000E+00  0.0000000E+00  0.0000000E+00  0.0000000E+00  0.0000000E+00
      0.  0.0000000E+00  0.0000000E+00  0.0000000E+00  0.0000000E+00  0.0000000E+00  0.0000000E+00
