      13       16 S      590        112.47500         21.56987         12.60628        491.62540      185    7
6371000.  0.5005195E-01 -0.3871526E-01  0.5850608E-05 -0.5004610E-01 -0.1982169E-03 -0.9101658E-01
6370000.  0.5005563E-01 -0.8197214E-02  0.1370644E-04 -0.5004870E-01 -0.1839308E-03 -0.9101509E-01
6369000.  0.5005452E-01  0.2233072E-01  0.2156070E-04 -0.5002609E-01 -0.1696456E-03 -0.9100580E-01
6368000.  0.5004862E-01  0.5286501E-01  0.2940943E-04 -0.4997826E-01 -0.1553625E-03 -0.9098872E-01
6368000.  0.5004862E-01  0.5286501E-01  0.2940943E-04 -0.4997826E-01 -0.1553625E-03 -0.9098872E-01
6367000.  0.5003792E-01  0.8340214E-01  0.3724868E-04 -0.4990521E-01 -0.1410826E-03 -0.9096384E-01
6366000.  0.5002243E-01  0.1139386E+00  0.4507448E-04 -0.4980696E-01 -0.1268073E-03 -0.9093115E-01
6365000.  0.5000215E-01  0.1444708E+00  0.5288288E-04 -0.4968351E-01 -0.1125377E-03 -0.9089067E-01
6364000.  0.4997708E-01  0.1749952E+00  0.6066993E-04 -0.4953490E-01 -0.9827509E-04 -0.9084239E-01
6363000.  0.4994722E-01  0.2055084E+00  0.6843169E-04 -0.4936116E-01 -0.8402066E-04 -0.9078631E-01
6362000.  0.4991257E-01  0.2360068E+00  0.7616420E-04 -0.4916234E-01 -0.6977563E-04 -0.9072243E-01
6361000.  0.4987314E-01  0.2664869E+00  0.8386354E-04 -0.4893848E-01 -0.5554125E-04 -0.9065077E-01
6360000.  0.4982892E-01  0.2969450E+00  0.9152578E-04 -0.4868966E-01 -0.4131873E-04 -0.9057131E-01
6359000.  0.4977992E-01  0.3273779E+00  0.9914702E-04 -0.4841593E-01 -0.2710929E-04 -0.9048407E-01
6358000.  0.4972615E-01  0.3577818E+00  0.1067233E-03 -0.4811737E-01 -0.1291416E-04 -0.9038905E-01
6357000.  0.4966760E-01  0.3881533E+00  0.1142508E-03 -0.4779408E-01  0.1265454E-05 -0.9028625E-01
6356000.  0.4960430E-01  0.4184889E+00  0.1217257E-03 -0.4744614E-01  0.1542832E-04 -0.9017569E-01
6356000.  0.4960430E-01  0.2672001E+00  0.1217257E-03 -0.4829969E-01  0.1542832E-04 -0.1009690E+00
6355000.  0.4956062E-01  0.2893682E+00  0.1292883E-03 -0.4806117E-01  0.3127029E-04 -0.1008884E+00
6354000.  0.4951346E-01  0.3115172E+00  0.1368123E-03 -0.4780653E-01  0.4709914E-04 -0.1008018E+00
6353000.  0.4946283E-01  0.3336452E+00  0.1442950E-03 -0.4753579E-01  0.6291392E-04 -0.1007093E+00
6352000.  0.4940872E-01  0.3557503E+00  0.1517340E-03 -0.4724902E-01  0.7871373E-04 -0.1006108E+00
6351000.  0.4935115E-01  0.3778306E+00  0.1591267E-03 -0.4694627E-01  0.9449760E-04 -0.1005064E+00
6350000.  0.4929011E-01  0.3998841E+00  0.1664707E-03 -0.4662759E-01  0.1102646E-03 -0.1003960E+00
6349000.  0.4922562E-01  0.4219090E+00  0.1737633E-03 -0.4629305E-01  0.1260139E-03 -0.1002797E+00
6348000.  0.4915767E-01  0.4439034E+00  0.1810023E-03 -0.4594272E-01  0.1417444E-03 -0.1001575E+00
6347000.  0.4908627E-01  0.4658653E+00  0.1881850E-03 -0.4557667E-01  0.1574552E-03 -0.1000294E+00
6346600.  0.4905675E-01  0.4746405E+00  0.1910418E-03 -0.4542586E-01  0.1637339E-03 -0.9997651E-01
6346600.  0.4905675E-01  0.2838094E+00  0.1910418E-03 -0.4660435E-01  0.1637339E-03 -0.1170819E+00
6318800.  0.4684726E-01  0.7259411E+00  0.3702877E-03 -0.3405658E-01  0.6667427E-03 -0.1128743E+00
6291000.  0.4276460E-01  0.1138455E+01  0.4765609E-03 -0.1350535E-01  0.1143655E-02 -0.1051382E+00
6291000.  0.4276460E-01  0.1154144E+01  0.4765609E-03 -0.1251305E-01  0.1143655E-02 -0.1051382E+00
6263000.  0.3686232E-01  0.1520941E+01  0.4733511E-03  0.1462125E-01  0.1581929E-02 -0.9375090E-01
6235000.  0.2950469E-01  0.1813615E+01  0.3451974E-03  0.4368495E-01  0.1963071E-02 -0.7920142E-01
6207000.  0.2105021E-01  0.2018302E+01  0.9249780E-04  0.7061673E-01  0.2274097E-02 -0.6192645E-01
6179000.  0.1190411E-01  0.2127696E+01 -0.2666003E-03  0.9148690E-01  0.2504202E-02 -0.4247647E-01
6151000.  0.2488775E-02  0.2141303E+01 -0.6978899E-03  0.1029959E+00  0.2645215E-02 -0.2149761E-01
6151000.  0.2488775E-02  0.1710698E+01 -0.6978899E-03  0.9014817E-01  0.2645215E-02 -0.2163531E-01
6128500. -0.3421091E-02  0.1630401E+01 -0.1017373E-02  0.8976617E-01  0.2696921E-02 -0.7623015E-02
6106000. -0.8990533E-02  0.1519113E+01 -0.1324757E-02  0.8330424E-01  0.2699041E-02  0.6404644E-02
6083500. -0.1412314E-01  0.1384274E+01 -0.1598903E-02  0.7102054E-01  0.2651950E-02  0.2020607E-01
6061000. -0.1874911E-01  0.1233443E+01 -0.1820295E-02  0.5356873E-01  0.2556859E-02  0.3355059E-01
6038500. -0.2282493E-01  0.1073867E+01 -0.1972352E-02  0.3194635E-01  0.2415768E-02  0.4622137E-01
6016000. -0.2633148E-01  0.9120687E+00 -0.2042514E-02  0.7419819E-02  0.2231415E-02  0.5801852E-01
5993500. -0.2927098E-01  0.7535461E+00 -0.2023039E-02 -0.1856533E-01  0.2007209E-02  0.6876221E-01
5971000. -0.3166289E-01  0.6025601E+00 -0.1911462E-02 -0.4448339E-01  0.1747158E-02  0.7829353E-01
5971000. -0.3166289E-01  0.5295423E+00 -0.1911462E-02 -0.3608561E-01  0.1747158E-02  0.8243848E-01
5937667. -0.3386042E-01  0.3166023E+00 -0.1641148E-02 -0.6623132E-01  0.1283402E-02  0.9432128E-01
5904333. -0.3504002E-01  0.1403061E+00 -0.1231201E-02 -0.8908236E-01  0.7656853E-03  0.1030433E+00
5871000. -0.3538780E-01 -0.2150791E-02 -0.7246070E-03 -0.1030142E+00  0.2107354E-03  0.1085621E+00
5837667. -0.3506613E-01 -0.1167721E+00 -0.1695965E-03 -0.1076154E+00 -0.3648165E-03  0.1109359E+00
5804333. -0.3420138E-01 -0.2110269E+00  0.3862773E-03 -0.1035171E+00 -0.9448725E-03  0.1103074E+00
5771000. -0.3288037E-01 -0.2923788E+00  0.9008916E-03 -0.9213683E-01 -0.1514222E-02  0.1068906E+00
5771000. -0.3288037E-01 -0.2923669E+00  0.9008916E-03 -0.9213261E-01 -0.1514222E-02  0.1068906E+00
5701000. -0.2862477E-01 -0.4835673E+00  0.1753010E-02 -0.5942057E-01 -0.2604528E-02  0.8982877E-01
5701000. -0.2862477E-01 -0.3729047E+00  0.1753010E-02 -0.3988565E-01 -0.2604528E-02  0.9789707E-01
5667333. -0.2650874E-01 -0.4343973E+00  0.1900361E-02 -0.1771758E-01 -0.3093528E-02  0.8707198E-01
5633667. -0.2396091E-01 -0.5336297E+00  0.1953261E-02 -0.2793903E-02 -0.3523311E-02  0.7539497E-01
5600000. -0.2087400E-01 -0.6337920E+00  0.1932016E-02  0.1052844E-01 -0.3888105E-02  0.6248841E-01
5600000. -0.2087400E-01 -0.6337920E+00  0.1932016E-02  0.1052844E-01 -0.3888105E-02  0.6248841E-01
5563518. -0.1694085E-01 -0.7389323E+00  0.1836638E-02  0.2225303E-01 -0.4203360E-02  0.4746525E-01
5527037. -0.1242853E-01 -0.8351241E+00  0.1683774E-02  0.3052866E-01 -0.4430247E-02  0.3168307E-01
5490556. -0.7405673E-02 -0.9162100E+00  0.1494184E-02  0.3506146E-01 -0.4565398E-02  0.1547978E-01
5454074. -0.1976231E-02 -0.9761476E+00  0.1289279E-02  0.3591675E-01 -0.4607353E-02 -0.8145280E-03
5417593.  0.3723414E-02 -0.1009866E+01  0.1089117E-02  0.3349866E-01 -0.4556498E-02 -0.1688627E-01
5381111.  0.9531111E-02 -0.1013276E+01  0.9106096E-03  0.2848390E-01 -0.4414944E-02 -0.3244576E-01
5344630.  0.1526533E-01 -0.9840431E+00  0.7661920E-03  0.2175269E-01 -0.4186403E-02 -0.4722847E-01
5308148.  0.2073762E-01 -0.9218193E+00  0.6628720E-03  0.1429745E-01 -0.3875992E-02 -0.6100282E-01
5271667.  0.2576197E-01 -0.8280716E+00  0.6019149E-03  0.7121327E-02 -0.3490077E-02 -0.7357360E-01
5235185.  0.3016764E-01 -0.7064533E+00  0.5789888E-03  0.1159218E-02 -0.3036010E-02 -0.8477809E-01
5198704.  0.3380945E-01 -0.5623153E+00  0.5848206E-03 -0.2810449E-02 -0.2522018E-02 -0.9449170E-01
5162222.  0.3657706E-01 -0.4023116E+00  0.6062937E-03 -0.4230621E-02 -0.1956860E-02 -0.1026319E+00
5125741.  0.3840148E-01 -0.2342490E+00  0.6277974E-03 -0.2792922E-02 -0.1349759E-02 -0.1091405E+00
5089259.  0.3925984E-01 -0.6623879E-01  0.6327542E-03  0.1530137E-02 -0.7100904E-03 -0.1140009E+00
5052778.  0.3917557E-01  0.9368094E-01  0.6052154E-03  0.8496073E-02 -0.4730103E-04 -0.1172263E+00
5016296.  0.3821656E-01  0.2381346E+00  0.5313045E-03  0.1762843E-01  0.6293716E-03 -0.1188520E+00
4979815.  0.3648996E-01  0.3608665E+00  0.4004820E-03  0.2824846E-01  0.1310907E-02 -0.1189440E+00
4943333.  0.3413437E-01  0.4571677E+00  0.2064900E-03  0.3954870E-01  0.1988793E-02 -0.1175858E+00
4906852.  0.3131042E-01  0.5241492E+00 -0.5208043E-04  0.5065835E-01  0.2654961E-02 -0.1148763E+00
4870370.  0.2818970E-01  0.5607883E+00 -0.3716284E-03  0.6070268E-01  0.3302045E-02 -0.1109341E+00
4833889.  0.2494415E-01  0.5681111E+00 -0.7437203E-03  0.6889234E-01  0.3923301E-02 -0.1058825E+00
4797407.  0.2173419E-01  0.5489166E+00 -0.1155802E-02  0.7456839E-01  0.4512783E-02 -0.9985356E-01
4760926.  0.1870038E-01  0.5074543E+00 -0.1591952E-02  0.7723992E-01  0.5065266E-02 -0.9298863E-01
4724444.  0.1595439E-01  0.4493647E+00 -0.2034145E-02  0.7665021E-01  0.5576386E-02 -0.8542422E-01
4687963.  0.1357388E-01  0.3809043E+00 -0.2463453E-02  0.7275447E-01  0.6042510E-02 -0.7730140E-01
4651482.  0.1159944E-01  0.3086381E+00 -0.2861366E-02  0.6573414E-01  0.6460855E-02 -0.6875834E-01
4615000.  0.1003397E-01  0.2390770E+00 -0.3211049E-02  0.5598669E-01  0.6829404E-02 -0.5992706E-01
4578518.  0.8845163E-02  0.1779674E+00 -0.3498409E-02  0.4407246E-01  0.7146868E-02 -0.5093678E-01
4542037.  0.7970285E-02  0.1301549E+00 -0.3712976E-02  0.3068956E-01  0.7412681E-02 -0.4190903E-01
4505556.  0.7322226E-02  0.9919979E-01 -0.3848552E-02  0.1661466E-01  0.7626961E-02 -0.3295606E-01
4469074.  0.6798225E-02  0.8701896E-01 -0.3903452E-02  0.2643910E-02  0.7790449E-02 -0.2418331E-01
4432593.  0.6288659E-02  0.9411619E-01 -0.3880516E-02 -0.1044818E-01  0.7904443E-02 -0.1568530E-01
4396111.  0.5685562E-02  0.1193478E+00 -0.3786797E-02 -0.2197132E-01  0.7970766E-02 -0.7545586E-02
4359630.  0.4892267E-02  0.1600124E+00 -0.3632992E-02 -0.3135251E-01  0.7991686E-02  0.1611050E-03
4323148.  0.3830510E-02  0.2123939E+00 -0.3432632E-02 -0.3817481E-01  0.7969864E-02  0.7373590E-02
4286667.  0.2446549E-02  0.2716953E+00 -0.3201166E-02 -0.4219285E-01  0.7908283E-02  0.1404104E-01
4250185.  0.7159429E-03  0.3325452E+00 -0.2954911E-02 -0.4334274E-01  0.7810175E-02  0.2012457E-01
4213704. -0.1354484E-02  0.3894875E+00 -0.2710050E-02 -0.4174171E-01  0.7678976E-02  0.2559688E-01
4177222. -0.3726783E-02  0.4370933E+00 -0.2481606E-02 -0.3766428E-01  0.7518226E-02  0.3044274E-01
4140741. -0.6333250E-02  0.4705778E+00 -0.2282645E-02 -0.3152610E-01  0.7331541E-02  0.3465724E-01
4104259. -0.9081607E-02  0.4860400E+00 -0.2123503E-02 -0.2384748E-01  0.7122512E-02  0.3824714E-01
4067778. -0.1185936E-01  0.4804951E+00 -0.2011365E-02 -0.1521136E-01  0.6894679E-02  0.4123061E-01
4031296. -0.1454147E-01  0.4524763E+00 -0.1949949E-02 -0.6233317E-02  0.6651434E-02  0.4363314E-01
3994815. -0.1699792E-01  0.4017678E+00 -0.1939479E-02  0.2485663E-02  0.6396016E-02  0.4549167E-01
3958333. -0.1910126E-01  0.3294255E+00 -0.1976869E-02  0.1039631E-01  0.6131393E-02  0.4685384E-01
3921852. -0.2073419E-01  0.2380002E+00 -0.2056088E-02  0.1702556E-01  0.5860280E-02  0.4777065E-01
3885370. -0.2179712E-01  0.1309847E+00 -0.2168705E-02  0.2200949E-01  0.5585034E-02  0.4830636E-01
3848889. -0.2221299E-01  0.1281887E-01 -0.2304539E-02  0.2510661E-01  0.5307651E-02  0.4853167E-01
3812407. -0.2193244E-01 -0.1113821E+00 -0.2452415E-02  0.2620685E-01  0.5029680E-02  0.4852285E-01
3775926. -0.2093610E-01 -0.2362939E+00 -0.2600896E-02  0.2533405E-01  0.4752223E-02  0.4837026E-01
3739444. -0.1923535E-01 -0.3565135E+00 -0.2739062E-02  0.2263752E-01  0.4475819E-02  0.4816919E-01
3702963. -0.1687197E-01 -0.4669577E+00 -0.2857160E-02  0.1837757E-01  0.4200461E-02  0.4802700E-01
3666482. -0.1391485E-01 -0.5632164E+00 -0.2947215E-02  0.1290832E-01  0.3925452E-02  0.4806903E-01
3630000. -0.1045600E-01 -0.6416480E+00 -0.3003486E-02  0.6651985E-02  0.3649347E-02  0.4843193E-01
3630000. -0.1045600E-01 -0.6416480E+00 -0.3003486E-02  0.6651985E-02  0.3649347E-02  0.4843193E-01
3592500. -0.6493479E-02 -0.7010335E+00 -0.3022783E-02 -0.1080436E-03  0.3361986E-02  0.4931051E-01
3555000. -0.2248613E-02 -0.7374593E+00 -0.3002586E-02 -0.6679321E-02  0.3067456E-02  0.5090500E-01
3517500.  0.2142637E-02 -0.7508916E+00 -0.2945541E-02 -0.1254471E-01  0.2760845E-02  0.5346049E-01
3480000.  0.6548482E-02 -0.7427793E+00 -0.2857250E-02 -0.1721952E-01  0.2435649E-02  0.5727482E-01
3480000.  0.6548482E-02 -0.7704901E-01  0.1090085E-03  0.1178725E-01  0.2435649E-02  0.3627394E-01
3409422.  0.6981558E-02 -0.2346397E-02 -0.3020138E-04  0.1310296E-01  0.2188749E-02  0.1033419E-01
3338844.  0.6643477E-02  0.6084523E-01 -0.1760927E-03  0.1301415E-01  0.2165579E-02 -0.4484816E-02
3268266.  0.5698393E-02  0.1065852E+00 -0.3140851E-03  0.1172178E-01  0.2255627E-02 -0.1050907E-01
3197688.  0.4354572E-02  0.1327697E+00 -0.4325048E-03  0.9538365E-02  0.2374912E-02 -0.1016361E-01
3127109.  0.2825422E-02  0.1404220E+00 -0.5234545E-03  0.6822687E-02  0.2465842E-02 -0.5753822E-02
3056531.  0.1300188E-02  0.1327217E+00 -0.5830018E-03  0.3924374E-02  0.2494859E-02  0.7107894E-03
2985953. -0.7440348E-04  0.1139912E+00 -0.6108443E-03  0.1143054E-02  0.2448470E-02  0.7630582E-02
2915375. -0.1201637E-02  0.8881009E-01 -0.6096032E-03 -0.1295568E-02  0.2328394E-02  0.1386154E-01
2844797. -0.2033780E-02  0.6135206E-01 -0.5839422E-03 -0.3248738E-02  0.2146535E-02  0.1870226E-01
2774219. -0.2565030E-02  0.3496360E-01 -0.5396596E-03 -0.4652899E-02  0.1920363E-02  0.2183712E-01
2703641. -0.2821138E-02  0.1198151E-01 -0.4828739E-03 -0.5511325E-02  0.1669085E-02  0.2325313E-01
2633062. -0.2848084E-02 -0.6266419E-02 -0.4193714E-03 -0.5877487E-02  0.1410796E-02  0.2314751E-01
2562484. -0.2701521E-02 -0.1933164E-01 -0.3541554E-03 -0.5836796E-02  0.1160670E-02  0.2183940E-01
2491906. -0.2438129E-02 -0.2744062E-01 -0.2911837E-03 -0.5489428E-02  0.9300105E-03  0.1969453E-01
2421328. -0.2109381E-02 -0.3126920E-01 -0.2332893E-03 -0.4936530E-02  0.7260894E-03  0.1706819E-01
2350750. -0.1757773E-02 -0.3172948E-01 -0.1822273E-03 -0.4270070E-02  0.5524820E-03  0.1426767E-01
2280172. -0.1415211E-02 -0.2979633E-01 -0.1388169E-03 -0.3566315E-02  0.4097247E-03  0.1153233E-01
2209594. -0.1103068E-02 -0.2637882E-01 -0.1031338E-03 -0.2883077E-02  0.2961098E-03  0.9028049E-02
2139016. -0.8333959E-03 -0.2224166E-01 -0.7471656E-04 -0.2259631E-02  0.2084791E-03  0.6852243E-02
2068438. -0.6107595E-03 -0.1796887E-01 -0.5276331E-04 -0.1718620E-02  0.1429245E-03  0.5045154E-02
1997859. -0.4342756E-03 -0.1396119E-01 -0.3629960E-04 -0.1269066E-02  0.9534305E-04  0.3604025E-02
1927281. -0.2995630E-03 -0.1045541E-01 -0.2431114E-04 -0.9098685E-03  0.6183559E-04  0.2497461E-02
1856703. -0.2003730E-03 -0.7556369E-02 -0.1583534E-04 -0.6331971E-03  0.3894839E-04  0.1678000E-02
1786125. -0.1298633E-03 -0.5272922E-02 -0.1001988E-04 -0.4274675E-03  0.2379493E-04  0.1092257E-02
1715547. -0.8146367E-04 -0.3552342E-02 -0.6150415E-05 -0.2796885E-03  0.1407865E-04  0.6880599E-03
1644969. -0.4939356E-04 -0.2309107E-02 -0.3656237E-05 -0.1771433E-03  0.8052673E-05  0.4188799E-03
1574391. -0.2889737E-04 -0.1446686E-02 -0.2100899E-05 -0.1084385E-03  0.4443310E-05  0.2460184E-03
1503812. -0.1627879E-04 -0.8722310E-03 -0.1164166E-05 -0.6403674E-04  0.2359278E-05  0.1391102E-03
1433234. -0.8808688E-05 -0.5050239E-03 -0.6204091E-06 -0.3640056E-04  0.1201891E-05  0.7555094E-04
1362656. -0.4566507E-05 -0.2799735E-03 -0.3168641E-06 -0.1987033E-04  0.5850995E-06  0.3931923E-04
1292078. -0.2264395E-05 -0.1477847E-03 -0.1542312E-06 -0.1040573E-04  0.2701916E-06  0.1961209E-04
1221500. -0.1081788E-05 -0.7292101E-04 -0.7043516E-07 -0.5275430E-05  0.1153348E-06  0.9542386E-05
1221500. -0.1081788E-05  0.9787171E-04  0.6619862E-07  0.5987577E-05  0.1153348E-06  0.1001102E-04
1183328. -0.1553215E-05  0.5973570E-04  0.3276105E-07  0.5124218E-05  0.6796536E-07  0.6101442E-05
1145156. -0.1803811E-05  0.2468702E-04  0.5306859E-08  0.4007062E-05  0.3931168E-07  0.3657114E-05
1106984. -0.1860905E-05 -0.4460177E-05 -0.1501253E-07  0.2768747E-05  0.2227710E-07  0.2152437E-05
1068812. -0.1765776E-05 -0.2593425E-04 -0.2794815E-07  0.1568123E-05  0.1234068E-07  0.1241687E-05
1030641. -0.1566545E-05 -0.3923177E-04 -0.3415256E-07  0.5407358E-06  0.6665255E-08  0.7005097E-06
 992469. -0.1310740E-05 -0.4500675E-04 -0.3494449E-07 -0.2296262E-06  0.3498570E-08  0.3854230E-06
 954297. -0.1039328E-05 -0.4473361E-04 -0.3196695E-07 -0.7179794E-06  0.1777756E-08  0.2061452E-06
 916125. -0.7830290E-06 -0.4028496E-04 -0.2685597E-07 -0.9492202E-06  0.8702824E-09  0.1067388E-06
 877953. -0.5611639E-06 -0.3353439E-04 -0.2099245E-07 -0.9802653E-06  0.4079460E-09  0.5323775E-07
 839781. -0.3825861E-06 -0.2606510E-04 -0.1537073E-07 -0.8800912E-06  0.1816263E-09  0.2541544E-07
 801609. -0.2479516E-06 -0.1901546E-04 -0.1057720E-07 -0.7136803E-06  0.7594019E-10  0.1151510E-07
 763438. -0.1525282E-06 -0.1305122E-04 -0.6848349E-08 -0.5317169E-06  0.2931257E-10  0.4894122E-08
 725266. -0.8885615E-07 -0.8430833E-05 -0.4170045E-08 -0.3669518E-06  0.1013735E-10  0.1917395E-08
 687094. -0.4887285E-07 -0.5120504E-05 -0.2383879E-08 -0.2353911E-06  0.2948172E-11  0.6710785E-09
 648922. -0.2528145E-07 -0.2917215E-05 -0.1275683E-08 -0.1404250E-06  0.5891299E-12  0.1968686E-09
 610750. -0.1223967E-07 -0.1553401E-05 -0.6363702E-09 -0.7777491E-07 -0.2514476E-13  0.3929303E-10
 572578. -0.5512284E-08 -0.7693461E-06 -0.2942986E-09 -0.3984828E-07 -0.1054819E-12 -0.2005197E-11
 534406. -0.2291955E-08 -0.3521084E-06 -0.1252815E-09 -0.1878278E-07 -0.6936219E-13 -0.7298330E-11
 496234. -0.8715604E-09 -0.1476824E-06 -0.4864773E-10 -0.8083078E-08 -0.3230845E-13 -0.4732359E-11
 458062. -0.2995350E-09 -0.5616026E-07 -0.1703256E-10 -0.3143719E-08 -0.1219172E-13 -0.2167283E-11
 419891. -0.9164183E-10 -0.1909792E-07 -0.5297563E-11 -0.1090303E-08 -0.3846406E-14 -0.7962689E-12
 381719. -0.2447268E-10 -0.5703309E-08 -0.1435423E-11 -0.3312524E-09 -0.1015246E-14 -0.2414163E-12
 343547. -0.5558203E-11 -0.1460208E-08 -0.3302028E-12 -0.8608959E-10 -0.2204489E-15 -0.6008135E-13
 305375. -0.1036343E-11 -0.3101718E-09 -0.6225699E-13 -0.1852537E-10 -0.3817719E-16 -0.1197983E-13
 267203. -0.1509427E-12 -0.5219276E-10 -0.9155235E-14 -0.3152100E-11 -0.5019629E-17 -0.1833052E-14
 229031. -0.1596641E-13 -0.6500516E-11 -0.9763609E-15 -0.3962944E-12 -0.4647093E-18 -0.2007856E-15
 190859. -0.1095530E-14 -0.5392488E-12 -0.6744061E-16 -0.3312674E-13 -0.2694217E-19 -0.1391483E-16
 152688.  0.0000000E+00  0.0000000E+00  0.0000000E+00  0.0000000E+00  0.0000000E+00  0.0000000E+00
 114516.  0.0000000E+00  0.0000000E+00  0.0000000E+00  0.0000000E+00  0.0000000E+00  0.0000000E+00
  76344.  0.0000000E+00  0.0000000E+00  0.0000000E+00  0.0000000E+00  0.0000000E+00  0.0000000E+00
  38172.  0.0000000E+00  0.0000000E+00  0.0000000E+00  0.0000000E+00  0.0000000E+00  0.0000000E+00
      0.  0.0000000E+00  0.0000000E+00  0.0000000E+00  0.0000000E+00  0.0000000E+00  0.0000000E+00
