      18        4 S      665        136.95621         64.95212         14.01639        971.74127      185    7
6371000.  0.5171071E-01 -0.4555086E-01 -0.6231202E-03 -0.5233382E-01  0.1101598E-04 -0.9756938E-01
6370000.  0.5171623E-01 -0.2479263E-01 -0.6148402E-03 -0.5316766E-01  0.2633121E-04 -0.9757620E-01
6369000.  0.5171849E-01 -0.4024535E-02 -0.6064307E-03 -0.5398337E-01  0.4164702E-04 -0.9757697E-01
6368000.  0.5171749E-01  0.1675210E-01 -0.5978945E-03 -0.5478079E-01  0.5696249E-04 -0.9757169E-01
6368000.  0.5171749E-01  0.1675210E-01 -0.5978945E-03 -0.5478079E-01  0.5696249E-04 -0.9757169E-01
6367000.  0.5171323E-01  0.3753593E-01 -0.5892348E-03 -0.5555975E-01  0.7227666E-04 -0.9756035E-01
6366000.  0.5170571E-01  0.5832563E-01 -0.5804541E-03 -0.5632008E-01  0.8758856E-04 -0.9754297E-01
6365000.  0.5169492E-01  0.7911984E-01 -0.5715556E-03 -0.5706160E-01  0.1028973E-03 -0.9751952E-01
6364000.  0.5168087E-01  0.9991723E-01 -0.5625422E-03 -0.5778416E-01  0.1182018E-03 -0.9749003E-01
6363000.  0.5166356E-01  0.1207165E+00 -0.5534168E-03 -0.5848760E-01  0.1335013E-03 -0.9745447E-01
6362000.  0.5164297E-01  0.1415162E+00 -0.5441826E-03 -0.5917177E-01  0.1487946E-03 -0.9741286E-01
6361000.  0.5161913E-01  0.1623151E+00 -0.5348425E-03 -0.5983652E-01  0.1640810E-03 -0.9736520E-01
6360000.  0.5159202E-01  0.1831117E+00 -0.5253996E-03 -0.6048171E-01  0.1793595E-03 -0.9731148E-01
6359000.  0.5156165E-01  0.2039049E+00 -0.5158570E-03 -0.6110719E-01  0.1946290E-03 -0.9725171E-01
6358000.  0.5152801E-01  0.2246931E+00 -0.5062177E-03 -0.6171283E-01  0.2098886E-03 -0.9718589E-01
6357000.  0.5149111E-01  0.2454751E+00 -0.4964849E-03 -0.6229851E-01  0.2251375E-03 -0.9711403E-01
6356000.  0.5145095E-01  0.2662496E+00 -0.4866619E-03 -0.6286409E-01  0.2403746E-03 -0.9703612E-01
6356000.  0.5145095E-01  0.1637986E+00 -0.4866619E-03 -0.5858137E-01  0.2403746E-03 -0.1082312E+00
6355000.  0.5142405E-01  0.1789024E+00 -0.4774377E-03 -0.5895124E-01  0.2573581E-03 -0.1081723E+00
6354000.  0.5139479E-01  0.1940036E+00 -0.4681564E-03 -0.5930823E-01  0.2743320E-03 -0.1081084E+00
6353000.  0.5136315E-01  0.2091015E+00 -0.4588202E-03 -0.5965231E-01  0.2912956E-03 -0.1080397E+00
6352000.  0.5132915E-01  0.2241953E+00 -0.4494309E-03 -0.5998342E-01  0.3082479E-03 -0.1079661E+00
6351000.  0.5129277E-01  0.2392844E+00 -0.4399907E-03 -0.6030151E-01  0.3251883E-03 -0.1078877E+00
6350000.  0.5125403E-01  0.2543680E+00 -0.4305016E-03 -0.6060654E-01  0.3421160E-03 -0.1078044E+00
6349000.  0.5121292E-01  0.2694454E+00 -0.4209656E-03 -0.6089845E-01  0.3590302E-03 -0.1077162E+00
6348000.  0.5116944E-01  0.2845159E+00 -0.4113849E-03 -0.6117722E-01  0.3759302E-03 -0.1076231E+00
6347000.  0.5112360E-01  0.2995788E+00 -0.4017614E-03 -0.6144280E-01  0.3928153E-03 -0.1075252E+00
6346600.  0.5110461E-01  0.3056017E+00 -0.3979005E-03 -0.6154532E-01  0.3995649E-03 -0.1074847E+00
6346600.  0.5110461E-01  0.1675718E+00 -0.3979005E-03 -0.5834715E-01  0.3995649E-03 -0.1253041E+00
6318800.  0.4971231E-01  0.4705317E+00 -0.1369373E-03 -0.5991890E-01  0.9397882E-03 -0.1217828E+00
6291000.  0.4700477E-01  0.7690088E+00  0.1133395E-03 -0.5348902E-01  0.1457843E-02 -0.1151522E+00
6291000.  0.4700477E-01  0.7791591E+00  0.1133395E-03 -0.5370094E-01  0.1457843E-02 -0.1151522E+00
6263000.  0.4293338E-01  0.1070612E+01  0.3200872E-03 -0.3917992E-01  0.1943376E-02 -0.1052964E+00
6235000.  0.3762716E-01  0.1339640E+01  0.4483521E-03 -0.1828282E-01  0.2379104E-02 -0.9252511E-01
6207000.  0.3120349E-01  0.1577769E+01  0.4744643E-03  0.6917103E-02  0.2752778E-02 -0.7710915E-01
6179000.  0.2381563E-01  0.1777177E+01  0.3849381E-03  0.3389356E-01  0.3053518E-02 -0.5940029E-01
6151000.  0.1564935E-01  0.1930935E+01  0.1779792E-03  0.5989220E-01  0.3272159E-02 -0.3982536E-01
6151000.  0.1564935E-01  0.1554315E+01  0.1779792E-03  0.5066742E-01  0.3272159E-02 -0.4069117E-01
6128500.  0.1008369E-01  0.1593568E+01 -0.2833246E-04  0.6575339E-01  0.3392187E-02 -0.2720184E-01
6106000.  0.4422180E-02  0.1608666E+01 -0.2830049E-03  0.7791552E-01  0.3463845E-02 -0.1333192E-01
6083500. -0.1250789E-02  0.1600180E+01 -0.5743381E-03  0.8640508E-01  0.3486139E-02  0.7210508E-03
6061000. -0.6853450E-02  0.1569031E+01 -0.8883172E-03  0.9066465E-01  0.3458768E-02  0.1476095E-01
6038500. -0.1230789E-01  0.1516474E+01 -0.1209336E-02  0.9035370E-01  0.3382120E-02  0.2859578E-01
6016000. -0.1754112E-01  0.1444026E+01 -0.1520987E-02  0.8536074E-01  0.3257249E-02  0.4203997E-01
5993500. -0.2248591E-01  0.1353435E+01 -0.1806878E-02  0.7580377E-01  0.3085849E-02  0.5491711E-01
5971000. -0.2708158E-01  0.1246648E+01 -0.2051427E-02  0.6202194E-01  0.2870219E-02  0.6706122E-01
5971000. -0.2708158E-01  0.1128174E+01 -0.2051427E-02  0.5813140E-01  0.2870219E-02  0.7060643E-01
5937667. -0.3246890E-01  0.9291662E+00 -0.2289054E-02  0.3199318E-01  0.2458294E-02  0.8646274E-01
5904333. -0.3678996E-01  0.7217478E+00 -0.2381047E-02  0.2895865E-02  0.1969823E-02  0.9982032E-01
5871000. -0.4001865E-01  0.5126882E+00 -0.2318661E-02 -0.2661128E-01  0.1418483E-02  0.1104740E+00
5837667. -0.4216193E-01  0.3077042E+00 -0.2105886E-02 -0.5424156E-01  0.8187534E-03  0.1183043E+00
5804333. -0.4325385E-01  0.1114774E+00 -0.1757640E-02 -0.7811960E-01  0.1855342E-03  0.1232675E+00
5771000. -0.4335026E-01 -0.7229023E-01 -0.1297418E-02 -0.9686417E-01 -0.4661763E-03  0.1253899E+00
5771000. -0.4335026E-01 -0.7228810E-01 -0.1297418E-02 -0.9685950E-01 -0.4661763E-03  0.1253899E+00
5701000. -0.4054263E-01 -0.4321573E+00 -0.3949686E-04 -0.1274853E+00 -0.1817527E-02  0.1185955E+00
5701000. -0.4054263E-01 -0.3533790E+00 -0.3949686E-04 -0.9127522E-01 -0.1817527E-02  0.1300230E+00
5667333. -0.3839299E-01 -0.4614121E+00  0.4168309E-03 -0.8331111E-01 -0.2488144E-02  0.1235520E+00
5633667. -0.3563511E-01 -0.5833793E+00  0.8575535E-03 -0.8385436E-01 -0.3120518E-02  0.1154534E+00
5600000. -0.3225516E-01 -0.6929511E+00  0.1295514E-02 -0.8119164E-01 -0.3704418E-02  0.1051901E+00
5600000. -0.3225516E-01 -0.6929511E+00  0.1295514E-02 -0.8119164E-01 -0.3704418E-02  0.1051901E+00
5563518. -0.2798399E-01 -0.7960279E+00  0.1743678E-02 -0.7473981E-01 -0.4269718E-02  0.9189422E-01
5527037. -0.2317218E-01 -0.8816394E+00  0.2144946E-02 -0.6488038E-01 -0.4753020E-02  0.7660595E-01
5490556. -0.1792258E-01 -0.9487887E+00  0.2481083E-02 -0.5208255E-01 -0.5143834E-02  0.5964660E-01
5454074. -0.1234295E-01 -0.9967961E+00  0.2736979E-02 -0.3696732E-01 -0.5433590E-02  0.4136586E-01
5417593. -0.6543717E-02 -0.1025542E+01  0.2901451E-02 -0.2028350E-01 -0.5615750E-02  0.2213096E-01
5381111. -0.6349860E-03 -0.1035003E+01  0.2967809E-02 -0.2834879E-02 -0.5685944E-02  0.2321770E-02
5344630.  0.5273323E-02 -0.1025553E+01  0.2934043E-02  0.1454961E-01 -0.5641985E-02 -0.1767480E-01
5308148.  0.1107524E-01 -0.9979056E+00  0.2802826E-02  0.3107323E-01 -0.5483896E-02 -0.3747687E-01
5271667.  0.1666829E-01 -0.9528117E+00  0.2581227E-02  0.4600597E-01 -0.5213873E-02 -0.5671082E-01
5235185.  0.2195609E-01 -0.8914599E+00  0.2280158E-02  0.5873710E-01 -0.4836191E-02 -0.7501823E-01
5198704.  0.2684905E-01 -0.8151683E+00  0.1913662E-02  0.6879371E-01 -0.4357153E-02 -0.9206238E-01
5162222.  0.3126565E-01 -0.7252967E+00  0.1498042E-02  0.7585309E-01 -0.3784850E-02 -0.1075392E+00
5125741.  0.3513282E-01 -0.6235986E+00  0.1050942E-02  0.7978584E-01 -0.3129109E-02 -0.1211673E+00
5089259.  0.3838799E-01 -0.5118024E+00  0.5902324E-03  0.8061881E-01 -0.2401181E-02 -0.1327097E+00
5052778.  0.4097843E-01 -0.3917834E+00  0.1332384E-03  0.7853808E-01 -0.1613634E-02 -0.1419675E+00
5016296.  0.4286296E-01 -0.2655644E+00 -0.3043021E-03  0.7388619E-01 -0.7799887E-03 -0.1487798E+00
4979815.  0.4401182E-01 -0.1351942E+00 -0.7088614E-03  0.6710439E-01  0.8536431E-04 -0.1530357E+00
4943333.  0.4440735E-01 -0.2792998E-02 -0.1069754E-02  0.5872588E-01  0.9676174E-03 -0.1546659E+00
4906852.  0.4404403E-01  0.1294943E+00 -0.1379481E-02  0.4933461E-01  0.1851587E-02 -0.1536437E+00
4870370.  0.4292865E-01  0.2595146E+00 -0.1633923E-02  0.3950999E-01  0.2722186E-02 -0.1499952E+00
4833889.  0.4108032E-01  0.3851694E+00 -0.1832232E-02  0.2982262E-01  0.3564485E-02 -0.1437806E+00
4797407.  0.3852973E-01  0.5044377E+00 -0.1976694E-02  0.2077752E-01  0.4364111E-02 -0.1351046E+00
4760926.  0.3531943E-01  0.6153018E+00 -0.2072200E-02  0.1278632E-01  0.5107340E-02 -0.1241169E+00
4724444.  0.3150240E-01  0.7160383E+00 -0.2125754E-02  0.6166657E-02  0.5781458E-02 -0.1109914E+00
4687963.  0.2714169E-01  0.8049662E+00 -0.2145804E-02  0.1104569E-02  0.6374784E-02 -0.9594300E-01
4651482.  0.2230920E-01  0.8806058E+00 -0.2141495E-02 -0.2341719E-02  0.6877007E-02 -0.7921295E-01
4615000.  0.1708421E-01  0.9418280E+00 -0.2121955E-02 -0.4236298E-02  0.7279244E-02 -0.6106228E-01
4578518.  0.1155247E-01  0.9875954E+00 -0.2095592E-02 -0.4764661E-02  0.7574157E-02 -0.4177666E-01
4542037.  0.5804748E-02  0.1017246E+01 -0.2069458E-02 -0.4211270E-02  0.7756091E-02 -0.2165479E-01
4505556. -0.6580817E-04  0.1030447E+01 -0.2048739E-02 -0.2939150E-02  0.7821141E-02 -0.1003349E-02
4469074. -0.5964392E-02  0.1026985E+01 -0.2036376E-02 -0.1364563E-02  0.7767167E-02  0.1986454E-01
4432593. -0.1179594E-01  0.1007166E+01 -0.2032848E-02  0.7261448E-04  0.7593836E-02  0.4063356E-01
4396111. -0.1746852E-01  0.9714968E+00 -0.2036116E-02  0.9394894E-03  0.7302592E-02  0.6099586E-01
4359630. -0.2289283E-01  0.9206657E+00 -0.2041759E-02  0.8398502E-03  0.6896642E-02  0.8065105E-01
4323148. -0.2798554E-01  0.8558294E+00 -0.2043239E-02 -0.5640574E-03  0.6380849E-02  0.9930950E-01
4286667. -0.3266969E-01  0.7782315E+00 -0.2032327E-02 -0.3521350E-02  0.5761736E-02  0.1167006E+00
4250185. -0.3687648E-01  0.6893319E+00 -0.1999657E-02 -0.8179339E-02  0.5047245E-02  0.1325751E+00
4213704. -0.4054585E-01  0.5908459E+00 -0.1935327E-02 -0.1457579E-01  0.4246778E-02  0.1467014E+00
4177222. -0.4362799E-01  0.4844976E+00 -0.1829574E-02 -0.2262205E-01  0.3370881E-02  0.1588821E+00
4140741. -0.4608307E-01  0.3721774E+00 -0.1673478E-02 -0.3211840E-01  0.2431254E-02  0.1689418E+00
4104259. -0.4788252E-01  0.2557953E+00 -0.1459547E-02 -0.4275971E-01  0.1440429E-02  0.1767345E+00
4067778. -0.4900835E-01  0.1372278E+00 -0.1182385E-02 -0.5413057E-01  0.4117519E-03  0.1821565E+00
4031296. -0.4945349E-01  0.1834453E-01 -0.8391176E-03 -0.6576333E-01 -0.6410012E-03  0.1851218E+00
3994815. -0.4922122E-01 -0.9908438E-01 -0.4297470E-03 -0.7712905E-01 -0.1703550E-02  0.1855844E+00
3958333. -0.4832470E-01 -0.2133873E+00  0.4260036E-04 -0.8766279E-01 -0.2761593E-02  0.1835383E+00
3921852. -0.4678626E-01 -0.3230717E+00  0.5715907E-03 -0.9682964E-01 -0.3800727E-02  0.1789951E+00
3885370. -0.4463619E-01 -0.4267746E+00  0.1147917E-02 -0.1041062E+00 -0.4806847E-02  0.1720097E+00
3848889. -0.4191243E-01 -0.5233014E+00  0.1759349E-02 -0.1090281E+00 -0.5766142E-02  0.1626655E+00
3812407. -0.3865860E-01 -0.6117332E+00  0.2391356E-02 -0.1112311E+00 -0.6665445E-02  0.1510679E+00
3775926. -0.3492381E-01 -0.6911998E+00  0.3027452E-02 -0.1104242E+00 -0.7492200E-02  0.1373604E+00
3739444. -0.3076093E-01 -0.7611452E+00  0.3649926E-02 -0.1064533E+00 -0.8234819E-02  0.1217022E+00
3702963. -0.2622579E-01 -0.8211961E+00  0.4240497E-02 -0.9928962E-01 -0.8882604E-02  0.1042763E+00
3666482. -0.2137612E-01 -0.8709704E+00  0.4781047E-02 -0.8900848E-01 -0.9426039E-02  0.8529162E-01
3630000. -0.1627070E-01 -0.9104897E+00  0.5254335E-02 -0.7583904E-01 -0.9856828E-02  0.6496455E-01
3630000. -0.1627070E-01 -0.9104897E+00  0.5254335E-02 -0.7583904E-01 -0.9856828E-02  0.6496455E-01
3592500. -0.1081835E-01 -0.9403372E+00  0.5654252E-02 -0.5963211E-01 -0.1017484E-01  0.4292065E-01
3555000. -0.5222139E-02 -0.9594237E+00  0.5951934E-02 -0.4118894E-01 -0.1036033E-01  0.1997548E-01
3517500.  0.4556608E-03 -0.9681094E+00  0.6135855E-02 -0.2107714E-01 -0.1040876E-01 -0.3597909E-02
3480000.  0.6154526E-02 -0.9666284E+00  0.6198002E-02  0.7959505E-04 -0.1031729E-01 -0.2752060E-01
3480000.  0.6154526E-02 -0.1743872E+01  0.2526625E-02  0.6596731E-02 -0.1031729E-01 -0.4725808E-01
3409422.  0.2450731E-01 -0.1530306E+01  0.2257870E-02  0.4154927E-01 -0.9040279E-02 -0.1809343E+00
3338844.  0.3929372E-01 -0.1109987E+01  0.1623261E-02  0.7186857E-01 -0.6394779E-02 -0.2913842E+00
3268266.  0.4859079E-01 -0.5520875E+00  0.6983129E-03  0.9335665E-01 -0.2727045E-02 -0.3633911E+00
3197688.  0.5131441E-01  0.6305632E-01 -0.4013629E-03  0.1030381E+00  0.1478798E-02 -0.3874919E+00
3127109.  0.4728037E-01  0.6550357E+00 -0.1535431E-02  0.9945424E-01  0.5669862E-02 -0.3607840E+00
3056531.  0.3715126E-01  0.1152828E+01 -0.2556293E-02  0.8276185E-01  0.9297335E-02 -0.2868594E+00
2985953.  0.2228974E-01  0.1501997E+01 -0.3326770E-02  0.5464844E-01  0.1188480E-01 -0.1749686E+00
2915375.  0.4548275E-02  0.1669058E+01 -0.3735793E-02  0.1809224E-01  0.1308327E-01 -0.3860417E-01
2844797. -0.1397449E-01  0.1643096E+01 -0.3710820E-02 -0.2299710E-01  0.1270860E-01  0.1062760E+00
2774219. -0.3118056E-01  0.1434792E+01 -0.3225815E-02 -0.6420779E-01  0.1075831E-01  0.2431564E+00
2703641. -0.4519660E-01  0.1073364E+01 -0.2304301E-02 -0.1010798E+00  0.7407432E-02  0.3567867E+00
2633062. -0.5455502E-01  0.6019596E+00 -0.1017418E-02 -0.1295425E+00  0.2985528E-02  0.4347362E+00
2562484. -0.5831786E-01  0.7217090E-01  0.5224756E-03 -0.1462912E+00 -0.2061075E-02  0.4685449E+00
2491906. -0.5613913E-01 -0.4617490E+00  0.2172109E-02 -0.1490801E+00 -0.7217890E-02  0.4544011E+00
2421328. -0.4826313E-01 -0.9483183E+00  0.3770084E-02 -0.1369072E+00 -0.1195483E-01  0.3932992E+00
2350750. -0.3546695E-01 -0.1343518E+01  0.5151165E-02 -0.1100824E+00 -0.1577823E-01  0.2907265E+00
2280172. -0.1895709E-01 -0.1614330E+01  0.6160653E-02 -0.7018304E-01 -0.1827686E-01  0.1559346E+00
2209594. -0.2338980E-03 -0.1740981E+01  0.6667704E-02 -0.1990412E-01 -0.1915818E-01  0.8993387E-03
2139016.  0.1906104E-01 -0.1717770E+01  0.6576454E-02  0.3717839E-01 -0.1827176E-01 -0.1609078E+00
2068438.  0.3729935E-01 -0.1552594E+01  0.5834172E-02  0.9690876E-01 -0.1561872E-01 -0.3158127E+00
1997859.  0.5300824E-01 -0.1265244E+01  0.4435800E-02  0.1548878E+00 -0.1134697E-01 -0.4511741E+00
1927281.  0.6498816E-01 -0.8848878E+00  0.2424867E-02  0.2068122E+00 -0.5733934E-02 -0.5564417E+00
1856703.  0.7240036E-01 -0.4468121E+00 -0.1095814E-03  0.2488073E+00  0.8418341E-03 -0.6239861E+00
1786125.  0.7481486E-01  0.1102840E-01 -0.3039226E-02  0.2777029E+00  0.7935842E-02 -0.6496037E+00
1715547.  0.7222069E-01  0.4514882E+00 -0.6205569E-02  0.2912515E+00  0.1507703E-01 -0.6327041E+00
1644969.  0.6499926E-01  0.8413683E+00 -0.9431006E-02  0.2882656E+00  0.2180733E-01 -0.5761750E+00
1574391.  0.5386557E-01  0.1154014E+01 -0.1253091E-01  0.2686664E+00  0.2771812E-01 -0.4859690E+00
1503812.  0.3978438E-01  0.1371202E+01 -0.1532581E-01  0.2334428E+00  0.3248090E-01 -0.3704613E+00
1433234.  0.2387090E-01  0.1484217E+01 -0.1765243E-01  0.1845185E+00  0.3586964E-01 -0.2396798E+00
1362656.  0.7281805E-02  0.1494166E+01 -0.1937311E-01  0.1245339E+00  0.3777488E-01 -0.1044681E+00
1292078. -0.8891117E-02  0.1411580E+01 -0.2038202E-01  0.5653859E-01  0.3820819E-01  0.2427405E-01
1221500. -0.2372105E-01  0.1255556E+01 -0.2060764E-01 -0.1638642E-01  0.3729934E-01  0.1361800E+00
1221500. -0.2372105E-01  0.9613994E+00 -0.2277277E-01  0.4946001E-02  0.3729934E-01  0.1464561E+00
1183328. -0.2912156E-01  0.8397489E+00 -0.2270530E-01 -0.2746751E-01  0.3625078E-01  0.2024487E+00
1145156. -0.3376864E-01  0.7105160E+00 -0.2244460E-01 -0.5938110E-01  0.3488727E-01  0.2514950E+00
1106984. -0.3762766E-01  0.5772588E+00 -0.2199690E-01 -0.8970670E-01  0.3325189E-01  0.2931446E+00
1068812. -0.4068418E-01  0.4431235E+00 -0.2137491E-01 -0.1173932E+00  0.3138985E-01  0.3271186E+00
1030641. -0.4294106E-01  0.3107525E+00 -0.2059719E-01 -0.1415806E+00  0.2934762E-01  0.3533061E+00
 992469. -0.4441558E-01  0.1822545E+00 -0.1968647E-01 -0.1617193E+00  0.2717167E-01  0.3717640E+00
 954297. -0.4513596E-01  0.5926131E-01 -0.1866776E-01 -0.1776266E+00  0.2490778E-01  0.3827045E+00
 916125. -0.4513931E-01 -0.5689380E-01 -0.1756607E-01 -0.1894764E+00  0.2260001E-01  0.3864849E+00
 877953. -0.4447007E-01 -0.1650630E+00 -0.1640444E-01 -0.1977285E+00  0.2028985E-01  0.3835949E+00
 839781. -0.4317957E-01 -0.2640710E+00 -0.1520264E-01 -0.2029914E+00  0.1801550E-01  0.3746376E+00
 801609. -0.4132647E-01 -0.3526323E+00 -0.1397667E-01 -0.2058945E+00  0.1581128E-01  0.3603102E+00
 763438. -0.3897769E-01 -0.4292991E+00 -0.1273912E-01 -0.2069366E+00  0.1370713E-01  0.3413846E+00
 725266. -0.3620898E-01 -0.4925317E+00 -0.1150007E-01 -0.2064120E+00  0.1172805E-01  0.3186824E+00
 687094. -0.3310546E-01 -0.5408187E+00 -0.1026871E-01 -0.2043554E+00  0.9894182E-02  0.2930552E+00
 648922. -0.2976063E-01 -0.5729074E+00 -0.9054673E-02 -0.2005826E+00  0.8220479E-02  0.2653618E+00
 610750. -0.2627419E-01 -0.5880114E+00 -0.7869180E-02 -0.1947677E+00  0.6716781E-02  0.2364446E+00
 572578. -0.2274859E-01 -0.5860289E+00 -0.6725539E-02 -0.1865587E+00  0.5387982E-02  0.2071100E+00
 534406. -0.1928446E-01 -0.5676874E+00 -0.5638925E-02 -0.1757045E+00  0.4234300E-02  0.1781093E+00
 496234. -0.1597544E-01 -0.5345948E+00 -0.4625440E-02 -0.1621629E+00  0.3251662E-02  0.1501211E+00
 458062. -0.1290301E-01 -0.4891768E+00 -0.3700632E-02 -0.1461665E+00  0.2432183E-02  0.1237364E+00
 419891. -0.1013215E-01 -0.4345115E+00 -0.2877818E-02 -0.1282328E+00  0.1764747E-02  0.9944755E-01
 381719. -0.7707844E-02 -0.3740635E+00 -0.2166397E-02 -0.1091178E+00  0.1235561E-02  0.7763655E-01
 343547. -0.5654136E-02 -0.3113901E+00 -0.1570809E-02 -0.8972365E-01  0.8289300E-03  0.5857289E-01
 305375. -0.3974181E-02 -0.2498251E+00 -0.1089916E-02 -0.7098336E-01  0.5278820E-03  0.4240794E-01
 267203. -0.2652521E-02 -0.1922123E+00 -0.7172225E-03 -0.5373216E-01  0.3148878E-03  0.2917628E-01
 229031. -0.1658596E-02 -0.1407273E+00 -0.4417590E-03 -0.3861507E-01  0.1725533E-03  0.1879907E-01
 190859. -0.9510370E-03 -0.9679830E-01 -0.2494308E-03 -0.2602468E-01  0.8428097E-04  0.1109070E-01
 152688. -0.4820935E-03 -0.6114775E-01 -0.1245728E-03 -0.1609718E-01  0.3488315E-04  0.5768305E-02
 114516. -0.2014637E-03 -0.3392099E-01 -0.5137108E-04 -0.8753329E-02  0.1112675E-04  0.2463263E-02
  76344. -0.5923092E-04 -0.1489357E-01 -0.1494447E-04 -0.3779844E-02  0.2210578E-05  0.7362018E-03
  38172. -0.7366408E-05 -0.3692631E-02 -0.1845940E-05 -0.9267682E-03  0.1386393E-06  0.9250385E-04
      0.  0.0000000E+00  0.0000000E+00  0.0000000E+00  0.0000000E+00  0.0000000E+00  0.0000000E+00
