       2       29 S      193        164.53960          8.24698          6.39276        184.25360      185    7
6371000. -0.5276170E-01 -0.1604033E+01 -0.4810968E-02  0.4795073E-01  0.4259381E-02 -0.2828519E-01
6370000. -0.5250859E-01 -0.1621008E+01 -0.4818276E-02  0.4515254E-01  0.4263809E-02 -0.2814462E-01
6369000. -0.5225284E-01 -0.1637661E+01 -0.4825142E-02  0.4234475E-01  0.4268216E-02 -0.2800760E-01
6368000. -0.5199451E-01 -0.1653991E+01 -0.4831568E-02  0.3952765E-01  0.4272601E-02 -0.2787415E-01
6368000. -0.5199451E-01 -0.1653991E+01 -0.4831568E-02  0.3952765E-01  0.4272601E-02 -0.2787415E-01
6367000. -0.5173364E-01 -0.1669995E+01 -0.4837551E-02  0.3670159E-01  0.4276966E-02 -0.2774428E-01
6366000. -0.5147028E-01 -0.1685673E+01 -0.4843089E-02  0.3386687E-01  0.4281311E-02 -0.2761801E-01
6365000. -0.5120448E-01 -0.1701023E+01 -0.4848182E-02  0.3102381E-01  0.4285636E-02 -0.2749536E-01
6364000. -0.5093630E-01 -0.1716043E+01 -0.4852828E-02  0.2817273E-01  0.4289943E-02 -0.2737633E-01
6363000. -0.5066579E-01 -0.1730732E+01 -0.4857025E-02  0.2531397E-01  0.4294231E-02 -0.2726095E-01
6362000. -0.5039300E-01 -0.1745088E+01 -0.4860774E-02  0.2244784E-01  0.4298501E-02 -0.2714922E-01
6361000. -0.5011799E-01 -0.1759110E+01 -0.4864071E-02  0.1957467E-01  0.4302754E-02 -0.2704116E-01
6360000. -0.4984080E-01 -0.1772797E+01 -0.4866919E-02  0.1669478E-01  0.4306990E-02 -0.2693680E-01
6359000. -0.4956149E-01 -0.1786147E+01 -0.4869313E-02  0.1380850E-01  0.4311210E-02 -0.2683613E-01
6358000. -0.4928010E-01 -0.1799160E+01 -0.4871253E-02  0.1091617E-01  0.4315414E-02 -0.2673918E-01
6357000. -0.4899671E-01 -0.1811834E+01 -0.4872739E-02  0.8018095E-02  0.4319604E-02 -0.2664596E-01
6356000. -0.4871134E-01 -0.1824167E+01 -0.4873770E-02  0.5114622E-02  0.4323779E-02 -0.2655649E-01
6356000. -0.4871134E-01 -0.1553946E+01 -0.4873770E-02  0.2050558E-01  0.4323779E-02 -0.1595747E-01
6355000. -0.4846666E-01 -0.1563847E+01 -0.4876873E-02  0.1903779E-01  0.4326264E-02 -0.1569903E-01
6354000. -0.4822043E-01 -0.1573578E+01 -0.4879746E-02  0.1756641E-01  0.4328708E-02 -0.1544304E-01
6353000. -0.4797269E-01 -0.1583137E+01 -0.4882387E-02  0.1609156E-01  0.4331112E-02 -0.1518949E-01
6352000. -0.4772345E-01 -0.1592524E+01 -0.4884797E-02  0.1461332E-01  0.4333476E-02 -0.1493841E-01
6351000. -0.4747276E-01 -0.1601738E+01 -0.4886975E-02  0.1313180E-01  0.4335802E-02 -0.1468978E-01
6350000. -0.4722064E-01 -0.1610779E+01 -0.4888919E-02  0.1164711E-01  0.4338088E-02 -0.1444362E-01
6349000. -0.4696712E-01 -0.1619646E+01 -0.4890631E-02  0.1015933E-01  0.4340336E-02 -0.1419993E-01
6348000. -0.4671221E-01 -0.1628339E+01 -0.4892108E-02  0.8668574E-02  0.4342546E-02 -0.1395870E-01
6347000. -0.4645595E-01 -0.1636857E+01 -0.4893352E-02  0.7174940E-02  0.4344718E-02 -0.1371996E-01
6346600. -0.4635308E-01 -0.1640215E+01 -0.4893784E-02  0.6576703E-02  0.4345576E-02 -0.1362515E-01
6346600. -0.4635308E-01 -0.1795688E+01 -0.4893784E-02  0.1796039E-01  0.4345576E-02  0.2537488E-02
6318800. -0.3810819E-01 -0.1970822E+01 -0.4928314E-02 -0.2397776E-02  0.4316118E-02  0.1077481E-01
6291000. -0.2926886E-01 -0.2066861E+01 -0.4871139E-02 -0.2393549E-01  0.4253109E-02  0.1793597E-01
6291000. -0.2926886E-01 -0.2129060E+01 -0.4871139E-02 -0.2571996E-01  0.4253109E-02  0.1793597E-01
6263000. -0.1986869E-01 -0.2132529E+01 -0.4704576E-02 -0.5004244E-01  0.4161717E-02  0.2349563E-01
6235000. -0.1066815E-01 -0.2038089E+01 -0.4432356E-02 -0.7362811E-01  0.4047893E-02  0.2816352E-01
6207000. -0.2095757E-02 -0.1847289E+01 -0.4059989E-02 -0.9544741E-01  0.3915300E-02  0.3205601E-01
6179000.  0.5436442E-02 -0.1566062E+01 -0.3597406E-02 -0.1145286E+00  0.3767091E-02  0.3528925E-01
6151000.  0.1155196E-01 -0.1204636E+01 -0.3058596E-02 -0.1300017E+00  0.3605913E-02  0.3797656E-01
6151000.  0.1155196E-01 -0.1190895E+01 -0.3058596E-02 -0.1159747E+00  0.3605913E-02  0.3733744E-01
6128500.  0.1527550E-01 -0.9145614E+00 -0.2640006E-02 -0.1206889E+00  0.3470268E-02  0.3942199E-01
6106000.  0.1799187E-01 -0.6217034E+00 -0.2208896E-02 -0.1230644E+00  0.3327854E-02  0.4117636E-01
6083500.  0.1965551E-01 -0.3195718E+00 -0.1773496E-02 -0.1231273E+00  0.3179779E-02  0.4263285E-01
6061000.  0.2024639E-01 -0.1534592E-01 -0.1341850E-02 -0.1209553E+00  0.3027042E-02  0.4382098E-01
6038500.  0.1976947E-01  0.2840210E+00 -0.9216426E-03 -0.1166742E+00  0.2870542E-02  0.4476887E-01
6016000.  0.1825368E-01  0.5719410E+00 -0.5200375E-03 -0.1104515E+00  0.2711080E-02  0.4550318E-01
5993500.  0.1575035E-01  0.8423285E+00 -0.1435445E-03 -0.1024891E+00  0.2549364E-02  0.4604923E-01
5971000.  0.1233125E-01  0.1089719E+01  0.2020934E-03 -0.9301846E-01  0.2386014E-02  0.4643234E-01
5971000.  0.1233125E-01  0.9909247E+00  0.2020934E-03 -0.8419666E-01  0.2386014E-02  0.4481808E-01
5937667.  0.6458763E-02  0.1242471E+01  0.6008523E-03 -0.6812996E-01  0.2153349E-02  0.4403267E-01
5904333. -0.5498544E-03  0.1425073E+01  0.9147183E-03 -0.5188804E-01  0.1926147E-02  0.4273343E-01
5871000. -0.8335629E-02  0.1540142E+01  0.1144877E-02 -0.3624758E-01  0.1706998E-02  0.4096526E-01
5837667. -0.1655599E-01  0.1592147E+01  0.1296074E-02 -0.2178386E-01  0.1498209E-02  0.3878298E-01
5804333. -0.2489780E-01  0.1587700E+01  0.1375563E-02 -0.8885791E-02  0.1301781E-02  0.3624890E-01
5771000. -0.3308551E-01  0.1534740E+01  0.1392186E-02  0.2222302E-02  0.1119390E-02  0.3343126E-01
5771000. -0.3308551E-01  0.1534826E+01  0.1392186E-02  0.2223471E-02  0.1119390E-02  0.3343126E-01
5701000. -0.4914730E-01  0.1361964E+01  0.1273209E-02  0.1859799E-01  0.7951636E-03  0.2559760E-01
5701000. -0.4914730E-01  0.1187508E+01  0.1273209E-02  0.2652406E-01  0.7951636E-03  0.3945045E-01
5667333. -0.5488418E-01  0.9960340E+00  0.1120537E-02  0.3035478E-01  0.6048413E-03  0.3267798E-01
5633667. -0.5977761E-01  0.8595822E+00  0.9597321E-03  0.3019722E-01  0.4475984E-03  0.2704758E-01
5600000. -0.6395863E-01  0.7221416E+00  0.8014182E-03  0.2970701E-01  0.3175244E-03  0.2229853E-01
5600000. -0.6395863E-01  0.7221416E+00  0.8014182E-03  0.2970701E-01  0.3175244E-03  0.2229853E-01
5563518. -0.6766886E-01  0.5741265E+00  0.6338856E-03  0.2873739E-01  0.2026229E-03  0.1796161E-01
5527037. -0.7054027E-01  0.4295856E+00  0.4730435E-03  0.2738239E-01  0.1104694E-03  0.1433391E-01
5490556. -0.7259922E-01  0.2906708E+00  0.3209070E-03  0.2570848E-01  0.3732529E-04  0.1130614E-01
5454074. -0.7388327E-01  0.1591948E+00  0.1790946E-03  0.2378557E-01 -0.1999000E-04  0.8789848E-02
5417593. -0.7443941E-01  0.3665480E-01  0.4887216E-04  0.2167180E-01 -0.6414507E-04  0.6697457E-02
5381111. -0.7432230E-01 -0.7579466E-01 -0.6886046E-04  0.1943280E-01 -0.9738403E-04  0.4967800E-02
5344630. -0.7359226E-01 -0.1773205E+00 -0.1735511E-03  0.1712593E-01 -0.1216255E-03  0.3545351E-02
5308148. -0.7231341E-01 -0.2674077E+00 -0.2649522E-03  0.1479878E-01 -0.1384660E-03  0.2376000E-02
5271667. -0.7055224E-01 -0.3457767E+00 -0.3430987E-03  0.1250487E-01 -0.1492658E-03  0.1430090E-02
5235185. -0.6837580E-01 -0.4124579E+00 -0.4082911E-03  0.1027848E-01 -0.1551904E-03  0.6663781E-03
5198704. -0.6585058E-01 -0.4676644E+00 -0.4610012E-03  0.8151775E-02 -0.1571858E-03  0.5478757E-04
5162222. -0.6304120E-01 -0.5117722E+00 -0.5019081E-03  0.6159425E-02 -0.1560826E-03 -0.4198329E-03
5125741. -0.6000967E-01 -0.5453897E+00 -0.5318208E-03  0.4314071E-02 -0.1525784E-03 -0.7880838E-03
5089259. -0.5681402E-01 -0.5691835E+00 -0.5516275E-03  0.2632408E-02 -0.1472324E-03 -0.1064698E-02
5052778. -0.5350855E-01 -0.5839198E+00 -0.5623063E-03  0.1126750E-02 -0.1405377E-03 -0.1262080E-02
5016296. -0.5014244E-01 -0.5904746E+00 -0.5648655E-03 -0.2034676E-03 -0.1328939E-03 -0.1398325E-02
4979815. -0.4676028E-01 -0.5897043E+00 -0.5603196E-03 -0.1354609E-02 -0.1246263E-03 -0.1481166E-02
4943333. -0.4340125E-01 -0.5825197E+00 -0.5496861E-03 -0.2331203E-02 -0.1160145E-03 -0.1520668E-02
4906852. -0.4009963E-01 -0.5698290E+00 -0.5339367E-03 -0.3142590E-02 -0.1072708E-03 -0.1528203E-02
4870370. -0.3688435E-01 -0.5524740E+00 -0.5140040E-03 -0.3793607E-02 -0.9857148E-04 -0.1505939E-02
4833889. -0.3377980E-01 -0.5313207E+00 -0.4907703E-03 -0.4298449E-02 -0.9006247E-04 -0.1463466E-02
4797407. -0.3080528E-01 -0.5071536E+00 -0.4650296E-03 -0.4670499E-02 -0.8183849E-04 -0.1406423E-02
4760926. -0.2797617E-01 -0.4806779E+00 -0.4375207E-03 -0.4918606E-02 -0.7398468E-04 -0.1335034E-02
4724444. -0.2530349E-01 -0.4525974E+00 -0.4089011E-03 -0.5060962E-02 -0.6656013E-04 -0.1257387E-02
4687963. -0.2279486E-01 -0.4234968E+00 -0.3797395E-03 -0.5109920E-02 -0.5959451E-04 -0.1174762E-02
4651482. -0.2045452E-01 -0.3939016E+00 -0.3505374E-03 -0.5077570E-02 -0.5311381E-04 -0.1088659E-02
4615000. -0.1828382E-01 -0.3642921E+00 -0.3217146E-03 -0.4979350E-02 -0.4712470E-04 -0.1003359E-02
4578518. -0.1628180E-01 -0.3350472E+00 -0.2936180E-03 -0.4825645E-02 -0.4162190E-04 -0.9187981E-03
4542037. -0.1444543E-01 -0.3065047E+00 -0.2665334E-03 -0.4628230E-02 -0.3659799E-04 -0.8366373E-03
4505556. -0.1276981E-01 -0.2789384E+00 -0.2406752E-03 -0.4398820E-02 -0.3203129E-04 -0.7590862E-03
4469074. -0.1124874E-01 -0.2525415E+00 -0.2162049E-03 -0.4144570E-02 -0.2789890E-04 -0.6849337E-03
4432593. -0.9875069E-02 -0.2274891E+00 -0.1932384E-03 -0.3875375E-02 -0.2417661E-04 -0.6162143E-03
4396111. -0.8640707E-02 -0.2038860E+00 -0.1718374E-03 -0.3598470E-02 -0.2083054E-04 -0.5533551E-03
4359630. -0.7537234E-02 -0.1817929E+00 -0.1520334E-03 -0.3318753E-02 -0.1783006E-04 -0.4956100E-03
4323148. -0.6555805E-02 -0.1612513E+00 -0.1338225E-03 -0.3042771E-02 -0.1514224E-04 -0.4442561E-03
4286667. -0.5687594E-02 -0.1422537E+00 -0.1171723E-03 -0.2774277E-02 -0.1273054E-04 -0.3991067E-03
4250185. -0.4923793E-02 -0.1247695E+00 -0.1020305E-03 -0.2516389E-02 -0.1055998E-04 -0.3600949E-03
4213704. -0.4255898E-02 -0.1087519E+00 -0.8832694E-04 -0.2272435E-02 -0.8593536E-05 -0.3278740E-03
4177222. -0.3675689E-02 -0.9412339E-01 -0.7597686E-04 -0.2043731E-02 -0.6792538E-05 -0.3022797E-03
4140741. -0.3175477E-02 -0.8080126E-01 -0.6488942E-04 -0.1831806E-02 -0.5118321E-05 -0.2837499E-03
4104259. -0.2748027E-02 -0.6868723E-01 -0.5496425E-04 -0.1637698E-02 -0.3527880E-05 -0.2730493E-03
4067778. -0.2386759E-02 -0.5767069E-01 -0.4610078E-04 -0.1461050E-02 -0.1976246E-05 -0.2703226E-03
4031296. -0.2085683E-02 -0.4764174E-01 -0.3819806E-04 -0.1302051E-02 -0.4143223E-06 -0.2768663E-03
3994815. -0.1839492E-02 -0.3848286E-01 -0.3115684E-04 -0.1159988E-02  0.1214554E-05 -0.2939032E-03
3958333. -0.1643536E-02 -0.3007462E-01 -0.2488434E-04 -0.1033248E-02  0.2974028E-05 -0.3227830E-03
3921852. -0.1493850E-02 -0.2230481E-01 -0.1929724E-04 -0.9203125E-03  0.4938389E-05 -0.3659044E-03
3885370. -0.1387089E-02 -0.1506362E-01 -0.1432360E-04 -0.8183622E-03  0.7196560E-05 -0.4258601E-03
3848889. -0.1320511E-02 -0.8256195E-02 -0.9911398E-05 -0.7235481E-03  0.9854017E-05 -0.5060522E-03
3812407. -0.1291854E-02 -0.1807875E-02 -0.6033204E-05 -0.6307559E-03  0.1303922E-04 -0.6109553E-03
3775926. -0.1299201E-02  0.4321604E-02 -0.2698587E-05 -0.5322060E-03  0.1690781E-04 -0.7457446E-03
3739444. -0.1340718E-02  0.1011888E-01  0.3059389E-07 -0.4171505E-03  0.2164941E-04 -0.9170641E-03
3702963. -0.1414275E-02  0.1548764E-01  0.2018131E-05 -0.2700453E-03  0.2749519E-04 -0.1132853E-02
3666482. -0.1516844E-02  0.2020009E-01  0.3018699E-05 -0.6788819E-04  0.3472499E-04 -0.1402126E-02
3630000. -0.1643570E-02  0.2383212E-01  0.2628733E-05  0.2222280E-03  0.4367560E-04 -0.1735696E-02
3630000. -0.1643570E-02  0.2383212E-01  0.2628733E-05  0.2222280E-03  0.4367560E-04 -0.1735696E-02
3592500. -0.1790449E-02  0.2566656E-01  0.1092874E-06  0.6634662E-03  0.5509102E-04 -0.2157495E-02
3555000. -0.1939440E-02  0.2427575E-01 -0.5614927E-05  0.1326754E-02  0.6925551E-04 -0.2671867E-02
3517500. -0.2065850E-02  0.1755685E-01 -0.1616709E-04  0.2327125E-02  0.8674845E-04 -0.3289982E-02
3480000. -0.2129250E-02  0.2178217E-02 -0.3400216E-04  0.3835869E-02  0.1082003E-03 -0.4017240E-02
3480000. -0.2129250E-02 -0.8928369E-01 -0.8664180E-04 -0.3738032E-02  0.1082003E-03  0.2811231E-02
3409422. -0.1326252E-02 -0.5773925E-01 -0.5328194E-04 -0.2378116E-02  0.7808473E-04  0.2536936E-02
3338844. -0.8115583E-03 -0.3663124E-01 -0.3222862E-04 -0.1486838E-02  0.5302489E-04  0.1970964E-02
3268266. -0.4878622E-03 -0.2280501E-01 -0.1917062E-04 -0.9135684E-03  0.3439180E-04  0.1405607E-02
3197688. -0.2880757E-03 -0.1393348E-01 -0.1121133E-04 -0.5516012E-03  0.2148465E-04  0.9452187E-03
3127109. -0.1670531E-03 -0.8354787E-02 -0.6444144E-05 -0.3272173E-03  0.1299228E-04  0.6075818E-03
3056531. -0.9510872E-04 -0.4915999E-02 -0.3639156E-05 -0.1906636E-03  0.7629570E-05  0.3762179E-03
2985953. -0.5314208E-04 -0.2837839E-02 -0.2018200E-05 -0.1090856E-03  0.4359451E-05  0.2254529E-03
2915375. -0.2912808E-04 -0.1606658E-02 -0.1098574E-05 -0.6125622E-04  0.2426668E-05  0.1311322E-03
2844797. -0.1565338E-04 -0.8917379E-03 -0.5865967E-06 -0.3374416E-04  0.1316841E-05  0.7416123E-04
2774219. -0.8242503E-05 -0.4849612E-03 -0.3070470E-06 -0.1822467E-04  0.6968315E-06  0.4082431E-04
2703641. -0.4249718E-05 -0.2582673E-03 -0.1574350E-06 -0.9643674E-05  0.3595730E-06  0.2188614E-04
2633062. -0.2143695E-05 -0.1345912E-03 -0.7900685E-07 -0.4995921E-05  0.1808806E-06  0.1142847E-04
2562484. -0.1057040E-05 -0.6858180E-04 -0.3877076E-07 -0.2531748E-05  0.8866316E-07  0.5811856E-05
2491906. -0.5089938E-06 -0.3413882E-04 -0.1858547E-07 -0.1253839E-05  0.4231996E-07  0.2877173E-05
2421328. -0.2390833E-06 -0.1658419E-04 -0.8693307E-08 -0.6062079E-06  0.1965295E-07  0.1385679E-05
2350750. -0.1094141E-06 -0.7853303E-05 -0.3962783E-08 -0.2857946E-06  0.8870431E-08  0.6486882E-06
2280172. -0.4871903E-07 -0.3620521E-05 -0.1758021E-08 -0.1312127E-06  0.3886628E-08  0.2948709E-06
2209594. -0.2107540E-07 -0.1622694E-05 -0.7578775E-09 -0.5858174E-07  0.1650859E-08  0.1299897E-06
2139016. -0.8842695E-08 -0.7059363E-06 -0.3169552E-09 -0.2539338E-07  0.6786844E-09  0.5549290E-07
2068438. -0.3591913E-08 -0.2975750E-06 -0.1283557E-09 -0.1066796E-07  0.2695680E-09  0.2290303E-07
1997859. -0.1409626E-08 -0.1213040E-06 -0.5022846E-10 -0.4334942E-08  0.1032349E-09  0.9121060E-08
1927281. -0.5332607E-09 -0.4771597E-07 -0.1895034E-10 -0.1700130E-08  0.3803331E-10  0.3497592E-08
1856703. -0.1939632E-09 -0.1806744E-07 -0.6875417E-11 -0.6419571E-09  0.1344494E-10  0.1288244E-08
1786125. -0.6763971E-10 -0.6567228E-08 -0.2391939E-11 -0.2327334E-09  0.4547283E-11  0.4544969E-09
1715547. -0.2254189E-10 -0.2284435E-08 -0.7953709E-12 -0.8075957E-10  0.1466630E-11  0.1531112E-09
1644969. -0.7153344E-11 -0.7578275E-09 -0.2518701E-12 -0.2672967E-10  0.4494176E-12  0.4907725E-10
1574391. -0.2152698E-11 -0.2387923E-09 -0.7564235E-13 -0.8405196E-11  0.1302831E-12  0.1490761E-10
1503812. -0.6117424E-12 -0.7111041E-10 -0.2143324E-13 -0.2500930E-11  0.3553600E-13  0.4274037E-11
1433234.  0.0000000E+00  0.0000000E+00  0.0000000E+00  0.0000000E+00  0.0000000E+00  0.0000000E+00
1362656.  0.0000000E+00  0.0000000E+00  0.0000000E+00  0.0000000E+00  0.0000000E+00  0.0000000E+00
1292078.  0.0000000E+00  0.0000000E+00  0.0000000E+00  0.0000000E+00  0.0000000E+00  0.0000000E+00
1221500.  0.0000000E+00  0.0000000E+00  0.0000000E+00  0.0000000E+00  0.0000000E+00  0.0000000E+00
1221500.  0.0000000E+00  0.0000000E+00  0.0000000E+00  0.0000000E+00  0.0000000E+00  0.0000000E+00
1183328.  0.0000000E+00  0.0000000E+00  0.0000000E+00  0.0000000E+00  0.0000000E+00  0.0000000E+00
1145156.  0.0000000E+00  0.0000000E+00  0.0000000E+00  0.0000000E+00  0.0000000E+00  0.0000000E+00
1106984.  0.0000000E+00  0.0000000E+00  0.0000000E+00  0.0000000E+00  0.0000000E+00  0.0000000E+00
1068812.  0.0000000E+00  0.0000000E+00  0.0000000E+00  0.0000000E+00  0.0000000E+00  0.0000000E+00
1030641.  0.0000000E+00  0.0000000E+00  0.0000000E+00  0.0000000E+00  0.0000000E+00  0.0000000E+00
 992469.  0.0000000E+00  0.0000000E+00  0.0000000E+00  0.0000000E+00  0.0000000E+00  0.0000000E+00
 954297.  0.0000000E+00  0.0000000E+00  0.0000000E+00  0.0000000E+00  0.0000000E+00  0.0000000E+00
 916125.  0.0000000E+00  0.0000000E+00  0.0000000E+00  0.0000000E+00  0.0000000E+00  0.0000000E+00
 877953.  0.0000000E+00  0.0000000E+00  0.0000000E+00  0.0000000E+00  0.0000000E+00  0.0000000E+00
 839781.  0.0000000E+00  0.0000000E+00  0.0000000E+00  0.0000000E+00  0.0000000E+00  0.0000000E+00
 801609.  0.0000000E+00  0.0000000E+00  0.0000000E+00  0.0000000E+00  0.0000000E+00  0.0000000E+00
 763438.  0.0000000E+00  0.0000000E+00  0.0000000E+00  0.0000000E+00  0.0000000E+00  0.0000000E+00
 725266.  0.0000000E+00  0.0000000E+00  0.0000000E+00  0.0000000E+00  0.0000000E+00  0.0000000E+00
 687094.  0.0000000E+00  0.0000000E+00  0.0000000E+00  0.0000000E+00  0.0000000E+00  0.0000000E+00
 648922.  0.0000000E+00  0.0000000E+00  0.0000000E+00  0.0000000E+00  0.0000000E+00  0.0000000E+00
 610750.  0.0000000E+00  0.0000000E+00  0.0000000E+00  0.0000000E+00  0.0000000E+00  0.0000000E+00
 572578.  0.0000000E+00  0.0000000E+00  0.0000000E+00  0.0000000E+00  0.0000000E+00  0.0000000E+00
 534406.  0.0000000E+00  0.0000000E+00  0.0000000E+00  0.0000000E+00  0.0000000E+00  0.0000000E+00
 496234.  0.0000000E+00  0.0000000E+00  0.0000000E+00  0.0000000E+00  0.0000000E+00  0.0000000E+00
 458062.  0.0000000E+00  0.0000000E+00  0.0000000E+00  0.0000000E+00  0.0000000E+00  0.0000000E+00
 419891.  0.0000000E+00  0.0000000E+00  0.0000000E+00  0.0000000E+00  0.0000000E+00  0.0000000E+00
 381719.  0.0000000E+00  0.0000000E+00  0.0000000E+00  0.0000000E+00  0.0000000E+00  0.0000000E+00
 343547.  0.0000000E+00  0.0000000E+00  0.0000000E+00  0.0000000E+00  0.0000000E+00  0.0000000E+00
 305375.  0.0000000E+00  0.0000000E+00  0.0000000E+00  0.0000000E+00  0.0000000E+00  0.0000000E+00
 267203.  0.0000000E+00  0.0000000E+00  0.0000000E+00  0.0000000E+00  0.0000000E+00  0.0000000E+00
 229031.  0.0000000E+00  0.0000000E+00  0.0000000E+00  0.0000000E+00  0.0000000E+00  0.0000000E+00
 190859.  0.0000000E+00  0.0000000E+00  0.0000000E+00  0.0000000E+00  0.0000000E+00  0.0000000E+00
 152688.  0.0000000E+00  0.0000000E+00  0.0000000E+00  0.0000000E+00  0.0000000E+00  0.0000000E+00
 114516.  0.0000000E+00  0.0000000E+00  0.0000000E+00  0.0000000E+00  0.0000000E+00  0.0000000E+00
  76344.  0.0000000E+00  0.0000000E+00  0.0000000E+00  0.0000000E+00  0.0000000E+00  0.0000000E+00
  38172.  0.0000000E+00  0.0000000E+00  0.0000000E+00  0.0000000E+00  0.0000000E+00  0.0000000E+00
      0.  0.0000000E+00  0.0000000E+00  0.0000000E+00  0.0000000E+00  0.0000000E+00  0.0000000E+00
