      12        7 S      557        168.90910         31.59898         11.03487        445.06540      185    7
6371000.  0.6806018E-01  0.7676178E-01  0.5917263E-02 -0.6214292E-01 -0.3524727E-03 -0.1255258E+00
6370000.  0.6804671E-01  0.9487547E-01  0.5926627E-02 -0.5717075E-01 -0.3327646E-03 -0.1255947E+00
6369000.  0.6803040E-01  0.1129604E+00  0.5935209E-02 -0.5218306E-01 -0.3130460E-03 -0.1256586E+00
6368000.  0.6801125E-01  0.1310159E+00  0.5943007E-02 -0.4718049E-01 -0.2933178E-03 -0.1257175E+00
6368000.  0.6801125E-01  0.1310159E+00  0.5943007E-02 -0.4718049E-01 -0.2933178E-03 -0.1257175E+00
6367000.  0.6798927E-01  0.1490409E+00  0.5950019E-02 -0.4216371E-01 -0.2735807E-03 -0.1257714E+00
6366000.  0.6796446E-01  0.1670347E+00  0.5956242E-02 -0.3713338E-01 -0.2538356E-03 -0.1258203E+00
6365000.  0.6793684E-01  0.1849964E+00  0.5961676E-02 -0.3209016E-01 -0.2340832E-03 -0.1258642E+00
6364000.  0.6790639E-01  0.2029253E+00  0.5966316E-02 -0.2703472E-01 -0.2143243E-03 -0.1259030E+00
6363000.  0.6787314E-01  0.2208204E+00  0.5970162E-02 -0.2196774E-01 -0.1945596E-03 -0.1259369E+00
6362000.  0.6783707E-01  0.2386810E+00  0.5973211E-02 -0.1688989E-01 -0.1747901E-03 -0.1259658E+00
6361000.  0.6779821E-01  0.2565062E+00  0.5975463E-02 -0.1180183E-01 -0.1550164E-03 -0.1259896E+00
6360000.  0.6775656E-01  0.2742954E+00  0.5976916E-02 -0.6704245E-02 -0.1352394E-03 -0.1260084E+00
6359000.  0.6771211E-01  0.2920475E+00  0.5977567E-02 -0.1597814E-02 -0.1154598E-03 -0.1260222E+00
6358000.  0.6766488E-01  0.3097620E+00  0.5977417E-02  0.3516787E-02 -0.9567846E-04 -0.1260310E+00
6357000.  0.6761487E-01  0.3274379E+00  0.5976463E-02  0.8638876E-02 -0.7589612E-04 -0.1260347E+00
6356000.  0.6756209E-01  0.3450745E+00  0.5974705E-02  0.1376777E-01 -0.5611359E-04 -0.1260334E+00
6356000.  0.6756209E-01  0.2426367E+00  0.5974705E-02 -0.1616095E-01 -0.5611359E-04 -0.1407342E+00
6355000.  0.6752299E-01  0.2555483E+00  0.5976973E-02 -0.1274239E-01 -0.3402156E-04 -0.1407619E+00
6354000.  0.6748187E-01  0.2684361E+00  0.5978704E-02 -0.9317523E-02 -0.1192549E-04 -0.1407856E+00
6353000.  0.6743872E-01  0.2812997E+00  0.5979897E-02 -0.5886665E-02  0.1017400E-04 -0.1408053E+00
6352000.  0.6739356E-01  0.2941387E+00  0.5980552E-02 -0.2450118E-02  0.3227626E-04 -0.1408211E+00
6351000.  0.6734639E-01  0.3069526E+00  0.5980667E-02  0.9918136E-03  0.5438070E-04 -0.1408329E+00
6350000.  0.6729721E-01  0.3197410E+00  0.5980241E-02  0.4438824E-02  0.7648667E-04 -0.1408407E+00
6349000.  0.6724601E-01  0.3325035E+00  0.5979273E-02  0.7890605E-02  0.9859355E-04 -0.1408446E+00
6348000.  0.6719282E-01  0.3452396E+00  0.5977763E-02  0.1134685E-01  0.1207007E-03 -0.1408444E+00
6347000.  0.6713764E-01  0.3579490E+00  0.5975711E-02  0.1480726E-01  0.1428076E-03 -0.1408403E+00
6346600.  0.6711500E-01  0.3630252E+00  0.5974738E-02  0.1619251E-01  0.1516501E-03 -0.1408375E+00
6346600.  0.6711500E-01  0.2614753E+00  0.5974738E-02 -0.9006054E-02  0.1516501E-03 -0.1642395E+00
6318800.  0.6541970E-01  0.5133680E+00  0.5849560E-02  0.6660738E-01  0.8679667E-03 -0.1636577E+00
6291000.  0.6265738E-01  0.7497780E+00  0.5394428E-02  0.1415501E+00  0.1576179E-02 -0.1605208E+00
6291000.  0.6265738E-01  0.7621522E+00  0.5394428E-02  0.1489094E+00  0.1576179E-02 -0.1605208E+00
6263000.  0.5881581E-01  0.9822584E+00  0.4576243E-02  0.2221739E+00  0.2269648E-02 -0.1546194E+00
6235000.  0.5405900E-01  0.1178192E+01  0.3455530E-02  0.2859168E+00  0.2931453E-02 -0.1461226E+00
6207000.  0.4849847E-01  0.1347715E+01  0.2082484E-02  0.3364398E+00  0.3550371E-02 -0.1351224E+00
6179000.  0.4225330E-01  0.1489635E+01  0.5220879E-03  0.3707411E+00  0.4115688E-02 -0.1217568E+00
6151000.  0.3544569E-01  0.1603698E+01 -0.1149313E-02  0.3866769E+00  0.4617395E-02 -0.1062100E+00
6151000.  0.3544569E-01  0.1281290E+01 -0.1149313E-02  0.3347934E+00  0.4617395E-02 -0.1081711E+00
6128500.  0.3086459E-01  0.1310845E+01 -0.2326735E-02  0.3303795E+00  0.4980536E-02 -0.9733387E-01
6106000.  0.2620181E-01  0.1327795E+01 -0.3471643E-02  0.3164406E+00  0.5303924E-02 -0.8567645E-01
6083500.  0.2149911E-01  0.1333727E+01 -0.4551206E-02  0.2934806E+00  0.5584851E-02 -0.7330623E-01
6061000.  0.1679253E-01  0.1330257E+01 -0.5534844E-02  0.2622652E+00  0.5820997E-02 -0.6033489E-01
6038500.  0.1211244E-01  0.1318985E+01 -0.6395105E-02  0.2237964E+00  0.6010438E-02 -0.4687625E-01
6016000.  0.7483691E-02  0.1301419E+01 -0.7108440E-02  0.1792720E+00  0.6151658E-02 -0.3304596E-01
5993500.  0.2926042E-02  0.1278939E+01 -0.7655805E-02  0.1300415E+00  0.6243550E-02 -0.1896060E-01
5971000. -0.1545387E-02  0.1252778E+01 -0.8023133E-02  0.7756532E-01  0.6285418E-02 -0.4736302E-02
5971000. -0.1545387E-02  0.1118068E+01 -0.8023133E-02  0.6825876E-01  0.6285418E-02 -0.4533998E-02
5937667. -0.7204754E-02  0.1045607E+01 -0.8180305E-02 -0.7447109E-02  0.6255984E-02  0.1571963E-01
5904333. -0.1249169E-01  0.9759107E+00 -0.7956058E-02 -0.7695822E-01  0.6121868E-02  0.3543324E-01
5871000. -0.1742356E-01  0.9100249E+00 -0.7391143E-02 -0.1372518E+00  0.5886619E-02  0.5433844E-01
5837667. -0.2202105E-01  0.8480418E+00 -0.6539576E-02 -0.1862701E+00  0.5555089E-02  0.7220244E-01
5804333. -0.2630340E-01  0.7893573E+00 -0.5463699E-02 -0.2228637E+00  0.5133247E-02  0.8882585E-01
5771000. -0.3028491E-01  0.7328891E+00 -0.4229809E-02 -0.2466915E+00  0.4628061E-02  0.1040420E+00
5771000. -0.3028491E-01  0.7328900E+00 -0.4229809E-02 -0.2466825E+00  0.4628061E-02  0.1040420E+00
5701000. -0.3796510E-01  0.6620874E+00 -0.1300850E-02 -0.2778607E+00  0.3338516E-02  0.1295610E+00
5701000. -0.3796510E-01  0.5476904E+00 -0.1300850E-02 -0.2108978E+00  0.3338516E-02  0.1402620E+00
5667333. -0.4061950E-01  0.4644709E+00 -0.2556067E-03 -0.1882691E+00  0.2574066E-02  0.1487750E+00
5633667. -0.4293329E-01  0.4128765E+00  0.7200898E-03 -0.1817332E+00  0.1768442E-02  0.1559215E+00
5600000. -0.4497039E-01  0.3569340E+00  0.1652225E-02 -0.1698991E+00  0.9290116E-03  0.1615008E+00
5600000. -0.4497039E-01  0.3569340E+00  0.1652225E-02 -0.1698991E+00  0.9290116E-03  0.1615008E+00
5563518. -0.4682732E-01  0.2906201E+00  0.2575699E-02 -0.1518012E+00 -0.8748470E-05  0.1657071E+00
5527037. -0.4828650E-01  0.2179596E+00  0.3382049E-02 -0.1291705E+00 -0.9650216E-03  0.1679739E+00
5490556. -0.4931077E-01  0.1386966E+00  0.4048408E-02 -0.1030948E+00 -0.1928718E-02  0.1683025E+00
5454074. -0.4986234E-01  0.5289070E-01  0.4558390E-02 -0.7475217E-01 -0.2888833E-02  0.1667188E+00
5417593. -0.4990466E-01 -0.3908226E-01  0.4902567E-02 -0.4539459E-01 -0.3834461E-02  0.1632603E+00
5381111. -0.4940432E-01 -0.1364864E+00  0.5078643E-02 -0.1623546E-01 -0.4755099E-02  0.1579947E+00
5344630. -0.4833321E-01 -0.2382528E+00  0.5091120E-02  0.1155664E-01 -0.5640583E-02  0.1510052E+00
5308148. -0.4666992E-01 -0.3430459E+00  0.4950940E-02  0.3691787E-01 -0.6481351E-02  0.1423867E+00
5271667. -0.4440205E-01 -0.4491315E+00  0.4674728E-02  0.5893029E-01 -0.7268373E-02  0.1322614E+00
5235185. -0.4152732E-01 -0.5546661E+00  0.4283878E-02  0.7684638E-01 -0.7993413E-02  0.1207526E+00
5198704. -0.3805477E-01 -0.6575946E+00  0.3803538E-02  0.9011663E-01 -0.8648899E-02  0.1079994E+00
5162222. -0.3400571E-01 -0.7556211E+00  0.3261365E-02  0.9839915E-01 -0.9228180E-02  0.9415552E-01
5125741. -0.2941450E-01 -0.8466414E+00  0.2686392E-02  0.1015769E+00 -0.9725410E-02  0.7937215E-01
5089259. -0.2432730E-01 -0.9284356E+00  0.2107651E-02  0.9974134E-01 -0.1013569E-01  0.6381055E-01
5052778. -0.1880349E-01 -0.9988726E+00  0.1553138E-02  0.9318645E-01 -0.1045503E-01  0.4763695E-01
5016296. -0.1291293E-01 -0.1056184E+01  0.1048536E-02  0.8239823E-01 -0.1068039E-01  0.3101321E-01
4979815. -0.6736104E-02 -0.1098661E+01  0.6163521E-03  0.6801540E-01 -0.1080966E-01  0.1410507E-01
4943333. -0.3615287E-03 -0.1125021E+01  0.2749914E-03  0.5081113E-01 -0.1084169E-01 -0.2926772E-02
4906852.  0.6115571E-02 -0.1134399E+01  0.3816588E-04  0.3165747E-01 -0.1077621E-01 -0.1992472E-01
4870370.  0.1259623E-01 -0.1126146E+01 -0.8560284E-04  0.1147983E-01 -0.1061385E-01 -0.3673843E-01
4833889.  0.1897886E-01 -0.1100261E+01 -0.9318104E-04 -0.8765019E-02 -0.1035610E-01 -0.5322111E-01
4797407.  0.2516378E-01 -0.1057106E+01  0.1311490E-04 -0.2813977E-01 -0.1000523E-01 -0.6923733E-01
4760926.  0.3105340E-01 -0.9973521E+00  0.2257172E-03 -0.4575367E-01 -0.9564301E-02 -0.8466132E-01
4724444.  0.3655662E-01 -0.9223379E+00  0.5321932E-03 -0.6079861E-01 -0.9037023E-02 -0.9937171E-01
4687963.  0.4159011E-01 -0.8336161E+00  0.9157571E-03 -0.7257561E-01 -0.8427826E-02 -0.1132632E+00
4651482.  0.4608077E-01 -0.7331013E+00  0.1356016E-02 -0.8051913E-01 -0.7741654E-02 -0.1262412E+00
4615000.  0.4996770E-01 -0.6231012E+00  0.1829778E-02 -0.8421715E-01 -0.6983980E-02 -0.1382167E+00
4578518.  0.5320330E-01 -0.5060350E+00  0.2311921E-02 -0.8341883E-01 -0.6160770E-02 -0.1491203E+00
4542037.  0.5575455E-01 -0.3845557E+00  0.2776377E-02 -0.7804510E-01 -0.5278368E-02 -0.1588885E+00
4505556.  0.5760410E-01 -0.2613960E+00  0.3197139E-02 -0.6818636E-01 -0.4343421E-02 -0.1674668E+00
4469074.  0.5875003E-01 -0.1392377E+00  0.3549185E-02 -0.5409662E-01 -0.3362805E-02 -0.1748246E+00
4432593.  0.5920577E-01 -0.2076961E-01  0.3809365E-02 -0.3618194E-01 -0.2343667E-02 -0.1809258E+00
4396111.  0.5899971E-01  0.9151062E-01  0.3957273E-02 -0.1498212E-01 -0.1293209E-02 -0.1857531E+00
4359630.  0.5817400E-01  0.1952999E+00  0.3975939E-02  0.8840119E-02 -0.2187884E-03 -0.1893049E+00
4323148.  0.5678314E-01  0.2885861E+00  0.3852430E-02  0.3454560E-01  0.8723310E-03 -0.1915753E+00
4286667.  0.5489236E-01  0.3696685E+00  0.3578273E-02  0.6131861E-01  0.1972781E-02 -0.1925779E+00
4250185.  0.5257544E-01  0.4372196E+00  0.3149769E-02  0.8830995E-01  0.3075422E-02 -0.1923332E+00
4213704.  0.4991275E-01  0.4903469E+00  0.2568113E-02  0.1146744E+00  0.4173109E-02 -0.1908628E+00
4177222.  0.4698840E-01  0.5285268E+00  0.1839286E-02  0.1395689E+00  0.5258985E-02 -0.1882044E+00
4140741.  0.4388856E-01  0.5517083E+00  0.9740247E-03  0.1622121E+00  0.6326300E-02 -0.1843960E+00
4104259.  0.4069795E-01  0.5602850E+00 -0.1279360E-04  0.1819032E+00  0.7368634E-02 -0.1794781E+00
4067778.  0.3749861E-01  0.5549428E+00 -0.1102319E-02  0.1979999E+00  0.8379742E-02 -0.1735078E+00
4031296.  0.3436682E-01  0.5368965E+00 -0.2272574E-02  0.2100191E+00  0.9353788E-02 -0.1665320E+00
3994815.  0.3137133E-01  0.5076206E+00 -0.3499023E-02  0.2175827E+00  0.1028512E-01 -0.1586072E+00
3958333.  0.2857164E-01  0.4687945E+00 -0.4755387E-02  0.2204277E+00  0.1116852E-01 -0.1497964E+00
3921852.  0.2601673E-01  0.4225097E+00 -0.6014290E-02  0.2184800E+00  0.1199905E-01 -0.1401552E+00
3885370.  0.2374315E-01  0.3708622E+00 -0.7248403E-02  0.2117719E+00  0.1277217E-01 -0.1297458E+00
3848889.  0.2177545E-01  0.3160856E+00 -0.8430817E-02  0.2004796E+00  0.1348360E-01 -0.1186308E+00
3812407.  0.2012466E-01  0.2605297E+00 -0.9536247E-02  0.1849343E+00  0.1412953E-01 -0.1068670E+00
3775926.  0.1878913E-01  0.2063417E+00 -0.1054141E-01  0.1655502E+00  0.1470636E-01 -0.9451637E-01
3739444.  0.1775473E-01  0.1557012E+00 -0.1142589E-01  0.1428727E+00  0.1521095E-01 -0.8163349E-01
3702963.  0.1699528E-01  0.1106162E+00 -0.1217257E-01  0.1175338E+00  0.1564034E-01 -0.6827048E-01
3666482.  0.1647421E-01  0.7270441E-01 -0.1276811E-01  0.9020482E-01  0.1599198E-01 -0.5447931E-01
3630000.  0.1614584E-01  0.4353932E-01 -0.1320326E-01  0.6163485E-01  0.1626352E-01 -0.4030117E-01
3630000.  0.1614584E-01  0.4353932E-01 -0.1320326E-01  0.6163485E-01  0.1626352E-01 -0.4030117E-01
3592500.  0.1595298E-01  0.2378817E-01 -0.1347818E-01  0.3176194E-01  0.1645695E-01 -0.2536691E-01
3555000.  0.1584367E-01  0.1527360E-01 -0.1357777E-01  0.2195833E-02  0.1656149E-01 -0.1010152E-01
3517500.  0.1574993E-01  0.1854263E-01 -0.1350621E-01 -0.2626091E-01  0.1657527E-01  0.5471848E-02
3480000.  0.1560225E-01  0.3356021E-01 -0.1327227E-01 -0.5286193E-01  0.1649651E-01  0.2133621E-01
3480000.  0.1560225E-01  0.8842956E+00 -0.2473479E-02  0.3313722E-01  0.1649651E-01 -0.2869996E-01
3409422.  0.5421374E-02  0.9410062E+00 -0.2743810E-02  0.1529155E-01  0.1647481E-01  0.3384873E-01
3338844. -0.4976084E-02  0.9246042E+00 -0.2806505E-02 -0.4118082E-02  0.1573041E-01  0.1007808E+00
3268266. -0.1482885E-01  0.8445867E+00 -0.2651850E-02 -0.2372615E-01  0.1424696E-01  0.1663678E+00
3197688. -0.2350133E-01  0.7138721E+00 -0.2284788E-02 -0.4226774E-01  0.1206800E-01  0.2255875E+00
3127109. -0.3051278E-01  0.5472310E+00 -0.1723342E-02 -0.5865443E-01  0.9287355E-02  0.2744054E+00
3056531. -0.3554967E-01  0.3599243E+00 -0.9964048E-03 -0.7202391E-01  0.6037431E-02  0.3099387E+00
2985953. -0.3846495E-01  0.1665178E+00 -0.1409908E-03 -0.8177032E-01  0.2475711E-02  0.3305186E+00
2915375. -0.3926472E-01 -0.2000948E-01  0.8006301E-03 -0.8755262E-01 -0.1228366E-02  0.3356495E+00
2844797. -0.3808706E-01 -0.1889012E+00  0.1783847E-02 -0.8928622E-01 -0.4905874E-02  0.3258964E+00
2774219. -0.3517503E-01 -0.3319954E+00  0.2764430E-02 -0.8711939E-01 -0.8399264E-02  0.3027156E+00
2703641. -0.3084701E-01 -0.4438632E+00  0.3700929E-02 -0.8140017E-01 -0.1157111E-01  0.2682483E+00
2633062. -0.2546649E-01 -0.5217503E+00  0.4556681E-02 -0.7263417E-01 -0.1431052E-01  0.2250973E+00
2562484. -0.1941394E-01 -0.5653369E+00  0.5301246E-02 -0.6143868E-01 -0.1653685E-01  0.1761085E+00
2491906. -0.1306113E-01 -0.5764112E+00  0.5911474E-02 -0.4849899E-01 -0.1820148E-01  0.1241609E+00
2421328. -0.6750375E-02 -0.5584399E+00  0.6371967E-02 -0.3452318E-01 -0.1928697E-01  0.7198798E-01
2350750. -0.7783196E-03 -0.5161228E+00  0.6675092E-02 -0.2019926E-01 -0.1980468E-01  0.2203095E-01
2280172.  0.4615042E-02 -0.4549125E+00  0.6820580E-02 -0.6164536E-02 -0.1979086E-01 -0.2366936E-01
2209594.  0.9252333E-02 -0.3805929E+00  0.6814812E-02  0.7023601E-02 -0.1930184E-01 -0.6354091E-01
2139016.  0.1302022E-01 -0.2988842E+00  0.6669794E-02  0.1890786E-01 -0.1840860E-01 -0.9651075E-01
2068438.  0.1586696E-01 -0.2151327E+00  0.6401985E-02  0.2914513E-01 -0.1719123E-01 -0.1220009E+00
1997859.  0.1779664E-01 -0.1340395E+00  0.6030969E-02  0.3751206E-01 -0.1573362E-01 -0.1398946E+00
1927281.  0.1886119E-01 -0.5952774E-01  0.5578174E-02  0.4390269E-01 -0.1411873E-01 -0.1504785E+00
1856703.  0.1915113E-01  0.5374935E-02  0.5065533E-02  0.4832726E-01 -0.1242436E-01 -0.1543695E+00
1786125.  0.1878566E-01  0.5850935E-01  0.4514277E-02  0.5090219E-01 -0.1072007E-01 -0.1524304E+00
1715547.  0.1790334E-01  0.9851780E-01  0.3943798E-02  0.5184063E-01 -0.9064881E-02 -0.1456813E+00
1644969.  0.1665410E-01  0.1246715E+00  0.3370618E-02  0.5144874E-01 -0.7506088E-02 -0.1352107E+00
1574391.  0.1519367E-01  0.1365918E+00  0.2807347E-02  0.5012668E-01 -0.6078920E-02 -0.1220909E+00
1503812.  0.1368189E-01  0.1338262E+00  0.2261561E-02  0.4838810E-01 -0.4807198E-02 -0.1072924E+00
1433234.  0.1228707E-01  0.1151654E+00  0.1734306E-02  0.4691490E-01 -0.3705008E-02 -0.9159607E-01
1362656.  0.1120009E-01  0.7747310E-01  0.1217612E-02  0.4667784E-01 -0.2779296E-02 -0.7547736E-01
1292078.  0.1066658E-01  0.1351665E-01  0.6900618E-03  0.4919637E-01 -0.2034228E-02 -0.5892675E-01
1221500.  0.1105336E-01 -0.9235211E-01  0.1080375E-03  0.5708835E-01 -0.1478224E-02 -0.4110616E-01
1221500.  0.1105336E-01  0.2471246E+00  0.1477562E-02 -0.4994468E-01 -0.1478224E-02 -0.4589452E-01
1183328.  0.9201556E-02  0.3694371E+00  0.1743502E-02 -0.3762716E-01 -0.1222504E-02 -0.3956520E-01
1145156.  0.6658528E-02  0.4756927E+00  0.1916418E-02 -0.1930772E-01 -0.1002923E-02 -0.3383117E-01
1106984.  0.3556951E-02  0.5541642E+00  0.1968271E-02  0.2304153E-02 -0.8159277E-03 -0.2868603E-01
1068812.  0.9058150E-04  0.5963706E+00  0.1888030E-02  0.2430791E-01 -0.6580317E-03 -0.2411435E-01
1030641. -0.3507881E-02  0.5979238E+00  0.1681641E-02  0.4399864E-01 -0.5258700E-03 -0.2009237E-01
 992469. -0.6992910E-02  0.5588414E+00  0.1369815E-02  0.5919474E-01 -0.4162320E-03 -0.1658901E-01
 954297. -0.1013157E-01  0.4833246E+00  0.9841999E-03  0.6846076E-01 -0.3261204E-03 -0.1356789E-01
 916125. -0.1272709E-01  0.3790586E+00  0.5625011E-03  0.7121491E-01 -0.2527647E-03 -0.1098887E-01
 877953. -0.1463659E-01  0.2561537E+00  0.1433675E-03  0.6771181E-01 -0.1936431E-03 -0.8809187E-02
 839781. -0.1578191E-01  0.1258762E+00 -0.2382972E-03  0.5891852E-01 -0.1464930E-03 -0.6985525E-02
 801609. -0.1615257E-01 -0.6519507E-03 -0.5550198E-03  0.4630970E-01 -0.1093093E-03 -0.5475359E-02
 763438. -0.1580132E-01 -0.1136320E+00 -0.7890756E-03  0.3162440E-01 -0.8033803E-04 -0.4237791E-02
 725266. -0.1483322E-01 -0.2055234E+00 -0.9333266E-03  0.1661081E-01 -0.5806056E-04 -0.3234597E-02
 687094. -0.1339026E-01 -0.2716029E+00 -0.9905726E-03  0.2812038E-02 -0.4117887E-04 -0.2431082E-02
 648922. -0.1163370E-01 -0.3101734E+00 -0.9718142E-03 -0.8601712E-02 -0.2859360E-04 -0.1795461E-02
 610750. -0.9726226E-02 -0.3223817E+00 -0.8937014E-03 -0.1692343E-01 -0.1938392E-04 -0.1299948E-02
 572578. -0.7816326E-02 -0.3117294E+00 -0.7756746E-03 -0.2192532E-01 -0.1278551E-04 -0.9199717E-03
 534406. -0.6026164E-02 -0.2833660E+00 -0.6372167E-03 -0.2380786E-01 -0.8171964E-05 -0.6340730E-03
 496234. -0.4444139E-02 -0.2432768E+00 -0.4955703E-03 -0.2309814E-01 -0.5036462E-05 -0.4237471E-03
 458062. -0.3122307E-02 -0.1974795E+00 -0.3641635E-03 -0.2051959E-01 -0.2974944E-05 -0.2731294E-03
 419891. -0.2078360E-02 -0.1513356E+00 -0.2518457E-03 -0.1685622E-01 -0.1671479E-05 -0.1686494E-03
 381719. -0.1301076E-02 -0.1090432E+00 -0.1628844E-03 -0.1283279E-01 -0.8846898E-06 -0.9892393E-04
 343547. -0.7583593E-03 -0.7337347E-01 -0.9762102E-04 -0.9026649E-02 -0.4355903E-06 -0.5451354E-04
 305375. -0.4059153E-03 -0.4563092E-01 -0.5350528E-04 -0.5820099E-02 -0.1961653E-06 -0.2781192E-04
 267203. -0.1956445E-03 -0.2582463E-01 -0.2631063E-04 -0.3392385E-02 -0.7891632E-07 -0.1287090E-04
 229031. -0.8249051E-04 -0.1299211E-01 -0.1128089E-04 -0.1748071E-02 -0.2740317E-07 -0.5244880E-05
 190859. -0.2908503E-04 -0.5598865E-02 -0.4032575E-05 -0.7679652E-03 -0.7788975E-08 -0.1798201E-05
 152688. -0.7950599E-05 -0.1941228E-02 -0.1114503E-05 -0.2703214E-03 -0.1658260E-08 -0.4806390E-06
 114516. -0.1461613E-05 -0.4811373E-03 -0.2066102E-06 -0.6776671E-04 -0.2239247E-09 -0.8683562E-07
  76344. -0.1313068E-06 -0.6534322E-04 -0.1867097E-07 -0.9276760E-05 -0.1321107E-10 -0.7703462E-08
  38172. -0.2080123E-08 -0.2079854E-05 -0.2968142E-09 -0.2966603E-06 -0.1036674E-12 -0.1210350E-09
      0.  0.0000000E+00  0.0000000E+00  0.0000000E+00  0.0000000E+00  0.0000000E+00  0.0000000E+00
