       3       30 S      250        153.46570          8.55217          8.71591        418.86829      185    7
6371000. -0.5237836E-03 -0.2493135E-01 -0.6931963E-04  0.4544639E-03  0.5158454E-04 -0.6113874E-03
6370000. -0.5198554E-03 -0.2512036E-01 -0.6938717E-04  0.4061559E-03  0.5168022E-04 -0.6077408E-03
6369000. -0.5158980E-03 -0.2530343E-01 -0.6944712E-04  0.3577386E-03  0.5177533E-04 -0.6041415E-03
6368000. -0.5119124E-03 -0.2548053E-01 -0.6949946E-04  0.3092187E-03  0.5186987E-04 -0.6005899E-03
6368000. -0.5119124E-03 -0.2548053E-01 -0.6949946E-04  0.3092187E-03  0.5186987E-04 -0.6005899E-03
6367000. -0.5078994E-03 -0.2565164E-01 -0.6954418E-04  0.2606025E-03  0.5196387E-04 -0.5970862E-03
6366000. -0.5038601E-03 -0.2581675E-01 -0.6958127E-04  0.2118965E-03  0.5205731E-04 -0.5936307E-03
6365000. -0.4997953E-03 -0.2597583E-01 -0.6961070E-04  0.1631072E-03  0.5215022E-04 -0.5902236E-03
6364000. -0.4957060E-03 -0.2612886E-01 -0.6963247E-04  0.1142409E-03  0.5224260E-04 -0.5868652E-03
6363000. -0.4915931E-03 -0.2627584E-01 -0.6964656E-04  0.6530433E-04  0.5233446E-04 -0.5835557E-03
6362000. -0.4874577E-03 -0.2641674E-01 -0.6965297E-04  0.1630387E-04  0.5242580E-04 -0.5802953E-03
6361000. -0.4833007E-03 -0.2655155E-01 -0.6965168E-04 -0.3275392E-04  0.5251663E-04 -0.5770844E-03
6360000. -0.4791229E-03 -0.2668025E-01 -0.6964269E-04 -0.8186252E-04  0.5260696E-04 -0.5739232E-03
6359000. -0.4749255E-03 -0.2680284E-01 -0.6962598E-04 -0.1310154E-03  0.5269680E-04 -0.5708119E-03
6358000. -0.4707092E-03 -0.2691929E-01 -0.6960155E-04 -0.1802060E-03  0.5278615E-04 -0.5677508E-03
6357000. -0.4664752E-03 -0.2702961E-01 -0.6956940E-04 -0.2294278E-03  0.5287503E-04 -0.5647401E-03
6356000. -0.4622244E-03 -0.2713377E-01 -0.6952953E-04 -0.2786742E-03  0.5296344E-04 -0.5617802E-03
6356000. -0.4622244E-03 -0.2329960E-01 -0.6952953E-04 -0.1217322E-04  0.5296344E-04 -0.4612055E-03
6355000. -0.4585602E-03 -0.2338872E-01 -0.6952560E-04 -0.3785927E-04  0.5303540E-04 -0.4557363E-03
6354000. -0.4548823E-03 -0.2347466E-01 -0.6951764E-04 -0.6357047E-04  0.5310651E-04 -0.4503034E-03
6353000. -0.4511911E-03 -0.2355741E-01 -0.6950564E-04 -0.8930475E-04  0.5317676E-04 -0.4449067E-03
6352000. -0.4474873E-03 -0.2363698E-01 -0.6948961E-04 -0.1150601E-03  0.5324617E-04 -0.4395465E-03
6351000. -0.4437711E-03 -0.2371334E-01 -0.6946953E-04 -0.1408343E-03  0.5331475E-04 -0.4342227E-03
6350000. -0.4400433E-03 -0.2378651E-01 -0.6944539E-04 -0.1666255E-03  0.5338249E-04 -0.4289354E-03
6349000. -0.4363042E-03 -0.2385647E-01 -0.6941721E-04 -0.1924314E-03  0.5344940E-04 -0.4236847E-03
6348000. -0.4325543E-03 -0.2392321E-01 -0.6938499E-04 -0.2182502E-03  0.5351549E-04 -0.4184707E-03
6347000. -0.4287943E-03 -0.2398674E-01 -0.6934869E-04 -0.2440796E-03  0.5358077E-04 -0.4132935E-03
6346600. -0.4272875E-03 -0.2401125E-01 -0.6933305E-04 -0.2544139E-03  0.5360665E-04 -0.4112330E-03
6346600. -0.4272875E-03 -0.2678691E-01 -0.6933305E-04 -0.5503380E-04  0.5360665E-04 -0.2622441E-03
6318800. -0.3076249E-03 -0.2781731E-01 -0.6828992E-04 -0.4241492E-03  0.5438536E-04 -0.9795499E-04
6291000. -0.1866910E-03 -0.2736107E-01 -0.6563446E-04 -0.7912084E-03  0.5448852E-04  0.4776825E-04
6291000. -0.1866910E-03 -0.2821334E-01 -0.6563446E-04 -0.8242542E-03  0.5448852E-04  0.4776825E-04
6263000. -0.6680648E-04 -0.2606976E-01 -0.6115781E-04 -0.1207680E-02  0.5400710E-04  0.1686620E-03
6235000.  0.4012085E-04 -0.2233591E-01 -0.5507927E-04 -0.1550140E-02  0.5302774E-04  0.2747151E-03
6207000.  0.1274190E-03 -0.1717031E-01 -0.4761806E-04 -0.1834181E-02  0.5161108E-04  0.3680149E-03
6179000.  0.1892947E-03 -0.1081301E-01 -0.3906447E-04 -0.2045064E-02  0.4980866E-04  0.4505886E-03
6151000.  0.2211717E-03 -0.3575913E-02 -0.2976611E-04 -0.2171578E-02  0.4766340E-04  0.5243357E-03
6151000.  0.2211717E-03 -0.5188908E-02 -0.2976611E-04 -0.1938576E-02  0.4766340E-04  0.5120993E-03
6128500.  0.2307138E-03 -0.2070475E-03 -0.2291490E-04 -0.1933960E-02  0.4578066E-04  0.5529659E-03
6106000.  0.2226536E-03  0.4755855E-02 -0.1615694E-04 -0.1886162E-02  0.4376550E-04  0.5871716E-03
6083500.  0.1973080E-03  0.9559598E-02 -0.9639929E-05 -0.1798073E-02  0.4164063E-04  0.6151639E-03
6061000.  0.1554732E-03  0.1407338E-01 -0.3499633E-05 -0.1673535E-02  0.3942726E-04  0.6373569E-03
6038500.  0.9838594E-04  0.1817900E-01  0.2143224E-05 -0.1517201E-02  0.3714518E-04  0.6541476E-03
6016000.  0.2767463E-04  0.2177333E-01  0.7185519E-05 -0.1334350E-02  0.3481277E-04  0.6659144E-03
5993500. -0.5469807E-04  0.2477044E-01  0.1154358E-04 -0.1130693E-02  0.3244714E-04  0.6730217E-03
5971000. -0.1464991E-03  0.2710336E-01  0.1515447E-04 -0.9122259E-03  0.3006412E-04  0.6758249E-03
5971000. -0.1464991E-03  0.2500818E-01  0.1515447E-04 -0.7927270E-03  0.3006412E-04  0.6950029E-03
5937667. -0.2811904E-03  0.2624673E-01  0.1848720E-04 -0.4844731E-03  0.2648492E-04  0.6712606E-03
5904333. -0.4188367E-03  0.2615917E-01  0.2026946E-04 -0.2021162E-03  0.2305901E-04  0.6365921E-03
5871000. -0.5528969E-03  0.2490823E-01  0.2066543E-04  0.4411339E-04  0.1984010E-04  0.5924214E-03
5837667. -0.6777972E-03  0.2269281E-01  0.1988124E-04  0.2483764E-03  0.1687388E-04  0.5402458E-03
5804333. -0.7890551E-03  0.1972840E-01  0.1814345E-04  0.4085289E-03  0.1419827E-04  0.4815411E-03
5771000. -0.8833131E-03  0.1623115E-01  0.1568198E-04  0.5253753E-03  0.1184386E-04  0.4177210E-03
5771000. -0.8833131E-03  0.1623221E-01  0.1568198E-04  0.5253905E-03  0.1184386E-04  0.4177210E-03
5701000. -0.1019645E-02  0.8379811E-02  0.9238514E-05  0.6245412E-03  0.8287051E-05  0.2272503E-03
5701000. -0.1019645E-02  0.7469947E-02  0.9238514E-05  0.7347594E-03  0.8287051E-05  0.5146515E-03
5667333. -0.1047925E-02  0.3350669E-02  0.5289962E-05  0.7485092E-03  0.5870760E-05  0.4038555E-03
5633667. -0.1055762E-02 -0.3595328E-03  0.1423697E-05  0.7101607E-03  0.3970076E-05  0.3190425E-03
5600000. -0.1044394E-02 -0.3911048E-02 -0.2208501E-05  0.6640084E-03  0.2476717E-05  0.2480729E-03
5600000. -0.1044394E-02 -0.3911048E-02 -0.2208501E-05  0.6640084E-03  0.2476717E-05  0.2480729E-03
5563518. -0.1011504E-02 -0.7533047E-02 -0.5850338E-05  0.6069099E-03  0.1244186E-05  0.1845128E-03
5527037. -0.9586578E-03 -0.1087558E-01 -0.9149056E-05  0.5445648E-03  0.3415138E-06  0.1325377E-03
5490556. -0.8875530E-03 -0.1390581E-01 -0.1208093E-04  0.4791363E-03 -0.2923096E-06  0.9034508E-04
5454074. -0.8000429E-03 -0.1660246E-01 -0.1463439E-04  0.4126916E-03 -0.7090366E-06  0.5646582E-04
5417593. -0.6980706E-03 -0.1895750E-01 -0.1680874E-04  0.3470301E-03 -0.9521527E-06  0.2950553E-04
5381111. -0.5835883E-03 -0.2097189E-01 -0.1861342E-04  0.2838202E-03 -0.1058174E-05  0.8425838E-05
5344630. -0.4585255E-03 -0.2265700E-01 -0.2006662E-04  0.2244972E-03 -0.1058155E-05 -0.7680083E-05
5308148. -0.3247037E-03 -0.2403389E-01 -0.2119411E-04  0.1702280E-03 -0.9781334E-06 -0.1963014E-04
5271667. -0.1838239E-03 -0.2512858E-01 -0.2202774E-04  0.1220137E-03 -0.8401800E-06 -0.2800901E-04
5235185. -0.3739707E-04 -0.2597642E-01 -0.2260448E-04  0.8060663E-04 -0.6631229E-06 -0.3337102E-04
5198704.  0.1132681E-03 -0.2661703E-01 -0.2296496E-04  0.4655851E-04 -0.4629271E-06 -0.3615745E-04
5162222.  0.2671108E-03 -0.2709249E-01 -0.2315247E-04  0.2024650E-04 -0.2532843E-06 -0.3671816E-04
5125741.  0.4233161E-03 -0.2745206E-01 -0.2321218E-04  0.1951527E-05 -0.4623195E-07 -0.3528917E-04
5089259.  0.5813717E-03 -0.2774562E-01 -0.2319035E-04 -0.8227023E-05  0.1474600E-06 -0.3208309E-04
5052778.  0.7410378E-03 -0.2802516E-01 -0.2313351E-04 -0.1026720E-04  0.3180672E-06 -0.2723503E-04
5016296.  0.9024026E-03 -0.2834680E-01 -0.2308845E-04 -0.4117475E-05  0.4561633E-06 -0.2072440E-04
4979815.  0.1065859E-02 -0.2876669E-01 -0.2310183E-04  0.1013590E-04  0.5522700E-06 -0.1256619E-04
4943333.  0.1232146E-02 -0.2934437E-01 -0.2322005E-04  0.3251575E-04  0.5966598E-06 -0.2614949E-05
4906852.  0.1402339E-02 -0.3014283E-01 -0.2349000E-04  0.6313266E-04  0.5781652E-06  0.9433984E-05
4870370.  0.1577892E-02 -0.3122650E-01 -0.2395878E-04  0.1019905E-03  0.4842954E-06  0.2377128E-04
4833889.  0.1760631E-02 -0.3266661E-01 -0.2467454E-04  0.1494859E-03  0.3003532E-06  0.4101853E-04
4797407.  0.1952826E-02 -0.3454033E-01 -0.2568819E-04  0.2060769E-03  0.7677649E-08  0.6183173E-04
4760926.  0.2157178E-02 -0.3692985E-01 -0.2705261E-04  0.2721433E-03 -0.4156198E-06  0.8681220E-04
4724444.  0.2376923E-02 -0.3993157E-01 -0.2882533E-04  0.3488695E-03 -0.9972237E-06  0.1173510E-03
4687963.  0.2615855E-02 -0.4365220E-01 -0.3107026E-04  0.4372574E-03 -0.1772455E-05  0.1546560E-03
4651482.  0.2878435E-02 -0.4821369E-01 -0.3385765E-04  0.5386482E-03 -0.2784358E-05  0.2003728E-03
4615000.  0.3169891E-02 -0.5376125E-01 -0.3726811E-04  0.6551883E-03 -0.4088082E-05  0.2569863E-03
4578518.  0.3496327E-02 -0.6046100E-01 -0.4139383E-04  0.7888409E-03 -0.5753004E-05  0.3270048E-03
4542037.  0.3864877E-02 -0.6851030E-01 -0.4634025E-04  0.9424473E-03 -0.7865422E-05  0.4140240E-03
4505556.  0.4283940E-02 -0.7814635E-01 -0.5223205E-04  0.1119586E-02 -0.1053605E-04  0.5227555E-03
4469074.  0.4763378E-02 -0.8964410E-01 -0.5921313E-04  0.1323520E-02 -0.1390297E-04  0.6582152E-03
4432593.  0.5314753E-02 -0.1033381E+00 -0.6745061E-04  0.1559412E-02 -0.1813977E-04  0.8280426E-03
4396111.  0.5951783E-02 -0.1196273E+00 -0.7714333E-04  0.1832526E-02 -0.2346872E-04  0.1041190E-02
4359630.  0.6690588E-02 -0.1389780E+00 -0.8851824E-04  0.2148158E-02 -0.3016660E-04  0.1308384E-02
4323148.  0.7550326E-02 -0.1619621E+00 -0.1018414E-03  0.2514166E-02 -0.3858509E-04  0.1644847E-02
4286667.  0.8553621E-02 -0.1892490E+00 -0.1174208E-03  0.2937481E-02 -0.4916990E-04  0.2068402E-02
4250185.  0.9727377E-02 -0.2216343E+00 -0.1356068E-03  0.3425924E-02 -0.6248274E-04  0.2601982E-02
4213704.  0.1110337E-01 -0.2600705E+00 -0.1567986E-03  0.3988890E-02 -0.7923608E-04  0.3275718E-02
4177222.  0.1271942E-01 -0.3056643E+00 -0.1814442E-03  0.4633153E-02 -0.1003338E-03  0.4126026E-02
4140741.  0.1462005E-01 -0.3597177E+00 -0.2100290E-03  0.5366290E-02 -0.1269159E-03  0.5200618E-02
4104259.  0.1685807E-01 -0.4237586E+00 -0.2430822E-03  0.6193658E-02 -0.1604383E-03  0.6560837E-02
4067778.  0.1949533E-01 -0.4994902E+00 -0.2811340E-03  0.7111725E-02 -0.2027363E-03  0.8280239E-02
4031296.  0.2260444E-01 -0.5888889E+00 -0.3246921E-03  0.8114601E-02 -0.2561420E-03  0.1045862E-01
3994815.  0.2626963E-01 -0.6941125E+00 -0.3741861E-03  0.9179452E-02 -0.3236209E-03  0.1321861E-01
3958333.  0.3058810E-01 -0.8174133E+00 -0.4298463E-03  0.1025819E-01 -0.4089237E-03  0.1671252E-01
3921852.  0.3566982E-01 -0.9611212E+00 -0.4915587E-03  0.1127763E-01 -0.5168010E-03  0.2114127E-01
3885370.  0.4163808E-01 -0.1127308E+01 -0.5586412E-03  0.1210507E-01 -0.6532895E-03  0.2674975E-01
3848889.  0.4862573E-01 -0.1317400E+01 -0.6294294E-03  0.1253019E-01 -0.8259848E-03  0.3384728E-01
3812407.  0.5677166E-01 -0.1531682E+01 -0.7007766E-03  0.1223242E-01 -0.1044511E-02  0.4282695E-01
3775926.  0.6620921E-01 -0.1767993E+01 -0.7671795E-03  0.1070039E-01 -0.1320942E-02  0.5416236E-01
3739444.  0.7705028E-01 -0.2020374E+01 -0.8195359E-03  0.7171800E-02 -0.1670428E-02  0.6845078E-01
3702963.  0.8935481E-01 -0.2276455E+01 -0.8433436E-03  0.4932599E-03 -0.2111875E-02  0.8641559E-01
3666482.  0.1030846E+00 -0.2513224E+01 -0.8158754E-03 -0.1108909E-01 -0.2668696E-02  0.1089036E+00
3630000.  0.1180271E+00 -0.2691571E+01 -0.7021338E-03 -0.3016225E-01 -0.3369665E-02  0.1369383E+00
3630000.  0.1180271E+00 -0.2691571E+01 -0.7021338E-03 -0.3016225E-01 -0.3369665E-02  0.1369383E+00
3592500.  0.1341150E+00 -0.2745212E+01 -0.4390542E-03 -0.6168304E-01 -0.4277211E-02  0.1727167E+00
3555000.  0.1498664E+00 -0.2553299E+01  0.5980054E-04 -0.1115521E+00 -0.5419317E-02  0.2168625E+00
3517500.  0.1633366E+00 -0.1931827E+01  0.9284485E-03 -0.1892566E+00 -0.6849110E-02  0.2706655E+00
3480000.  0.1712022E+00 -0.5884266E+00  0.2369942E-02 -0.3090892E+00 -0.8626439E-02  0.3350569E+00
3480000.  0.1712022E+00  0.7290009E+01  0.6845920E-02  0.3007782E+00 -0.8626439E-02 -0.2139859E+00
3409422.  0.1058054E+00  0.4687066E+01  0.4170992E-02  0.1898704E+00 -0.6266786E-02 -0.2027115E+00
3338844.  0.6416056E-01  0.2951901E+01  0.2496879E-02  0.1176449E+00 -0.4248206E-02 -0.1596335E+00
3268266.  0.3817728E-01  0.1821779E+01  0.1468400E-02  0.7155263E-01 -0.2737498E-02 -0.1139235E+00
3197688.  0.2228885E-01  0.1101979E+01  0.8481743E-03  0.4271661E-01 -0.1693734E-02 -0.7617665E-01
3127109.  0.1276551E-01  0.6533716E+00  0.4810476E-03  0.2502780E-01 -0.1012140E-02 -0.4850475E-01
3056531.  0.7170485E-02  0.3796934E+00  0.2677934E-03  0.1438830E-01 -0.5863087E-03 -0.2967465E-01
2985953.  0.3948766E-02  0.2162260E+00  0.1462595E-03  0.8113592E-02 -0.3299816E-03 -0.1753573E-01
2915375.  0.2131008E-02  0.1206306E+00  0.7833143E-04  0.4485955E-02 -0.1806922E-03 -0.1004181E-01
2844797.  0.1126393E-02  0.6590341E-01  0.4111285E-04  0.2430634E-02 -0.9634352E-04 -0.5583706E-02
2774219.  0.5827845E-03  0.3524051E-01  0.2113274E-04  0.1289895E-02 -0.5003763E-04 -0.3018366E-02
2703641.  0.2949389E-03  0.1843311E-01  0.1063021E-04  0.6699872E-03 -0.2531474E-04 -0.1587190E-02
2633062.  0.1458845E-03  0.9424697E-02  0.5228350E-05  0.3403450E-03 -0.1247217E-04 -0.8120313E-03
2562484.  0.7046220E-04  0.4706575E-02  0.2512028E-05  0.1689460E-03 -0.5981444E-05 -0.4041593E-03
2491906.  0.3319944E-04  0.2293541E-02  0.1177779E-05  0.8187052E-04 -0.2790398E-05 -0.1956078E-03
2421328.  0.1524209E-04  0.1089485E-02  0.5382481E-06  0.3868912E-04 -0.1265158E-05 -0.9200061E-04
2350750.  0.6810127E-05  0.5038984E-03  0.2394563E-06  0.1780786E-04 -0.5569088E-06 -0.4201342E-04
2280172.  0.2957058E-05  0.2266235E-03  0.1035578E-06  0.7972900E-05 -0.2377094E-06 -0.1860848E-04
2209594.  0.1245920E-05  0.9896359E-04  0.4346846E-07  0.3467042E-05 -0.9824497E-07 -0.7983640E-05
2139016.  0.5085149E-06  0.4189381E-04  0.1767871E-07  0.1461925E-05 -0.3925245E-07 -0.3312895E-05
2068438.  0.2006669E-06  0.1716101E-04  0.6953126E-08  0.5966501E-06 -0.1513254E-07 -0.1327340E-05
1997859.  0.7639806E-07  0.6788464E-05  0.2638956E-08  0.2352082E-06 -0.5617355E-08 -0.5124668E-06
1927281.  0.2799699E-07  0.2587422E-05  0.9642487E-09  0.8936084E-07 -0.2003158E-08 -0.1902395E-06
1856703.  0.9849461E-08  0.9478224E-06  0.3382949E-09  0.3263581E-07 -0.6843879E-09 -0.6773032E-07
1786125.  0.3316667E-08  0.3327500E-06  0.1136221E-09  0.1142500E-07 -0.2233531E-09 -0.2306057E-07
1715547.  0.1065456E-08  0.1115968E-06  0.3641186E-10  0.3821538E-08 -0.6939248E-10 -0.7484314E-08
1644969.  0.3252989E-09  0.3562524E-07  0.1109173E-10  0.1216936E-08 -0.2044536E-10 -0.2306898E-08
1574391.  0.9399501E-10  0.1078051E-07  0.3197904E-11  0.3674275E-09 -0.5687558E-11 -0.6724988E-09
1503812.  0.2559088E-10  0.3076332E-08  0.8680079E-12  0.1047420E-09 -0.1485525E-11 -0.1846309E-09
1433234.  0.0000000E+00  0.0000000E+00  0.0000000E+00  0.0000000E+00  0.0000000E+00  0.0000000E+00
1362656.  0.0000000E+00  0.0000000E+00  0.0000000E+00  0.0000000E+00  0.0000000E+00  0.0000000E+00
1292078.  0.0000000E+00  0.0000000E+00  0.0000000E+00  0.0000000E+00  0.0000000E+00  0.0000000E+00
1221500.  0.0000000E+00  0.0000000E+00  0.0000000E+00  0.0000000E+00  0.0000000E+00  0.0000000E+00
1221500.  0.0000000E+00  0.0000000E+00  0.0000000E+00  0.0000000E+00  0.0000000E+00  0.0000000E+00
1183328.  0.0000000E+00  0.0000000E+00  0.0000000E+00  0.0000000E+00  0.0000000E+00  0.0000000E+00
1145156.  0.0000000E+00  0.0000000E+00  0.0000000E+00  0.0000000E+00  0.0000000E+00  0.0000000E+00
1106984.  0.0000000E+00  0.0000000E+00  0.0000000E+00  0.0000000E+00  0.0000000E+00  0.0000000E+00
1068812.  0.0000000E+00  0.0000000E+00  0.0000000E+00  0.0000000E+00  0.0000000E+00  0.0000000E+00
1030641.  0.0000000E+00  0.0000000E+00  0.0000000E+00  0.0000000E+00  0.0000000E+00  0.0000000E+00
 992469.  0.0000000E+00  0.0000000E+00  0.0000000E+00  0.0000000E+00  0.0000000E+00  0.0000000E+00
 954297.  0.0000000E+00  0.0000000E+00  0.0000000E+00  0.0000000E+00  0.0000000E+00  0.0000000E+00
 916125.  0.0000000E+00  0.0000000E+00  0.0000000E+00  0.0000000E+00  0.0000000E+00  0.0000000E+00
 877953.  0.0000000E+00  0.0000000E+00  0.0000000E+00  0.0000000E+00  0.0000000E+00  0.0000000E+00
 839781.  0.0000000E+00  0.0000000E+00  0.0000000E+00  0.0000000E+00  0.0000000E+00  0.0000000E+00
 801609.  0.0000000E+00  0.0000000E+00  0.0000000E+00  0.0000000E+00  0.0000000E+00  0.0000000E+00
 763438.  0.0000000E+00  0.0000000E+00  0.0000000E+00  0.0000000E+00  0.0000000E+00  0.0000000E+00
 725266.  0.0000000E+00  0.0000000E+00  0.0000000E+00  0.0000000E+00  0.0000000E+00  0.0000000E+00
 687094.  0.0000000E+00  0.0000000E+00  0.0000000E+00  0.0000000E+00  0.0000000E+00  0.0000000E+00
 648922.  0.0000000E+00  0.0000000E+00  0.0000000E+00  0.0000000E+00  0.0000000E+00  0.0000000E+00
 610750.  0.0000000E+00  0.0000000E+00  0.0000000E+00  0.0000000E+00  0.0000000E+00  0.0000000E+00
 572578.  0.0000000E+00  0.0000000E+00  0.0000000E+00  0.0000000E+00  0.0000000E+00  0.0000000E+00
 534406.  0.0000000E+00  0.0000000E+00  0.0000000E+00  0.0000000E+00  0.0000000E+00  0.0000000E+00
 496234.  0.0000000E+00  0.0000000E+00  0.0000000E+00  0.0000000E+00  0.0000000E+00  0.0000000E+00
 458062.  0.0000000E+00  0.0000000E+00  0.0000000E+00  0.0000000E+00  0.0000000E+00  0.0000000E+00
 419891.  0.0000000E+00  0.0000000E+00  0.0000000E+00  0.0000000E+00  0.0000000E+00  0.0000000E+00
 381719.  0.0000000E+00  0.0000000E+00  0.0000000E+00  0.0000000E+00  0.0000000E+00  0.0000000E+00
 343547.  0.0000000E+00  0.0000000E+00  0.0000000E+00  0.0000000E+00  0.0000000E+00  0.0000000E+00
 305375.  0.0000000E+00  0.0000000E+00  0.0000000E+00  0.0000000E+00  0.0000000E+00  0.0000000E+00
 267203.  0.0000000E+00  0.0000000E+00  0.0000000E+00  0.0000000E+00  0.0000000E+00  0.0000000E+00
 229031.  0.0000000E+00  0.0000000E+00  0.0000000E+00  0.0000000E+00  0.0000000E+00  0.0000000E+00
 190859.  0.0000000E+00  0.0000000E+00  0.0000000E+00  0.0000000E+00  0.0000000E+00  0.0000000E+00
 152688.  0.0000000E+00  0.0000000E+00  0.0000000E+00  0.0000000E+00  0.0000000E+00  0.0000000E+00
 114516.  0.0000000E+00  0.0000000E+00  0.0000000E+00  0.0000000E+00  0.0000000E+00  0.0000000E+00
  76344.  0.0000000E+00  0.0000000E+00  0.0000000E+00  0.0000000E+00  0.0000000E+00  0.0000000E+00
  38172.  0.0000000E+00  0.0000000E+00  0.0000000E+00  0.0000000E+00  0.0000000E+00  0.0000000E+00
      0.  0.0000000E+00  0.0000000E+00  0.0000000E+00  0.0000000E+00  0.0000000E+00  0.0000000E+00
