       8       19 S      455        132.68919         15.47097         14.78293         89.05935      185    7
6371000. -0.4777080E-09  0.2058865E-06  0.1375913E-08  0.1853621E-08 -0.2389103E-09  0.5679052E-08
6370000. -0.5100021E-09  0.2055900E-06  0.1375486E-08  0.3587543E-08 -0.2397956E-09  0.5600958E-08
6369000. -0.5422429E-09  0.2052082E-06  0.1374787E-08  0.5321134E-08 -0.2406686E-09  0.5522817E-08
6368000. -0.5744171E-09  0.2047411E-06  0.1373816E-08  0.7054034E-08 -0.2415293E-09  0.5444633E-08
6368000. -0.5744171E-09  0.2047411E-06  0.1373816E-08  0.7054034E-08 -0.2415293E-09  0.5444633E-08
6367000. -0.6065113E-09  0.2041888E-06  0.1372573E-08  0.8785885E-08 -0.2423778E-09  0.5366410E-08
6366000. -0.6385121E-09  0.2035512E-06  0.1371058E-08  0.1051633E-07 -0.2432139E-09  0.5288154E-08
6365000. -0.6704061E-09  0.2028285E-06  0.1369271E-08  0.1224500E-07 -0.2440378E-09  0.5209869E-08
6364000. -0.7021800E-09  0.2020207E-06  0.1367214E-08  0.1397156E-07 -0.2448494E-09  0.5131559E-08
6363000. -0.7338205E-09  0.2011280E-06  0.1364886E-08  0.1569563E-07 -0.2456488E-09  0.5053230E-08
6362000. -0.7653142E-09  0.2001505E-06  0.1362287E-08  0.1741686E-07 -0.2464358E-09  0.4974887E-08
6361000. -0.7966478E-09  0.1990882E-06  0.1359418E-08  0.1913489E-07 -0.2472105E-09  0.4896533E-08
6360000. -0.8278080E-09  0.1979415E-06  0.1356280E-08  0.2084938E-07 -0.2479729E-09  0.4818175E-08
6359000. -0.8587817E-09  0.1967105E-06  0.1352873E-08  0.2255995E-07 -0.2487230E-09  0.4739817E-08
6358000. -0.8895555E-09  0.1953953E-06  0.1349198E-08  0.2426626E-07 -0.2494608E-09  0.4661463E-08
6357000. -0.9201163E-09  0.1939963E-06  0.1345256E-08  0.2596795E-07 -0.2501863E-09  0.4583118E-08
6356000. -0.9504509E-09  0.1925137E-06  0.1341047E-08  0.2766468E-07 -0.2508996E-09  0.4504789E-08
6356000. -0.9504509E-09  0.1705067E-06  0.1341047E-08  0.1760879E-07 -0.2508996E-09  0.4711596E-08
6355000. -0.9771394E-09  0.1695488E-06  0.1338198E-08  0.1868910E-07 -0.2516315E-09  0.4615146E-08
6354000. -0.1003673E-08  0.1685394E-06  0.1335180E-08  0.1976713E-07 -0.2523484E-09  0.4518715E-08
6353000. -0.1030045E-08  0.1674786E-06  0.1331993E-08  0.2084272E-07 -0.2530501E-09  0.4422306E-08
6352000. -0.1056246E-08  0.1663666E-06  0.1328637E-08  0.2191574E-07 -0.2537366E-09  0.4325921E-08
6351000. -0.1082268E-08  0.1652036E-06  0.1325113E-08  0.2298603E-07 -0.2544081E-09  0.4229566E-08
6350000. -0.1108104E-08  0.1639895E-06  0.1321421E-08  0.2405346E-07 -0.2550644E-09  0.4133243E-08
6349000. -0.1133746E-08  0.1627246E-06  0.1317562E-08  0.2511788E-07 -0.2557056E-09  0.4036957E-08
6348000. -0.1159185E-08  0.1614090E-06  0.1313537E-08  0.2617914E-07 -0.2563317E-09  0.3940710E-08
6347000. -0.1184413E-08  0.1600429E-06  0.1309344E-08  0.2723709E-07 -0.2569427E-09  0.3844507E-08
6346600. -0.1194444E-08  0.1594823E-06  0.1307621E-08  0.2765932E-07 -0.2571828E-09  0.3806039E-08
6346600. -0.1194444E-08  0.1923583E-06  0.1307621E-08  0.1948990E-07 -0.2571828E-09  0.4222525E-08
6318800. -0.1954653E-08  0.1511561E-06  0.1177062E-08  0.3996610E-07 -0.2694442E-09  0.1406650E-08
6291000. -0.2473113E-08  0.8221824E-07  0.9633274E-09  0.5736195E-07 -0.2695663E-09 -0.1335432E-08
6291000. -0.2473113E-08  0.8608685E-07  0.9633274E-09  0.5925189E-07 -0.2695663E-09 -0.1335432E-08
6263000. -0.2648378E-08 -0.9684342E-08  0.6712426E-09  0.7275385E-07 -0.2579129E-09 -0.3946779E-08
6235000. -0.2365127E-08 -0.1209899E-06  0.3325787E-09  0.8030327E-07 -0.2350807E-09 -0.6417612E-08
6207000. -0.1577199E-08 -0.2375132E-06 -0.2497332E-10  0.8129370E-07 -0.2017526E-09 -0.8718202E-08
6179000. -0.2864379E-09 -0.3478832E-06 -0.3722677E-09  0.7567389E-07 -0.1587432E-09 -0.1081800E-07
6151000.  0.1454806E-08 -0.4406552E-06 -0.6811683E-09  0.6395160E-07 -0.1070073E-09 -0.1268349E-07
6151000.  0.1454806E-08 -0.3767275E-06 -0.6811683E-09  0.5591877E-07 -0.1070073E-09 -0.1276398E-07
6128500.  0.2863125E-08 -0.4181218E-06 -0.8587149E-09  0.4428653E-07 -0.6048690E-10 -0.1354790E-07
6106000.  0.4387430E-08 -0.4420487E-06 -0.9919442E-09  0.3093075E-07 -0.1155200E-10 -0.1413069E-07
6083500.  0.5962681E-08 -0.4467602E-06 -0.1075958E-08  0.1653163E-07  0.3908158E-10 -0.1450969E-07
6061000.  0.7519295E-08 -0.4314373E-06 -0.1108316E-08  0.1796235E-08  0.9069398E-10 -0.1468530E-07
6038500.  0.8986482E-08 -0.3962196E-06 -0.1089075E-08 -0.1257527E-07  0.1425716E-09 -0.1466064E-07
6016000.  0.1029562E-07 -0.3421828E-06 -0.1020703E-08 -0.2592241E-07  0.1940166E-09 -0.1444146E-07
5993500.  0.1138343E-07 -0.2712735E-06 -0.9078853E-09 -0.3765335E-07  0.2443561E-09 -0.1403618E-07
5971000.  0.1219493E-07 -0.1862097E-06 -0.7572414E-09 -0.4726974E-07  0.2929506E-09 -0.1345508E-07
5971000.  0.1219493E-07 -0.1790749E-06 -0.7572414E-09 -0.4358467E-07  0.2929506E-09 -0.1505150E-07
5937667.  0.1278806E-07 -0.4610676E-07 -0.5070562E-09 -0.5112311E-07  0.3688524E-09 -0.1390891E-07
5904333.  0.1267128E-07  0.9040957E-07 -0.2318169E-09 -0.5321016E-07  0.4380059E-09 -0.1248581E-07
5871000.  0.1185462E-07  0.2197590E-06  0.4112693E-10 -0.5036867E-07  0.4991688E-09 -0.1086935E-07
5837667.  0.1040017E-07  0.3328656E-06  0.2881355E-09 -0.4346031E-07  0.5515484E-09 -0.9141222E-08
5804333.  0.8411999E-08  0.4227900E-06  0.4906505E-09 -0.3354400E-07  0.5947549E-09 -0.7373393E-08
5771000.  0.6024552E-08  0.4849558E-06  0.6358726E-09 -0.2174992E-07  0.6287411E-09 -0.5625944E-08
5771000.  0.6024552E-08  0.4849741E-06  0.6358726E-09 -0.2174941E-07  0.6287411E-09 -0.5625944E-08
5701000.  0.2439121E-09  0.5447907E-06  0.7299328E-09  0.5043458E-08  0.6688377E-09 -0.1668375E-08
5701000.  0.2439121E-09  0.4646932E-06  0.7299328E-09  0.4100420E-08  0.6688377E-09 -0.1737126E-08
5667333. -0.2098268E-08  0.4239467E-06  0.6844884E-09  0.1282308E-07  0.6761801E-09 -0.1123141E-08
5633667. -0.4252561E-08  0.3901365E-06  0.5954062E-09  0.2082468E-07  0.6810448E-09 -0.7172494E-09
5600000. -0.6184932E-08  0.3380294E-06  0.4664905E-09  0.2772299E-07  0.6837663E-09 -0.3187313E-09
5600000. -0.6184932E-08  0.3380294E-06  0.4664905E-09  0.2772299E-07  0.6837663E-09 -0.3187313E-09
5563518. -0.7916571E-08  0.2640772E-06  0.2901881E-09  0.3354091E-07  0.6844363E-09  0.7907219E-10
5527037. -0.9182600E-08  0.1762050E-06  0.8619887E-10  0.3735638E-07  0.6829249E-09  0.4433971E-09
5490556. -0.9917462E-08  0.7942625E-07 -0.1334746E-09  0.3900174E-07  0.6794176E-09  0.7768993E-09
5454074. -0.1008552E-07 -0.2084898E-07 -0.3562386E-09  0.3843854E-07  0.6740771E-09  0.1084320E-08
5417593. -0.9682583E-08 -0.1191054E-06 -0.5696419E-09  0.3575946E-07  0.6670424E-09  0.1369509E-08
5381111. -0.8735435E-08 -0.2100766E-06 -0.7621087E-09  0.3116629E-07  0.6584233E-09  0.1638671E-08
5344630. -0.7299853E-08 -0.2889742E-06 -0.9234861E-09  0.2495978E-07  0.6482959E-09  0.1897098E-08
5308148. -0.5456839E-08 -0.3517655E-06 -0.1045592E-08  0.1751553E-07  0.6367102E-09  0.2148622E-08
5271667. -0.3308176E-08 -0.3953136E-06 -0.1122527E-08  0.9258013E-08  0.6236934E-09  0.2397624E-08
5235185. -0.9703413E-09 -0.4175686E-06 -0.1150926E-08  0.6384164E-09  0.6092530E-09  0.2645833E-08
5198704.  0.1431405E-08 -0.4175957E-06 -0.1130009E-08 -0.7893202E-08  0.5933926E-09  0.2893783E-08
5162222.  0.3769893E-08 -0.3955791E-06 -0.1061516E-08 -0.1590986E-07  0.5761143E-09  0.3140618E-08
5125741.  0.5922040E-08 -0.3528366E-06 -0.9495215E-09 -0.2302915E-07  0.5574304E-09  0.3384437E-08
5089259.  0.7775379E-08 -0.2916485E-06 -0.8001070E-09 -0.2893050E-07  0.5373673E-09  0.3621383E-08
5052778.  0.9232801E-08 -0.2151541E-06 -0.6210042E-09 -0.3336558E-07  0.5159795E-09  0.3846545E-08
5016296.  0.1021738E-07 -0.1271634E-06 -0.4211070E-09 -0.3617132E-07  0.4933460E-09  0.4055396E-08
4979815.  0.1067531E-07 -0.3195557E-07 -0.2100264E-09 -0.3726744E-07  0.4695790E-09  0.4241560E-08
4943333.  0.1057819E-07  0.6594413E-07  0.2436457E-11 -0.3666011E-07  0.4448243E-09  0.4399417E-08
4906852.  0.9923680E-08  0.1619768E-06  0.2067284E-09 -0.3443589E-07  0.4192581E-09  0.4524250E-08
4870370.  0.8735141E-08  0.2517538E-06  0.3940134E-09 -0.3074956E-07  0.3930860E-09  0.4609988E-08
4833889.  0.7060160E-08  0.3312680E-06  0.5565066E-09 -0.2581905E-07  0.3665435E-09  0.4653472E-08
4797407.  0.4967604E-08  0.3970553E-06  0.6878259E-09 -0.1990640E-07  0.3398788E-09  0.4651911E-08
4760926.  0.2544654E-08  0.4462832E-06  0.7831656E-09 -0.1330444E-07  0.3133594E-09  0.4602748E-08
4724444. -0.1078742E-09  0.4769503E-06  0.8394710E-09 -0.6324202E-08  0.2872573E-09  0.4506045E-08
4687963. -0.2879695E-08  0.4878411E-06  0.8554653E-09  0.7237506E-09  0.2618441E-09  0.4362593E-08
4651482. -0.5656176E-08  0.4785925E-06  0.8316246E-09  0.7541163E-08  0.2373815E-09  0.4174405E-08
4615000. -0.8323126E-08  0.4497058E-06  0.7700648E-09  0.1385480E-07  0.2141181E-09  0.3944147E-08
4578518. -0.1077123E-07  0.4024253E-06  0.6743711E-09  0.1942674E-07  0.1922825E-09  0.3676514E-08
4542037. -0.1290042E-07  0.3387215E-06  0.5493744E-09  0.2406214E-07  0.1720761E-09  0.3375958E-08
4505556. -0.1462382E-07  0.2611580E-06  0.4008742E-09  0.2761606E-07  0.1536757E-09  0.3046777E-08
4469074. -0.1587051E-07  0.1727402E-06  0.2353531E-09  0.2999418E-07  0.1372234E-09  0.2696324E-08
4432593. -0.1658780E-07  0.7683848E-07  0.5969620E-10  0.3115537E-07  0.1228311E-09  0.2327894E-08
4396111. -0.1674293E-07 -0.2301582E-07 -0.1191413E-09  0.3110881E-07  0.1105891E-09  0.1946239E-08
4359630. -0.1632354E-07 -0.1232320E-06 -0.2943703E-09  0.2990961E-07  0.1005553E-09  0.1557194E-08
4323148. -0.1533760E-07 -0.2203277E-06 -0.4596607E-09  0.2765514E-07  0.9276892E-10  0.1161367E-08
4286667. -0.1381254E-07 -0.3110225E-06 -0.6093211E-09  0.2447617E-07  0.8726323E-10  0.7610134E-09
4250185. -0.1179355E-07 -0.3923693E-06 -0.7385053E-09  0.2053014E-07  0.8406145E-10  0.3562554E-09
4213704. -0.9341709E-08 -0.4618468E-06 -0.8433124E-09  0.1599336E-07  0.8319860E-10 -0.5652565E-10
4177222. -0.6530977E-08 -0.5173958E-06 -0.9208929E-09  0.1105113E-07  0.8473133E-10 -0.4813806E-09
4140741. -0.3445874E-08 -0.5575029E-06 -0.9694613E-09  0.5891953E-08  0.8874931E-10 -0.9262837E-09
4104259. -0.1776207E-09 -0.5812180E-06 -0.9883032E-09  0.6975768E-09  0.9539970E-10 -0.1402883E-08
4067778.  0.3178198E-08 -0.5880944E-06 -0.9777104E-09 -0.4361597E-08  0.1049036E-09 -0.1925879E-08
4031296.  0.6525499E-08 -0.5782775E-06 -0.9389035E-09 -0.9133010E-08  0.1175806E-09 -0.2514657E-08
3994815.  0.9770059E-08 -0.5523765E-06 -0.8739156E-09 -0.1348683E-07  0.1338749E-09 -0.3194304E-08
3958333.  0.1282267E-07 -0.5114118E-06 -0.7854455E-09 -0.1731871E-07  0.1543987E-09 -0.3997546E-08
3921852.  0.1560088E-07 -0.4568287E-06 -0.6767228E-09 -0.2055095E-07  0.1799624E-09 -0.4961958E-08
3885370.  0.1803161E-07 -0.3903212E-06 -0.5513265E-09 -0.2313560E-07  0.2116283E-09 -0.6138063E-08
3848889.  0.2005183E-07 -0.3138059E-06 -0.4130433E-09 -0.2505203E-07  0.2507788E-09 -0.7587567E-08
3812407.  0.2161020E-07 -0.2293323E-06 -0.2656871E-09 -0.2630644E-07  0.2991858E-09 -0.9384938E-08
3775926.  0.2266698E-07 -0.1389716E-06 -0.1129759E-09 -0.2693117E-07  0.3591091E-09 -0.1162849E-07
3739444.  0.2319437E-07 -0.4475464E-07  0.4163778E-10 -0.2698000E-07  0.4334351E-09 -0.1443647E-07
3702963.  0.2317583E-07  0.5140818E-07  0.1950482E-09 -0.2652630E-07  0.5257985E-09 -0.1795780E-07
3666482.  0.2260519E-07  0.1478136E-06  0.3446380E-09 -0.2566184E-07  0.6408220E-09 -0.2238665E-07
3630000.  0.2148530E-07  0.2430309E-06  0.4883484E-09 -0.2448952E-07  0.7843584E-09 -0.2795989E-07
3630000.  0.2148530E-07  0.2430309E-06  0.4883484E-09 -0.2448952E-07  0.7843584E-09 -0.2795989E-07
3592500.  0.1977245E-07  0.3384906E-06  0.6284306E-09 -0.2308567E-07  0.9694100E-09 -0.3520620E-07
3555000.  0.1750695E-07  0.4307295E-06  0.7599814E-09 -0.2161367E-07  0.1202647E-08 -0.4441207E-07
3517500.  0.1470881E-07  0.5194661E-06  0.8830126E-09 -0.2021508E-07  0.1497134E-08 -0.5612129E-07
3480000.  0.1139825E-07  0.6049345E-06  0.9983929E-09 -0.1903951E-07  0.1869598E-08 -0.7104111E-07
3480000.  0.1139825E-07  0.1607952E-07 -0.6482100E-09  0.2206588E-07  0.1869598E-08 -0.1075951E-06
3409422.  0.1136162E-07 -0.1356727E-07 -0.8967663E-09  0.2291767E-07  0.3021007E-08 -0.1010666E-06
3338844.  0.1179207E-07 -0.6853364E-07 -0.1159482E-08  0.2472255E-07  0.4128517E-08 -0.9988217E-07
3268266.  0.1298480E-07 -0.1520020E-06 -0.1450473E-08  0.2814561E-07  0.5259178E-08 -0.1055344E-06
3197688.  0.1529131E-07 -0.2712920E-06 -0.1792161E-08  0.3403962E-07  0.6499451E-08 -0.1200738E-06
3127109.  0.1917813E-07 -0.4403449E-06 -0.2218098E-08  0.4359094E-07  0.7963017E-08 -0.1464288E-06
3056531.  0.2531928E-07 -0.6834978E-06 -0.2777862E-08  0.5856092E-07  0.9803148E-08 -0.1889433E-06
2985953.  0.3474354E-07 -0.1041767E-05 -0.3545496E-08  0.8168669E-07  0.1223295E-07 -0.2542452E-06
2915375.  0.4907288E-07 -0.1583553E-05 -0.4633685E-08  0.1173517E-06  0.1555768E-07 -0.3526349E-06
2844797.  0.7091984E-07 -0.2423356E-05 -0.6217777E-08  0.1727324E-06  0.2022690E-07 -0.5003404E-06
2774219.  0.1045649E-06 -0.3755093E-05 -0.8576778E-08  0.2598035E-06  0.2691898E-07 -0.7232327E-06
2703641.  0.1571366E-06 -0.5912336E-05 -0.1216440E-07  0.3989155E-06  0.3667949E-07 -0.1063055E-05
2633062.  0.2407116E-06 -0.9479272E-05 -0.1773434E-07  0.6252994E-06  0.5115067E-07 -0.1588036E-05
2562484.  0.3761160E-06 -0.1549854E-04 -0.2656460E-07  0.1001119E-05  0.7295623E-07 -0.2411208E-05
2491906.  0.5999762E-06 -0.2586950E-04 -0.4086957E-07  0.1638381E-05  0.1063607E-06 -0.3722683E-05
2421328.  0.9780293E-06 -0.4412605E-04 -0.6457011E-07  0.2743244E-05  0.1584100E-06 -0.5847147E-05
2350750.  0.1630839E-05 -0.7699072E-04 -0.1047670E-06  0.4703823E-05  0.2409425E-06 -0.9348158E-05
2280172.  0.2784618E-05 -0.1375545E-03 -0.1746269E-06  0.8268443E-05  0.3741910E-06 -0.1522034E-04
2209594.  0.4874117E-05 -0.2519441E-03 -0.2991740E-06  0.1491654E-04  0.5933415E-06 -0.2524934E-04
2139016.  0.8756320E-05 -0.4736750E-03 -0.5272208E-06  0.2765131E-04  0.9606837E-06 -0.4269719E-04
2068438.  0.1616636E-04 -0.9154155E-03 -0.9566235E-06  0.5274177E-04  0.1588500E-05 -0.7362830E-04
1997859.  0.3071880E-04 -0.1821407E-02 -0.1789329E-05  0.1036679E-03  0.2682937E-05 -0.1295171E-03
1927281.  0.6017213E-04 -0.3737673E-02 -0.3455001E-05  0.2103362E-03  0.4629325E-05 -0.2324386E-03
1856703.  0.1217259E-03 -0.7926143E-02 -0.6898240E-05  0.4413620E-03  0.8160966E-05 -0.4255463E-03
1786125.  0.2548360E-03 -0.1740796E-01 -0.1426904E-04  0.9598911E-03  0.1469652E-04 -0.7943268E-03
1715547.  0.5534019E-03 -0.3969549E-01 -0.3064634E-04  0.2168977E-02  0.2701977E-04 -0.1509634E-02
1644969.  0.1249888E-02 -0.9424660E-01 -0.6851690E-04  0.5106180E-02  0.5064567E-04 -0.2912970E-02
1574391.  0.2944840E-02 -0.2337282E+00 -0.1599282E-03  0.1256368E-01  0.9650629E-04 -0.5674960E-02
1503812.  0.7263003E-02 -0.6076741E+00 -0.3910521E-03  0.3242600E-01  0.1858842E-03 -0.1103668E-01
1433234.  0.1882555E-01 -0.1663236E+01 -0.1005573E-02  0.8814959E-01  0.3576911E-03 -0.2090225E-01
1362656.  0.5151754E-01 -0.4815809E+01 -0.2731734E-02  0.2536257E+00  0.6699452E-03 -0.3614482E-01
1292078.  0.1496441E+00 -0.1483409E+02 -0.7881536E-02  0.7766820E+00  0.1139421E-02 -0.4426432E-01
1221500.  0.4642813E+00 -0.4893169E+02 -0.2430155E-01  0.2548131E+01  0.1316729E-02  0.4861954E-01
1221500.  0.4642813E+00 -0.9072030E+01 -0.5413463E-02 -0.2449795E+01  0.1316729E-02 -0.1525089E+00
1183328.  0.4609666E+00  0.7894325E+01  0.4469495E-02 -0.9920031E+00  0.1647991E-02  0.1371587E-01
1145156.  0.3906067E+00  0.1430084E+02  0.7832973E-02 -0.2189836E+00  0.1381699E-02  0.6292353E-01
1106984.  0.3008889E+00  0.1499393E+02  0.7912467E-02  0.1408921E+00  0.9872548E-03  0.6424747E-01
1068812.  0.2161925E+00  0.1301159E+02  0.6606483E-02  0.2672620E+00  0.6413938E-03  0.5016141E-01
1030641.  0.1467020E+00  0.1013484E+02  0.4945571E-02  0.2740368E+00  0.3889552E-03  0.3439321E-01
 992469.  0.9461389E-01  0.7307495E+01  0.3423197E-02  0.2294362E+00  0.2229384E-03  0.2166661E-01
 954297.  0.5818161E-01  0.4947618E+01  0.2222217E-02  0.1711378E+00  0.1215453E-03  0.1278846E-01
 916125.  0.3415680E-01  0.3168031E+01  0.1362431E-02  0.1174487E+00  0.6322152E-04  0.7140346E-02
 877953.  0.1914314E-01  0.1924958E+01  0.7914488E-03  0.7524577E-01  0.3140321E-04  0.3788420E-02
 839781.  0.1023180E-01  0.1111209E+01  0.4360563E-03  0.4531306E-01  0.1488911E-04  0.1913365E-02
 801609.  0.5205877E-02  0.6092081E+00  0.2277414E-03  0.2572423E-01  0.6727771E-05  0.9198330E-03
 763438.  0.2514863E-02  0.3167252E+00  0.1125588E-03  0.1377348E-01  0.2889937E-05  0.4203001E-03
 725266.  0.1149548E-02  0.1557552E+00  0.5249791E-04  0.6946823E-02  0.1176017E-05  0.1820421E-03
 687094.  0.4951149E-03  0.7219968E-01  0.2301954E-04  0.3291808E-02  0.4513802E-06  0.7447105E-04
 648922.  0.1998950E-03  0.3140521E-01  0.9443688E-05  0.1459800E-02  0.1625122E-06  0.2863143E-04
 610750.  0.7517527E-04  0.1274620E-01  0.3602865E-05  0.6026907E-03  0.5451912E-07  0.1028273E-04
 572578.  0.2613278E-04  0.4793112E-02  0.1268711E-05  0.2301052E-03  0.1690321E-07  0.3423705E-05
 534406.  0.8318485E-05  0.1655502E-02  0.4085679E-06  0.8055924E-04  0.4794940E-08  0.1046939E-05
 496234.  0.2396631E-05  0.5195315E-03  0.1189481E-06  0.2558824E-04  0.1229187E-08  0.2906185E-06
 458062.  0.6159536E-06  0.1461366E-03  0.3085875E-07  0.7275509E-05  0.2803929E-09  0.7217644E-07
 419891.  0.1386452E-06  0.3621413E-04  0.7004595E-08  0.1820303E-05  0.5581449E-10  0.1574373E-07
 381719.  0.2668777E-07  0.7730757E-05  0.1358447E-08  0.3919043E-06  0.9453196E-11  0.2944998E-08
 343547.  0.4257583E-08  0.1380252E-05  0.2181546E-09  0.7049814E-07  0.1317626E-11  0.4578015E-09
 305375.  0.5396429E-09  0.1979892E-06  0.2780443E-10  0.1017576E-07  0.1445627E-12  0.5646130E-10
 267203.  0.0000000E+00  0.0000000E+00  0.0000000E+00  0.0000000E+00  0.0000000E+00  0.0000000E+00
 229031.  0.0000000E+00  0.0000000E+00  0.0000000E+00  0.0000000E+00  0.0000000E+00  0.0000000E+00
 190859.  0.0000000E+00  0.0000000E+00  0.0000000E+00  0.0000000E+00  0.0000000E+00  0.0000000E+00
 152688.  0.0000000E+00  0.0000000E+00  0.0000000E+00  0.0000000E+00  0.0000000E+00  0.0000000E+00
 114516.  0.0000000E+00  0.0000000E+00  0.0000000E+00  0.0000000E+00  0.0000000E+00  0.0000000E+00
  76344.  0.0000000E+00  0.0000000E+00  0.0000000E+00  0.0000000E+00  0.0000000E+00  0.0000000E+00
  38172.  0.0000000E+00  0.0000000E+00  0.0000000E+00  0.0000000E+00  0.0000000E+00  0.0000000E+00
      0.  0.0000000E+00  0.0000000E+00  0.0000000E+00  0.0000000E+00  0.0000000E+00  0.0000000E+00
