       6       14 S      374        183.67810         15.03011          7.59558        262.10110      185    7
6371000. -0.5301658E-01 -0.4360403E+00 -0.5785843E-02  0.4723074E-01  0.1389439E-02  0.7913530E-01
6370000. -0.5294717E-01 -0.4483939E+00 -0.5792961E-02  0.4347137E-01  0.1377004E-02  0.7931220E-01
6369000. -0.5287583E-01 -0.4606499E+00 -0.5799489E-02  0.3970231E-01  0.1364541E-02  0.7948643E-01
6368000. -0.5280257E-01 -0.4728076E+00 -0.5805424E-02  0.3592397E-01  0.1352051E-02  0.7965798E-01
6368000. -0.5280257E-01 -0.4728076E+00 -0.5805424E-02  0.3592397E-01  0.1352051E-02  0.7965798E-01
6367000. -0.5272741E-01 -0.4848664E+00 -0.5810766E-02  0.3213673E-01  0.1339535E-02  0.7982685E-01
6366000. -0.5265036E-01 -0.4968255E+00 -0.5815513E-02  0.2834102E-01  0.1326992E-02  0.7999304E-01
6365000. -0.5257145E-01 -0.5086845E+00 -0.5819662E-02  0.2453723E-01  0.1314423E-02  0.8015653E-01
6364000. -0.5249068E-01 -0.5204425E+00 -0.5823215E-02  0.2072577E-01  0.1301829E-02  0.8031733E-01
6363000. -0.5240808E-01 -0.5320992E+00 -0.5826168E-02  0.1690703E-01  0.1289210E-02  0.8047541E-01
6362000. -0.5232365E-01 -0.5436537E+00 -0.5828522E-02  0.1308143E-01  0.1276566E-02  0.8063079E-01
6361000. -0.5223742E-01 -0.5551056E+00 -0.5830274E-02  0.9249384E-02  0.1263898E-02  0.8078345E-01
6360000. -0.5214939E-01 -0.5664543E+00 -0.5831425E-02  0.5411287E-02  0.1251207E-02  0.8093338E-01
6359000. -0.5205960E-01 -0.5776992E+00 -0.5831973E-02  0.1567555E-02  0.1238492E-02  0.8108059E-01
6358000. -0.5196805E-01 -0.5888397E+00 -0.5831917E-02 -0.2281402E-02  0.1225754E-02  0.8122507E-01
6357000. -0.5187475E-01 -0.5998754E+00 -0.5831257E-02 -0.6135174E-02  0.1212993E-02  0.8136681E-01
6356000. -0.5177974E-01 -0.6108057E+00 -0.5829991E-02 -0.9993347E-02  0.1200211E-02  0.8150580E-01
6356000. -0.5177974E-01 -0.4969379E+00 -0.5829991E-02  0.1222573E-01  0.1200211E-02  0.9277247E-01
6355000. -0.5170109E-01 -0.5051612E+00 -0.5831717E-02  0.9765943E-02  0.1185634E-02  0.9296776E-01
6354000. -0.5162116E-01 -0.5133204E+00 -0.5833056E-02  0.7302328E-02  0.1171026E-02  0.9316109E-01
6353000. -0.5153995E-01 -0.5214152E+00 -0.5834009E-02  0.4835050E-02  0.1156389E-02  0.9335247E-01
6352000. -0.5145748E-01 -0.5294452E+00 -0.5834574E-02  0.2364281E-02  0.1141721E-02  0.9354191E-01
6351000. -0.5137375E-01 -0.5374101E+00 -0.5834751E-02 -0.1098085E-03  0.1127024E-02  0.9372937E-01
6350000. -0.5128878E-01 -0.5453097E+00 -0.5834539E-02 -0.2587047E-02  0.1112298E-02  0.9391487E-01
6349000. -0.5120257E-01 -0.5531437E+00 -0.5833939E-02 -0.5067261E-02  0.1097542E-02  0.9409839E-01
6348000. -0.5111514E-01 -0.5609117E+00 -0.5832949E-02 -0.7550281E-02  0.1082758E-02  0.9427994E-01
6347000. -0.5102649E-01 -0.5686136E+00 -0.5831568E-02 -0.1003593E-01  0.1067946E-02  0.9445952E-01
6346600. -0.5099069E-01 -0.5716757E+00 -0.5830907E-02 -0.1103089E-01  0.1062013E-02  0.9453080E-01
6346600. -0.5099069E-01 -0.5638603E+00 -0.5830907E-02  0.7279527E-02  0.1062013E-02  0.1123105E+00
6318800. -0.4819651E-01 -0.7104933E+00 -0.5751235E-02 -0.4396582E-01  0.5598440E-03  0.1176689E+00
6291000. -0.4484816E-01 -0.8173348E+00 -0.5447257E-02 -0.9518189E-01  0.3678466E-04  0.1218771E+00
6291000. -0.4484816E-01 -0.8377883E+00 -0.5447257E-02 -0.1002489E+00  0.3678466E-04  0.1218771E+00
6263000. -0.4101198E-01 -0.9003860E+00 -0.4891948E-02 -0.1518588E+00 -0.5054596E-03  0.1246729E+00
6235000. -0.3700020E-01 -0.9178606E+00 -0.4119316E-02 -0.1987838E+00 -0.1057214E-02  0.1262027E+00
6207000. -0.3300731E-01 -0.8923134E+00 -0.3154573E-02 -0.2389595E+00 -0.1612901E-02  0.1264643E+00
6179000. -0.2921387E-01 -0.8279667E+00 -0.2031430E-02 -0.2705956E+00 -0.2166978E-02  0.1254737E+00
6151000. -0.2577753E-01 -0.7309812E+00 -0.7907244E-03 -0.2922523E+00 -0.2714007E-02  0.1232639E+00
6151000. -0.2577753E-01 -0.5983858E+00 -0.7907244E-03 -0.2532891E+00 -0.2714007E-02  0.1246900E+00
6128500. -0.2382428E-01 -0.5061491E+00  0.1159462E-03 -0.2592467E+00 -0.3152440E-02  0.1235048E+00
6106000. -0.2221182E-01 -0.4060171E+00  0.1033890E-02 -0.2596778E+00 -0.3585698E-02  0.1217630E+00
6083500. -0.2096131E-01 -0.3017932E+00  0.1943717E-02 -0.2546763E+00 -0.4011855E-02  0.1194880E+00
6061000. -0.2008052E-01 -0.1972558E+00  0.2826591E-02 -0.2444608E+00 -0.4429075E-02  0.1167063E+00
6038500. -0.1956403E-01 -0.9606852E-01  0.3664661E-02 -0.2293687E+00 -0.4835617E-02  0.1134459E+00
6016000. -0.1939386E-01 -0.1678683E-02  0.4441457E-02 -0.2098423E+00 -0.5229844E-02  0.1097371E+00
5993500. -0.1954032E-01  0.8275249E-01  0.5142232E-02 -0.1864118E+00 -0.5610229E-02  0.1056125E+00
5971000. -0.1996318E-01  0.1544171E+00  0.5754248E-02 -0.1596839E+00 -0.5975362E-02  0.1011059E+00
5971000. -0.1996318E-01  0.1822589E+00  0.5754248E-02 -0.1390690E+00 -0.5975362E-02  0.1037192E+00
5937667. -0.2111099E-01  0.2503895E+00  0.6365995E-02 -0.9476840E-01 -0.6499129E-02  0.9639539E-01
5904333. -0.2251963E-01  0.2819827E+00  0.6747597E-02 -0.5142019E-01 -0.6983099E-02  0.8852277E-01
5871000. -0.2400018E-01  0.2782530E+00  0.6908857E-02 -0.1080523E-01 -0.7424724E-02  0.8023688E-01
5837667. -0.2537488E-01  0.2421266E+00  0.6867823E-02  0.2571752E-01 -0.7822211E-02  0.7167260E-01
5804333. -0.2648477E-01  0.1777963E+00  0.6648565E-02  0.5719364E-01 -0.8174460E-02  0.6296216E-01
5771000. -0.2719517E-01  0.9032784E-01  0.6279182E-02  0.8303935E-01 -0.8481028E-02  0.5423515E-01
5771000. -0.2719517E-01  0.9039920E-01  0.6279182E-02  0.8303784E-01 -0.8481028E-02  0.5423515E-01
5701000. -0.2672903E-01 -0.1881910E+00  0.5119518E-02  0.1246298E+00 -0.8969547E-02  0.3478636E-01
5701000. -0.2672903E-01 -0.9842192E-01  0.5119518E-02  0.1059149E+00 -0.8969547E-02  0.4232031E-01
5667333. -0.2597183E-01 -0.1921715E+00  0.4555291E-02  0.1079303E+00 -0.9167979E-02  0.3297871E-01
5633667. -0.2464602E-01 -0.3126292E+00  0.3973722E-02  0.1121914E+00 -0.9319708E-02  0.2453273E-01
5600000. -0.2266977E-01 -0.4346615E+00  0.3376190E-02  0.1133182E+00 -0.9427832E-02  0.1645482E-01
5600000. -0.2266977E-01 -0.4346615E+00  0.3376190E-02  0.1133182E+00 -0.9427832E-02  0.1645482E-01
5563518. -0.1980733E-01 -0.5643279E+00  0.2732083E-02  0.1110652E+00 -0.9498153E-02  0.8191700E-02
5527037. -0.1621961E-01 -0.6873223E+00  0.2110643E-02  0.1054559E+00 -0.9522659E-02  0.4581941E-03
5490556. -0.1195649E-01 -0.7995704E+00  0.1530165E-02  0.9681800E-01 -0.9504458E-02 -0.6721425E-02
5454074. -0.7090380E-02 -0.8973240E+00  0.1006881E-02  0.8554725E-01 -0.9446777E-02 -0.1332790E-01
5417593. -0.1713593E-02 -0.9775053E+00  0.5545794E-03  0.7211065E-01 -0.9352937E-02 -0.1935026E-01
5381111.  0.4065470E-02 -0.1037365E+01  0.1842434E-03  0.5699938E-01 -0.9226296E-02 -0.2478299E-01
5344630.  0.1012384E-01 -0.1074845E+01 -0.9599726E-04  0.4073437E-01 -0.9070241E-02 -0.2962554E-01
5308148.  0.1632964E-01 -0.1088611E+01 -0.2810677E-03  0.2384346E-01 -0.8888130E-02 -0.3388353E-01
5271667.  0.2254389E-01 -0.1077778E+01 -0.3688477E-03  0.6839411E-02 -0.8683287E-02 -0.3756962E-01
5235185.  0.2862568E-01 -0.1042348E+01 -0.3601283E-03 -0.9781425E-02 -0.8458935E-02 -0.4069760E-01
5198704.  0.3443530E-01 -0.9829006E+00 -0.2584389E-03 -0.2556081E-01 -0.8218232E-02 -0.4328756E-01
5162222.  0.3983820E-01 -0.9004826E+00 -0.6978610E-04 -0.4008929E-01 -0.7964161E-02 -0.4536808E-01
5125741.  0.4470763E-01 -0.7969691E+00  0.1975969E-03 -0.5300678E-01 -0.7699593E-02 -0.4696071E-01
5089259.  0.4892921E-01 -0.6745595E+00  0.5336266E-03 -0.6401891E-01 -0.7427218E-02 -0.4809836E-01
5052778.  0.5240185E-01 -0.5359071E+00  0.9266804E-03 -0.7289436E-01 -0.7149555E-02 -0.4881538E-01
5016296.  0.5504147E-01 -0.3841060E+00  0.1364049E-02 -0.7947170E-01 -0.6868915E-02 -0.4914118E-01
4979815.  0.5678190E-01 -0.2224271E+00  0.1832247E-02 -0.8365607E-01 -0.6587445E-02 -0.4911447E-01
4943333.  0.5757658E-01 -0.5436206E-01  0.2317487E-02 -0.8542071E-01 -0.6307045E-02 -0.4876975E-01
4906852.  0.5739923E-01  0.1164800E+00  0.2805964E-02 -0.8480252E-01 -0.6029465E-02 -0.4813836E-01
4870370.  0.5624411E-01  0.2865519E+00  0.3284304E-02 -0.8189593E-01 -0.5756213E-02 -0.4726150E-01
4833889.  0.5412586E-01  0.4523177E+00  0.3739782E-02 -0.7685079E-01 -0.5488625E-02 -0.4616702E-01
4797407.  0.5107867E-01  0.6104445E+00  0.4160714E-02 -0.6986126E-01 -0.5227849E-02 -0.4488598E-01
4760926.  0.4715554E-01  0.7577967E+00  0.4536592E-02 -0.6116075E-01 -0.4974857E-02 -0.4345499E-01
4724444.  0.4242616E-01  0.8915645E+00  0.4858386E-02 -0.5101372E-01 -0.4730436E-02 -0.4189396E-01
4687963.  0.3697588E-01  0.1009254E+01  0.5118605E-02 -0.3970575E-01 -0.4495266E-02 -0.4023112E-01
4651482.  0.3090288E-01  0.1108755E+01  0.5311463E-02 -0.2753718E-01 -0.4269848E-02 -0.3849049E-01
4615000.  0.2431606E-01  0.1188418E+01  0.5432909E-02 -0.1481255E-01 -0.4054577E-02 -0.3668796E-01
4578518.  0.1733300E-01  0.1246972E+01  0.5480625E-02 -0.1835783E-02 -0.3849759E-02 -0.3484259E-01
4542037.  0.1007728E-01  0.1283631E+01  0.5454019E-02  0.1109797E-01 -0.3655603E-02 -0.3296756E-01
4505556.  0.2675174E-02  0.1298080E+01  0.5354141E-02  0.2371227E-01 -0.3472246E-02 -0.3107203E-01
4469074. -0.4746259E-02  0.1290358E+01  0.5183564E-02  0.3574817E-01 -0.3299778E-02 -0.2916410E-01
4432593. -0.1206102E-01  0.1261020E+01  0.4946289E-02  0.4697467E-01 -0.3138263E-02 -0.2724816E-01
4396111. -0.1914817E-01  0.1210960E+01  0.4647522E-02  0.5719195E-01 -0.2987735E-02 -0.2532493E-01
4359630. -0.2589196E-01  0.1141399E+01  0.4293567E-02  0.6622788E-01 -0.2848254E-02 -0.2339068E-01
4323148. -0.3218558E-01  0.1053949E+01  0.3891566E-02  0.7394990E-01 -0.2719881E-02 -0.2144300E-01
4286667. -0.3793135E-01  0.9504287E+00  0.3449369E-02  0.8025751E-01 -0.2602724E-02 -0.1947197E-01
4250185. -0.4304332E-01  0.8328891E+00  0.2975256E-02  0.8508511E-01 -0.2496950E-02 -0.1746487E-01
4213704. -0.4744734E-01  0.7035877E+00  0.2477828E-02  0.8840294E-01 -0.2402798E-02 -0.1541056E-01
4177222. -0.5108292E-01  0.5648475E+00  0.1965716E-02  0.9021180E-01 -0.2320596E-02 -0.1328661E-01
4140741. -0.5390275E-01  0.4191063E+00  0.1447513E-02  0.9054315E-01 -0.2250807E-02 -0.1107282E-01
4104259. -0.5587389E-01  0.2687983E+00  0.9314927E-03  0.8945619E-01 -0.2193996E-02 -0.8747693E-02
4067778. -0.5697701E-01  0.1163475E+00  0.4255803E-03  0.8703308E-01 -0.2150916E-02 -0.6271379E-02
4031296. -0.5720668E-01 -0.3590671E-01 -0.6288537E-04  0.8337627E-01 -0.2122511E-02 -0.3617351E-02
3994815. -0.5657048E-01 -0.1857155E+00 -0.5271465E-03  0.7860462E-01 -0.2109904E-02 -0.7448953E-03
3958333. -0.5508852E-01 -0.3309618E+00 -0.9612163E-03  0.7284962E-01 -0.2114506E-02  0.2401460E-02
3921852. -0.5279260E-01 -0.4697242E+00 -0.1359834E-02  0.6624956E-01 -0.2138012E-02  0.5867076E-02
3885370. -0.4972484E-01 -0.6002435E+00 -0.1718589E-02  0.5894724E-01 -0.2182438E-02  0.9720447E-02
3848889. -0.4593721E-01 -0.7209508E+00 -0.2033856E-02  0.5108677E-01 -0.2250220E-02  0.1403762E-01
3812407. -0.4148950E-01 -0.8305497E+00 -0.2302849E-02  0.4280507E-01 -0.2344243E-02  0.1890108E-01
3775926. -0.3644901E-01 -0.9278650E+00 -0.2523529E-02  0.3423572E-01 -0.2467932E-02  0.2441958E-01
3739444. -0.3088849E-01 -0.1012009E+01 -0.2694611E-02  0.2549876E-01 -0.2625382E-02  0.3071257E-01
3702963. -0.2488569E-01 -0.1082287E+01 -0.2815434E-02  0.1669968E-01 -0.2821409E-02  0.3792184E-01
3666482. -0.1852168E-01 -0.1138094E+01 -0.2885919E-02  0.7930585E-02 -0.3061758E-02  0.4622444E-01
3630000. -0.1188013E-01 -0.1179119E+01 -0.2906447E-02 -0.7400033E-03 -0.3353258E-02  0.5582217E-01
3630000. -0.1188013E-01 -0.1179119E+01 -0.2906447E-02 -0.7400033E-03 -0.3353258E-02  0.5582217E-01
3592500. -0.4854173E-02 -0.1205552E+01 -0.2876231E-02 -0.9498087E-02 -0.3714730E-02  0.6729761E-01
3555000.  0.2279965E-02 -0.1215861E+01 -0.2794995E-02 -0.1807409E-01 -0.4149314E-02  0.8072332E-01
3517500.  0.9427154E-02 -0.1209965E+01 -0.2663809E-02 -0.2647453E-01 -0.4669595E-02  0.9648722E-01
3480000.  0.1649148E-01 -0.1187665E+01 -0.2483606E-02 -0.3473858E-01 -0.5290675E-02  0.1150596E+00
3480000.  0.1649148E-01 -0.9132373E-01  0.3071936E-02  0.2451365E-01 -0.5290675E-02  0.6217164E-01
3409422.  0.1706414E-01 -0.1475605E-01  0.2787231E-02  0.2664512E-01 -0.5710606E-02  0.1624949E-01
3338844.  0.1687873E-01  0.4551746E-01  0.2486512E-02  0.2744349E-01 -0.5702727E-02 -0.1557245E-01
3268266.  0.1611437E-01  0.8992475E-01  0.2183234E-02  0.2714765E-01 -0.5406958E-02 -0.3617787E-01
3197688.  0.1493997E-01  0.1198318E+00  0.1888168E-02  0.2600113E-01 -0.4933170E-02 -0.4810523E-01
3127109.  0.1350573E-01  0.1371883E+00  0.1609425E-02  0.2423725E-01 -0.4365075E-02 -0.5353626E-01
3056531.  0.1193855E-01  0.1442147E+00  0.1352659E-02  0.2206721E-01 -0.3764205E-02 -0.5429988E-01
2985953.  0.1034026E-01  0.1431777E+00  0.1121328E-02  0.1967278E-01 -0.3173687E-02 -0.5188977E-01
2915375.  0.8788127E-02  0.1362230E+00  0.9170616E-03  0.1720336E-01 -0.2621846E-02 -0.4749054E-01
2844797.  0.7336849E-02  0.1252654E+00  0.7400115E-03  0.1477601E-01 -0.2125443E-02 -0.4201167E-01
2774219.  0.6021483E-02  0.1119309E+00  0.5892069E-03  0.1247698E-01 -0.1692516E-02 -0.3612502E-01
2703641.  0.4860794E-02  0.9753311E-01  0.4628787E-03  0.1036471E-01 -0.1324797E-02 -0.3030318E-01
2633062.  0.3860697E-02  0.8307886E-01  0.3587435E-03  0.8474167E-02 -0.1019712E-02 -0.2485682E-01
2562484.  0.3017579E-02  0.6929446E-01  0.2742446E-03  0.6821122E-02 -0.7719870E-03 -0.1996992E-01
2491906.  0.2321137E-02  0.5665994E-01  0.2067343E-03  0.5406109E-02 -0.5748592E-03 -0.1573028E-01
2421328.  0.1756930E-02  0.4545254E-01  0.1536253E-03  0.4218718E-02 -0.4210020E-03 -0.1215652E-01
2350750.  0.1308374E-02  0.3578888E-01  0.1124891E-03  0.3241102E-02 -0.3031610E-03 -0.9220365E-02
2280172.  0.9582915E-03  0.2766592E-01  0.8112317E-04  0.2450861E-02 -0.2145712E-03 -0.6864379E-02
2209594.  0.6900312E-03  0.2099717E-01  0.5758628E-04  0.1823513E-02 -0.1491999E-03 -0.5015662E-02
2139016.  0.4882190E-03  0.1564329E-01  0.4021130E-04  0.1334339E-02 -0.1018602E-03 -0.3595926E-02
2068438.  0.3391996E-03  0.1143693E-01  0.2759985E-04  0.9597259E-03 -0.6822847E-04 -0.2528467E-02
1997859.  0.2312357E-03  0.8201589E-02  0.1860464E-04  0.6780390E-03 -0.4480026E-04 -0.1742630E-02
1927281.  0.1545343E-03  0.5765364E-02  0.1230489E-04  0.4701522E-03 -0.2880890E-04 -0.1176327E-02
1856703.  0.1011349E-03  0.3969769E-02  0.7976371E-05  0.3196512E-03 -0.1812216E-04 -0.7769947E-03
1786125.  0.6473291E-04  0.2675106E-02  0.5061675E-05  0.2128405E-03 -0.1113710E-04 -0.5016343E-03
1715547.  0.4045588E-04  0.1762802E-02  0.3140774E-05  0.1385760E-03 -0.6677134E-05 -0.3161184E-03
1644969.  0.2462563E-04  0.1135690E-02  0.1904143E-05  0.8800165E-04 -0.3899409E-05 -0.1941270E-03
1574391.  0.1452607E-04  0.7170393E-03  0.1129215E-05  0.5421372E-04 -0.2215021E-05 -0.1159215E-03
1503812.  0.8183964E-05  0.4492601E-03  0.6608408E-06  0.3187367E-04 -0.1223035E-05 -0.6710258E-04
1433234.  0.4160698E-05  0.2936146E-03  0.3964800E-06  0.1673399E-04 -0.6578348E-06 -0.3746704E-04
1362656.  0.1329215E-05  0.2337277E-03  0.2777043E-06  0.4917523E-05 -0.3481775E-06 -0.2002854E-04
1292078. -0.1439694E-05  0.2906592E-03  0.2930831E-06 -0.8542243E-05 -0.1858402E-06 -0.1031082E-04
1221500. -0.5916997E-05  0.5731356E-03  0.5077331E-06 -0.3350582E-04 -0.9958347E-07 -0.6151905E-05
1221500. -0.5916997E-05  0.7117869E-04  0.6738210E-07  0.3121284E-04 -0.9958347E-07 -0.3588638E-05
1183328. -0.5916825E-05 -0.5856267E-04 -0.7040339E-07  0.1586487E-04 -0.7793981E-07 -0.3532499E-05
1145156. -0.5341476E-05 -0.1248868E-03 -0.1338575E-06  0.6103075E-05 -0.5807838E-07 -0.3056254E-05
1106984. -0.4503717E-05 -0.1492576E-03 -0.1514739E-06  0.3277887E-06 -0.4157628E-07 -0.2445469E-05
1068812. -0.3604250E-05 -0.1477660E-03 -0.1432213E-06 -0.2714689E-05 -0.2873767E-07 -0.1850243E-05
1030641. -0.2761276E-05 -0.1320118E-03 -0.1224778E-06 -0.3978403E-05 -0.1923446E-07 -0.1338779E-05
 992469. -0.2034753E-05 -0.1099538E-03 -0.9768554E-07 -0.4164171E-05 -0.1248420E-07 -0.9321320E-06
 954297. -0.1445911E-05 -0.8670853E-04 -0.7373404E-07 -0.3764997E-05 -0.7861924E-08 -0.6266024E-06
 916125. -0.9920172E-06 -0.6526205E-04 -0.5307183E-07 -0.3109488E-05 -0.4802927E-08 -0.4073822E-06
 877953. -0.6572723E-06 -0.4708310E-04 -0.3657082E-07 -0.2401456E-05 -0.2844191E-08 -0.2562880E-06
 839781. -0.4203373E-06 -0.3262691E-04 -0.2416936E-07 -0.1754005E-05 -0.1630553E-08 -0.1559663E-06
 801609. -0.2591680E-06 -0.2173056E-04 -0.1532577E-07 -0.1218545E-05 -0.9033730E-09 -0.9172172E-07
 763438. -0.1537988E-06 -0.1390491E-04 -0.9317852E-08 -0.8072759E-06 -0.4825844E-09 -0.5203992E-07
 725266. -0.8763885E-07 -0.8536814E-05 -0.5423169E-08 -0.5103107E-06 -0.2478679E-09 -0.2841948E-07
 687094. -0.4781256E-07 -0.5018160E-05 -0.3014366E-08 -0.3075509E-06 -0.1219898E-09 -0.1489604E-07
 648922. -0.2488316E-07 -0.2816141E-05 -0.1594911E-08 -0.1763555E-06 -0.5728957E-10 -0.7465966E-08
 610750. -0.1229822E-07 -0.1503091E-05 -0.7999506E-09 -0.9591439E-07 -0.2554500E-10 -0.3562225E-08
 572578. -0.5740751E-08 -0.7593788E-06 -0.3783522E-09 -0.4926317E-07 -0.1074915E-10 -0.1609104E-08
 534406. -0.2513945E-08 -0.3609658E-06 -0.1676439E-09 -0.2376004E-07 -0.4237016E-11 -0.6834736E-09
 496234. -0.1024181E-08 -0.1602279E-06 -0.6902012E-10 -0.1068323E-07 -0.1550261E-11 -0.2706985E-09
 458062. -0.3841424E-09 -0.6578822E-07 -0.2613207E-10 -0.4436618E-08 -0.5205611E-12 -0.9893010E-10
 419891. -0.1309043E-09 -0.2468546E-07 -0.8979996E-11 -0.1681553E-08 -0.1581334E-12 -0.3292077E-10
 381719. -0.3983750E-10 -0.8332327E-08 -0.2753266E-11 -0.5726454E-09 -0.4265608E-13 -0.9804640E-11
 343547. -0.1058488E-10 -0.2477942E-08 -0.7363708E-12 -0.1716276E-09 -0.9970679E-14 -0.2554848E-11
 305375. -0.2381170E-11 -0.6311461E-09 -0.1666104E-12 -0.4401168E-10 -0.1953687E-14 -0.5648141E-12
 267203. -0.4343786E-12 -0.1323148E-09 -0.3054534E-13 -0.9280739E-11 -0.3063084E-15 -0.1014613E-12
 229031. -0.6031926E-13 -0.2153750E-10 -0.4259679E-14 -0.1518189E-11 -0.3589445E-16 -0.1390131E-13
 190859. -0.5781202E-14 -0.2486369E-11 -0.4096544E-15 -0.1759621E-12 -0.2828867E-17 -0.1315792E-14
 152688.  0.0000000E+00  0.0000000E+00  0.0000000E+00  0.0000000E+00  0.0000000E+00  0.0000000E+00
 114516.  0.0000000E+00  0.0000000E+00  0.0000000E+00  0.0000000E+00  0.0000000E+00  0.0000000E+00
  76344.  0.0000000E+00  0.0000000E+00  0.0000000E+00  0.0000000E+00  0.0000000E+00  0.0000000E+00
  38172.  0.0000000E+00  0.0000000E+00  0.0000000E+00  0.0000000E+00  0.0000000E+00  0.0000000E+00
      0.  0.0000000E+00  0.0000000E+00  0.0000000E+00  0.0000000E+00  0.0000000E+00  0.0000000E+00
