      22        2 S      710        121.04750        132.27930         15.68392        690.43573      185    7
6371000.  0.4295018E-01 -0.2592476E-01  0.3323081E-02 -0.3962710E-01  0.1057612E-04 -0.8102572E-01
6370000.  0.4295252E-01 -0.3919708E-02  0.3328863E-02 -0.3404716E-01  0.2329491E-04 -0.8103607E-01
6369000.  0.4295141E-01  0.1808890E-01  0.3333768E-02 -0.2844857E-01  0.3601482E-04 -0.8103993E-01
6368000.  0.4294684E-01  0.4009930E-01  0.3337793E-02 -0.2283278E-01  0.4873483E-04 -0.8103730E-01
6368000.  0.4294684E-01  0.4009930E-01  0.3337793E-02 -0.2283278E-01  0.4873483E-04 -0.8103730E-01
6367000.  0.4293882E-01  0.6210970E-01  0.3340935E-02 -0.1720128E-01  0.6145391E-04 -0.8102818E-01
6366000.  0.4292734E-01  0.8411834E-01  0.3343192E-02 -0.1155554E-01  0.7417105E-04 -0.8101255E-01
6365000.  0.4291242E-01  0.1061234E+00  0.3344562E-02 -0.5897045E-02  0.8688523E-04 -0.8099044E-01
6364000.  0.4289403E-01  0.1281232E+00  0.3345043E-02 -0.2272836E-03  0.9959543E-04 -0.8096183E-01
6363000.  0.4287219E-01  0.1501159E+00  0.3344633E-02  0.5452250E-02  0.1123006E-03 -0.8092672E-01
6362000.  0.4284691E-01  0.1720997E+00  0.3343331E-02  0.1114006E-01  0.1249998E-03 -0.8088512E-01
6361000.  0.4281817E-01  0.1940728E+00  0.3341135E-02  0.1683465E-01  0.1376919E-03 -0.8083703E-01
6360000.  0.4278598E-01  0.2160336E+00  0.3338046E-02  0.2253451E-01  0.1503760E-03 -0.8078244E-01
6359000.  0.4275035E-01  0.2379801E+00  0.3334061E-02  0.2823813E-01  0.1630510E-03 -0.8072136E-01
6358000.  0.4271128E-01  0.2599107E+00  0.3329181E-02  0.3394403E-01  0.1757159E-03 -0.8065380E-01
6357000.  0.4266876E-01  0.2818236E+00  0.3323406E-02  0.3965067E-01  0.1883697E-03 -0.8057975E-01
6356000.  0.4262281E-01  0.3037170E+00  0.3316734E-02  0.4535655E-01  0.2010114E-03 -0.8049922E-01
6356000.  0.4262281E-01  0.1923942E+00  0.3316734E-02  0.1175915E-01  0.2010114E-03 -0.8977345E-01
6355000.  0.4259136E-01  0.2083109E+00  0.3314587E-02  0.1559283E-01  0.2150978E-03 -0.8971412E-01
6354000.  0.4255741E-01  0.2242180E+00  0.3311839E-02  0.1943008E-01  0.2291744E-03 -0.8964956E-01
6353000.  0.4252097E-01  0.2401146E+00  0.3308487E-02  0.2327022E-01  0.2432405E-03 -0.8957975E-01
6352000.  0.4248204E-01  0.2559998E+00  0.3304534E-02  0.2711255E-01  0.2572952E-03 -0.8950471E-01
6351000.  0.4244061E-01  0.2718726E+00  0.3299976E-02  0.3095639E-01  0.2713377E-03 -0.8942443E-01
6350000.  0.4239669E-01  0.2877320E+00  0.3294816E-02  0.3480107E-01  0.2853673E-03 -0.8933893E-01
6349000.  0.4235028E-01  0.3035772E+00  0.3289051E-02  0.3864589E-01  0.2993830E-03 -0.8924819E-01
6348000.  0.4230139E-01  0.3194072E+00  0.3282684E-02  0.4249018E-01  0.3133840E-03 -0.8915223E-01
6347000.  0.4225001E-01  0.3352211E+00  0.3275713E-02  0.4633322E-01  0.3273696E-03 -0.8905105E-01
6346600.  0.4222877E-01  0.3415419E+00  0.3272756E-02  0.4786995E-01  0.3329593E-03 -0.8900911E-01
6346600.  0.4222877E-01  0.1982668E+00  0.3272756E-02  0.1961515E-01  0.3329593E-03 -0.1037337E+00
6318800.  0.4067372E-01  0.5136265E+00  0.3005224E-02  0.1024958E+00  0.7787998E-03 -0.1000535E+00
6291000.  0.3776143E-01  0.8186082E+00  0.2389170E-02  0.1779068E+00  0.1201282E-02 -0.9304371E-01
6291000.  0.3776143E-01  0.8293999E+00  0.2389170E-02  0.1852570E+00  0.1201282E-02 -0.9304371E-01
6263000.  0.3346961E-01  0.1119184E+01  0.1431388E-02  0.2470644E+00  0.1588483E-02 -0.8263563E-01
6235000.  0.2797111E-01  0.1376852E+01  0.2533947E-03  0.2844691E+00  0.1923253E-02 -0.6923977E-01
6207000.  0.2142849E-01  0.1592820E+01 -0.1026446E-02  0.2928997E+00  0.2193280E-02 -0.5324743E-01
6179000.  0.1404404E-01  0.1758638E+01 -0.2276402E-02  0.2708997E+00  0.2388205E-02 -0.3515330E-01
6151000.  0.6054246E-02  0.1867255E+01 -0.3365533E-02  0.2202836E+00  0.2500046E-02 -0.1554235E-01
6151000.  0.6054246E-02  0.1502890E+01 -0.3365533E-02  0.1924241E+00  0.2500046E-02 -0.1587731E-01
6128500.  0.7297656E-03  0.1507903E+01 -0.3952994E-02  0.1386113E+00  0.2532510E-02 -0.2477131E-02
6106000. -0.4564671E-02  0.1486051E+01 -0.4334999E-02  0.7667477E-01  0.2517476E-02  0.1098037E-01
6083500. -0.9736277E-02  0.1438579E+01 -0.4489453E-02  0.1039975E-01  0.2455175E-02  0.2424986E-01
6061000. -0.1469730E-01  0.1367091E+01 -0.4408024E-02 -0.5624386E-01  0.2346694E-02  0.3709414E-01
6038500. -0.1936625E-01  0.1273514E+01 -0.4096366E-02 -0.1193486E+00  0.2193936E-02  0.4928786E-01
6016000. -0.2366889E-01  0.1160028E+01 -0.3573468E-02 -0.1753053E+00  0.1999575E-02  0.6062117E-01
5993500. -0.2753908E-01  0.1029022E+01 -0.2870234E-02 -0.2210106E+00  0.1766991E-02  0.7090354E-01
5971000. -0.3091943E-01  0.8830671E+00 -0.2027366E-02 -0.2540408E+00  0.1500203E-02  0.7996538E-01
5971000. -0.3091943E-01  0.8005165E+00 -0.2027366E-02 -0.2226578E+00  0.1500203E-02  0.8401299E-01
5937667. -0.3447984E-01  0.5595334E+00 -0.8133312E-03 -0.2369280E+00  0.1031068E-02  0.9477019E-01
5904333. -0.3677206E-01  0.3171091E+00  0.4071335E-03 -0.2256272E+00  0.5144150E-03  0.1021481E+00
5871000. -0.3780931E-01  0.8102838E-01  0.1510438E-02 -0.1930362E+00 -0.3178944E-04  0.1060702E+00
5837667. -0.3764249E-01 -0.1421716E+00  0.2400238E-02 -0.1450896E+00 -0.5895416E-03  0.1065783E+00
5804333. -0.3635341E-01 -0.3471642E+00  0.3013512E-02 -0.8844800E-01 -0.1141330E-02  0.1038159E+00
5771000. -0.3404884E-01 -0.5297660E+00  0.3322116E-02 -0.2968212E-01 -0.1670581E-02  0.9801459E-01
5771000. -0.3404884E-01 -0.5297686E+00  0.3322116E-02 -0.2967981E-01 -0.1670581E-02  0.9801459E-01
5701000. -0.2620499E-01 -0.8826295E+00  0.3033962E-02  0.7802390E-01 -0.2632378E-02  0.7517823E-01
5701000. -0.2620499E-01 -0.7265562E+00  0.3033962E-02  0.6852932E-01 -0.2632378E-02  0.8256447E-01
5667333. -0.2221661E-01 -0.7880985E+00  0.2592169E-02  0.9715566E-01 -0.3035131E-02  0.6975143E-01
5633667. -0.1781418E-01 -0.8793265E+00  0.2016166E-02  0.1197630E+00 -0.3367681E-02  0.5586240E-01
5600000. -0.1297037E-01 -0.9492462E+00  0.1346236E-02  0.1318148E+00 -0.3622861E-02  0.4050804E-01
5600000. -0.1297037E-01 -0.9492462E+00  0.1346236E-02  0.1318148E+00 -0.3622861E-02  0.4050804E-01
5563518. -0.7378594E-02 -0.9992585E+00  0.5835216E-03  0.1324322E+00 -0.3804323E-02  0.2270527E-01
5527037. -0.1579278E-02 -0.1021683E+01 -0.1467094E-03  0.1206605E+00 -0.3881471E-02  0.4158770E-02
5490556.  0.4268594E-02 -0.1016220E+01 -0.7776949E-03  0.9811925E-01 -0.3851488E-02 -0.1462985E-01
5454074.  0.1000625E-01 -0.9832898E+00 -0.1254622E-02  0.6733342E-01 -0.3714417E-02 -0.3316012E-01
5417593.  0.1547971E-01 -0.9242678E+00 -0.1539180E-02  0.3150443E-01 -0.3473156E-02 -0.5094362E-01
5381111.  0.2054490E-01 -0.8410053E+00 -0.1612542E-02 -0.5829941E-02 -0.3133293E-02 -0.6752208E-01
5344630.  0.2506979E-01 -0.7360923E+00 -0.1476405E-02 -0.4108461E-01 -0.2702983E-02 -0.8247100E-01
5308148.  0.2893955E-01 -0.6127016E+00 -0.1152335E-02 -0.7095513E-01 -0.2192640E-02 -0.9541257E-01
5271667.  0.3205801E-01 -0.4743384E+00 -0.6793992E-03 -0.9268200E-01 -0.1614728E-02 -0.1060281E+00
5235185.  0.3435077E-01 -0.3249624E+00 -0.1102839E-03 -0.1042874E+00 -0.9833144E-03 -0.1140543E+00
5198704.  0.3576645E-01 -0.1687048E+00  0.4935402E-03 -0.1047154E+00 -0.3138569E-03 -0.1192963E+00
5162222.  0.3627766E-01 -0.9751555E-02  0.1067422E-02 -0.9389672E-01  0.3773648E-03 -0.1216345E+00
5125741.  0.3588101E-01  0.1477033E+00  0.1549126E-02 -0.7275724E-01  0.1073483E-02 -0.1210096E+00
5089259.  0.3459658E-01  0.2996683E+00  0.1884354E-02 -0.4309892E-01  0.1757586E-02 -0.1174406E+00
5052778.  0.3246681E-01  0.4423836E+00  0.2031254E-02 -0.7453150E-02  0.2413002E-02 -0.1110156E+00
5016296.  0.2955423E-01  0.5725445E+00  0.1964050E-02  0.3114706E-01  0.3023804E-02 -0.1018830E+00
4979815.  0.2593949E-01  0.6872091E+00  0.1675199E-02  0.6940820E-01  0.3575043E-02 -0.9025785E-01
4943333.  0.2171823E-01  0.7840096E+00  0.1176071E-02  0.1040579E+00  0.4053218E-02 -0.7640737E-01
4906852.  0.1699828E-01  0.8611690E+00  0.4961325E-03  0.1321019E+00  0.4446439E-02 -0.6064635E-01
4870370.  0.1189595E-01  0.9173507E+00 -0.3193846E-03  0.1510424E+00  0.4744795E-02 -0.4333249E-01
4833889.  0.6533717E-02  0.9519511E+00 -0.1212837E-02  0.1591021E+00  0.4940476E-02 -0.2485370E-01
4797407.  0.1035314E-02  0.9648649E+00 -0.2118847E-02  0.1553330E+00  0.5027984E-02 -0.5619458E-02
4760926. -0.4475269E-02  0.9563663E+00 -0.2969004E-02  0.1396715E+00  0.5004206E-02  0.1394381E-01
4724444. -0.9878289E-02  0.9274332E+00 -0.3697318E-02  0.1129841E+00  0.4868483E-02  0.3340759E-01
4687963. -0.1505979E-01  0.8792683E+00 -0.4245052E-02  0.7694799E-01  0.4622614E-02  0.5234723E-01
4651482. -0.1991402E-01  0.8134234E+00 -0.4565204E-02  0.3394160E-01  0.4270776E-02  0.7035265E-01
4615000. -0.2434530E-01  0.7318279E+00 -0.4625972E-02 -0.1313407E-01  0.3819438E-02  0.8703355E-01
4578518. -0.2826898E-01  0.6364790E+00 -0.4413130E-02 -0.6107477E-01  0.3277235E-02  0.1020322E+00
4542037. -0.3161244E-01  0.5295972E+00 -0.3931135E-02 -0.1066076E+00  0.2654761E-02  0.1150249E+00
4505556. -0.3431639E-01  0.4134856E+00 -0.3202760E-02 -0.1466382E+00  0.1964317E-02  0.1257301E+00
4469074. -0.3633449E-01  0.2904122E+00 -0.2267535E-02 -0.1784357E+00  0.1219655E-02  0.1339207E+00
4432593. -0.3763351E-01  0.1627341E+00 -0.1179066E-02 -0.1998753E+00  0.4357655E-03  0.1394121E+00
4396111. -0.3819369E-01  0.3271842E-01 -0.1007586E-05 -0.2095423E+00 -0.3715494E-03  0.1420797E+00
4359630. -0.3800804E-01 -0.9739657E-01  0.1196961E-02 -0.2068116E+00 -0.1185869E-02  0.1418596E+00
4323148. -0.3708216E-01 -0.2254666E+00  0.2344270E-02 -0.1919489E+00 -0.1990630E-02  0.1387362E+00
4286667. -0.3543382E-01 -0.3494048E+00  0.3374026E-02 -0.1660017E+00 -0.2769275E-02  0.1327587E+00
4250185. -0.3309236E-01 -0.4672120E+00  0.4227587E-02 -0.1307551E+00 -0.3505776E-02  0.1240304E+00
4213704. -0.3009840E-01 -0.5770310E+00  0.4858300E-02 -0.8861305E-01 -0.4184755E-02  0.1127046E+00
4177222. -0.2650276E-01 -0.6770344E+00  0.5234577E-02 -0.4237564E-01 -0.4791946E-02  0.9898911E-01
4140741. -0.2236671E-01 -0.7655651E+00  0.5341603E-02  0.4911240E-02 -0.5314332E-02  0.8313505E-01
4104259. -0.1775997E-01 -0.8411354E+00  0.5182155E-02  0.5019885E-01 -0.5740501E-02  0.6543063E-01
4067778. -0.1276143E-01 -0.9022374E+00  0.4776004E-02  0.9063146E-01 -0.6060767E-02  0.4620641E-01
4031296. -0.7456984E-02 -0.9477602E+00  0.4158203E-02  0.1237493E+00 -0.6267439E-02  0.2581329E-01
3994815. -0.1939050E-02 -0.9766868E+00  0.3376436E-02  0.1476408E+00 -0.6354879E-02  0.4627602E-02
3958333.  0.3694913E-02 -0.9881286E+00  0.2487410E-02  0.1610581E+00 -0.6319665E-02 -0.1696093E-01
3921852.  0.9343214E-02 -0.9816981E+00  0.1552891E-02  0.1635231E+00 -0.6160631E-02 -0.3855377E-01
3885370.  0.1490294E-01 -0.9571088E+00  0.6351199E-03  0.1553066E+00 -0.5878877E-02 -0.5975582E-01
3848889.  0.2026978E-01 -0.9144401E+00 -0.2072321E-03  0.1374182E+00 -0.5477781E-02 -0.8017588E-01
3812407.  0.2534189E-01 -0.8542200E+00 -0.9233573E-03  0.1115377E+00 -0.4962886E-02 -0.9943717E-01
3775926.  0.3002040E-01 -0.7771679E+00 -0.1473496E-02  0.7985118E-01 -0.4341880E-02 -0.1171862E+00
3739444.  0.3421243E-01 -0.6845013E+00 -0.1831656E-02  0.4493156E-01 -0.3624344E-02 -0.1330927E+00
3702963.  0.3783271E-01 -0.5777861E+00 -0.1987173E-02  0.9539021E-02 -0.2821749E-02 -0.1468568E+00
3666482.  0.4080589E-01 -0.4588216E+00 -0.1945234E-02 -0.2358788E-01 -0.1947083E-02 -0.1582253E+00
3630000.  0.4306815E-01 -0.3298455E+00 -0.1726264E-02 -0.5189196E-01 -0.1014701E-02 -0.1669730E+00
3630000.  0.4306815E-01 -0.3298455E+00 -0.1726264E-02 -0.5189196E-01 -0.1014701E-02 -0.1669730E+00
3592500.  0.4459948E-01 -0.1893862E+00 -0.1352597E-02 -0.7367385E-01 -0.1250458E-04 -0.1730556E+00
3555000.  0.4528757E-01 -0.4381797E-01 -0.8770316E-03 -0.8627353E-01  0.1016470E-02 -0.1760528E+00
3517500.  0.4511124E-01  0.1038153E+00 -0.3571562E-03 -0.8861480E-01  0.2053770E-02 -0.1758753E+00
3480000.  0.4406752E-01  0.2503909E+00  0.1454054E-03 -0.8041028E-01  0.3080615E-02 -0.1725007E+00
3480000.  0.4406752E-01  0.3881525E+00 -0.5522346E-03  0.8169825E-01  0.3080615E-02 -0.3138245E+00
3409422.  0.3557221E-01  0.1116630E+01 -0.1402103E-02  0.6910942E-01  0.6290916E-02 -0.2557673E+00
3338844.  0.2018295E-01  0.1615190E+01 -0.2030978E-02  0.4240333E-01  0.8553998E-02 -0.1456495E+00
3268266.  0.9280725E-03  0.1806480E+01 -0.2306748E-02  0.6315520E-02  0.9402382E-02 -0.4408555E-02
3197688. -0.1863158E-01  0.1672022E+01 -0.2159609E-02 -0.3281495E-01  0.8632426E-02  0.1420386E+00
3127109. -0.3504707E-01  0.1249188E+01 -0.1593761E-02 -0.6815630E-01  0.6333196E-02  0.2675441E+00
3056531. -0.4554324E-01  0.6199513E+00 -0.6866484E-03 -0.9349959E-01  0.2864114E-02  0.3501339E+00
2985953. -0.4842482E-01 -0.1059166E+00  0.4235515E-03 -0.1042245E+00 -0.1211634E-02  0.3754371E+00
2915375. -0.4327879E-01 -0.8098454E+00  0.1559567E-02 -0.9798099E-01 -0.5223615E-02  0.3386685E+00
2844797. -0.3096858E-01 -0.1382813E+01  0.2532363E-02 -0.7501838E-01 -0.8504057E-02  0.2450270E+00
2774219. -0.1344037E-01 -0.1740541E+01  0.3170006E-02 -0.3813609E-01 -0.1049352E-01  0.1085682E+00
2703641.  0.6613545E-02 -0.1833871E+01  0.3344009E-02  0.7713655E-02 -0.1082683E-01 -0.5016595E-01
2633062.  0.2617556E-01 -0.1653476E+01  0.2989624E-02  0.5610771E-01 -0.9387802E-02 -0.2073409E+00
2562484.  0.4234230E-01 -0.1228844E+01  0.2117498E-02  0.1000130E+00 -0.6326399E-02 -0.3393348E+00
2491906.  0.5272705E-01 -0.6222456E+00  0.8152275E-03  0.1327228E+00 -0.2037314E-02 -0.4260955E+00
2421328.  0.5577017E-01  0.8110452E-01 -0.7612446E-03  0.1487449E+00  0.2895332E-02 -0.4538648E+00
2350750.  0.5092767E-01  0.7851809E+00 -0.2405379E-02  0.1445428E+00  0.7778690E-02 -0.4169827E+00
2280172.  0.3872022E-01  0.1395880E+01 -0.3884757E-02  0.1190432E+00  0.1190576E-01 -0.3185694E+00
2209594.  0.2064513E-01  0.1832798E+01 -0.4969893E-02  0.7386006E-01  0.1465105E-01 -0.1700513E+00
2139016. -0.1030557E-02  0.2038706E+01 -0.5463810E-02  0.1320982E-01  0.1555510E-01  0.1035583E-01
2068438. -0.2356485E-01  0.1985817E+01 -0.5229030E-02 -0.5646973E-01  0.1438736E-01  0.1999824E+00
1997859. -0.4408420E-01  0.1678202E+01 -0.4208844E-02 -0.1271538E+00  0.1118004E-01  0.3745446E+00
1927281. -0.5993156E-01  0.1150508E+01 -0.2440592E-02 -0.1900446E+00  0.6229700E-02  0.5111181E+00
1856703. -0.6898272E-01  0.4630662E+00 -0.5903217E-04 -0.2365014E+00  0.6611921E-04  0.5909238E+00
1786125. -0.6989011E-01 -0.3056324E+00  0.2710494E-02 -0.2589638E+00 -0.6606420E-02  0.6015599E+00
1715547. -0.6223360E-01 -0.1068284E+01  0.5568843E-02 -0.2517979E+00 -0.1298876E-01  0.5384709E+00
1644969. -0.4656292E-01 -0.1738754E+01  0.8168352E-02 -0.2119716E+00 -0.1827773E-01  0.4054950E+00
1574391. -0.2433104E-01 -0.2241605E+01  0.1014433E-01 -0.1394962E+00 -0.2175768E-01  0.2144557E+00
1503812.  0.2271210E-02 -0.2520163E+01  0.1114998E-01 -0.3759006E-01 -0.2288256E-01 -0.1614203E-01
1433234.  0.3055572E-01 -0.2542275E+01  0.1089144E-01  0.8744864E-01 -0.2133930E-01 -0.2631192E+00
1362656.  0.5763041E-01 -0.2303308E+01  0.9159878E-02  0.2266623E+00 -0.1708600E-01 -0.5011475E+00
1292078.  0.8070491E-01 -0.1826061E+01  0.5857482E-02  0.3690931E+00 -0.1036084E-01 -0.7054403E+00
1221500.  0.9738091E-01 -0.1157796E+01  0.1015087E-02  0.5026233E+00 -0.1661404E-02 -0.8543583E+00
1221500.  0.9738091E-01 -0.1273801E+01 -0.1232262E-01 -0.5721827E+00 -0.1661404E-02 -0.8965441E+00
1183328.  0.1033655E+00 -0.6995130E+00 -0.7323188E-02 -0.1028660E+01  0.3837648E-02 -0.9358943E+00
1145156.  0.1055521E+00 -0.2066849E-01 -0.9496898E-03 -0.1012649E+01  0.9514438E-02 -0.9557210E+00
1106984.  0.1036074E+00  0.6607659E+00  0.3796119E-02 -0.4937068E+00  0.1524976E-01 -0.9553664E+00
1068812.  0.9785388E-01  0.1232861E+01  0.4207271E-02  0.4010665E+00  0.2092204E-01 -0.9347005E+00
1030641.  0.8923771E-01  0.1604558E+01 -0.1262893E-02  0.1420812E+01  0.2641036E-01 -0.8941135E+00
 992469.  0.7911613E-01  0.1733337E+01 -0.1246102E-01  0.2262964E+01  0.3159807E-01 -0.8345013E+00
 954297.  0.6891255E-01  0.1641226E+01 -0.2748772E-01  0.2662364E+01  0.3637496E-01 -0.7572481E+00
 916125.  0.5972227E-01  0.1413919E+01 -0.4317492E-01  0.2472004E+01  0.4064061E-01 -0.6641849E+00
 877953.  0.5198098E-01  0.1181230E+01 -0.5595922E-01  0.1711293E+01  0.4430680E-01 -0.5575526E+00
 839781.  0.4529683E-01  0.1083067E+01 -0.6290721E-01  0.5671007E+00  0.4729985E-01 -0.4399478E+00
 801609.  0.3851128E-01  0.1228602E+01 -0.6259979E-01 -0.6534289E+00  0.4956256E-01 -0.3142608E+00
 763438.  0.2999896E-01  0.1659314E+01 -0.5561583E-01 -0.1606389E+01  0.5105570E-01 -0.1836098E+00
 725266.  0.1814981E-01  0.2326241E+01 -0.4446143E-01 -0.2008039E+01  0.5175930E-01 -0.5124439E-01
 687094.  0.1927775E-02  0.3088782E+01 -0.3294770E-01 -0.1718104E+01  0.5167296E-01  0.7952220E-01
 648922. -0.1863820E-01  0.3737755E+01 -0.2516784E-01 -0.7863888E+00  0.5081611E-01  0.2054182E+00
 610750. -0.4216631E-01  0.4039413E+01 -0.2434495E-01  0.5517021E+00  0.4922743E-01  0.3233040E+00
 572578. -0.6593902E-01  0.3791338E+01 -0.3186331E-01  0.1930756E+01  0.4696379E-01  0.4302609E+00
 534406. -0.8626064E-01  0.2877903E+01 -0.4675496E-01  0.2948510E+01  0.4409868E-01  0.5236713E+00
 496234. -0.9911181E-01  0.1311826E+01 -0.6579909E-01  0.3272664E+01  0.4072018E-01  0.6012866E+00
 458062. -0.1009828E+00 -0.7492588E+00 -0.8423196E-01  0.2733251E+01  0.3692865E-01  0.6612803E+00
 419891. -0.8971437E-01 -0.3017352E+01 -0.9690292E-01  0.1375795E+01  0.3283409E-01  0.7022894E+00
 381719. -0.6515624E-01 -0.5119360E+01 -0.9959174E-01 -0.5400268E+00  0.2855288E-01  0.7234416E+00
 343547. -0.2948432E-01 -0.6664757E+01 -0.9014616E-01 -0.2596778E+01  0.2420549E-01  0.7243655E+00
 305375.  0.1292848E-01 -0.7323553E+01 -0.6914766E-01 -0.4318370E+01  0.1991294E-01  0.7051971E+00
 267203.  0.5609571E-01 -0.6897642E+01 -0.3991393E-01 -0.5286968E+01  0.1579396E-01  0.6665748E+00
 229031.  0.9337052E-01 -0.5370424E+01 -0.7820099E-02 -0.5248815E+01  0.1196198E-01  0.6096255E+00
 190859.  0.1185998E+00 -0.2922823E+01  0.2091129E-01 -0.4181739E+01  0.8522240E-02  0.5359440E+00
 152688.  0.1272601E+00  0.8890707E-01  0.4066322E-01 -0.2307122E+01  0.5569196E-02  0.4475625E+00
 114516.  0.1173504E+00  0.3191455E+01  0.4776990E-01 -0.4177650E-01  0.3183716E-02  0.3468956E+00
  76344.  0.8985369E-01  0.5876890E+01  0.4141582E-01  0.2098158E+01  0.1431375E-02  0.2367011E+00
  38172.  0.4866862E-01  0.7695295E+01  0.2387302E-01  0.3619201E+01  0.3603232E-03  0.1199986E+00
      0.  0.0000000E+00  0.8336720E+01  0.0000000E+00  0.4167098E+01  0.0000000E+00  0.0000000E+00
