       1        9 S      105        506.48251          8.31954          7.05347        378.98071      185    7
6371000.  0.1351678E+00 -0.2504168E+00 -0.4065892E-02 -0.1392337E+00 -0.1429675E-01 -0.1119273E+00
6370000.  0.1352067E+00 -0.2456351E+00 -0.4044013E-02 -0.1395485E+00 -0.1427920E-01 -0.1116459E+00
6369000.  0.1352449E+00 -0.2408480E+00 -0.4022084E-02 -0.1398606E+00 -0.1426170E-01 -0.1113637E+00
6368000.  0.1352823E+00 -0.2360556E+00 -0.4000108E-02 -0.1401699E+00 -0.1424424E-01 -0.1110807E+00
6368000.  0.1352823E+00 -0.2360556E+00 -0.4000108E-02 -0.1401699E+00 -0.1424424E-01 -0.1110807E+00
6367000.  0.1353190E+00 -0.2312579E+00 -0.3978082E-02 -0.1404764E+00 -0.1422683E-01 -0.1107969E+00
6366000.  0.1353549E+00 -0.2264549E+00 -0.3956009E-02 -0.1407802E+00 -0.1420946E-01 -0.1105123E+00
6365000.  0.1353901E+00 -0.2216467E+00 -0.3933888E-02 -0.1410811E+00 -0.1419214E-01 -0.1102270E+00
6364000.  0.1354245E+00 -0.2168334E+00 -0.3911721E-02 -0.1413793E+00 -0.1417486E-01 -0.1099409E+00
6363000.  0.1354582E+00 -0.2120149E+00 -0.3889506E-02 -0.1416747E+00 -0.1415763E-01 -0.1096539E+00
6362000.  0.1354910E+00 -0.2071913E+00 -0.3867246E-02 -0.1419673E+00 -0.1414044E-01 -0.1093662E+00
6361000.  0.1355232E+00 -0.2023628E+00 -0.3844940E-02 -0.1422571E+00 -0.1412329E-01 -0.1090777E+00
6360000.  0.1355546E+00 -0.1975292E+00 -0.3822588E-02 -0.1425441E+00 -0.1410620E-01 -0.1087885E+00
6359000.  0.1355852E+00 -0.1926907E+00 -0.3800192E-02 -0.1428283E+00 -0.1408914E-01 -0.1084984E+00
6358000.  0.1356151E+00 -0.1878473E+00 -0.3777751E-02 -0.1431097E+00 -0.1407214E-01 -0.1082075E+00
6357000.  0.1356442E+00 -0.1829991E+00 -0.3755267E-02 -0.1433882E+00 -0.1405517E-01 -0.1079159E+00
6356000.  0.1356725E+00 -0.1781460E+00 -0.3732739E-02 -0.1436640E+00 -0.1403826E-01 -0.1076234E+00
6356000.  0.1356725E+00 -0.1696591E+00 -0.3732739E-02 -0.1421062E+00 -0.1403826E-01 -0.1371442E+00
6355000.  0.1356989E+00 -0.1660538E+00 -0.3710423E-02 -0.1422362E+00 -0.1401675E-01 -0.1368430E+00
6354000.  0.1357246E+00 -0.1624458E+00 -0.3688087E-02 -0.1423645E+00 -0.1399530E-01 -0.1365413E+00
6353000.  0.1357499E+00 -0.1588350E+00 -0.3665732E-02 -0.1424911E+00 -0.1397389E-01 -0.1362392E+00
6352000.  0.1357745E+00 -0.1552215E+00 -0.3643356E-02 -0.1426160E+00 -0.1395253E-01 -0.1359366E+00
6351000.  0.1357986E+00 -0.1516053E+00 -0.3620962E-02 -0.1427393E+00 -0.1393122E-01 -0.1356337E+00
6350000.  0.1358221E+00 -0.1479865E+00 -0.3598548E-02 -0.1428609E+00 -0.1390995E-01 -0.1353303E+00
6349000.  0.1358450E+00 -0.1443650E+00 -0.3576114E-02 -0.1429809E+00 -0.1388874E-01 -0.1350265E+00
6348000.  0.1358674E+00 -0.1407409E+00 -0.3553663E-02 -0.1430992E+00 -0.1386757E-01 -0.1347223E+00
6347000.  0.1358892E+00 -0.1371142E+00 -0.3531193E-02 -0.1432158E+00 -0.1384644E-01 -0.1344177E+00
6346600.  0.1358978E+00 -0.1356628E+00 -0.3522199E-02 -0.1432620E+00 -0.1383801E-01 -0.1342957E+00
6346600.  0.1358978E+00 -0.1946676E+00 -0.3522199E-02 -0.1421880E+00 -0.1383801E-01 -0.1816813E+00
6318800.  0.1365739E+00 -0.1148354E+00 -0.2899930E-02 -0.1428819E+00 -0.1306368E-01 -0.1732112E+00
6291000.  0.1368967E+00 -0.3273559E-01 -0.2276537E-02 -0.1426994E+00 -0.1232654E-01 -0.1646343E+00
6291000.  0.1368967E+00 -0.3781020E-01 -0.2276537E-02 -0.1427788E+00 -0.1232654E-01 -0.1646343E+00
6263000.  0.1368729E+00  0.4890524E-01 -0.1650926E-02 -0.1417544E+00 -0.1162210E-01 -0.1559089E+00
6235000.  0.1364643E+00  0.1372785E+00 -0.1031996E-02 -0.1397368E+00 -0.1095638E-01 -0.1470105E+00
6207000.  0.1356644E+00  0.2268983E+00 -0.4241332E-03 -0.1367165E+00 -0.1033019E-01 -0.1379149E+00
6179000.  0.1344687E+00  0.3173336E+00  0.1682433E-03 -0.1326892E+00 -0.9744458E-02 -0.1285976E+00
6151000.  0.1328746E+00  0.4081257E+00  0.7407081E-03 -0.1276559E+00 -0.9200199E-02 -0.1190363E+00
6151000.  0.1328746E+00  0.3121048E+00  0.7407081E-03 -0.1288140E+00 -0.9200199E-02 -0.1263877E+00
6128500.  0.1316777E+00  0.3654797E+00  0.1188694E-02 -0.1248120E+00 -0.8763534E-02 -0.1208963E+00
6106000.  0.1302949E+00  0.4173736E+00  0.1621781E-02 -0.1203796E+00 -0.8346308E-02 -0.1153791E+00
6083500.  0.1287316E+00  0.4676681E+00  0.2038487E-02 -0.1155397E+00 -0.7948615E-02 -0.1098343E+00
6061000.  0.1269937E+00  0.5162496E+00  0.2437415E-02 -0.1103155E+00 -0.7570552E-02 -0.1042625E+00
6038500.  0.1250874E+00  0.5630143E+00  0.2817249E-02 -0.1047305E+00 -0.7212217E-02 -0.9866105E-01
6016000.  0.1230193E+00  0.6078603E+00  0.3176756E-02 -0.9880791E-01 -0.6873722E-02 -0.9302697E-01
5993500.  0.1207964E+00  0.6506897E+00  0.3514785E-02 -0.9257118E-01 -0.6555183E-02 -0.8735944E-01
5971000.  0.1184259E+00  0.6914172E+00  0.3830268E-02 -0.8604330E-01 -0.6256726E-02 -0.8165364E-01
5971000.  0.1184259E+00  0.6291807E+00  0.3830268E-02 -0.9003454E-01 -0.6256726E-02 -0.9715659E-01
5937667.  0.1150317E+00  0.6674317E+00  0.4281858E-02 -0.8260159E-01 -0.5763757E-02 -0.9131677E-01
5904333.  0.1114501E+00  0.7008554E+00  0.4694791E-02 -0.7526588E-01 -0.5300855E-02 -0.8566075E-01
5871000.  0.1077057E+00  0.7297614E+00  0.5069753E-02 -0.6810274E-01 -0.4867039E-02 -0.8020619E-01
5837667.  0.1038211E+00  0.7544653E+00  0.5407824E-02 -0.6117321E-01 -0.4461201E-02 -0.7496796E-01
5804333.  0.9981750E-01  0.7752855E+00  0.5710369E-02 -0.5452596E-01 -0.4082171E-02 -0.6995608E-01
5771000.  0.9571456E-01  0.7925272E+00  0.5978953E-02 -0.4820034E-01 -0.3728757E-02 -0.6518140E-01
5771000.  0.9571456E-01  0.7925556E+00  0.5978953E-02 -0.4820199E-01 -0.3728757E-02 -0.6518140E-01
5701000.  0.8661631E-01  0.8610101E+00  0.6416375E-02 -0.3134174E-01 -0.3093284E-02 -0.5052461E-01
5701000.  0.8661631E-01  0.7316748E+00  0.6416375E-02 -0.4370908E-01 -0.3093284E-02 -0.7493863E-01
5667333.  0.8281335E-01  0.7159935E+00  0.6647707E-02 -0.4319559E-01 -0.2710860E-02 -0.7013699E-01
5633667.  0.7896965E-01  0.7419703E+00  0.6866314E-02 -0.3925050E-01 -0.2349263E-02 -0.6683045E-01
5600000.  0.7498165E-01  0.7664611E+00  0.7063145E-02 -0.3531656E-01 -0.2004423E-02 -0.6370334E-01
5600000.  0.7498165E-01  0.7664611E+00  0.7063145E-02 -0.3531656E-01 -0.2004423E-02 -0.6370334E-01
5563518.  0.7052071E-01  0.7913585E+00  0.7253414E-02 -0.3115430E-01 -0.1648744E-02 -0.6056413E-01
5527037.  0.6592193E-01  0.8146579E+00  0.7420131E-02 -0.2709442E-01 -0.1310362E-02 -0.5766493E-01
5490556.  0.6119422E-01  0.8363885E+00  0.7563925E-02 -0.2314948E-01 -0.9878954E-03 -0.5500571E-01
5454074.  0.5634645E-01  0.8565611E+00  0.7685496E-02 -0.1933320E-01 -0.6799513E-03 -0.5258891E-01
5417593.  0.5138744E-01  0.8753032E+00  0.7785591E-02 -0.1565080E-01 -0.3851852E-03 -0.5040490E-01
5381111.  0.4632501E-01  0.8926393E+00  0.7865009E-02 -0.1211189E-01 -0.1022488E-03 -0.4845476E-01
5344630.  0.4116732E-01  0.9086421E+00  0.7924589E-02 -0.8723265E-02  0.1701806E-03 -0.4673659E-01
5308148.  0.3592137E-01  0.9234281E+00  0.7965203E-02 -0.5487541E-02  0.4334245E-03 -0.4524392E-01
5271667.  0.3059437E-01  0.9370105E+00  0.7987743E-02 -0.2411756E-02  0.6887700E-03 -0.4398040E-01
5235185.  0.2519258E-01  0.9495232E+00  0.7993131E-02  0.5034411E-03  0.9375317E-03 -0.4294103E-01
5198704.  0.1972209E-01  0.9610614E+00  0.7982287E-02  0.3257309E-02  0.1180970E-02 -0.4212392E-01
5162222.  0.1418817E-01  0.9716436E+00  0.7956141E-02  0.5847371E-02  0.1420381E-02 -0.4153154E-01
5125741.  0.8596130E-02  0.9814370E+00  0.7915629E-02  0.8276009E-02  0.1657028E-02 -0.4116111E-01
5089259.  0.2949931E-02  0.9905123E+00  0.7861665E-02  0.1054543E-01  0.1892198E-02 -0.4101326E-01
5052778. -0.2746157E-02  0.9989368E+00  0.7795159E-02  0.1265817E-01  0.2127155E-02 -0.4108928E-01
5016296. -0.8489145E-02  0.1006856E+01  0.7716991E-02  0.1461883E-01  0.2363198E-02 -0.4139062E-01
4979815. -0.1427601E-01  0.1014329E+01  0.7628020E-02  0.1643308E-01  0.2601609E-02 -0.4191899E-01
4943333. -0.2010480E-01  0.1021463E+01  0.7529062E-02  0.1810724E-01  0.2843709E-02 -0.4267769E-01
4906852. -0.2597363E-01  0.1028386E+01  0.7420904E-02  0.1964857E-01  0.3090819E-02 -0.4367154E-01
4870370. -0.3188175E-01  0.1035142E+01  0.7304273E-02  0.2106773E-01  0.3344304E-02 -0.4490259E-01
4833889. -0.3782824E-01  0.1041869E+01  0.7179848E-02  0.2237293E-01  0.3605530E-02 -0.4637941E-01
4797407. -0.4381362E-01  0.1048673E+01  0.7048248E-02  0.2357566E-01  0.3875942E-02 -0.4810910E-01
4760926. -0.4983804E-01  0.1055582E+01  0.6910016E-02  0.2469235E-01  0.4156978E-02 -0.5009439E-01
4724444. -0.5590289E-01  0.1062757E+01  0.6765611E-02  0.2573235E-01  0.4450164E-02 -0.5235196E-01
4687963. -0.6200958E-01  0.1070258E+01  0.6615432E-02  0.2671410E-01  0.4757064E-02 -0.5488845E-01
4651482. -0.6816027E-01  0.1078142E+01  0.6459749E-02  0.2765742E-01  0.5079308E-02 -0.5771371E-01
4615000. -0.7435769E-01  0.1086532E+01  0.6298738E-02  0.2857711E-01  0.5418616E-02 -0.6084831E-01
4578518. -0.8060465E-01  0.1095453E+01  0.6132463E-02  0.2950007E-01  0.5776780E-02 -0.6430104E-01
4542037. -0.8690420E-01  0.1104975E+01  0.5960844E-02  0.3044896E-01  0.6155658E-02 -0.6809108E-01
4505556. -0.9326021E-01  0.1115178E+01  0.5783667E-02  0.3144651E-01  0.6557270E-02 -0.7224415E-01
4469074. -0.9967669E-01  0.1126032E+01  0.5600535E-02  0.3253276E-01  0.6983729E-02 -0.7676855E-01
4432593. -0.1061572E+00  0.1137609E+01  0.5410877E-02  0.3373230E-01  0.7437231E-02 -0.8170013E-01
4396111. -0.1127063E+00  0.1149912E+01  0.5213934E-02  0.3508357E-01  0.7920219E-02 -0.8706532E-01
4359630. -0.1193275E+00  0.1162861E+01  0.5008696E-02  0.3663859E-01  0.8435189E-02 -0.9288093E-01
4323148. -0.1260249E+00  0.1176477E+01  0.4793886E-02  0.3843209E-01  0.8984882E-02 -0.9919535E-01
4286667. -0.1328018E+00  0.1190652E+01  0.4567989E-02  0.4052431E-01  0.9572216E-02 -0.1060373E+00
4250185. -0.1396613E+00  0.1205252E+01  0.4329093E-02  0.4297921E-01  0.1020033E-01 -0.1134427E+00
4213704. -0.1466053E+00  0.1220173E+01  0.4074979E-02  0.4585466E-01  0.1087259E-01 -0.1214668E+00
4177222. -0.1536351E+00  0.1235151E+01  0.3802973E-02  0.4924107E-01  0.1159266E-01 -0.1301453E+00
4140741. -0.1607502E+00  0.1249939E+01  0.3509920E-02  0.5322139E-01  0.1236441E-01 -0.1395353E+00
4104259. -0.1679488E+00  0.1264236E+01  0.3192156E-02  0.5788960E-01  0.1319218E-01 -0.1497085E+00
4067778. -0.1752266E+00  0.1277526E+01  0.2845373E-02  0.6338093E-01  0.1408048E-01 -0.1606989E+00
4031296. -0.1825766E+00  0.1289361E+01  0.2464510E-02  0.6981011E-01  0.1503431E-01 -0.1726037E+00
3994815. -0.1899887E+00  0.1299101E+01  0.2043808E-02  0.7732962E-01  0.1605909E-01 -0.1854986E+00
3958333. -0.1974486E+00  0.1305878E+01  0.1576448E-02  0.8613269E-01  0.1716070E-01 -0.1994425E+00
3921852. -0.2049367E+00  0.1308837E+01  0.1054603E-02  0.9639867E-01  0.1834543E-01 -0.2145599E+00
3885370. -0.2124282E+00  0.1306787E+01  0.4692014E-03  0.1083705E+00  0.1962032E-01 -0.2309366E+00
3848889. -0.2198901E+00  0.1298314E+01 -0.1902716E-03  0.1223215E+00  0.2099279E-01 -0.2486776E+00
3812407. -0.2272816E+00  0.1281842E+01 -0.9359989E-03  0.1385461E+00  0.2247116E-01 -0.2679304E+00
3775926. -0.2345508E+00  0.1255282E+01 -0.1782012E-02  0.1574226E+00  0.2406430E-01 -0.2887976E+00
3739444. -0.2416337E+00  0.1216295E+01 -0.2744699E-02  0.1793602E+00  0.2578198E-01 -0.3114448E+00
3702963. -0.2484512E+00  0.1162092E+01 -0.3842846E-02  0.2048347E+00  0.2763482E-01 -0.3360477E+00
3666482. -0.2549064E+00  0.1089126E+01 -0.5098381E-02  0.2344337E+00  0.2963443E-01 -0.3627393E+00
3630000. -0.2608809E+00  0.9934543E+00 -0.6536751E-02  0.2687975E+00  0.3179349E-01 -0.3917557E+00
3630000. -0.2608809E+00  0.9934543E+00 -0.6536751E-02  0.2687975E+00  0.3179349E-01 -0.3917557E+00
3592500. -0.2663698E+00  0.8662199E+00 -0.8236801E-02  0.3099104E+00  0.3419349E-01 -0.4241909E+00
3555000. -0.2710084E+00  0.7034378E+00 -0.1019845E-01  0.3578600E+00  0.3679278E-01 -0.4595231E+00
3517500. -0.2745664E+00  0.4976459E+00 -0.1246520E-01  0.4137898E+00  0.3960934E-01 -0.4980659E+00
3480000. -0.2767645E+00  0.2396621E+00 -0.1508794E-01  0.4790636E+00  0.4266288E-01 -0.5400920E+00
3480000. -0.2767645E+00 -0.3206325E+01 -0.3526841E-01 -0.4415774E+00  0.4266288E-01  0.3474874E+00
3409422. -0.2427693E+00 -0.2931302E+01 -0.3063107E-01 -0.3960921E+00  0.3872922E-01  0.3600605E+00
3338844. -0.2118037E+00 -0.2660232E+01 -0.2648209E-01 -0.3534449E+00  0.3473594E-01  0.3589163E+00
3268266. -0.1837981E+00 -0.2397535E+01 -0.2278912E-01 -0.3137811E+00  0.3081425E-01  0.3476804E+00
3197688. -0.1586407E+00 -0.2146508E+01 -0.1951873E-01 -0.2771564E+00  0.2705897E-01  0.3293173E+00
3127109. -0.1361878E+00 -0.1909513E+01 -0.1663717E-01 -0.2435692E+00  0.2353525E-01  0.3062233E+00
3056531. -0.1162754E+00 -0.1688132E+01 -0.1411112E-01 -0.2129690E+00  0.2028460E-01  0.2803091E+00
2985953. -0.9872440E-01 -0.1483294E+01 -0.1190794E-01 -0.1852617E+00  0.1732956E-01  0.2530721E+00
2915375. -0.8334885E-01 -0.1295412E+01 -0.9996234E-02 -0.1603231E+00  0.1467814E-01  0.2256593E+00
2844797. -0.6996059E-01 -0.1124480E+01 -0.8346124E-02 -0.1380089E+00  0.1232731E-01  0.1989260E+00
2774219. -0.5837347E-01 -0.9701601E+00 -0.6929405E-02 -0.1181591E+00  0.1026593E-01  0.1734874E+00
2703641. -0.4840652E-01 -0.8318620E+00 -0.5719719E-02 -0.1006026E+00  0.8477175E-02  0.1497614E+00
2633062. -0.3988631E-01 -0.7088060E+00 -0.4692616E-02 -0.8516408E-01  0.6940497E-02  0.1280063E+00
2562484. -0.3264914E-01 -0.6000828E+00 -0.3825632E-02 -0.7166853E-01  0.5633258E-02  0.1083562E+00
2491906. -0.2654164E-01 -0.5046878E+00 -0.3098200E-02 -0.5994073E-01  0.4531840E-02  0.9084685E-01
2421328. -0.2142193E-01 -0.4215699E+00 -0.2491685E-02 -0.4981069E-01  0.3612685E-02  0.7543947E-01
2350750. -0.1715995E-01 -0.3496566E+00 -0.1989295E-02 -0.4111573E-01  0.2852976E-02  0.6204168E-01
2280172. -0.1363750E-01 -0.2878809E+00 -0.1576000E-02 -0.3370048E-01  0.2231143E-02  0.5052382E-01
2209594. -0.1074808E-01 -0.2352009E+00 -0.1238442E-02 -0.2741875E-01  0.1727195E-02  0.4073183E-01
2139016. -0.8396502E-02 -0.1906153E+00 -0.9648287E-03 -0.2213421E-01  0.1322931E-02  0.3249848E-01
2068438. -0.6498422E-02 -0.1531748E+00 -0.7448205E-03 -0.1772090E-01  0.1002038E-02  0.2565168E-01
1997859. -0.4979644E-02 -0.1219904E+00 -0.5694127E-03 -0.1406324E-01  0.7500982E-03  0.2002124E-01
1927281. -0.3775518E-02 -0.9624052E-01 -0.4308317E-03 -0.1105606E-01  0.5545564E-03  0.1544380E-01
1856703. -0.2830057E-02 -0.7517237E-01 -0.3224044E-03 -0.8604350E-02  0.4046047E-03  0.1176595E-01
1786125. -0.2095231E-02 -0.5810570E-01 -0.2384583E-03 -0.6622864E-02  0.2910699E-03  0.8846818E-02
1715547. -0.1530140E-02 -0.4443373E-01 -0.1742140E-03 -0.5035455E-02  0.2062636E-03  0.6559364E-02
1644969. -0.1100193E-02 -0.3362491E-01 -0.1256887E-03 -0.3774324E-02  0.1438258E-03  0.4790882E-02
1574391. -0.7762563E-03 -0.2522639E-01 -0.8961015E-04 -0.2778710E-02  0.9856510E-04  0.3443053E-02
1503812. -0.5337318E-03 -0.1887386E-01 -0.6334857E-04 -0.1992931E-02  0.6630126E-04  0.2431412E-02
1433234. -0.3514788E-03 -0.1431514E-01 -0.4487822E-04 -0.1363029E-02  0.4371756E-04  0.1684662E-02
1362656. -0.2102919E-03 -0.1146453E-01 -0.3278932E-04 -0.8300329E-03  0.2821734E-04  0.1143704E-02
1292078. -0.9045695E-04 -0.1053172E-01 -0.2641249E-04 -0.3159390E-03  0.1779488E-04  0.7609309E-03
1221500.  0.3297576E-04 -0.1232839E-01 -0.2618201E-04  0.3083548E-03  0.1090967E-04  0.5000164E-03
1221500.  0.3297576E-04  0.1773366E-04  0.9409505E-07 -0.1715015E-03  0.1090967E-04  0.4857311E-03
1183328.  0.3186487E-04  0.3282040E-03  0.8867750E-06 -0.9732139E-04  0.8315516E-05  0.3835909E-03
1145156.  0.2930041E-04  0.5094413E-03  0.1304892E-05 -0.4550612E-04  0.6275668E-05  0.3001961E-03
1106984.  0.2594761E-04  0.5965766E-03  0.1466155E-05 -0.1079022E-04  0.4686548E-05  0.2326864E-03
1068812.  0.2228309E-04  0.6176258E-03  0.1459694E-05  0.1112377E-04  0.3460734E-05  0.1785264E-03
1030641.  0.1863439E-04  0.5945372E-03  0.1351465E-05  0.2369407E-04  0.2525081E-05  0.1354909E-03
 992469.  0.1521299E-04  0.5441411E-03  0.1188909E-05  0.2965988E-04  0.1818841E-05  0.1016391E-03
 954297.  0.1214303E-04  0.4790151E-03  0.1004946E-05  0.3114949E-04  0.1292149E-05  0.7529890E-04
 916125.  0.9483927E-05  0.4082567E-03  0.8213139E-06  0.2978187E-04  0.9043982E-06  0.5504031E-04
 877953.  0.7249339E-05  0.3381617E-03  0.6513457E-06  0.2675814E-04  0.6228831E-06  0.3965231E-04
 839781.  0.5422078E-05  0.2728160E-03  0.5022367E-06  0.2293820E-04  0.4215528E-06  0.2812027E-04
 801609.  0.3965796E-05  0.2146087E-03  0.3768649E-06  0.1891415E-04  0.2799048E-06  0.1960321E-04
 763438.  0.2833856E-05  0.1646616E-03  0.2752215E-06  0.1506766E-04  0.1820120E-06  0.1341215E-04
 725266.  0.1975702E-05  0.1231851E-03  0.1954979E-06  0.1162305E-04  0.1156653E-06  0.8989141E-05
 687094.  0.1341572E-05  0.8977640E-04  0.1349152E-06  0.8688855E-05  0.7165850E-07  0.5889188E-05
 648922.  0.8853428E-06  0.6364848E-04  0.9029846E-07  0.6293127E-05  0.4315744E-07  0.3761913E-05
 610750.  0.5662966E-06  0.4381011E-04  0.5847548E-07  0.4410976E-05  0.2518275E-07  0.2336035E-05
 572578.  0.3499196E-06  0.2920025E-04  0.3652662E-07  0.2986054E-05  0.1417953E-07  0.1405123E-05
 534406.  0.2080184E-06  0.1878310E-04  0.2192270E-07  0.1946686E-05  0.7666907E-08  0.8151514E-06
 496234.  0.1183670E-06  0.1161080E-04  0.1258011E-07  0.1217377E-05  0.3957286E-08  0.4536877E-06
 458062.  0.6405852E-07  0.6859741E-05  0.6858992E-08  0.7265066E-06  0.1935490E-08  0.2406721E-06
 419891.  0.3270515E-07  0.3846590E-05  0.3524881E-08  0.4109614E-06  0.8887298E-09  0.1206872E-06
 381719.  0.1558701E-07  0.2028617E-05  0.1689623E-08  0.2183829E-06  0.3785456E-09  0.5660162E-07
 343547.  0.6838869E-08  0.9941164E-06  0.7450640E-09  0.1077213E-06  0.1472310E-09  0.2448227E-07
 305375.  0.2710679E-08  0.4452877E-06  0.2966050E-09  0.4852413E-07  0.5118482E-10  0.9582735E-08
 267203.  0.9452292E-09  0.1781312E-06  0.1038095E-09  0.1950562E-07  0.1543628E-10  0.3305124E-08
 229031.  0.2789763E-09  0.6151651E-07  0.3072913E-10  0.6760751E-08  0.3865281E-11  0.9659801E-09
 190859.  0.0000000E+00  0.0000000E+00  0.0000000E+00  0.0000000E+00  0.0000000E+00  0.0000000E+00
 152688.  0.0000000E+00  0.0000000E+00  0.0000000E+00  0.0000000E+00  0.0000000E+00  0.0000000E+00
 114516.  0.0000000E+00  0.0000000E+00  0.0000000E+00  0.0000000E+00  0.0000000E+00  0.0000000E+00
  76344.  0.0000000E+00  0.0000000E+00  0.0000000E+00  0.0000000E+00  0.0000000E+00  0.0000000E+00
  38172.  0.0000000E+00  0.0000000E+00  0.0000000E+00  0.0000000E+00  0.0000000E+00  0.0000000E+00
      0.  0.0000000E+00  0.0000000E+00  0.0000000E+00  0.0000000E+00  0.0000000E+00  0.0000000E+00
