       5        3 S      319        458.89029         24.92359          3.70391        296.07230      185    7
6371000. -0.9834460E-01  0.4006625E+00  0.6845187E-01  0.1667965E+00  0.1546385E-02  0.1792694E+00
6370000. -0.9840720E-01  0.3969636E+00  0.6842507E-01  0.1745953E+00  0.1518257E-02  0.1791395E+00
6369000. -0.9846922E-01  0.3932512E+00  0.6839705E-01  0.1823922E+00  0.1490149E-02  0.1790085E+00
6368000. -0.9853065E-01  0.3895252E+00  0.6836782E-01  0.1901868E+00  0.1462062E-02  0.1788764E+00
6368000. -0.9853065E-01  0.3895252E+00  0.6836782E-01  0.1901868E+00  0.1462062E-02  0.1788764E+00
6367000. -0.9859150E-01  0.3857857E+00  0.6833735E-01  0.1979792E+00  0.1433996E-02  0.1787433E+00
6366000. -0.9865176E-01  0.3820326E+00  0.6830566E-01  0.2057691E+00  0.1405951E-02  0.1786091E+00
6365000. -0.9871142E-01  0.3782661E+00  0.6827275E-01  0.2135564E+00  0.1377926E-02  0.1784739E+00
6364000. -0.9877050E-01  0.3744860E+00  0.6823862E-01  0.2213410E+00  0.1349924E-02  0.1783376E+00
6363000. -0.9882899E-01  0.3706925E+00  0.6820327E-01  0.2291227E+00  0.1321942E-02  0.1782002E+00
6362000. -0.9888687E-01  0.3668855E+00  0.6816670E-01  0.2369013E+00  0.1293983E-02  0.1780618E+00
6361000. -0.9894416E-01  0.3630652E+00  0.6812891E-01  0.2446768E+00  0.1266045E-02  0.1779223E+00
6360000. -0.9900084E-01  0.3592314E+00  0.6808989E-01  0.2524491E+00  0.1238129E-02  0.1777817E+00
6359000. -0.9905693E-01  0.3553841E+00  0.6804965E-01  0.2602178E+00  0.1210235E-02  0.1776401E+00
6358000. -0.9911241E-01  0.3515236E+00  0.6800820E-01  0.2679830E+00  0.1182364E-02  0.1774974E+00
6357000. -0.9916728E-01  0.3476496E+00  0.6796553E-01  0.2757445E+00  0.1154515E-02  0.1773537E+00
6356000. -0.9922154E-01  0.3437624E+00  0.6792164E-01  0.2835021E+00  0.1126688E-02  0.1772089E+00
6356000. -0.9922154E-01  0.3134360E+00  0.6792164E-01  0.2375333E+00  0.1126688E-02  0.1987984E+00
6355000. -0.9927052E-01  0.3106654E+00  0.6788395E-01  0.2426529E+00  0.1095498E-02  0.1986265E+00
6354000. -0.9931906E-01  0.3078863E+00  0.6784546E-01  0.2477704E+00  0.1064335E-02  0.1984537E+00
6353000. -0.9936717E-01  0.3050986E+00  0.6780617E-01  0.2528857E+00  0.1033199E-02  0.1982801E+00
6352000. -0.9941484E-01  0.3023023E+00  0.6776608E-01  0.2579986E+00  0.1002091E-02  0.1981057E+00
6351000. -0.9946207E-01  0.2994974E+00  0.6772518E-01  0.2631092E+00  0.9710095E-03  0.1979305E+00
6350000. -0.9950886E-01  0.2966840E+00  0.6768348E-01  0.2682173E+00  0.9399559E-03  0.1977544E+00
6349000. -0.9955521E-01  0.2938620E+00  0.6764098E-01  0.2733229E+00  0.9089300E-03  0.1975775E+00
6348000. -0.9960111E-01  0.2910315E+00  0.6759768E-01  0.2784260E+00  0.8779319E-03  0.1973997E+00
6347000. -0.9964657E-01  0.2881925E+00  0.6755358E-01  0.2835265E+00  0.8469618E-03  0.1972211E+00
6346600. -0.9966463E-01  0.2870545E+00  0.6753571E-01  0.2855659E+00  0.8345816E-03  0.1971495E+00
6346600. -0.9966463E-01  0.3673539E+00  0.6753571E-01  0.2473227E+00  0.8345816E-03  0.2319011E+00
6318800. -0.1011453E+00  0.3102339E+00  0.6622095E-01  0.3549164E+00 -0.1657322E-03  0.2265043E+00
6291000. -0.1023628E+00  0.2467870E+00  0.6444218E-01  0.4598721E+00 -0.1141396E-02  0.2206023E+00
6291000. -0.1023628E+00  0.2601557E+00  0.6444218E-01  0.4728005E+00 -0.1141396E-02  0.2206023E+00
6263000. -0.1033502E+00  0.1880633E+00  0.6212743E-01  0.5798880E+00 -0.2097226E-02  0.2142803E+00
6235000. -0.1040062E+00  0.1093772E+00  0.5935171E-01  0.6824436E+00 -0.3024104E-02  0.2074261E+00
6207000. -0.1043021E+00  0.2426260E-01  0.5613666E-01  0.7796835E+00 -0.3919679E-02  0.2000343E+00
6179000. -0.1042103E+00 -0.6705730E-01  0.5250729E-01  0.8708667E+00 -0.4781576E-02  0.1920998E+00
6151000. -0.1037041E+00 -0.1642894E+00  0.4849179E-01  0.9552904E+00 -0.5607404E-02  0.1836200E+00
6151000. -0.1037041E+00 -0.6778874E-01  0.4849179E-01  0.8551884E+00 -0.5607404E-02  0.1893575E+00
6128500. -0.1033646E+00 -0.1245984E+00  0.4538396E-01  0.9040363E+00 -0.6266939E-02  0.1841088E+00
6106000. -0.1028227E+00 -0.1824262E+00  0.4211190E-01  0.9481791E+00 -0.6907565E-02  0.1786502E+00
6083500. -0.1020750E+00 -0.2411031E+00  0.3869238E-01  0.9875197E+00 -0.7528555E-02  0.1729908E+00
6061000. -0.1011188E+00 -0.3004577E+00  0.3514254E-01  0.1021977E+01 -0.8129220E-02  0.1671419E+00
6038500. -0.9995212E-01 -0.3603196E+00  0.3147971E-01  0.1051501E+01 -0.8708908E-02  0.1611128E+00
6016000. -0.9857337E-01 -0.4205095E+00  0.2772136E-01  0.1076063E+01 -0.9267000E-02  0.1549128E+00
5993500. -0.9698175E-01 -0.4808470E+00  0.2388506E-01  0.1095649E+01 -0.9802910E-02  0.1485532E+00
5971000. -0.9517704E-01 -0.5411583E+00  0.1998835E-01  0.1110279E+01 -0.1031609E-01  0.1420426E+00
5971000. -0.9517704E-01 -0.4748173E+00  0.1998835E-01  0.1001500E+01 -0.1031609E-01  0.1545021E+00
5937667. -0.9252752E-01 -0.5373700E+00  0.1479185E-01  0.9835688E+00 -0.1110382E-01  0.1465964E+00
5904333. -0.8956060E-01 -0.5960922E+00  0.9709379E-02  0.9580486E+00 -0.1184989E-01  0.1385759E+00
5871000. -0.8629679E-01 -0.6508756E+00  0.4777975E-02  0.9260584E+00 -0.1255378E-01  0.1304840E+00
5837667. -0.8275680E-01 -0.7016554E+00  0.2860451E-04  0.8886302E+00 -0.1321522E-01  0.1223602E+00
5804333. -0.7896155E-01 -0.7484053E+00 -0.4512949E-02  0.8467159E+00 -0.1383417E-01  0.1142389E+00
5771000. -0.7493239E-01 -0.7911138E+00 -0.8825231E-02  0.8011781E+00 -0.1441070E-01  0.1061546E+00
5771000. -0.7493239E-01 -0.7911221E+00 -0.8825231E-02  0.8011543E+00 -0.1441070E-01  0.1061546E+00
5701000. -0.6548978E-01 -0.9260261E+00 -0.1733243E-01  0.7437446E+00 -0.1546166E-01  0.8506890E-01
5701000. -0.6548978E-01 -0.7689769E+00 -0.1733243E-01  0.5974816E+00 -0.1546166E-01  0.1035281E+00
5667333. -0.6146427E-01 -0.7638294E+00 -0.2026866E-01  0.5239453E+00 -0.1598612E-01  0.9523842E-01
5633667. -0.5732558E-01 -0.8063692E+00 -0.2295377E-01  0.4952176E+00 -0.1647010E-01  0.8798279E-01
5600000. -0.5295416E-01 -0.8469015E+00 -0.2549130E-01  0.4641825E+00 -0.1691564E-01  0.8061919E-01
5600000. -0.5295416E-01 -0.8469015E+00 -0.2549130E-01  0.4641825E+00 -0.1691564E-01  0.8061919E-01
5563518. -0.4798502E-01 -0.8882394E+00 -0.2804742E-01  0.4282072E+00 -0.1735433E-01  0.7259090E-01
5527037. -0.4278707E-01 -0.9268369E+00 -0.3039117E-01  0.3900746E+00 -0.1774688E-01  0.6451049E-01
5490556. -0.3737642E-01 -0.9624910E+00 -0.3251097E-01  0.3500207E+00 -0.1809304E-01  0.5639311E-01
5454074. -0.3177048E-01 -0.9949768E+00 -0.3439649E-01  0.3082737E+00 -0.1839267E-01  0.4825476E-01
5417593. -0.2598782E-01 -0.1024249E+01 -0.3603878E-01  0.2651280E+00 -0.1864565E-01  0.4010359E-01
5381111. -0.2004707E-01 -0.1050107E+01 -0.3743060E-01  0.2208176E+00 -0.1885195E-01  0.3195213E-01
5344630. -0.1396851E-01 -0.1072434E+01 -0.3856594E-01  0.1756034E+00 -0.1901160E-01  0.2381142E-01
5308148. -0.7772106E-02 -0.1091185E+01 -0.3944046E-01  0.1297494E+00 -0.1912468E-01  0.1568859E-01
5271667. -0.1479242E-02 -0.1106165E+01 -0.4005110E-01  0.8349063E-01 -0.1919133E-01  0.7594146E-02
5235185.  0.4888741E-02 -0.1117367E+01 -0.4039634E-01  0.3708516E-01 -0.1921172E-01 -0.4649544E-03
5198704.  0.1130981E-01 -0.1124741E+01 -0.4047601E-01 -0.9224560E-02 -0.1918608E-01 -0.8481801E-02
5162222.  0.1776188E-01 -0.1128127E+01 -0.4029131E-01 -0.5521115E-01 -0.1911467E-01 -0.1645187E-01
5125741.  0.2422194E-01 -0.1127601E+01 -0.3984478E-01 -0.1006373E+00 -0.1899778E-01 -0.2436728E-01
5089259.  0.3066784E-01 -0.1123102E+01 -0.3914025E-01 -0.1452873E+00 -0.1883572E-01 -0.3222567E-01
5052778.  0.3707626E-01 -0.1114579E+01 -0.3818281E-01 -0.1889428E+00 -0.1862883E-01 -0.4002435E-01
5016296.  0.4342474E-01 -0.1102109E+01 -0.3697868E-01 -0.2314082E+00 -0.1837747E-01 -0.4775821E-01
4979815.  0.4969025E-01 -0.1085654E+01 -0.3553530E-01 -0.2724821E+00 -0.1808201E-01 -0.5542815E-01
4943333.  0.5585038E-01 -0.1065260E+01 -0.3386111E-01 -0.3119842E+00 -0.1774281E-01 -0.6303307E-01
4906852.  0.6188253E-01 -0.1041014E+01 -0.3196567E-01 -0.3497490E+00 -0.1736027E-01 -0.7056922E-01
4870370.  0.6776492E-01 -0.1012902E+01 -0.2985931E-01 -0.3856006E+00 -0.1693474E-01 -0.7804497E-01
4833889.  0.7347541E-01 -0.9810563E+00 -0.2755355E-01 -0.4194017E+00 -0.1646660E-01 -0.8545525E-01
4797407.  0.7899326E-01 -0.9455693E+00 -0.2506033E-01 -0.4510233E+00 -0.1595619E-01 -0.9280252E-01
4760926.  0.8429737E-01 -0.9064709E+00 -0.2239274E-01 -0.4803098E+00 -0.1540388E-01 -0.1000996E+00
4724444.  0.8936787E-01 -0.8639511E+00 -0.1956424E-01 -0.5071844E+00 -0.1480993E-01 -0.1073383E+00
4687963.  0.9418520E-01 -0.8181044E+00 -0.1658910E-01 -0.5315348E+00 -0.1417469E-01 -0.1145298E+00
4651482.  0.9873072E-01 -0.7690428E+00 -0.1348201E-01 -0.5532615E+00 -0.1349838E-01 -0.1216838E+00
4615000.  0.1029867E+00 -0.7169573E+00 -0.1025803E-01 -0.5723204E+00 -0.1278121E-01 -0.1287973E+00
4578518.  0.1069360E+00 -0.6619665E+00 -0.6932761E-02 -0.5886258E+00 -0.1202337E-01 -0.1358873E+00
4542037.  0.1105625E+00 -0.6042506E+00 -0.3522214E-02 -0.6021370E+00 -0.1122501E-01 -0.1429594E+00
4505556.  0.1138512E+00 -0.5440047E+00 -0.4230984E-04 -0.6128422E+00 -0.1038621E-01 -0.1500153E+00
4469074.  0.1167880E+00 -0.4813679E+00  0.3490786E-02 -0.6206778E+00 -0.9506954E-02 -0.1570823E+00
4432593.  0.1193598E+00 -0.4165708E+00  0.7060495E-02 -0.6256701E+00 -0.8587234E-02 -0.1641569E+00
4396111.  0.1215549E+00 -0.3498059E+00  0.1065077E-01 -0.6278220E+00 -0.7626932E-02 -0.1712522E+00
4359630.  0.1233625E+00 -0.2812576E+00  0.1424506E-01 -0.6271133E+00 -0.6625897E-02 -0.1783947E+00
4323148.  0.1247730E+00 -0.2111627E+00  0.1782738E-01 -0.6236143E+00 -0.5583807E-02 -0.1855828E+00
4286667.  0.1257782E+00 -0.1397296E+00  0.2138163E-01 -0.6173430E+00 -0.4500407E-02 -0.1928383E+00
4250185.  0.1263711E+00 -0.6717300E-01  0.2489220E-01 -0.6083387E+00 -0.3375182E-02 -0.2001819E+00
4213704.  0.1265458E+00  0.6268720E-02  0.2834351E-01 -0.5966909E+00 -0.2207677E-02 -0.2076196E+00
4177222.  0.1262980E+00  0.8037841E-01  0.3172073E-01 -0.5824374E+00 -0.9972067E-03 -0.2151818E+00
4140741.  0.1256245E+00  0.1549172E+00  0.3500900E-01 -0.5656711E+00  0.2569313E-03 -0.2228841E+00
4104259.  0.1245235E+00  0.2296585E+00  0.3819441E-01 -0.5464957E+00  0.1555625E-02 -0.2307375E+00
4067778.  0.1229945E+00  0.3043601E+00  0.4126316E-01 -0.5249677E+00  0.2899800E-02 -0.2387865E+00
4031296.  0.1210384E+00  0.3787957E+00  0.4420231E-01 -0.5012249E+00  0.4290676E-02 -0.2470364E+00
3994815.  0.1186574E+00  0.4527313E+00  0.4699936E-01 -0.4753779E+00  0.5729379E-02 -0.2555127E+00
3958333.  0.1158550E+00  0.5259220E+00  0.4964264E-01 -0.4475133E+00  0.7217425E-02 -0.2642601E+00
3921852.  0.1126362E+00  0.5981505E+00  0.5212091E-01 -0.4177891E+00  0.8756310E-02 -0.2732873E+00
3885370.  0.1090071E+00  0.6691840E+00  0.5442398E-01 -0.3863175E+00  0.1034782E-01 -0.2826350E+00
3848889.  0.1049754E+00  0.7387815E+00  0.5654206E-01 -0.3532264E+00  0.1199383E-01 -0.2923388E+00
3812407.  0.1005495E+00  0.8067497E+00  0.5846646E-01 -0.3186706E+00  0.1369652E-01 -0.3024223E+00
3775926.  0.9573987E-01  0.8728353E+00  0.6018903E-01 -0.2827707E+00  0.1545810E-01 -0.3129362E+00
3739444.  0.9055755E-01  0.9368408E+00  0.6170258E-01 -0.2456775E+00  0.1728126E-01 -0.3239139E+00
3702963.  0.8501527E-01  0.9985750E+00  0.6300064E-01 -0.2075438E+00  0.1916863E-01 -0.3353914E+00
3666482.  0.7912663E-01  0.1057783E+01  0.6407766E-01 -0.1684957E+00  0.2112331E-01 -0.3474307E+00
3630000.  0.7290637E-01  0.1114318E+01  0.6492887E-01 -0.1286930E+00  0.2314867E-01 -0.3600676E+00
3630000.  0.7290637E-01  0.1114318E+01  0.6492887E-01 -0.1286930E+00  0.2314867E-01 -0.3600676E+00
3592500.  0.6618387E-01  0.1169393E+01  0.6556435E-01 -0.8713645E-01  0.2530795E-01 -0.3737454E+00
3555000.  0.5914675E-01  0.1221193E+01  0.6595369E-01 -0.4508739E-01  0.2754993E-01 -0.3881815E+00
3517500.  0.5181472E-01  0.1269573E+01  0.6609447E-01 -0.2703984E-02  0.2987925E-01 -0.4034334E+00
3480000.  0.4420855E-01  0.1314310E+01  0.6598515E-01  0.3986746E-01  0.3230094E-01 -0.4195791E+00
3480000.  0.4420855E-01  0.6542498E+00 -0.1779946E-01  0.1138578E+00  0.3230094E-01 -0.5613552E+00
3409422.  0.3694727E-01  0.6553921E+00 -0.1901117E-01  0.1048098E+00  0.3821082E-01 -0.5053891E+00
3338844.  0.2971482E-01  0.6491826E+00 -0.2011976E-01  0.9525506E-01  0.4349484E-01 -0.4484712E+00
3268266.  0.2258797E-01  0.6364695E+00 -0.2112015E-01  0.8529544E-01  0.4814592E-01 -0.3912171E+00
3197688.  0.1563421E-01  0.6180638E+00 -0.2200846E-01  0.7503536E-01  0.5216352E-01 -0.3341957E+00
3127109.  0.8912287E-02  0.5947171E+00 -0.2278187E-01  0.6456646E-01  0.5555320E-01 -0.2779287E+00
3056531.  0.2473149E-02  0.5671434E+00 -0.2343854E-01  0.5397203E-01  0.5832592E-01 -0.2228935E+00
2985953. -0.3640211E-02  0.5360090E+00 -0.2397751E-01  0.4333154E-01  0.6049777E-01 -0.1695184E+00
2915375. -0.9391831E-02  0.5019369E+00 -0.2439871E-01  0.3272140E-01  0.6208932E-01 -0.1181857E+00
2844797. -0.1475246E-01  0.4655154E+00 -0.2470284E-01  0.2220688E-01  0.6312509E-01 -0.6923198E-01
2774219. -0.1969914E-01  0.4272903E+00 -0.2489130E-01  0.1184704E-01  0.6363309E-01 -0.2294868E-01
2703641. -0.2421476E-01  0.3877754E+00 -0.2496611E-01  0.1701132E-02  0.6364432E-01  0.2041673E-01
2633062. -0.2828779E-01  0.3474542E+00 -0.2492996E-01 -0.8181170E-02  0.6319226E-01  0.6065987E-01
2562484. -0.3191170E-01  0.3067772E+00 -0.2478597E-01 -0.1776161E-01  0.6231247E-01  0.9761639E-01
2491906. -0.3508501E-01  0.2661695E+00 -0.2453770E-01 -0.2699854E-01  0.6104207E-01  0.1311636E+00
2421328. -0.3781070E-01  0.2260317E+00 -0.2418918E-01 -0.3585730E-01  0.5941932E-01  0.1612158E+00
2350750. -0.4009613E-01  0.1867500E+00 -0.2374472E-01 -0.4431891E-01  0.5748326E-01  0.1877236E+00
2280172. -0.4195285E-01  0.1486904E+00 -0.2320879E-01 -0.5236534E-01  0.5527325E-01  0.2106731E+00
2209594. -0.4339636E-01  0.1122113E+00 -0.2258608E-01 -0.5998764E-01  0.5282866E-01  0.2300819E+00
2139016. -0.4444615E-01  0.7766774E-01 -0.2188127E-01 -0.6718665E-01  0.5018846E-01  0.2459982E+00
2068438. -0.4512567E-01  0.4542621E-01 -0.2109899E-01 -0.7397820E-01  0.4739094E-01  0.2584976E+00
1997859. -0.4546252E-01  0.1586859E-01 -0.2024358E-01 -0.8039518E-01  0.4447338E-01  0.2676820E+00
1927281. -0.4548875E-01 -0.1057563E-01 -0.1931896E-01 -0.8648536E-01  0.4147192E-01  0.2736754E+00
1856703. -0.4524149E-01 -0.3341689E-01 -0.1832832E-01 -0.9232903E-01  0.3842108E-01  0.2766216E+00
1786125. -0.4476387E-01 -0.5205334E-01 -0.1727379E-01 -0.9804403E-01  0.3535374E-01  0.2766813E+00
1715547. -0.4410652E-01 -0.6571904E-01 -0.1615592E-01 -0.1037967E+00  0.3230094E-01  0.2740274E+00
1644969. -0.4332988E-01 -0.7339407E-01 -0.1497303E-01 -0.1098334E+00  0.2929174E-01  0.2688399E+00
1574391. -0.4250768E-01 -0.7366381E-01 -0.1372011E-01 -0.1165107E+00  0.2635320E-01  0.2613007E+00
1503812. -0.4173247E-01 -0.6450457E-01 -0.1238734E-01 -0.1243504E+00  0.2351036E-01  0.2515840E+00
1433234. -0.4112414E-01 -0.4293593E-01 -0.1095786E-01 -0.1341316E+00  0.2078653E-01  0.2398455E+00
1362656. -0.4084335E-01 -0.4450594E-02 -0.9404072E-02 -0.1470340E+00  0.1820336E-01  0.2262032E+00
1292078. -0.4111333E-01  0.5794355E-01 -0.7682017E-02 -0.1648873E+00  0.1578159E-01  0.2107102E+00
1221500. -0.4225570E-01  0.1553774E+00 -0.5722065E-02 -0.1905873E+00  0.1354188E-01  0.1933100E+00
1221500. -0.4225570E-01  0.3432411E+00 -0.1458587E-02  0.2127863E+00  0.1354188E-01  0.2116153E+00
1183328. -0.4416110E-01  0.2921109E+00 -0.2718865E-02  0.2072883E+00  0.1231254E-01  0.1988046E+00
1145156. -0.4574883E-01  0.2373266E+00 -0.3935434E-02  0.1982358E+00  0.1115889E-01  0.1863480E+00
1106984. -0.4699930E-01  0.1796674E+00 -0.5087771E-02  0.1858969E+00  0.1007880E-01  0.1742525E+00
1068812. -0.4789772E-01  0.1199512E+00 -0.6157129E-02  0.1705953E+00  0.9070073E-02  0.1625269E+00
1030641. -0.4843427E-01  0.5902430E-01 -0.7126824E-02  0.1527032E+00  0.8130502E-02  0.1511781E+00
 992469. -0.4860429E-01 -0.2258305E-02 -0.7982597E-02  0.1326305E+00  0.7257758E-02  0.1402125E+00
 954297. -0.4840822E-01 -0.6303538E-01 -0.8712670E-02  0.1108200E+00  0.6449548E-02  0.1296377E+00
 916125. -0.4785163E-01 -0.1224588E+00 -0.9308013E-02  0.8773609E-01  0.5703514E-02  0.1194585E+00
 877953. -0.4694513E-01 -0.1797036E+00 -0.9762417E-02  0.6385347E-01  0.5017268E-02  0.1096812E+00
 839781. -0.4570415E-01 -0.2339794E+00 -0.1007254E-01  0.3965426E-01  0.4388387E-02  0.1003105E+00
 801609. -0.4414874E-01 -0.2845423E+00 -0.1023790E-01  0.1561042E-01  0.3814423E-02  0.9135039E-01
 763438. -0.4230328E-01 -0.3307016E+00 -0.1026084E-01 -0.7813909E-02  0.3292916E-02  0.8280503E-01
 725266. -0.4019597E-01 -0.3718373E+00 -0.1014637E-01 -0.3018430E-01  0.2821347E-02  0.7467692E-01
 687094. -0.3785865E-01 -0.4073964E+00 -0.9902060E-02 -0.5108845E-01  0.2397222E-02  0.6696804E-01
 648922. -0.3532616E-01 -0.4369097E+00 -0.9537838E-02 -0.7015412E-01  0.2018023E-02  0.5968100E-01
 610750. -0.3263594E-01 -0.4599937E+00 -0.9065726E-02 -0.8705143E-01  0.1681219E-02  0.5281645E-01
 572578. -0.2982743E-01 -0.4763555E+00 -0.8499588E-02 -0.1014975E+00  0.1384276E-02  0.4637503E-01
 534406. -0.2694154E-01 -0.4857968E+00 -0.7854829E-02 -0.1132613E+00  0.1124659E-02  0.4035710E-01
 496234. -0.2402010E-01 -0.4882159E+00 -0.7148077E-02 -0.1221667E+00  0.8998301E-03  0.3476238E-01
 458062. -0.2110523E-01 -0.4836085E+00 -0.6396840E-02 -0.1280955E+00  0.7072565E-03  0.2959002E-01
 419891. -0.1823889E-01 -0.4720675E+00 -0.5619184E-02 -0.1309877E+00  0.5444137E-03  0.2483932E-01
 381719. -0.1546195E-01 -0.4537797E+00 -0.4833288E-02 -0.1308431E+00  0.4087716E-03  0.2050865E-01
 343547. -0.1281412E-01 -0.4290254E+00 -0.4057237E-02 -0.1277165E+00  0.2978211E-03  0.1659689E-01
 305375. -0.1033308E-01 -0.3981742E+00 -0.3308571E-02 -0.1217252E+00  0.2090571E-03  0.1310240E-01
 267203. -0.8054050E-02 -0.3616754E+00 -0.2603990E-02 -0.1130334E+00  0.1399841E-03  0.1002370E-01
 229031. -0.6009319E-02 -0.3200581E+00 -0.1959036E-02 -0.1018616E+00  0.8811545E-04  0.7359239E-02
 190859. -0.4227807E-02 -0.2739170E+00 -0.1387805E-02 -0.8847154E-01  0.5097385E-04  0.5107491E-02
 152688. -0.2734709E-02 -0.2239124E+00 -0.9027082E-03 -0.7316840E-01  0.2609110E-04  0.3267180E-02
 114516. -0.1550996E-02 -0.1707513E+00 -0.5141789E-03 -0.5629167E-01  0.1100459E-04  0.1837064E-02
  76344. -0.6933899E-03 -0.1151853E+00 -0.2305707E-03 -0.3820873E-01  0.3260078E-05  0.8162442E-03
  38172. -0.1739611E-03 -0.5799931E-01 -0.5795136E-04 -0.1930929E-01  0.4074682E-06  0.2040330E-03
      0.  0.0000000E+00  0.0000000E+00  0.0000000E+00  0.0000000E+00  0.0000000E+00  0.0000000E+00
