       3       37 S      257        124.37430          8.58273          8.70163        421.31839      185    7
6371000. -0.1473848E-03 -0.1057150E-01 -0.1933978E-04  0.1280450E-03  0.1357504E-04 -0.2379184E-03
6370000. -0.1457191E-03 -0.1065174E-01 -0.1935826E-04  0.1074293E-03  0.1361225E-04 -0.2361679E-03
6369000. -0.1440411E-03 -0.1072814E-01 -0.1937351E-04  0.8676806E-04  0.1364918E-04 -0.2344400E-03
6368000. -0.1423515E-03 -0.1080068E-01 -0.1938550E-04  0.6606564E-04  0.1368585E-04 -0.2327347E-03
6368000. -0.1423515E-03 -0.1080068E-01 -0.1938550E-04  0.6606564E-04  0.1368585E-04 -0.2327347E-03
6367000. -0.1406508E-03 -0.1086935E-01 -0.1939425E-04  0.4532617E-04  0.1372224E-04 -0.2310522E-03
6366000. -0.1389396E-03 -0.1093412E-01 -0.1939973E-04  0.2455386E-04  0.1375838E-04 -0.2293927E-03
6365000. -0.1372185E-03 -0.1099500E-01 -0.1940195E-04  0.3752939E-05  0.1379426E-04 -0.2277563E-03
6364000. -0.1354882E-03 -0.1105198E-01 -0.1940091E-04 -0.1707237E-04  0.1382988E-04 -0.2261433E-03
6363000. -0.1337493E-03 -0.1110503E-01 -0.1939659E-04 -0.3791785E-04  0.1386525E-04 -0.2245536E-03
6362000. -0.1320023E-03 -0.1115417E-01 -0.1938900E-04 -0.5877924E-04  0.1390037E-04 -0.2229875E-03
6361000. -0.1302479E-03 -0.1119937E-01 -0.1937814E-04 -0.7965231E-04  0.1393525E-04 -0.2214452E-03
6360000. -0.1284868E-03 -0.1124064E-01 -0.1936400E-04 -0.1005328E-03  0.1396989E-04 -0.2199268E-03
6359000. -0.1267194E-03 -0.1127796E-01 -0.1934658E-04 -0.1214165E-03  0.1400429E-04 -0.2184325E-03
6358000. -0.1249466E-03 -0.1131134E-01 -0.1932588E-04 -0.1422991E-03  0.1403846E-04 -0.2169623E-03
6357000. -0.1231688E-03 -0.1134076E-01 -0.1930191E-04 -0.1631764E-03  0.1407240E-04 -0.2155166E-03
6356000. -0.1213866E-03 -0.1136624E-01 -0.1927466E-04 -0.1840441E-03  0.1410612E-04 -0.2140954E-03
6356000. -0.1213866E-03 -0.9773173E-02 -0.1927466E-04 -0.7051506E-04  0.1410612E-04 -0.1876830E-03
6355000. -0.1198506E-03 -0.9798598E-02 -0.1926273E-04 -0.8141460E-04  0.1413538E-04 -0.1852178E-03
6354000. -0.1183108E-03 -0.9821977E-02 -0.1924910E-04 -0.9231631E-04  0.1416426E-04 -0.1827707E-03
6353000. -0.1167674E-03 -0.9843307E-02 -0.1923375E-04 -0.1032188E-03  0.1419276E-04 -0.1803420E-03
6352000. -0.1152208E-03 -0.9862585E-02 -0.1921670E-04 -0.1141209E-03  0.1422088E-04 -0.1779317E-03
6351000. -0.1136714E-03 -0.9879811E-02 -0.1919793E-04 -0.1250210E-03  0.1424862E-04 -0.1755397E-03
6350000. -0.1121194E-03 -0.9894982E-02 -0.1917745E-04 -0.1359180E-03  0.1427598E-04 -0.1731662E-03
6349000. -0.1105653E-03 -0.9908098E-02 -0.1915526E-04 -0.1468105E-03  0.1430298E-04 -0.1708111E-03
6348000. -0.1090092E-03 -0.9919157E-02 -0.1913136E-04 -0.1576972E-03  0.1432961E-04 -0.1684746E-03
6347000. -0.1074515E-03 -0.9928160E-02 -0.1910576E-04 -0.1685766E-03  0.1435587E-04 -0.1661566E-03
6346600. -0.1068281E-03 -0.9931185E-02 -0.1909504E-04 -0.1729261E-03  0.1436627E-04 -0.1652347E-03
6346600. -0.1068281E-03 -0.1113833E-01 -0.1909504E-04 -0.8813918E-04  0.1436627E-04 -0.1279853E-03
6318800. -0.5810329E-04 -0.1103986E-01 -0.1837496E-04 -0.2413036E-03  0.1476508E-04 -0.5651389E-04
6291000. -0.1182853E-04 -0.1001859E-01 -0.1700216E-04 -0.3855490E-03  0.1487327E-04  0.5472584E-05
6291000. -0.1182853E-04 -0.1032948E-01 -0.1700216E-04 -0.3987049E-03  0.1487327E-04  0.5472584E-05
6263000.  0.2947083E-04 -0.8314432E-02 -0.1493794E-04 -0.5361719E-03  0.1473454E-04  0.5639888E-04
6235000.  0.6004791E-04 -0.5479234E-02 -0.1233611E-04 -0.6417717E-03  0.1438763E-04  0.1004236E-03
6207000.  0.7673338E-04 -0.2032682E-02 -0.9355740E-05 -0.7072929E-03  0.1386011E-04  0.1387903E-03
6179000.  0.7740555E-04  0.1760091E-02 -0.6185636E-05 -0.7275271E-03  0.1317434E-04  0.1726142E-03
6151000.  0.6119725E-04  0.5596904E-02 -0.3029965E-05 -0.7007430E-03  0.1234814E-04  0.2028299E-03
6151000.  0.6119725E-04  0.4152719E-02 -0.3029965E-05 -0.6238784E-03  0.1234814E-04  0.1994441E-03
6128500.  0.4238352E-04  0.6462837E-02 -0.9130814E-06 -0.5717606E-03  0.1162522E-04  0.2094217E-03
6106000.  0.1587863E-04  0.8493406E-02  0.9879540E-06 -0.5021857E-03  0.1087255E-04  0.2163286E-03
6083500. -0.1718012E-04  0.1016222E-01  0.2617579E-05 -0.4186844E-03  0.1010064E-04  0.2203487E-03
6061000. -0.5539612E-04  0.1140503E-01  0.3933458E-05 -0.3251870E-03  0.9319378E-05  0.2216496E-03
6038500. -0.9718054E-04  0.1217747E-01  0.4907582E-05 -0.2258450E-03  0.8538097E-05  0.2203836E-03
6016000. -0.1408245E-03  0.1245601E-01  0.5526720E-05 -0.1248448E-03  0.7765616E-05  0.2166875E-03
5993500. -0.1845730E-03  0.1223793E-01  0.5792226E-05 -0.2623488E-04  0.7010296E-05  0.2106833E-03
5971000. -0.2266974E-03  0.1154078E-01  0.5719292E-05  0.6622128E-04  0.6280109E-05  0.2024701E-03
5971000. -0.2266974E-03  0.1072900E-01  0.5719292E-05  0.8624575E-04  0.6280109E-05  0.2321467E-03
5937667. -0.2779849E-03  0.8768857E-02  0.4993160E-05  0.1862084E-03  0.5120264E-05  0.2105816E-03
5904333. -0.3175429E-03  0.6284493E-02  0.3825655E-05  0.2548072E-03  0.4082289E-05  0.1857260E-03
5871000. -0.3432454E-03  0.3511220E-02  0.2380625E-05  0.2926348E-03  0.3180740E-05  0.1586050E-03
5837667. -0.3541633E-03  0.6671192E-03  0.8121017E-06  0.3026596E-03  0.2425033E-05  0.1301094E-03
5804333. -0.3504312E-03 -0.2060740E-02 -0.7457037E-06  0.2893468E-03  0.1820455E-05  0.1009210E-03
5771000. -0.3330638E-03 -0.4523877E-02 -0.2184020E-05  0.2578928E-03  0.1369409E-05  0.7147506E-04
5771000. -0.3330638E-03 -0.4524060E-02 -0.2184020E-05  0.2578963E-03  0.1369409E-05  0.7147506E-04
5701000. -0.2585771E-03 -0.8723870E-02 -0.4412778E-05  0.1384820E-03  0.1035945E-05 -0.1296068E-04
5701000. -0.2585771E-03 -0.7505441E-02 -0.4412778E-05  0.1689639E-03  0.1035945E-05  0.5992291E-04
5667333. -0.2165744E-03 -0.8420749E-02 -0.5239826E-05  0.1435041E-03  0.7820607E-06  0.3845062E-04
5633667. -0.1691725E-03 -0.9519719E-02 -0.5918576E-05  0.1126071E-03  0.6134211E-06  0.2600570E-04
5600000. -0.1164843E-03 -0.1037114E-01 -0.6429093E-05  0.8078369E-04  0.5039412E-06  0.1581444E-04
5600000. -0.1164843E-03 -0.1037114E-01 -0.6429093E-05  0.8078369E-04  0.5039412E-06  0.1581444E-04
5563518. -0.5512322E-04 -0.1101251E-01 -0.6795535E-05  0.4747197E-04  0.4387624E-06  0.7343171E-05
5527037.  0.9093540E-05 -0.1137152E-01 -0.6976873E-05  0.1630072E-04  0.4157316E-06  0.1025672E-05
5490556.  0.7459931E-04 -0.1146638E-01 -0.6988009E-05 -0.1184812E-04  0.4236248E-06 -0.3516569E-05
5454074.  0.1399523E-03 -0.1132240E-01 -0.6848227E-05 -0.3631783E-04  0.4532388E-06 -0.6609558E-05
5417593.  0.2038715E-03 -0.1097187E-01 -0.6579995E-05 -0.5665913E-04  0.4970523E-06 -0.8518720E-05
5381111.  0.2652765E-03 -0.1044969E-01 -0.6207656E-05 -0.7265624E-04  0.5490205E-06 -0.9497077E-05
5344630.  0.3232875E-03 -0.9793438E-02 -0.5756322E-05 -0.8425608E-04  0.6044313E-06 -0.9748577E-05
5308148.  0.3772508E-03 -0.9041733E-02 -0.5250969E-05 -0.9155010E-04  0.6595436E-06 -0.9421754E-05
5271667.  0.4267241E-03 -0.8231758E-02 -0.4715580E-05 -0.9480045E-04  0.7116148E-06 -0.8711946E-05
5235185.  0.4714811E-03 -0.7399950E-02 -0.4172464E-05 -0.9429530E-04  0.7587288E-06 -0.7698736E-05
5198704.  0.5114932E-03 -0.6580253E-02 -0.3642142E-05 -0.9041272E-04  0.7993644E-06 -0.6474173E-05
5162222.  0.5469207E-03 -0.5803115E-02 -0.3142567E-05 -0.8361946E-04  0.8327690E-06 -0.5182312E-05
5125741.  0.5780872E-03 -0.5096760E-02 -0.2689402E-05 -0.7426930E-04  0.8585207E-06 -0.3800709E-05
5089259.  0.6054722E-03 -0.4485895E-02 -0.2296087E-05 -0.6278408E-04  0.8762562E-06 -0.2397716E-05
5052778.  0.6296844E-03 -0.3992221E-02 -0.1973696E-05 -0.4955245E-04  0.8860412E-06 -0.1020123E-05
5016296.  0.6514529E-03 -0.3635166E-02 -0.1731463E-05 -0.3482780E-04  0.8878664E-06  0.3859218E-06
4979815.  0.6716091E-03 -0.3432103E-02 -0.1577139E-05 -0.1888930E-04  0.8816238E-06  0.1794969E-05
4943333.  0.6910827E-03 -0.3399143E-02 -0.1517182E-05 -0.1875921E-05  0.8672247E-06  0.3252648E-05
4906852.  0.7108921E-03 -0.3552350E-02 -0.1557676E-05  0.1618818E-04  0.8440533E-06  0.4865636E-05
4870370.  0.7321517E-03 -0.3908275E-02 -0.1704503E-05  0.3527464E-04  0.8112190E-06  0.6640458E-05
4833889.  0.7560727E-03 -0.4485496E-02 -0.1964010E-05  0.5559533E-04  0.7673297E-06  0.8764500E-05
4797407.  0.7839854E-03 -0.5306311E-02 -0.2344131E-05  0.7744081E-04  0.7098375E-06  0.1140638E-04
4760926.  0.8173567E-03 -0.6397266E-02 -0.2854340E-05  0.1011176E-03  0.6355326E-06  0.1468121E-04
4724444.  0.8578286E-03 -0.7792392E-02 -0.3506987E-05  0.1273042E-03  0.5397033E-06  0.1898759E-04
4687963.  0.9072587E-03 -0.9534566E-02 -0.4318345E-05  0.1566764E-03  0.4155372E-06  0.2463162E-04
4651482.  0.9677837E-03 -0.1167785E-01 -0.5308996E-05  0.1901088E-03  0.2542401E-06  0.3205898E-04
4615000.  0.1041894E-02 -0.1429197E-01 -0.6505714E-05  0.2288541E-03  0.4356799E-07  0.4199732E-04
4578518.  0.1132525E-02 -0.1746443E-01 -0.7942585E-05  0.2742327E-03 -0.2329215E-06  0.5519260E-04
4542037.  0.1243176E-02 -0.2130608E-01 -0.9662348E-05  0.3280202E-03 -0.5968669E-06  0.7277885E-04
4505556.  0.1378070E-02 -0.2595836E-01 -0.1171950E-04  0.3924512E-03 -0.1077788E-05  0.9631561E-04
4469074.  0.1542337E-02 -0.3159694E-01 -0.1418169E-04  0.4699422E-03 -0.1714553E-05  0.1275741E-03
4432593.  0.1742230E-02 -0.3844497E-01 -0.1713287E-04  0.5638920E-03 -0.2558862E-05  0.1693445E-03
4396111.  0.1985461E-02 -0.4678341E-01 -0.2067850E-04  0.6782080E-03 -0.3680647E-05  0.2251137E-03
4359630.  0.2281508E-02 -0.5696042E-01 -0.2494732E-04  0.8174105E-03 -0.5172023E-05  0.2993503E-03
4323148.  0.2642136E-02 -0.6941945E-01 -0.3009913E-04  0.9876580E-03 -0.7156617E-05  0.3985933E-03
4286667.  0.3081914E-02 -0.8471123E-01 -0.3633052E-04  0.1195757E-02 -0.9800166E-05  0.5310980E-03
4250185.  0.3618984E-02 -0.1035254E+00 -0.4388143E-04  0.1450045E-02 -0.1332356E-04  0.7080701E-03
4213704.  0.4275877E-02 -0.1267288E+00 -0.5304513E-04  0.1760938E-02 -0.1802337E-04  0.9449428E-03
4177222.  0.5080730E-02 -0.1553960E+00 -0.6417780E-04  0.2139705E-02 -0.2429756E-04  0.1261773E-02
4140741.  0.6068473E-02 -0.1908658E+00 -0.7770563E-04  0.2600136E-02 -0.3267825E-04  0.1686139E-02
4104259.  0.7282729E-02 -0.2348076E+00 -0.9414149E-04  0.3157754E-02 -0.4388415E-04  0.2255469E-02
4067778.  0.8777554E-02 -0.2892490E+00 -0.1140827E-03  0.3827262E-02 -0.5887662E-04  0.3018336E-02
4031296.  0.1062009E-01 -0.3567007E+00 -0.1382194E-03  0.4625614E-02 -0.7894986E-04  0.4042995E-02
3994815.  0.1289315E-01 -0.4401842E+00 -0.1673275E-03  0.5565186E-02 -0.1058483E-03  0.5419486E-02
3958333.  0.1569857E-01 -0.5432653E+00 -0.2022297E-03  0.6648899E-02 -0.1419128E-03  0.7267496E-02
3921852.  0.1916012E-01 -0.6701282E+00 -0.2437348E-03  0.7868181E-02 -0.1902902E-03  0.9751893E-02
3885370.  0.2342735E-01 -0.8254378E+00 -0.2925212E-03  0.9180895E-02 -0.2552186E-03  0.1308912E-01
3848889.  0.2867687E-01 -0.1014080E+01 -0.3488821E-03  0.1049318E-01 -0.3423659E-03  0.1756911E-01
3812407.  0.3511358E-01 -0.1240751E+01 -0.4123639E-03  0.1162684E-01 -0.4593445E-03  0.2358093E-01
3775926.  0.4296519E-01 -0.1508675E+01 -0.4810695E-03  0.1224583E-01 -0.6162995E-03  0.3162955E-01
3739444.  0.5247057E-01 -0.1817883E+01 -0.5505563E-03  0.1177659E-01 -0.8267338E-03  0.4238538E-01
3702963.  0.6385098E-01 -0.2161731E+01 -0.6120472E-03  0.9244780E-02 -0.1108518E-02  0.5671348E-01
3666482.  0.7725717E-01 -0.2520699E+01 -0.6494278E-03  0.3011800E-02 -0.1485103E-02  0.7570165E-01
3630000.  0.9267008E-01 -0.2852866E+01 -0.6344955E-03 -0.9588242E-02 -0.1986988E-02  0.1007251E+00
3630000.  0.9267008E-01 -0.2852866E+01 -0.6344955E-03 -0.9588242E-02 -0.1986988E-02  0.1007251E+00
3592500.  0.1102180E+00 -0.3079835E+01 -0.5139424E-03 -0.3379853E-01 -0.2674649E-02  0.1344423E+00
3555000.  0.1283865E+00 -0.3027681E+01 -0.1994292E-03 -0.7712218E-01 -0.3589441E-02  0.1782462E+00
3517500.  0.1447506E+00 -0.2402943E+01  0.4558036E-03 -0.1522361E+00 -0.4796755E-02  0.2341485E+00
3480000.  0.1545654E+00 -0.6914858E+00  0.1694918E-02 -0.2798671E+00 -0.6372503E-02  0.3035802E+00
3480000.  0.1545654E+00  0.8177080E+01  0.5038555E-02  0.2736592E+00 -0.6372503E-02 -0.1921085E+00
3409422.  0.8500936E-01  0.4677981E+01  0.2730380E-02  0.1537183E+00 -0.4282062E-02 -0.1742690E+00
3338844.  0.4566938E-01  0.2609763E+01  0.1447327E-02  0.8437134E-01 -0.2621575E-02 -0.1244830E+00
3268266.  0.2396635E-01  0.1420328E+01  0.7503579E-03  0.4525311E-01 -0.1504892E-02 -0.7903606E-01
3197688.  0.1228444E-01  0.7542217E+00  0.3803802E-03  0.2371679E-01 -0.8216547E-03 -0.4652096E-01
3127109.  0.6148730E-02  0.3907812E+00  0.1884767E-03  0.1214314E-01 -0.4300940E-03 -0.2588136E-01
3056531.  0.3004383E-02  0.1975331E+00  0.9124367E-04  0.6072256E-02 -0.2168583E-03 -0.1375039E-01
2985953.  0.1432411E-02  0.9738509E-01  0.4313342E-04  0.2964344E-02 -0.1056226E-03 -0.7017744E-02
2915375.  0.6660118E-03  0.4680742E-01  0.1989830E-04  0.1412015E-02 -0.4977814E-04 -0.3452755E-02
2844797.  0.3017948E-03  0.2192176E-01  0.8951423E-05  0.6558570E-03 -0.2272057E-04 -0.1641073E-02
2774219.  0.1331750E-03  0.9997481E-02  0.3923575E-05  0.2968377E-03 -0.1004754E-04 -0.7543774E-03
2703641.  0.5717845E-04  0.4436317E-02  0.1674094E-05  0.1307977E-03 -0.4304689E-05 -0.3355623E-03
2633062.  0.2386170E-04  0.1913705E-02  0.6945881E-06  0.5605702E-04 -0.1786075E-05 -0.1444419E-03
2562484.  0.9668367E-05  0.8016976E-03  0.2799179E-06  0.2334260E-04 -0.7172379E-06 -0.6014705E-04
2491906.  0.3798721E-05  0.3257741E-03  0.1094268E-06  0.9432472E-05 -0.2785093E-06 -0.2421319E-04
2421328.  0.1445265E-05  0.1282399E-03  0.4143690E-07  0.3693782E-05 -0.1044579E-06 -0.9414704E-05
2350750.  0.5316298E-06  0.4883067E-04  0.1517522E-07  0.1399697E-05 -0.3779073E-07 -0.3531580E-05
2280172.  0.1887444E-06  0.1795610E-04  0.5365472E-08  0.5123752E-06 -0.1316712E-07 -0.1276217E-05
2209594.  0.6455225E-07  0.6364842E-05  0.1827958E-08  0.1808540E-06 -0.4410391E-08 -0.4435583E-06
2139016.  0.2122265E-07  0.2170376E-05  0.5987973E-09  0.6142700E-07 -0.1417282E-08 -0.1479842E-06
2068438.  0.6691358E-08  0.7103452E-06  0.1881557E-09  0.2003030E-07 -0.4359388E-09 -0.4728983E-07
1997859.  0.2017939E-08  0.2225792E-06  0.5656196E-10  0.6254595E-08 -0.1280109E-09 -0.1443852E-07
1927281.  0.5803975E-09  0.6658338E-07  0.1621951E-10  0.1864980E-08 -0.3578188E-10 -0.4200267E-08
1856703.  0.1586909E-09  0.1895473E-07  0.4421914E-11  0.5293467E-09 -0.9488973E-11 -0.1160548E-08
1786125.  0.4111793E-10  0.5113750E-08  0.1141331E-11  0.1425934E-09 -0.2376961E-11 -0.3036787E-09
1715547.  0.0000000E+00  0.0000000E+00  0.0000000E+00  0.0000000E+00  0.0000000E+00  0.0000000E+00
1644969.  0.0000000E+00  0.0000000E+00  0.0000000E+00  0.0000000E+00  0.0000000E+00  0.0000000E+00
1574391.  0.0000000E+00  0.0000000E+00  0.0000000E+00  0.0000000E+00  0.0000000E+00  0.0000000E+00
1503812.  0.0000000E+00  0.0000000E+00  0.0000000E+00  0.0000000E+00  0.0000000E+00  0.0000000E+00
1433234.  0.0000000E+00  0.0000000E+00  0.0000000E+00  0.0000000E+00  0.0000000E+00  0.0000000E+00
1362656.  0.0000000E+00  0.0000000E+00  0.0000000E+00  0.0000000E+00  0.0000000E+00  0.0000000E+00
1292078.  0.0000000E+00  0.0000000E+00  0.0000000E+00  0.0000000E+00  0.0000000E+00  0.0000000E+00
1221500.  0.0000000E+00  0.0000000E+00  0.0000000E+00  0.0000000E+00  0.0000000E+00  0.0000000E+00
1221500.  0.0000000E+00  0.0000000E+00  0.0000000E+00  0.0000000E+00  0.0000000E+00  0.0000000E+00
1183328.  0.0000000E+00  0.0000000E+00  0.0000000E+00  0.0000000E+00  0.0000000E+00  0.0000000E+00
1145156.  0.0000000E+00  0.0000000E+00  0.0000000E+00  0.0000000E+00  0.0000000E+00  0.0000000E+00
1106984.  0.0000000E+00  0.0000000E+00  0.0000000E+00  0.0000000E+00  0.0000000E+00  0.0000000E+00
1068812.  0.0000000E+00  0.0000000E+00  0.0000000E+00  0.0000000E+00  0.0000000E+00  0.0000000E+00
1030641.  0.0000000E+00  0.0000000E+00  0.0000000E+00  0.0000000E+00  0.0000000E+00  0.0000000E+00
 992469.  0.0000000E+00  0.0000000E+00  0.0000000E+00  0.0000000E+00  0.0000000E+00  0.0000000E+00
 954297.  0.0000000E+00  0.0000000E+00  0.0000000E+00  0.0000000E+00  0.0000000E+00  0.0000000E+00
 916125.  0.0000000E+00  0.0000000E+00  0.0000000E+00  0.0000000E+00  0.0000000E+00  0.0000000E+00
 877953.  0.0000000E+00  0.0000000E+00  0.0000000E+00  0.0000000E+00  0.0000000E+00  0.0000000E+00
 839781.  0.0000000E+00  0.0000000E+00  0.0000000E+00  0.0000000E+00  0.0000000E+00  0.0000000E+00
 801609.  0.0000000E+00  0.0000000E+00  0.0000000E+00  0.0000000E+00  0.0000000E+00  0.0000000E+00
 763438.  0.0000000E+00  0.0000000E+00  0.0000000E+00  0.0000000E+00  0.0000000E+00  0.0000000E+00
 725266.  0.0000000E+00  0.0000000E+00  0.0000000E+00  0.0000000E+00  0.0000000E+00  0.0000000E+00
 687094.  0.0000000E+00  0.0000000E+00  0.0000000E+00  0.0000000E+00  0.0000000E+00  0.0000000E+00
 648922.  0.0000000E+00  0.0000000E+00  0.0000000E+00  0.0000000E+00  0.0000000E+00  0.0000000E+00
 610750.  0.0000000E+00  0.0000000E+00  0.0000000E+00  0.0000000E+00  0.0000000E+00  0.0000000E+00
 572578.  0.0000000E+00  0.0000000E+00  0.0000000E+00  0.0000000E+00  0.0000000E+00  0.0000000E+00
 534406.  0.0000000E+00  0.0000000E+00  0.0000000E+00  0.0000000E+00  0.0000000E+00  0.0000000E+00
 496234.  0.0000000E+00  0.0000000E+00  0.0000000E+00  0.0000000E+00  0.0000000E+00  0.0000000E+00
 458062.  0.0000000E+00  0.0000000E+00  0.0000000E+00  0.0000000E+00  0.0000000E+00  0.0000000E+00
 419891.  0.0000000E+00  0.0000000E+00  0.0000000E+00  0.0000000E+00  0.0000000E+00  0.0000000E+00
 381719.  0.0000000E+00  0.0000000E+00  0.0000000E+00  0.0000000E+00  0.0000000E+00  0.0000000E+00
 343547.  0.0000000E+00  0.0000000E+00  0.0000000E+00  0.0000000E+00  0.0000000E+00  0.0000000E+00
 305375.  0.0000000E+00  0.0000000E+00  0.0000000E+00  0.0000000E+00  0.0000000E+00  0.0000000E+00
 267203.  0.0000000E+00  0.0000000E+00  0.0000000E+00  0.0000000E+00  0.0000000E+00  0.0000000E+00
 229031.  0.0000000E+00  0.0000000E+00  0.0000000E+00  0.0000000E+00  0.0000000E+00  0.0000000E+00
 190859.  0.0000000E+00  0.0000000E+00  0.0000000E+00  0.0000000E+00  0.0000000E+00  0.0000000E+00
 152688.  0.0000000E+00  0.0000000E+00  0.0000000E+00  0.0000000E+00  0.0000000E+00  0.0000000E+00
 114516.  0.0000000E+00  0.0000000E+00  0.0000000E+00  0.0000000E+00  0.0000000E+00  0.0000000E+00
  76344.  0.0000000E+00  0.0000000E+00  0.0000000E+00  0.0000000E+00  0.0000000E+00  0.0000000E+00
  38172.  0.0000000E+00  0.0000000E+00  0.0000000E+00  0.0000000E+00  0.0000000E+00  0.0000000E+00
      0.  0.0000000E+00  0.0000000E+00  0.0000000E+00  0.0000000E+00  0.0000000E+00  0.0000000E+00
