      26        5 S      741         95.07680         76.55089         24.81164         87.38370      185    7
6371000. -0.6102298E-02  0.1053613E-01  0.4869794E-03  0.6589277E-02  0.0000000E+00  0.0000000E+00
6370000. -0.6103554E-02  0.5461735E-02  0.4858411E-03  0.7914565E-02  0.0000000E+00  0.0000000E+00
6369000. -0.6104012E-02  0.3806971E-03  0.4844951E-03  0.9235063E-02  0.0000000E+00  0.0000000E+00
6368000. -0.6103673E-02 -0.4706310E-02  0.4829422E-03  0.1055021E-01  0.0000000E+00  0.0000000E+00
6368000. -0.6103673E-02 -0.4706310E-02  0.4829422E-03  0.1055021E-01  0.0000000E+00  0.0000000E+00
6367000. -0.6102534E-02 -0.9798610E-02  0.4811834E-03  0.1185943E-01  0.0000000E+00  0.0000000E+00
6366000. -0.6100597E-02 -0.1489552E-01  0.4792196E-03  0.1316217E-01  0.0000000E+00  0.0000000E+00
6365000. -0.6097858E-02 -0.1999637E-01  0.4770519E-03  0.1445787E-01  0.0000000E+00  0.0000000E+00
6364000. -0.6094319E-02 -0.2510046E-01  0.4746814E-03  0.1574597E-01  0.0000000E+00  0.0000000E+00
6363000. -0.6089979E-02 -0.3020711E-01  0.4721093E-03  0.1702593E-01  0.0000000E+00  0.0000000E+00
6362000. -0.6084837E-02 -0.3531563E-01  0.4693370E-03  0.1829718E-01  0.0000000E+00  0.0000000E+00
6361000. -0.6078892E-02 -0.4042534E-01  0.4663659E-03  0.1955919E-01  0.0000000E+00  0.0000000E+00
6360000. -0.6072146E-02 -0.4553553E-01  0.4631974E-03  0.2081141E-01  0.0000000E+00  0.0000000E+00
6359000. -0.6064598E-02 -0.5064551E-01  0.4598332E-03  0.2205332E-01  0.0000000E+00  0.0000000E+00
6358000. -0.6056247E-02 -0.5575458E-01  0.4562750E-03  0.2328436E-01  0.0000000E+00  0.0000000E+00
6357000. -0.6047095E-02 -0.6086205E-01  0.4525244E-03  0.2450402E-01  0.0000000E+00  0.0000000E+00
6356000. -0.6037141E-02 -0.6596721E-01  0.4485832E-03  0.2571178E-01  0.0000000E+00  0.0000000E+00
6356000. -0.6037141E-02 -0.4079279E-01  0.4485832E-03  0.1809655E-01  0.0000000E+00  0.0000000E+00
6355000. -0.6030448E-02 -0.4449532E-01  0.4456795E-03  0.1890223E-01  0.0000000E+00  0.0000000E+00
6354000. -0.6023173E-02 -0.4819737E-01  0.4426498E-03  0.1970155E-01  0.0000000E+00  0.0000000E+00
6353000. -0.6015318E-02 -0.5189857E-01  0.4394951E-03  0.2049429E-01  0.0000000E+00  0.0000000E+00
6352000. -0.6006881E-02 -0.5559854E-01  0.4362165E-03  0.2128022E-01  0.0000000E+00  0.0000000E+00
6351000. -0.5997864E-02 -0.5929693E-01  0.4328151E-03  0.2205911E-01  0.0000000E+00  0.0000000E+00
6350000. -0.5988267E-02 -0.6299335E-01  0.4292920E-03  0.2283073E-01  0.0000000E+00  0.0000000E+00
6349000. -0.5978089E-02 -0.6668743E-01  0.4256484E-03  0.2359486E-01  0.0000000E+00  0.0000000E+00
6348000. -0.5967332E-02 -0.7037881E-01  0.4218855E-03  0.2435129E-01  0.0000000E+00  0.0000000E+00
6347000. -0.5955996E-02 -0.7406711E-01  0.4180044E-03  0.2509979E-01  0.0000000E+00  0.0000000E+00
6346600. -0.5951299E-02 -0.7554147E-01  0.4164192E-03  0.2539692E-01  0.0000000E+00  0.0000000E+00
6346600. -0.5951299E-02 -0.4195847E-01  0.4164192E-03  0.1922308E-01  0.0000000E+00  0.0000000E+00
6318800. -0.5606768E-02 -0.1157885E+00  0.3006539E-03  0.3295200E-01  0.0000000E+00  0.0000000E+00
6291000. -0.4945543E-02 -0.1863575E+00  0.1380727E-03  0.4037543E-01  0.0000000E+00  0.0000000E+00
6291000. -0.4945543E-02 -0.1886879E+00  0.1380727E-03  0.4152361E-01  0.0000000E+00  0.0000000E+00
6263000. -0.3971786E-02 -0.2526817E+00 -0.4690422E-04  0.4127216E-01  0.0000000E+00  0.0000000E+00
6235000. -0.2743314E-02 -0.3038663E+00 -0.2130008E-03  0.3308245E-01  0.0000000E+00  0.0000000E+00
6207000. -0.1325584E-02 -0.3382068E+00 -0.3283486E-03  0.1855330E-01  0.0000000E+00  0.0000000E+00
6179000.  0.2002786E-03 -0.3526699E+00 -0.3707956E-03  0.4384200E-03  0.0000000E+00  0.0000000E+00
6151000.  0.1742611E-02 -0.3455379E+00 -0.3319374E-03 -0.1785604E-01  0.0000000E+00  0.0000000E+00
6151000.  0.1742611E-02 -0.2798109E+00 -0.3319374E-03 -0.1596618E-01  0.0000000E+00  0.0000000E+00
6128500.  0.2693847E-02 -0.2574537E+00 -0.2554092E-03 -0.2695330E-01  0.0000000E+00  0.0000000E+00
6106000.  0.3551567E-02 -0.2270537E+00 -0.1451549E-03 -0.3489769E-01  0.0000000E+00  0.0000000E+00
6083500.  0.4289670E-02 -0.1899564E+00 -0.1348158E-04 -0.3897943E-01  0.0000000E+00  0.0000000E+00
6061000.  0.4887201E-02 -0.1477173E+00  0.1251249E-03 -0.3879341E-01  0.0000000E+00  0.0000000E+00
6038500.  0.5328946E-02 -0.1020184E+00  0.2555322E-03 -0.3437972E-01  0.0000000E+00  0.0000000E+00
6016000.  0.5605725E-02 -0.5457845E-01  0.3635185E-03 -0.2620759E-01  0.0000000E+00  0.0000000E+00
5993500.  0.5714366E-02 -0.7069878E-02  0.4371966E-03 -0.1511717E-01  0.0000000E+00  0.0000000E+00
5971000.  0.5657414E-02  0.3895546E-01  0.4681704E-03 -0.2227435E-02  0.0000000E+00  0.0000000E+00
5971000.  0.5657414E-02  0.3533184E-01  0.4681704E-03 -0.2592025E-02  0.0000000E+00  0.0000000E+00
5937667.  0.5318252E-02  0.9262042E-01  0.4344766E-03  0.1516648E-01  0.0000000E+00  0.0000000E+00
5904333.  0.4707574E-02  0.1388481E+00  0.3153623E-03  0.2957919E-01  0.0000000E+00  0.0000000E+00
5871000.  0.3886411E-02  0.1730178E+00  0.1348681E-03  0.3835267E-01  0.0000000E+00  0.0000000E+00
5837667.  0.2918085E-02  0.1951848E+00 -0.7427724E-04  0.4046987E-01  0.0000000E+00  0.0000000E+00
5804333.  0.1863492E-02  0.2061656E+00 -0.2773333E-03  0.3615260E-01  0.0000000E+00  0.0000000E+00
5771000.  0.7780068E-03  0.2072464E+00 -0.4434586E-03  0.2662495E-01  0.0000000E+00  0.0000000E+00
5771000.  0.7780068E-03  0.2072484E+00 -0.4434586E-03  0.2662403E-01  0.0000000E+00  0.0000000E+00
5701000. -0.1472543E-02  0.1966635E+00 -0.5889985E-03 -0.1625499E-02  0.0000000E+00  0.0000000E+00
5701000. -0.1472543E-02  0.1619745E+00 -0.5889985E-03 -0.1079685E-02  0.0000000E+00  0.0000000E+00
5667333. -0.2257831E-02  0.1370576E+00 -0.5518211E-03 -0.1262240E-01  0.0000000E+00  0.0000000E+00
5633667. -0.2935199E-02  0.1194753E+00 -0.4574257E-03 -0.2289605E-01  0.0000000E+00  0.0000000E+00
5600000. -0.3513522E-02  0.9881239E-01 -0.3147338E-03 -0.3054907E-01  0.0000000E+00  0.0000000E+00
5600000. -0.3513522E-02  0.9881239E-01 -0.3147338E-03 -0.3054907E-01  0.0000000E+00  0.0000000E+00
5563518. -0.4008236E-02  0.7352777E-01 -0.1251715E-03 -0.3492450E-01  0.0000000E+00  0.0000000E+00
5527037. -0.4351032E-02  0.4585758E-01  0.7653103E-04 -0.3476169E-01  0.0000000E+00  0.0000000E+00
5490556. -0.4530042E-02  0.1642957E-01  0.2644879E-03 -0.3019749E-01  0.0000000E+00  0.0000000E+00
5454074. -0.4537156E-02 -0.1405652E-01  0.4153144E-03 -0.2195704E-01  0.0000000E+00  0.0000000E+00
5417593. -0.4368590E-02 -0.4478544E-01  0.5112113E-03 -0.1124387E-01  0.0000000E+00  0.0000000E+00
5381111. -0.4025611E-02 -0.7479902E-01  0.5422012E-03  0.4517226E-03  0.0000000E+00  0.0000000E+00
5344630. -0.3515433E-02 -0.1029953E+00  0.5071812E-03  0.1155360E-01  0.0000000E+00  0.0000000E+00
5308148. -0.2851819E-02 -0.1281771E+00  0.4137915E-03  0.2061904E-01  0.0000000E+00  0.0000000E+00
5271667. -0.2055695E-02 -0.1490756E+00  0.2771113E-03  0.2652219E-01  0.0000000E+00  0.0000000E+00
5235185. -0.1155014E-02 -0.1645001E+00  0.1173866E-03  0.2859917E-01  0.0000000E+00  0.0000000E+00
5198704. -0.1842471E-03 -0.1734042E+00 -0.4282551E-04  0.2671672E-01  0.0000000E+00  0.0000000E+00
5162222.  0.8168347E-03 -0.1749749E+00 -0.1817503E-03  0.2127104E-01  0.0000000E+00  0.0000000E+00
5125741.  0.1804824E-02 -0.1688058E+00 -0.2812618E-03  0.1312867E-01  0.0000000E+00  0.0000000E+00
5089259.  0.2735223E-02 -0.1548859E+00 -0.3292329E-03  0.3488068E-02  0.0000000E+00  0.0000000E+00
5052778.  0.3564670E-02 -0.1336728E+00 -0.3209663E-03 -0.6280428E-02  0.0000000E+00  0.0000000E+00
5016296.  0.4253927E-02 -0.1061046E+00 -0.2596627E-03 -0.1482076E-01  0.0000000E+00  0.0000000E+00
4979815.  0.4770204E-02 -0.7351422E-01 -0.1558273E-03 -0.2096626E-01  0.0000000E+00  0.0000000E+00
4943333.  0.5089416E-02 -0.3757099E-01 -0.2572939E-04 -0.2388875E-01  0.0000000E+00  0.0000000E+00
4906852.  0.5197667E-02 -0.1553420E-03  0.1108287E-03 -0.2319843E-01  0.0000000E+00  0.0000000E+00
4870370.  0.5092098E-02  0.3678731E-01  0.2331903E-03 -0.1898398E-01  0.0000000E+00  0.0000000E+00
4833889.  0.4780869E-02  0.7138057E-01  0.3225443E-03 -0.1179803E-01  0.0000000E+00  0.0000000E+00
4797407.  0.4282292E-02  0.1019647E+00  0.3644016E-03 -0.2576033E-02  0.0000000E+00  0.0000000E+00
4760926.  0.3623408E-02  0.1271859E+00  0.3504418E-03  0.7483359E-02  0.0000000E+00  0.0000000E+00
4724444.  0.2837734E-02  0.1461249E+00  0.2795961E-03  0.1707424E-01  0.0000000E+00  0.0000000E+00
4687963.  0.1962902E-02  0.1582890E+00  0.1582019E-03  0.2494345E-01  0.0000000E+00  0.0000000E+00
4651482.  0.1038030E-02  0.1636340E+00 -0.7583403E-06  0.3004594E-01  0.0000000E+00  0.0000000E+00
4615000.  0.1012117E-03  0.1625448E+00 -0.1792374E-03  0.3167396E-01  0.0000000E+00  0.0000000E+00
4578518. -0.8125284E-03  0.1557117E+00 -0.3562822E-03  0.2953346E-01  0.0000000E+00  0.0000000E+00
4542037. -0.1672875E-02  0.1440766E+00 -0.5105488E-03  0.2378373E-01  0.0000000E+00  0.0000000E+00
4505556. -0.2455392E-02  0.1287065E+00 -0.6228699E-03  0.1501311E-01  0.0000000E+00  0.0000000E+00
4469074. -0.3141743E-02  0.1106545E+00 -0.6784999E-03  0.4164088E-02  0.0000000E+00  0.0000000E+00
4432593. -0.3719437E-02  0.9091513E-01 -0.6688580E-03 -0.7573036E-02  0.0000000E+00  0.0000000E+00
4396111. -0.4181277E-02  0.7030182E-01 -0.5925444E-03 -0.1890549E-01  0.0000000E+00  0.0000000E+00
4359630. -0.4524041E-02  0.4941146E-01 -0.4555219E-03 -0.2858111E-01  0.0000000E+00  0.0000000E+00
4323148. -0.4747375E-02  0.2863051E-01 -0.2704274E-03 -0.3553961E-01  0.0000000E+00  0.0000000E+00
4286667. -0.4852477E-02  0.8131793E-02 -0.5517191E-04 -0.3902098E-01  0.0000000E+00  0.0000000E+00
4250185. -0.4841079E-02 -0.1206646E-01  0.1690803E-03 -0.3865333E-01  0.0000000E+00  0.0000000E+00
4213704. -0.4714733E-02 -0.3203237E-01  0.3802361E-03 -0.3449329E-01  0.0000000E+00  0.0000000E+00
4177222. -0.4474530E-02 -0.5183969E-01  0.5577321E-03 -0.2700461E-01  0.0000000E+00  0.0000000E+00
4140741. -0.4121336E-02 -0.7149187E-01  0.6847084E-03 -0.1701243E-01  0.0000000E+00  0.0000000E+00
4104259. -0.3656304E-02 -0.9085985E-01  0.7498456E-03 -0.5600742E-02  0.0000000E+00  0.0000000E+00
4067778. -0.3081959E-02 -0.1096057E+00  0.7484698E-03  0.6010571E-02  0.0000000E+00  0.0000000E+00
4031296. -0.2403213E-02 -0.1272163E+00  0.6829694E-03  0.1659957E-01  0.0000000E+00  0.0000000E+00
3994815. -0.1628567E-02 -0.1429709E+00  0.5624106E-03  0.2507810E-01  0.0000000E+00  0.0000000E+00
3958333. -0.7710989E-03 -0.1559826E+00  0.4014170E-03  0.3060737E-01  0.0000000E+00  0.0000000E+00
3921852.  0.1507927E-03 -0.1653229E+00  0.2184872E-03  0.3269006E-01  0.0000000E+00  0.0000000E+00
3885370.  0.1113408E-02 -0.1700441E+00  0.3385768E-04  0.3121348E-01  0.0000000E+00  0.0000000E+00
3848889.  0.2087774E-02 -0.1693164E+00 -0.1327009E-03  0.2645888E-01  0.0000000E+00  0.0000000E+00
3812407.  0.3040918E-02 -0.1625426E+00 -0.2641070E-03  0.1906686E-01  0.0000000E+00  0.0000000E+00
3775926.  0.3937068E-02 -0.1493947E+00 -0.3477690E-03  0.9955657E-02  0.0000000E+00  0.0000000E+00
3739444.  0.4739759E-02 -0.1299362E+00 -0.3769319E-03  0.2227448E-03  0.0000000E+00  0.0000000E+00
3702963.  0.5413956E-02 -0.1046305E+00 -0.3513375E-03 -0.8980164E-02  0.0000000E+00  0.0000000E+00
3666482.  0.5928429E-02 -0.7432348E-01 -0.2771707E-03 -0.1657508E-01  0.0000000E+00  0.0000000E+00
3630000.  0.6257916E-02 -0.4024703E-01 -0.1662970E-03 -0.2167328E-01  0.0000000E+00  0.0000000E+00
3630000.  0.6257916E-02 -0.4024703E-01 -0.1662970E-03 -0.2167328E-01  0.0000000E+00  0.0000000E+00
3592500.  0.6385576E-02 -0.2883356E-02 -0.3111595E-04 -0.2367854E-01  0.0000000E+00  0.0000000E+00
3555000.  0.6290819E-02  0.3500744E-01  0.1054674E-03 -0.2213975E-01  0.0000000E+00  0.0000000E+00
3517500.  0.5976202E-02  0.7150481E-01  0.2228316E-03 -0.1720785E-01  0.0000000E+00  0.0000000E+00
3480000.  0.5455439E-02  0.1047597E+00  0.3024409E-03 -0.9433835E-02  0.0000000E+00  0.0000000E+00
3480000.  0.5455439E-02  0.1550888E+00 -0.1181094E-03  0.1020593E-01  0.0000000E+00  0.0000000E+00
3409422.  0.2988280E-02  0.2779695E+00 -0.2103373E-03  0.5979653E-02  0.0000000E+00  0.0000000E+00
3338844. -0.3830850E-03  0.3150813E+00 -0.2430700E-03 -0.2652945E-03  0.0000000E+00  0.0000000E+00
3268266. -0.3652234E-02  0.2608756E+00 -0.2036754E-03 -0.6721610E-02  0.0000000E+00  0.0000000E+00
3197688. -0.5897120E-02  0.1352487E+00 -0.1002185E-03 -0.1154946E-01  0.0000000E+00  0.0000000E+00
3127109. -0.6522157E-02 -0.2447514E-01  0.4101452E-04 -0.1337143E-01  0.0000000E+00  0.0000000E+00
3056531. -0.5389887E-02 -0.1749046E+00  0.1827105E-03 -0.1161517E-01  0.0000000E+00  0.0000000E+00
2985953. -0.2823419E-02 -0.2780398E+00  0.2863503E-03 -0.6634462E-02  0.0000000E+00  0.0000000E+00
2915375.  0.5053196E-03 -0.3100376E+00  0.3220493E-03  0.4014469E-03  0.0000000E+00  0.0000000E+00
2844797.  0.3761416E-02 -0.2656527E+00  0.2760794E-03  0.7806342E-02  0.0000000E+00  0.0000000E+00
2774219.  0.6155395E-02 -0.1579027E+00  0.1544090E-03  0.1378173E-01  0.0000000E+00  0.0000000E+00
2703641.  0.7124284E-02 -0.1365440E-01 -0.1838421E-04  0.1683129E-01  0.0000000E+00  0.0000000E+00
2633062.  0.6447631E-02  0.1334154E+00 -0.2044240E-03  0.1609495E-01  0.0000000E+00  0.0000000E+00
2562484.  0.4279501E-02  0.2506515E+00 -0.3607671E-03  0.1153625E-01  0.0000000E+00  0.0000000E+00
2491906.  0.1097220E-02  0.3133374E+00 -0.4487643E-03  0.3951991E-02  0.0000000E+00  0.0000000E+00
2421328. -0.2414734E-02  0.3093307E+00 -0.4425294E-03 -0.5189565E-02  0.0000000E+00  0.0000000E+00
2350750. -0.5516225E-02  0.2407461E+00 -0.3348478E-03 -0.1404261E-01  0.0000000E+00  0.0000000E+00
2280172. -0.7564639E-02  0.1226256E+00 -0.1393799E-03 -0.2074678E-01  0.0000000E+00  0.0000000E+00
2209594. -0.8139099E-02 -0.2082484E-01  0.1112136E-03 -0.2378849E-01  0.0000000E+00  0.0000000E+00
2139016. -0.7113763E-02 -0.1614855E+00  0.3708220E-03 -0.2229301E-01  0.0000000E+00  0.0000000E+00
2068438. -0.4670000E-02 -0.2729119E+00  0.5880412E-03 -0.1619604E-01  0.0000000E+00  0.0000000E+00
1997859. -0.1249864E-02 -0.3351713E+00  0.7154270E-03 -0.6268050E-02  0.0000000E+00  0.0000000E+00
1927281.  0.2535660E-02 -0.3381057E+00  0.7181921E-03  0.6007108E-02  0.0000000E+00  0.0000000E+00
1856703.  0.6023937E-02 -0.2825451E+00  0.5808587E-03  0.1867650E-01  0.0000000E+00  0.0000000E+00
1786125.  0.8619237E-02 -0.1794418E+00  0.3107337E-03  0.2963573E-01  0.0000000E+00  0.0000000E+00
1715547.  0.9891768E-02 -0.4724904E-01 -0.6229029E-04  0.3696624E-01  0.0000000E+00  0.0000000E+00
1644969.  0.9640732E-02  0.9182362E-01 -0.4895100E-03  0.3923441E-01  0.0000000E+00  0.0000000E+00
1574391.  0.7913114E-02  0.2159283E+00 -0.9100538E-03  0.3570303E-01  0.0000000E+00  0.0000000E+00
1503812.  0.4978230E-02  0.3073226E+00 -0.1259229E-02  0.2642253E-01  0.0000000E+00  0.0000000E+00
1433234.  0.1266044E-02  0.3551239E+00 -0.1477114E-02  0.1218882E-01  0.0000000E+00  0.0000000E+00
1362656. -0.2718288E-02  0.3567317E+00 -0.1516015E-02 -0.5628081E-02  0.0000000E+00  0.0000000E+00
1292078. -0.6487194E-02  0.3178173E+00 -0.1345348E-02 -0.2536142E-01  0.0000000E+00  0.0000000E+00
1221500. -0.9656675E-02  0.2511356E+00 -0.9530280E-03 -0.4540252E-01  0.0000000E+00  0.0000000E+00
1221500. -0.9656675E-02  0.4842311E+01  0.3584666E-01  0.2373326E+00  0.0000000E+00  0.0000000E+00
1183328. -0.3668128E-01  0.3750106E+01  0.2641112E-01  0.2794618E+01  0.0000000E+00  0.0000000E+00
1145156. -0.5011111E-01  0.4525482E+00  0.4938412E-02  0.4080755E+01  0.0000000E+00  0.0000000E+00
1106984. -0.4043837E-01 -0.3659459E+01 -0.1856220E-01  0.3432861E+01  0.0000000E+00  0.0000000E+00
1068812. -0.8535173E-02 -0.6643164E+01 -0.3276486E-01  0.1094579E+01  0.0000000E+00  0.0000000E+00
1030641.  0.3360711E-01 -0.6882696E+01 -0.3037470E-01 -0.1885009E+01  0.0000000E+00  0.0000000E+00
 992469.  0.6737662E-01 -0.3887612E+01 -0.1166744E-01 -0.4128796E+01  0.0000000E+00  0.0000000E+00
 954297.  0.7560712E-01  0.1362197E+01  0.1542882E-01 -0.4562089E+01  0.0000000E+00  0.0000000E+00
 916125.  0.5082562E-01  0.6714454E+01  0.3876694E-01 -0.2908687E+01  0.0000000E+00  0.0000000E+00
 877953. -0.7157600E-04  0.9698686E+01  0.4738655E-01  0.1722893E+00  0.0000000E+00  0.0000000E+00
 839781. -0.5712660E-01  0.8598531E+01  0.3646846E-01  0.3367384E+01  0.0000000E+00  0.0000000E+00
 801609. -0.9457818E-01  0.3290858E+01  0.9634627E-02  0.5279156E+01  0.0000000E+00  0.0000000E+00
 763438. -0.9146134E-01 -0.4524686E+01 -0.2241680E-01  0.5032347E+01  0.0000000E+00  0.0000000E+00
 725266. -0.4133284E-01 -0.1184466E+02 -0.4634320E-01  0.2651689E+01  0.0000000E+00  0.0000000E+00
 687094.  0.4299981E-01 -0.1545863E+02 -0.5172231E-01 -0.9478301E+00  0.0000000E+00  0.0000000E+00
 648922.  0.1320709E+00 -0.1321413E+02 -0.3539376E-01 -0.4345715E+01  0.0000000E+00  0.0000000E+00
 610750.  0.1891657E+00 -0.4947685E+01 -0.2765289E-02 -0.6204245E+01  0.0000000E+00  0.0000000E+00
 572578.  0.1832966E+00  0.7300334E+01  0.3438464E-01 -0.5807014E+01  0.0000000E+00  0.0000000E+00
 534406.  0.1009602E+00  0.1989861E+02  0.6260310E-01 -0.3325626E+01  0.0000000E+00  0.0000000E+00
 496234. -0.4780550E-01  0.2885522E+02  0.7195613E-01  0.2842128E+00  0.0000000E+00  0.0000000E+00
 458062. -0.2314895E+00  0.3121200E+02  0.5960397E-01  0.3696262E+01  0.0000000E+00  0.0000000E+00
 419891. -0.4067000E+00  0.2608182E+02  0.3041907E-01  0.5749968E+01  0.0000000E+00  0.0000000E+00
 381719. -0.5318953E+00  0.1494095E+02 -0.5407626E-02  0.5882392E+01  0.0000000E+00  0.0000000E+00
 343547. -0.5802572E+00  0.1077187E+01 -0.3657579E-01  0.4286040E+01  0.0000000E+00  0.0000000E+00
 305375. -0.5472457E+00 -0.1158908E+02 -0.5487755E-01  0.1750777E+01  0.0000000E+00  0.0000000E+00
 267203. -0.4502916E+00 -0.1985628E+02 -0.5770447E-01 -0.7173509E+00  0.0000000E+00  0.0000000E+00
 229031. -0.3211643E+00 -0.2225785E+02 -0.4804432E-01 -0.2320084E+01  0.0000000E+00  0.0000000E+00
 190859. -0.1942318E+00 -0.1937826E+02 -0.3228376E-01 -0.2749030E+01  0.0000000E+00  0.0000000E+00
 152688. -0.9520745E-01 -0.1338759E+02 -0.1703721E-01 -0.2220689E+01  0.0000000E+00  0.0000000E+00
 114516. -0.3452826E-01 -0.7016395E+01 -0.6504784E-02 -0.1276103E+01  0.0000000E+00  0.0000000E+00
  76344. -0.7506488E-02 -0.2410282E+01 -0.1463089E-02 -0.4633411E+00  0.0000000E+00  0.0000000E+00
  38172. -0.4966265E-03 -0.3284149E+00 -0.9869741E-04 -0.6505762E-01  0.0000000E+00  0.0000000E+00
      0.  0.0000000E+00  0.0000000E+00  0.0000000E+00  0.0000000E+00  0.0000000E+00  0.0000000E+00
