      15       14 S      627        107.87300         25.59215         20.67007         85.42840      185    7
6371000. -0.1400314E-04 -0.6212129E-03 -0.7660816E-05  0.6341994E-05  0.4800886E-06  0.1920531E-04
6370000. -0.1390493E-04 -0.6300906E-03 -0.7660583E-05 -0.9304274E-05  0.4770527E-06  0.1947838E-04
6369000. -0.1380536E-04 -0.6385490E-03 -0.7657894E-05 -0.2495540E-04  0.4739740E-06  0.1974910E-04
6368000. -0.1370450E-04 -0.6465871E-03 -0.7652749E-05 -0.4060630E-04  0.4708531E-06  0.2001745E-04
6368000. -0.1370450E-04 -0.6465871E-03 -0.7652749E-05 -0.4060630E-04  0.4708531E-06  0.2001745E-04
6367000. -0.1360240E-04 -0.6542037E-03 -0.7645148E-05 -0.5625188E-04  0.4676902E-06  0.2028340E-04
6366000. -0.1349915E-04 -0.6613983E-03 -0.7635092E-05 -0.7188704E-04  0.4644858E-06  0.2054693E-04
6365000. -0.1339480E-04 -0.6681702E-03 -0.7622582E-05 -0.8750669E-04  0.4612402E-06  0.2080801E-04
6364000. -0.1328942E-04 -0.6745189E-03 -0.7607622E-05 -0.1031057E-03  0.4579538E-06  0.2106662E-04
6363000. -0.1318307E-04 -0.6804441E-03 -0.7590216E-05 -0.1186791E-03  0.4546271E-06  0.2132273E-04
6362000. -0.1307583E-04 -0.6859456E-03 -0.7570367E-05 -0.1342217E-03  0.4512603E-06  0.2157631E-04
6361000. -0.1296776E-04 -0.6910236E-03 -0.7548082E-05 -0.1497285E-03  0.4478539E-06  0.2182734E-04
6360000. -0.1285893E-04 -0.6956781E-03 -0.7523367E-05 -0.1651944E-03  0.4444083E-06  0.2207578E-04
6359000. -0.1274939E-04 -0.6999095E-03 -0.7496226E-05 -0.1806143E-03  0.4409240E-06  0.2232163E-04
6358000. -0.1263923E-04 -0.7037183E-03 -0.7466670E-05 -0.1959833E-03  0.4374012E-06  0.2256485E-04
6357000. -0.1252850E-04 -0.7071052E-03 -0.7434706E-05 -0.2112963E-03  0.4338405E-06  0.2280541E-04
6356000. -0.1241728E-04 -0.7100709E-03 -0.7400343E-05 -0.2265483E-03  0.4302422E-06  0.2304329E-04
6356000. -0.1241728E-04 -0.5974701E-03 -0.7400343E-05 -0.1347501E-03  0.4302422E-06  0.2574515E-04
6355000. -0.1232328E-04 -0.6002171E-03 -0.7378404E-05 -0.1447984E-03  0.4261775E-06  0.2604678E-04
6354000. -0.1222887E-04 -0.6026986E-03 -0.7354889E-05 -0.1548203E-03  0.4220657E-06  0.2634634E-04
6353000. -0.1213409E-04 -0.6049147E-03 -0.7329803E-05 -0.1648136E-03  0.4179069E-06  0.2664380E-04
6352000. -0.1203899E-04 -0.6068660E-03 -0.7303152E-05 -0.1747762E-03  0.4137017E-06  0.2693915E-04
6351000. -0.1194360E-04 -0.6085527E-03 -0.7274939E-05 -0.1847059E-03  0.4094503E-06  0.2723236E-04
6350000. -0.1184796E-04 -0.6099754E-03 -0.7245170E-05 -0.1946005E-03  0.4051529E-06  0.2752342E-04
6349000. -0.1175213E-04 -0.6111345E-03 -0.7213851E-05 -0.2044579E-03  0.4008101E-06  0.2781229E-04
6348000. -0.1165613E-04 -0.6120309E-03 -0.7180989E-05 -0.2142759E-03  0.3964222E-06  0.2809897E-04
6347000. -0.1156001E-04 -0.6126650E-03 -0.7146587E-05 -0.2240524E-03  0.3919893E-06  0.2838343E-04
6346600. -0.1152154E-04 -0.6128454E-03 -0.7132398E-05 -0.2279509E-03  0.3902038E-06  0.2849659E-04
6346600. -0.1152154E-04 -0.6555016E-03 -0.7132398E-05 -0.1524678E-03  0.3902038E-06  0.3251398E-04
6318800. -0.8736748E-05 -0.5952545E-03 -0.6031336E-05 -0.3470608E-03  0.2303328E-06  0.4051143E-04
6291000. -0.6533496E-05 -0.3935958E-03 -0.4165845E-05 -0.4990331E-03  0.3903211E-07  0.4687976E-04
6291000. -0.6533496E-05 -0.4049072E-03 -0.4165845E-05 -0.5158472E-03  0.3903211E-07  0.4687976E-04
6263000. -0.5432312E-05 -0.8258483E-04 -0.1668401E-05 -0.6080643E-03 -0.1774525E-06  0.5130970E-04
6235000. -0.5879598E-05  0.2885354E-03  0.1061221E-05 -0.6202939E-03 -0.4090231E-06  0.5372917E-04
6207000. -0.7936501E-05  0.6378296E-03  0.3663652E-05 -0.5508302E-03 -0.6466784E-06  0.5407208E-04
6179000. -0.1135034E-04  0.8948889E-03  0.5796344E-05 -0.4089413E-03 -0.8812357E-06  0.5231943E-04
6151000. -0.1557894E-04  0.1000081E-02  0.7179493E-05 -0.2135842E-03 -0.1103509E-05  0.4848730E-04
6151000. -0.1557894E-04  0.9329175E-03  0.7179493E-05 -0.1849523E-03 -0.1103509E-05  0.4934922E-04
6128500. -0.1882795E-04  0.8896480E-03  0.7554585E-05 -0.2657547E-04 -0.1269309E-05  0.4436090E-04
6106000. -0.2173904E-04  0.7418228E-03  0.7368179E-05  0.1309860E-03 -0.1415615E-05  0.3833121E-04
6083500. -0.2395109E-04  0.4954983E-03  0.6644420E-05  0.2758308E-03 -0.1538991E-05  0.3140076E-04
6061000. -0.2513936E-04  0.1650731E-03  0.5447467E-05  0.3973409E-03 -0.1636534E-05  0.2373036E-04
6038500. -0.2504306E-04 -0.2278770E-03  0.3875568E-05  0.4869417E-03 -0.1705939E-05  0.1549548E-04
6016000. -0.2348783E-04 -0.6562936E-03  0.2052768E-05  0.5386761E-03 -0.1745537E-05  0.6881941E-05
5993500. -0.2040153E-04 -0.1089730E-02  0.1189792E-06  0.5495558E-03 -0.1754328E-05 -0.1918771E-05
5971000. -0.1582210E-04 -0.1496670E-02 -0.1780807E-05  0.5196944E-03 -0.1731988E-05 -0.1071595E-04
5971000. -0.1582210E-04 -0.1365534E-02 -0.1780807E-05  0.4640919E-03 -0.1731988E-05 -0.8644702E-05
5937667. -0.7562938E-05 -0.1764050E-02 -0.3941012E-05  0.3529284E-03 -0.1657158E-05 -0.1980391E-04
5904333.  0.2310773E-05 -0.1976257E-02 -0.5403937E-05  0.2017230E-03 -0.1526823E-05 -0.2978246E-04
5871000.  0.1274993E-04 -0.1978876E-02 -0.6026438E-05  0.3586267E-04 -0.1348267E-05 -0.3818506E-04
5837667.  0.2266006E-04 -0.1777093E-02 -0.5795006E-05 -0.1210932E-03 -0.1130442E-05 -0.4476509E-04
5804333.  0.3103988E-04 -0.1400439E-02 -0.4808268E-05 -0.2501741E-03 -0.8832060E-06 -0.4941848E-04
5771000.  0.3709176E-04 -0.8962979E-03 -0.3248491E-05 -0.3385823E-03 -0.6166465E-06 -0.5216791E-04
5771000.  0.3709176E-04 -0.8963486E-03 -0.3248491E-05 -0.3385727E-03 -0.6166465E-06 -0.5216791E-04
5701000.  0.4026942E-04  0.3447547E-03  0.9716613E-06 -0.3944461E-03 -0.4595109E-07 -0.5056167E-04
5701000.  0.4026942E-04  0.2915041E-03  0.9716613E-06 -0.3211357E-03 -0.4595109E-07 -0.6191216E-04
5667333.  0.3752477E-04  0.7354981E-03  0.2514691E-05 -0.2639070E-03  0.2755650E-06 -0.5972270E-04
5633667.  0.3256434E-04  0.1133858E-02  0.3762026E-05 -0.2058982E-03  0.5844188E-06 -0.5700970E-04
5600000.  0.2570570E-04  0.1443785E-02  0.4653461E-05 -0.1286550E-03  0.8759569E-06 -0.5315231E-04
5600000.  0.2570570E-04  0.1443785E-02  0.4653461E-05 -0.1286550E-03  0.8759569E-06 -0.5315231E-04
5563518.  0.1677239E-04  0.1652719E-02  0.5117091E-05 -0.3179770E-04  0.1165760E-05 -0.4788960E-04
5527037.  0.7060942E-05  0.1714111E-02  0.5010814E-05  0.6862883E-04  0.1422542E-05 -0.4164984E-04
5490556. -0.2571450E-05  0.1625985E-02  0.4344333E-05  0.1621747E-03  0.1641208E-05 -0.3460557E-04
5454074. -0.1129747E-04  0.1400668E-02  0.3184931E-05  0.2393321E-03  0.1817651E-05 -0.2692920E-04
5417593. -0.1839834E-04  0.1063590E-02  0.1649377E-05  0.2924969E-03  0.1948731E-05 -0.1879054E-04
5381111. -0.2333154E-04  0.6500470E-03 -0.1091966E-06  0.3166048E-03  0.2032272E-05 -0.1035095E-04
5344630. -0.2577685E-04  0.2019810E-03 -0.1916855E-05  0.3095729E-03  0.2067001E-05 -0.1768295E-05
5308148. -0.2566336E-04 -0.2363601E-03 -0.3596850E-05  0.2724116E-03  0.2052543E-05  0.6804195E-05
5271667. -0.2316979E-04 -0.6226603E-03 -0.4986285E-05  0.2089667E-03  0.1989370E-05  0.1522322E-04
5235185. -0.1870199E-04 -0.9204876E-03 -0.5951755E-05  0.1255390E-03  0.1878769E-05  0.2334460E-04
5198704. -0.1284978E-04 -0.1102623E-02 -0.6401137E-05  0.3015691E-04  0.1722853E-05  0.3102966E-04
5162222. -0.6326056E-05 -0.1153420E-02 -0.6291388E-05 -0.6822262E-04  0.1524486E-05  0.3814805E-04
5125741.  0.1026871E-06 -0.1070144E-02 -0.5631435E-05 -0.1605519E-03  0.1287296E-05  0.4457092E-04
5089259.  0.5692046E-05 -0.8628943E-03 -0.4480121E-05 -0.2385541E-03  0.1015597E-05  0.5017979E-04
5052778.  0.9789233E-05 -0.5535349E-03 -0.2939919E-05 -0.2954185E-03  0.7143805E-06  0.5486636E-04
5016296.  0.1189585E-04 -0.1734855E-03 -0.1146379E-05 -0.3264267E-03  0.3891847E-06  0.5853801E-04
4979815.  0.1171344E-04  0.2392647E-03  0.7444483E-06 -0.3292380E-03  0.4606695E-07  0.6111822E-04
4943333.  0.9171538E-05  0.6437315E-03  0.2570635E-05 -0.3040835E-03 -0.3085756E-06  0.6255310E-04
4906852.  0.4434253E-05  0.9996420E-03  0.4178551E-05 -0.2536529E-03 -0.6680710E-06  0.6281386E-04
4870370. -0.2114828E-05  0.1271039E-02  0.5436345E-05 -0.1827395E-03 -0.1025693E-05  0.6189712E-04
4833889. -0.9905762E-05  0.1429502E-02  0.6244592E-05 -0.9783659E-04 -0.1374739E-05  0.5982867E-04
4797407. -0.1823434E-04  0.1456592E-02  0.6544412E-05 -0.6456779E-05 -0.1708774E-05  0.5666267E-04
4760926. -0.2632213E-04  0.1345338E-02  0.6321268E-05  0.8350838E-04 -0.2021723E-05  0.5248248E-04
4724444. -0.3338663E-04  0.1100978E-02  0.5605258E-05  0.1644826E-03 -0.2308079E-05  0.4739069E-04
4687963. -0.3870814E-04  0.7403126E-03  0.4467487E-05  0.2298282E-03 -0.2562966E-05  0.4151724E-04
4651482. -0.4169372E-04  0.2903256E-03  0.3013040E-05  0.2743758E-03 -0.2782328E-05  0.3500751E-04
4615000. -0.4192861E-04 -0.2141391E-03  0.1371342E-05  0.2948335E-03 -0.2962955E-05  0.2801234E-04
4578518. -0.3921331E-04 -0.7331921E-03 -0.3150477E-06  0.2899557E-03 -0.3102529E-05  0.2069629E-04
4542037. -0.3358352E-04 -0.1225266E-02 -0.1902549E-05  0.2606327E-03 -0.3199670E-05  0.1321889E-04
4505556. -0.2530910E-04 -0.1650578E-02 -0.3258596E-05  0.2097407E-03 -0.3253894E-05  0.5730954E-05
4469074. -0.1487552E-04 -0.1974048E-02 -0.4271973E-05  0.1418166E-03 -0.3265566E-05 -0.1620548E-05
4432593. -0.2948671E-05 -0.2168490E-02 -0.4861352E-05  0.6271107E-04 -0.3235836E-05 -0.8710148E-05
4396111.  0.9678417E-05 -0.2216480E-02 -0.4981389E-05 -0.2097989E-04 -0.3166521E-05 -0.1542996E-04
4359630.  0.2214252E-04 -0.2111620E-02 -0.4625413E-05 -0.1024187E-03 -0.3060004E-05 -0.2169166E-04
4323148.  0.3357940E-04 -0.1859454E-02 -0.3825222E-05 -0.1750958E-03 -0.2919107E-05 -0.2742682E-04
4286667.  0.4318732E-04 -0.1476538E-02 -0.2647849E-05 -0.2333078E-03 -0.2746993E-05 -0.3259148E-04
4250185.  0.5028958E-04 -0.9893761E-03 -0.1189529E-05 -0.2725882E-03 -0.2546994E-05 -0.3716085E-04
4213704.  0.5438462E-04 -0.4325097E-03  0.4321271E-06 -0.2900252E-03 -0.2322578E-05 -0.4112180E-04
4177222.  0.5518529E-04  0.1543692E-03  0.2087820E-05 -0.2844061E-03 -0.2077194E-05 -0.4448454E-04
4140741.  0.5264011E-04  0.7290684E-03  0.3646221E-05 -0.2563000E-03 -0.1814240E-05 -0.4726282E-04
4104259.  0.4693816E-04  0.1250240E-02  0.4984318E-05 -0.2079450E-03 -0.1537006E-05 -0.4947463E-04
4067778.  0.3849672E-04  0.1680145E-02  0.5995981E-05 -0.1430184E-03 -0.1248652E-05 -0.5115385E-04
4031296.  0.2793091E-04  0.1987611E-02  0.6599775E-05 -0.6636130E-04 -0.9521561E-06 -0.5231852E-04
3994815.  0.1601162E-04  0.2150015E-02  0.6744234E-05  0.1644077E-04 -0.6504242E-06 -0.5298907E-04
3958333.  0.3609909E-05  0.2154821E-02  0.6411049E-05  0.9947441E-04 -0.3462142E-06 -0.5318270E-04
3921852. -0.8361865E-05  0.2000658E-02  0.5615703E-05  0.1769319E-03 -0.4225882E-07 -0.5290305E-04
3885370. -0.1901611E-04  0.1696989E-02  0.4405544E-05  0.2435270E-03  0.2587385E-06 -0.5214473E-04
3848889. -0.2754809E-04  0.1263595E-02  0.2856007E-05  0.2948362E-03  0.5539777E-06 -0.5089146E-04
3812407. -0.3329373E-04  0.7291195E-03  0.1064398E-05  0.3276257E-03  0.8405745E-06 -0.4911761E-04
3775926. -0.3577252E-04  0.1289418E-03 -0.8569544E-06  0.3399687E-03  0.1115412E-05 -0.4677865E-04
3739444. -0.3472077E-04 -0.4971602E-03 -0.2789054E-05  0.3314073E-03  0.1375126E-05 -0.4382382E-04
3702963. -0.3010867E-04 -0.1107741E-02 -0.4614221E-05  0.3029080E-03  0.1616002E-05 -0.4018870E-04
3666482. -0.2214165E-04 -0.1662479E-02 -0.6224158E-05  0.2567106E-03  0.1833908E-05 -0.3578561E-04
3630000. -0.1124620E-04 -0.2124832E-02 -0.7526830E-05  0.1962201E-03  0.2024186E-05 -0.3051985E-04
3630000. -0.1124620E-04 -0.2124832E-02 -0.7526830E-05  0.1962201E-03  0.2024186E-05 -0.3051985E-04
3592500.  0.2352027E-05 -0.2471748E-02 -0.8472025E-05  0.1235929E-03  0.2185422E-05 -0.2408062E-04
3555000.  0.1754819E-04 -0.2664601E-02 -0.8971118E-05  0.4554061E-04  0.2305319E-05 -0.1644481E-04
3517500.  0.3338987E-04 -0.2689733E-02 -0.9008185E-05 -0.3249380E-04  0.2376282E-05 -0.7417245E-05
3480000.  0.4887709E-04 -0.2544719E-02 -0.8599040E-05 -0.1052243E-03  0.2389442E-05  0.3240122E-05
3480000.  0.4887709E-04 -0.1195182E-02  0.1384721E-05  0.8692266E-04  0.2389442E-05 -0.1535080E-03
3409422.  0.5755332E-04 -0.3636110E-03  0.2959832E-06  0.1069907E-03  0.4793612E-05 -0.2678067E-03
3338844.  0.5703715E-04  0.4410153E-03 -0.9246693E-06  0.1106072E-03  0.8040654E-05 -0.3060201E-03
3268266.  0.4832957E-04  0.1099013E-02 -0.2095573E-05  0.9830536E-04  0.1131801E-04 -0.2752362E-03
3197688.  0.3350350E-04  0.1537646E-02 -0.3053945E-05  0.7284118E-04  0.1393944E-04 -0.1906141E-03
3127109.  0.1516650E-04  0.1732519E-02 -0.3676192E-05  0.3838815E-04  0.1541487E-04 -0.7178442E-04
3056531. -0.4041743E-05  0.1700708E-02 -0.3888783E-05 -0.3249907E-06  0.1547953E-04  0.6076692E-04
2985953. -0.2184802E-04  0.1488965E-02 -0.3669994E-05 -0.3879478E-04  0.1408591E-04  0.1887540E-03
2915375. -0.3659909E-04  0.1160301E-02 -0.3043897E-05 -0.7333738E-04  0.1136665E-04  0.2981953E-03
2844797. -0.4737168E-04  0.7816019E-03 -0.2068994E-05 -0.1014628E-03  0.7580030E-05  0.3804881E-03
2774219. -0.5395854E-04  0.4139366E-03 -0.8239735E-06 -0.1220260E-03  0.3048850E-05  0.4325351E-03
2703641. -0.5676709E-04  0.1065047E-03  0.6071774E-06 -0.1351979E-03 -0.1897729E-05  0.4561421E-03
2633062. -0.5667149E-04 -0.1057176E-03  0.2149030E-05 -0.1423182E-03 -0.6973091E-05  0.4569752E-03
2562484. -0.5485810E-04 -0.2009214E-03  0.3746497E-05 -0.1456994E-03 -0.1196905E-04  0.4433704E-03
2491906. -0.5269849E-04 -0.1666210E-03  0.5374792E-05 -0.1484675E-03 -0.1677965E-04  0.4252503E-03
2421328. -0.5167880E-04  0.6597583E-05  0.7047954E-05 -0.1545171E-03 -0.2141385E-04  0.4133590E-03
2350750. -0.5341048E-04  0.3335935E-03  0.8828054E-05 -0.1686775E-03 -0.2600259E-04  0.4189748E-03
2280172. -0.5975187E-04  0.8463697E-03  0.1083805E-04 -0.1972377E-03 -0.3080587E-04  0.4542262E-03
2209594. -0.7308550E-04  0.1611029E-02  0.1328333E-04 -0.2490392E-03 -0.3622721E-04  0.5331418E-03
2139016. -0.9683369E-04  0.2754987E-02  0.1649032E-04 -0.3375491E-03 -0.4284468E-04  0.6736256E-03
2068438. -0.1363738E-03  0.4514170E-02  0.2097673E-04 -0.4846820E-03 -0.5147022E-04  0.9006547E-03
1997859. -0.2006745E-03  0.7320362E-02  0.2758052E-04 -0.7279209E-03 -0.6325365E-04  0.1251229E-02
1927281. -0.3052853E-03  0.1196850E-01  0.3769891E-04 -0.1133848E-02 -0.7985355E-04  0.1781779E-02
1856703. -0.4780004E-03  0.1995063E-01  0.5374137E-04 -0.1824650E-02 -0.1037103E-03  0.2579075E-02
1786125. -0.7699055E-03  0.3413946E-01  0.8000653E-04 -0.3031638E-02 -0.1384605E-03  0.3775191E-02
1715547. -0.1277685E-02  0.6023732E-01  0.1244334E-03 -0.5207046E-02 -0.1895356E-03  0.5564766E-02
1644969. -0.2190228E-02  0.1099506E+00  0.2022144E-03 -0.9265888E-02 -0.2649199E-03  0.8213351E-02
1574391. -0.3889590E-02  0.2082054E+00  0.3435211E-03 -0.1712944E-01 -0.3757830E-03  0.1201392E-01
1503812. -0.7178355E-02  0.4102212E+00  0.6106942E-03 -0.3299742E-01 -0.5357642E-03  0.1704649E-01
1433234. -0.1381305E-01  0.8436661E+00  0.1138097E-02 -0.6645678E-01 -0.7546123E-03  0.2227187E-01
1362656. -0.2781525E-01  0.1817873E+01  0.2229012E-02 -0.1404594E+00 -0.1012084E-02  0.2245228E-01
1292078. -0.5885566E-01  0.4121632E+01  0.4603132E-02 -0.3128761E+00 -0.1165984E-02 -0.2032584E-02
1221500. -0.1314811E+00  0.9882882E+01  0.1006484E-01 -0.7381909E+00 -0.6421034E-03 -0.1190809E+00
1221500. -0.1314811E+00 -0.1159284E+02 -0.1200423E-01  0.6231577E+00 -0.6421034E-03 -0.6212273E-01
1183328. -0.4835203E-01 -0.1577992E+02 -0.1454392E-01  0.2133822E+00 -0.3477859E-03 -0.3800507E-01
1145156.  0.5251306E-01 -0.1743517E+02 -0.1453790E-01 -0.2085371E+00 -0.1686423E-03 -0.2297185E-01
1106984.  0.1551783E+00 -0.1640697E+02 -0.1221372E-01 -0.5471342E+00 -0.6131540E-04 -0.1357730E-01
1068812.  0.2445720E+00 -0.1311462E+02 -0.8268557E-02 -0.7434203E+00  0.9262339E-06 -0.7641796E-02
1030641.  0.3094226E+00 -0.8370926E+01 -0.3623130E-02 -0.7818321E+00  0.3449522E-04 -0.3840059E-02
 992469.  0.3439195E+00 -0.3143305E+01  0.8280118E-03 -0.6847947E+00  0.4964457E-04 -0.1398808E-02
 954297.  0.3479228E+00  0.1675562E+01  0.4405115E-02 -0.4990195E+00  0.5308934E-04  0.1222988E-03
 916125.  0.3259764E+00  0.5436407E+01  0.6739916E-02 -0.2790280E+00  0.4945829E-04  0.9982155E-03
 877953.  0.2855649E+00  0.7812325E+01  0.7777185E-02 -0.7278246E-01  0.4205800E-04  0.1405330E-02
 839781.  0.2351692E+00  0.8789845E+01  0.7705458E-02  0.8729332E-01  0.3326374E-04  0.1485108E-02
 801609.  0.1825860E+00  0.8594629E+01  0.6852232E-02  0.1872254E+00  0.2466642E-04  0.1357835E-02
 763438.  0.1338079E+00  0.7585066E+01  0.5578643E-02  0.2290393E+00  0.1720346E-04  0.1120997E-02
 725266.  0.9254661E-01  0.6146867E+01  0.4198678E-02  0.2253772E+00  0.1129423E-04  0.8502871E-03
 687094.  0.6033454E-01  0.4612452E+01  0.2934704E-02  0.1932177E+00  0.6970595E-05  0.5981880E-03
 648922.  0.3699137E-01  0.3216357E+01  0.1907589E-02  0.1487462E+00  0.4033433E-05  0.3904936E-03
 610750.  0.2125661E-01  0.2085494E+01  0.1152062E-02  0.1041849E+00  0.2180529E-05  0.2366978E-03
 572578.  0.1139610E-01  0.1255248E+01  0.6446072E-03  0.6673206E-01  0.1095568E-05  0.1328837E-03
 534406.  0.5666111E-02  0.6987273E+00  0.3325705E-03  0.3909979E-01  0.5081350E-06  0.6874205E-04
 496234.  0.2592572E-02  0.3576236E+00  0.1571428E-03  0.2088960E-01  0.2157521E-06  0.3254250E-04
 458062.  0.1080909E-02  0.1669341E+00  0.6737991E-04  0.1011160E-01  0.8296136E-07  0.1397557E-04
 419891.  0.4054255E-03  0.7028686E-01  0.2589878E-04  0.4391197E-02  0.2848829E-07  0.5375457E-05
 381719.  0.1345244E-03  0.2629907E-01  0.8778752E-05  0.1687076E-02  0.8579780E-08  0.1822500E-05
 343547.  0.3861754E-04  0.8570703E-02  0.2567217E-05  0.5623779E-03  0.2211653E-08  0.5326201E-06
 305375.  0.9303416E-05  0.2366284E-02  0.6284490E-06  0.1582881E-03  0.4722261E-09  0.1301747E-06
 267203.  0.1801959E-05  0.5321371E-03  0.1234010E-06  0.3618181E-04  0.7971553E-10  0.2549402E-07
 229031.  0.2634617E-06  0.9198680E-04  0.1825204E-07  0.6340479E-05  0.9938770E-11  0.3754638E-08
 190859.  0.2636498E-07  0.1116849E-04  0.1844064E-08  0.7785115E-06  0.8236863E-12  0.3772526E-09
 152688.  0.1532397E-08  0.8186122E-06  0.1080082E-09  0.5757604E-07  0.3800035E-13  0.2193616E-10
 114516.  0.3800868E-10  0.2725402E-07  0.2694652E-11  0.1929931E-08  0.7002447E-15  0.5393300E-12
  76344.  0.0000000E+00  0.0000000E+00  0.0000000E+00  0.0000000E+00  0.0000000E+00  0.0000000E+00
  38172.  0.0000000E+00  0.0000000E+00  0.0000000E+00  0.0000000E+00  0.0000000E+00  0.0000000E+00
      0.  0.0000000E+00  0.0000000E+00  0.0000000E+00  0.0000000E+00  0.0000000E+00  0.0000000E+00
