      21        9 S      707        101.35520         41.57361         12.40335        129.52980      185    7
6371000. -0.6347248E-02 -0.1397826E+00 -0.4093475E-02  0.2253773E-02  0.8580185E-04  0.1111141E-01
6370000. -0.6324946E-02 -0.1443686E+00 -0.4093068E-02 -0.7443623E-02  0.8405263E-04  0.1117695E-01
6369000. -0.6301933E-02 -0.1488441E+00 -0.4091138E-02 -0.1714289E-01  0.8229323E-04  0.1124120E-01
6368000. -0.6278226E-02 -0.1532087E+00 -0.4087686E-02 -0.2684040E-01  0.8052384E-04  0.1130414E-01
6368000. -0.6278226E-02 -0.1532087E+00 -0.4087686E-02 -0.2684040E-01  0.8052384E-04  0.1130414E-01
6367000. -0.6253843E-02 -0.1574617E+00 -0.4082713E-02 -0.3653253E-01  0.7874467E-04  0.1136578E-01
6366000. -0.6228801E-02 -0.1616028E+00 -0.4076218E-02 -0.4621565E-01  0.7695593E-04  0.1142609E-01
6365000. -0.6203118E-02 -0.1656314E+00 -0.4068206E-02 -0.5588615E-01  0.7515783E-04  0.1148507E-01
6364000. -0.6176812E-02 -0.1695473E+00 -0.4058675E-02 -0.6554040E-01  0.7335058E-04  0.1154273E-01
6363000. -0.6149900E-02 -0.1733501E+00 -0.4047632E-02 -0.7517478E-01  0.7153438E-04  0.1159904E-01
6362000. -0.6122399E-02 -0.1770394E+00 -0.4035078E-02 -0.8478568E-01  0.6970945E-04  0.1165400E-01
6361000. -0.6094329E-02 -0.1806152E+00 -0.4021017E-02 -0.9436952E-01  0.6787600E-04  0.1170761E-01
6360000. -0.6065706E-02 -0.1840773E+00 -0.4005454E-02 -0.1039227E+00  0.6603424E-04  0.1175986E-01
6359000. -0.6036549E-02 -0.1874254E+00 -0.3988395E-02 -0.1134416E+00  0.6418439E-04  0.1181074E-01
6358000. -0.6006875E-02 -0.1906596E+00 -0.3969844E-02 -0.1229227E+00  0.6232665E-04  0.1186025E-01
6357000. -0.5976703E-02 -0.1937797E+00 -0.3949809E-02 -0.1323624E+00  0.6046126E-04  0.1190838E-01
6356000. -0.5946049E-02 -0.1967859E+00 -0.3928295E-02 -0.1417572E+00  0.5858842E-04  0.1195512E-01
6356000. -0.5946049E-02 -0.1583650E+00 -0.3928295E-02 -0.8476231E-01  0.5858842E-04  0.1324891E-01
6355000. -0.5921008E-02 -0.1607019E+00 -0.3914500E-02 -0.9101707E-01  0.5650385E-04  0.1331248E-01
6354000. -0.5895605E-02 -0.1629668E+00 -0.3899724E-02 -0.9725202E-01  0.5440939E-04  0.1337495E-01
6353000. -0.5869852E-02 -0.1651595E+00 -0.3883971E-02 -0.1034656E+00  0.5230521E-04  0.1343631E-01
6352000. -0.5843761E-02 -0.1672802E+00 -0.3867245E-02 -0.1096561E+00  0.5019149E-04  0.1349656E-01
6351000. -0.5817343E-02 -0.1693286E+00 -0.3849549E-02 -0.1158222E+00  0.4806840E-04  0.1355569E-01
6350000. -0.5790609E-02 -0.1713050E+00 -0.3830887E-02 -0.1219621E+00  0.4593611E-04  0.1361370E-01
6349000. -0.5763570E-02 -0.1732094E+00 -0.3811264E-02 -0.1280745E+00  0.4379481E-04  0.1367058E-01
6348000. -0.5736239E-02 -0.1750417E+00 -0.3790684E-02 -0.1341577E+00  0.4164467E-04  0.1372633E-01
6347000. -0.5708625E-02 -0.1768022E+00 -0.3769150E-02 -0.1402101E+00  0.3948587E-04  0.1378094E-01
6346600. -0.5697503E-02 -0.1774863E+00 -0.3760271E-02 -0.1426222E+00  0.3861996E-04  0.1380247E-01
6346600. -0.5697503E-02 -0.1709838E+00 -0.3760271E-02 -0.9565841E-01  0.3861996E-04  0.1578910E-01
6318800. -0.4903053E-02 -0.1862026E+00 -0.3071591E-02 -0.2161886E+00 -0.3365269E-04  0.1721060E-01
6291000. -0.4128648E-02 -0.1630484E+00 -0.1919253E-02 -0.3054791E+00 -0.1104342E-03  0.1784727E-01
6291000. -0.4128648E-02 -0.1663392E+00 -0.1919253E-02 -0.3156549E+00 -0.1104342E-03  0.1784727E-01
6263000. -0.3510146E-02 -0.1115336E+00 -0.4124363E-03 -0.3611399E+00 -0.1886877E-03  0.1762363E-01
6235000. -0.3166456E-02 -0.4440792E-01  0.1173295E-02 -0.3510748E+00 -0.2641276E-03  0.1657157E-01
6207000. -0.3109488E-02  0.1571142E-01  0.2593782E-02 -0.2869118E+00 -0.3331992E-03  0.1473565E-01
6179000. -0.3267402E-02  0.5062210E-01  0.3630028E-02 -0.1784931E+00 -0.3926090E-03  0.1218894E-01
6151000. -0.3497042E-02  0.4659068E-01  0.4122086E-02 -0.4249093E-01 -0.4394360E-03  0.9027188E-02
6151000. -0.3497042E-02  0.6863745E-01  0.4122086E-02 -0.3641850E-01 -0.4394360E-03  0.9220663E-02
6128500. -0.3698994E-02  0.4154415E-01  0.4068272E-02  0.6644408E-01 -0.4672808E-03  0.6509891E-02
6106000. -0.3761817E-02 -0.9765268E-02  0.3661260E-02  0.1621282E+00 -0.4851900E-03  0.3606455E-02
6083500. -0.3605652E-02 -0.8166296E-01  0.2941369E-02  0.2423628E+00 -0.4926170E-03  0.5867095E-03
6061000. -0.3167677E-02 -0.1682048E+00  0.1975565E-02  0.3004334E+00 -0.4892902E-03 -0.2470310E-02
6038500. -0.2409352E-02 -0.2616919E+00  0.8509542E-03  0.3317229E+00 -0.4752181E-03 -0.5485334E-02
6016000. -0.1321399E-02 -0.3533797E+00 -0.3332780E-03  0.3340452E+00 -0.4506865E-03 -0.8381026E-02
5993500.  0.7390446E-04 -0.4342787E+00 -0.1474714E-02  0.3077558E+00 -0.4162478E-03 -0.1108415E-01
5971000.  0.1723309E-02 -0.4959696E+00 -0.2476561E-02  0.2556496E+00 -0.3727023E-03 -0.1352770E-01
5971000.  0.1723309E-02 -0.4563507E+00 -0.2476561E-02  0.2269919E+00 -0.3727023E-03 -0.1375330E-01
5937667.  0.4198770E-02 -0.4799933E+00 -0.3390749E-02  0.1189398E+00 -0.2934932E-03 -0.1638557E-01
5904333.  0.6639385E-02 -0.4427890E+00 -0.3702957E-02  0.4038864E-03 -0.2027818E-03 -0.1813665E-01
5871000.  0.8731830E-02 -0.3482886E+00 -0.3411569E-02 -0.1087716E+00 -0.1053235E-03 -0.1896390E-01
5837667.  0.1020449E-01 -0.2084342E+00 -0.2608576E-02 -0.1930319E+00 -0.5925769E-05 -0.1888577E-01
5804333.  0.1086456E-01 -0.4092722E-01 -0.1452345E-02 -0.2427035E+00  0.9083998E-04 -0.1797197E-01
5771000.  0.1062016E-01  0.1338417E+00 -0.1354741E-03 -0.2543941E+00  0.1808671E-03 -0.1633171E-01
5771000.  0.1062016E-01  0.1338418E+00 -0.1354741E-03 -0.2543862E+00  0.1808671E-03 -0.1633171E-01
5701000.  0.7232848E-02  0.4647768E+00  0.2393765E-02 -0.1821294E+00  0.3300649E-03 -0.1045562E-01
5701000.  0.7232848E-02  0.3947660E+00  0.2393765E-02 -0.1451912E+00  0.3300649E-03 -0.1249429E-01
5667333.  0.4987840E-02  0.4521398E+00  0.2969133E-02 -0.7445324E-01  0.3896535E-03 -0.1009209E-01
5633667.  0.2476726E-02  0.4938177E+00  0.3188642E-02 -0.8240774E-02  0.4366827E-03 -0.7667905E-02
5600000. -0.1535204E-03  0.4942588E+00  0.3054291E-02  0.5854303E-01  0.4702647E-03 -0.5014755E-02
5600000. -0.1535204E-03  0.4942588E+00  0.3054291E-02  0.5854303E-01  0.4702647E-03 -0.5014755E-02
5563518. -0.2876135E-02  0.4491217E+00  0.2528091E-02  0.1232433E+00  0.4904102E-03 -0.2005636E-02
5527037. -0.5217777E-02  0.3626429E+00  0.1672842E-02  0.1723122E+00  0.4931512E-03  0.1047285E-02
5490556. -0.6970237E-02  0.2454035E+00  0.5958377E-03  0.1999382E+00  0.4785198E-03  0.4046401E-02
5454074. -0.7995626E-02  0.1111604E+00 -0.5698616E-03  0.2030128E+00  0.4470865E-03  0.6900833E-02
5417593. -0.8240118E-02 -0.2475947E-01 -0.1681968E-02  0.1814693E+00  0.3999274E-03  0.9526184E-02
5381111. -0.7737637E-02 -0.1473501E+00 -0.2606349E-02  0.1381328E+00  0.3385670E-03  0.1184894E-01
5344630. -0.6603236E-02 -0.2435556E+00 -0.3232421E-02  0.7835476E-01  0.2649305E-03  0.1380452E-01
5308148. -0.5017358E-02 -0.3037715E+00 -0.3485922E-02  0.9298780E-02  0.1812784E-03  0.1533828E-01
5271667. -0.3203300E-02 -0.3228124E+00 -0.3336675E-02 -0.6093417E-01  0.9015745E-04  0.1640786E-01
5235185. -0.1399766E-02 -0.3004570E+00 -0.2801317E-02 -0.1242616E+00 -0.5682985E-05  0.1698143E-01
5198704.  0.1671446E-03 -0.2413274E+00 -0.1940526E-02 -0.1735341E+00 -0.1033356E-03  0.1703961E-01
5162222.  0.1310409E-02 -0.1542498E+00 -0.8513234E-03 -0.2033008E+00 -0.1998305E-03  0.1657627E-01
5125741.  0.1903119E-02 -0.5122638E-01  0.3443734E-03 -0.2104283E+00 -0.2921913E-03  0.1559895E-01
5089259.  0.1892710E-02  0.5407014E-01  0.1514087E-02 -0.1943341E+00 -0.3775339E-03  0.1412893E-01
5052778.  0.1306024E-02  0.1478306E+00  0.2529289E-02 -0.1570110E+00 -0.4531277E-03  0.1220188E-01
5016296.  0.2454732E-03  0.2177161E+00  0.3279818E-02 -0.1027650E+00 -0.5164956E-03  0.9867465E-02
4979815. -0.1123369E-02  0.2542417E+00  0.3685396E-02 -0.3765836E-01 -0.5654753E-03  0.7188501E-02
4943333. -0.2591577E-02  0.2518491E+00  0.3703973E-02  0.3116734E-01 -0.5983040E-03  0.4239293E-02
4906852. -0.3931068E-02  0.2095205E+00  0.3335569E-02  0.9628761E-01 -0.6136696E-03  0.1104026E-02
4870370. -0.4921492E-02  0.1309010E+00  0.2621580E-02  0.1507975E+00 -0.6107666E-03 -0.2125817E-02
4833889. -0.5375809E-02  0.2391418E-01  0.1639758E-02  0.1890378E+00 -0.5893252E-03 -0.5355159E-02
4797407. -0.5162681E-02 -0.1001046E+00  0.4951725E-03  0.2071660E+00 -0.5496207E-03 -0.8488285E-02
4760926. -0.4222767E-02 -0.2275683E+00 -0.6910097E-03  0.2034915E+00 -0.4924783E-03 -0.1143120E-01
4724444. -0.2577268E-02 -0.3441678E+00 -0.1794785E-02  0.1786701E+00 -0.4192338E-03 -0.1409799E-01
4687963. -0.3280964E-03 -0.4363099E+00 -0.2702106E-02  0.1355215E+00 -0.3316991E-03 -0.1641117E-01
4651482.  0.2350748E-02 -0.4926019E+00 -0.3320662E-02  0.7872213E-01 -0.2320894E-03 -0.1830588E-01
4615000.  0.5229458E-02 -0.5051016E+00 -0.3589053E-02  0.1429544E-01 -0.1229492E-03 -0.1973188E-01
4578518.  0.8044418E-02 -0.4701074E+00 -0.3482627E-02 -0.5104945E-01 -0.7070038E-05 -0.2065537E-01
4542037.  0.1052431E-01 -0.3886714E+00 -0.3015533E-02 -0.1105978E+00  0.1126097E-03 -0.2105881E-01
4505556.  0.1241755E-01 -0.2665230E+00 -0.2238677E-02 -0.1583268E+00  0.2331032E-03 -0.2094101E-01
4469074.  0.1351750E-01 -0.1135351E+00 -0.1234087E-02 -0.1894695E+00  0.3514710E-03 -0.2031907E-01
4432593.  0.1368390E-01  0.5714046E-01 -0.1063533E-03 -0.2010071E+00  0.4648952E-03 -0.1922127E-01
4396111.  0.1285812E-01  0.2303950E+00  0.1028404E-02 -0.1919107E+00  0.5707714E-03 -0.1768992E-01
4359630.  0.1107049E-01  0.3905265E+00  0.2053920E-02 -0.1632045E+00  0.6667628E-03 -0.1577918E-01
4323148.  0.8438909E-02  0.5228499E+00  0.2865639E-02 -0.1178697E+00  0.7508668E-03 -0.1354748E-01
4286667.  0.5159570E-02  0.6150064E+00  0.3380723E-02 -0.6047703E-01  0.8214266E-03 -0.1106054E-01
4250185.  0.1489408E-02  0.6582099E+00  0.3546085E-02  0.3262978E-02  0.8771787E-03 -0.8386351E-02
4213704. -0.2276431E-02  0.6481322E+00  0.3343244E-02  0.6706603E-01  0.9172430E-03 -0.5592905E-02
4177222. -0.5832050E-02  0.5852405E+00  0.2789831E-02  0.1247003E+00  0.9411303E-03 -0.2746791E-02
4140741. -0.8887919E-02  0.4748952E+00  0.1937666E-02  0.1705716E+00  0.9487233E-03  0.8756481E-04
4104259. -0.1119843E-01  0.3268152E+00  0.8673578E-03  0.2002638E+00  0.9402662E-03  0.2849497E-02
4067778. -0.1258370E-01  0.1541829E+00 -0.3193297E-03  0.2108999E+00  0.9163318E-03  0.5484669E-02
4031296. -0.1294686E-01 -0.2748423E-01 -0.1509494E-02  0.2014536E+00  0.8777977E-03  0.7939911E-02
3994815. -0.1228301E-01 -0.2018093E+00 -0.2589621E-02  0.1727707E+00  0.8258350E-03  0.1016821E-01
3958333. -0.1067989E-01 -0.3530383E+00 -0.3456297E-02  0.1274680E+00  0.7618581E-03  0.1212870E-01
3921852. -0.8310410E-02 -0.4674598E+00 -0.4025599E-02  0.6971204E-01  0.6875228E-03  0.1378046E-01
3885370. -0.5416764E-02 -0.5346878E+00 -0.4240887E-02  0.4762438E-02  0.6046940E-03  0.1508903E-01
3848889. -0.2289135E-02 -0.5485878E+00 -0.4077669E-02 -0.6148341E-01  0.5154336E-03  0.1602256E-01
3812407.  0.7613020E-03 -0.5079010E+00 -0.3545694E-02 -0.1230584E+00  0.4219696E-03  0.1655181E-01
3775926.  0.3430033E-02 -0.4163173E+00 -0.2687890E-02 -0.1744372E+00  0.3266968E-03  0.1665122E-01
3739444.  0.5447693E-02 -0.2822347E+00 -0.1576232E-02 -0.2110559E+00  0.2321363E-03  0.1629883E-01
3702963.  0.6604572E-02 -0.1180166E+00 -0.3052246E-03 -0.2296929E+00  0.1409335E-03  0.1547652E-01
3666482.  0.6770674E-02  0.6110867E-01  0.1016686E-02 -0.2287077E+00  0.5582308E-04  0.1416888E-01
3630000.  0.5908347E-02  0.2383325E+00  0.2276707E-02 -0.2082293E+00 -0.2039039E-04  0.1236718E-01
3630000.  0.5908347E-02  0.2383325E+00  0.2276707E-02 -0.2082293E+00 -0.2039039E-04  0.1236718E-01
3592500.  0.4013448E-02  0.4007528E+00  0.3394611E-02 -0.1687591E+00 -0.8645995E-04  0.9994206E-02
3555000.  0.1262806E-02  0.5265239E+00  0.4233717E-02 -0.1142291E+00 -0.1370063E-03  0.7093107E-02
3517500. -0.2085824E-02  0.6020035E+00  0.4719491E-02 -0.4961647E-01 -0.1689348E-03  0.3669352E-02
3480000. -0.5706817E-02  0.6179533E+00  0.4809433E-02  0.1925260E-01 -0.1791952E-03 -0.2674247E-03
3480000. -0.5706817E-02  0.3720533E+00 -0.3119392E-03 -0.9871184E-02 -0.1791952E-03  0.1803425E-01
3409422. -0.8937127E-02  0.2004338E+00 -0.1635705E-03 -0.1639277E-01 -0.5437219E-03  0.4548511E-01
3338844. -0.1000378E-01 -0.1004172E-01  0.3727953E-04 -0.1916016E-01 -0.1128025E-02  0.5710866E-01
3268266. -0.8758320E-02 -0.2089817E+00  0.2446573E-03 -0.1755103E-01 -0.1744227E-02  0.5131804E-01
3197688. -0.5573665E-02 -0.3542878E+00  0.4112021E-03 -0.1192478E-01 -0.2208823E-02  0.3040993E-01
3127109. -0.1205621E-02 -0.4198234E+00  0.4983583E-03 -0.3471470E-02 -0.2381640E-02 -0.2866843E-03
3056531.  0.3404968E-02 -0.3984818E+00  0.4840093E-03  0.6089178E-02 -0.2192099E-02 -0.3379059E-01
2985953.  0.7340098E-02 -0.3009373E+00  0.3663135E-03  0.1488057E-01 -0.1648924E-02 -0.6301988E-01
2915375.  0.9878725E-02 -0.1511406E+00  0.1633896E-03  0.2123148E-01 -0.8333299E-03 -0.8217080E-01
2844797.  0.1061007E-01  0.1995832E-01 -0.9064723E-04  0.2396425E-01  0.1209699E-03 -0.8768780E-01
2774219.  0.9474413E-02  0.1809774E+00 -0.3522190E-03  0.2256579E-01  0.1055592E-02 -0.7869858E-01
2703641.  0.6735495E-02  0.3057021E+00 -0.5759890E-03  0.1722757E-01  0.1817104E-02 -0.5691141E-01
2633062.  0.2900210E-02  0.3769003E+00 -0.7223165E-03  0.8763500E-02  0.2282943E-02 -0.2606991E-01
2562484. -0.1391897E-02  0.3879836E+00 -0.7632459E-03 -0.1564367E-02  0.2379542E-02  0.8871879E-02
2491906. -0.5486537E-02  0.3426319E+00 -0.6862505E-03 -0.1227369E-01  0.2090640E-02  0.4267917E-01
2421328. -0.8818239E-02  0.2527674E+00 -0.4953396E-03 -0.2189955E-01  0.1455500E-02  0.7069038E-01
2350750. -0.1098550E-01  0.1355149E+00 -0.2096611E-03 -0.2920471E-01  0.5587104E-03  0.8947091E-01
2280172. -0.1178965E-01  0.9803970E-02  0.1399290E-03 -0.3333233E-01 -0.4857541E-03  0.9718770E-01
2209594. -0.1123695E-01 -0.1067682E+00  0.5155982E-03 -0.3388688E-01 -0.1552969E-02  0.9368577E-01
2139016. -0.9509564E-02 -0.2003731E+00  0.8777442E-03 -0.3093920E-01 -0.2524826E-02  0.8030098E-01
2068438. -0.6914683E-02 -0.2624305E+00  0.1189873E-02 -0.2496435E-01 -0.3304573E-02  0.5947727E-01
1997859. -0.3822897E-02 -0.2900597E+00  0.1422492E-02 -0.1672890E-01 -0.3826445E-02  0.3427915E-01
1927281. -0.6068790E-03 -0.2856544E+00  0.1555563E-02 -0.7150292E-02 -0.4059719E-02  0.7891709E-02
1856703.  0.2411677E-02 -0.2557801E+00  0.1579358E-02  0.2854303E-02 -0.4007575E-02 -0.1681635E-01
1786125.  0.5000426E-02 -0.2097640E+00  0.1493653E-02  0.1250747E-01 -0.3701721E-02 -0.3760120E-01
1715547.  0.7038947E-02 -0.1582657E+00  0.1305495E-02  0.2129200E-01 -0.3194483E-02 -0.5299538E-01
1644969.  0.8527040E-02 -0.1121948E+00  0.1025742E-02  0.2905316E-01 -0.2550171E-02 -0.6228387E-01
1574391.  0.9584404E-02 -0.8229099E-01  0.6645148E-03  0.3609648E-01 -0.1837710E-02 -0.6529787E-01
1503812.  0.1045103E-01 -0.7974748E-01  0.2254089E-03  0.4332201E-01 -0.1126675E-02 -0.6199621E-01
1433234.  0.1150292E-01 -0.1185076E+00 -0.3022917E-03  0.5247535E-01 -0.4895913E-03 -0.5173443E-01
1362656.  0.1330807E-01 -0.2205237E+00 -0.9556084E-03  0.6668439E-01 -0.1514407E-04 -0.3193412E-01
1292078.  0.1676947E-01 -0.4269594E+00 -0.1818854E-02  0.9164476E-01  0.1574059E-03  0.4580371E-02
1221500.  0.2345518E-01 -0.8225873E+00 -0.3064900E-02  0.1382992E+00 -0.2406884E-03  0.7542869E-01
1221500.  0.2345518E-01  0.6959223E+01  0.1703548E-01 -0.3348335E-01 -0.2406884E-03  0.6526782E-01
1183328. -0.1853097E-01  0.6638845E+01  0.1465159E-01  0.8120831E+00 -0.5333329E-03  0.3422176E-01
1145156. -0.5128565E-01  0.3938059E+01  0.7812970E-02  0.1406368E+01 -0.6697439E-03  0.1269328E-01
1106984. -0.6246568E-01 -0.3716884E+00 -0.1258141E-02  0.1534537E+01 -0.6999305E-03 -0.1563176E-02
1068812. -0.4636817E-01 -0.4908333E+01 -0.9545976E-02  0.1153436E+01 -0.6620532E-03 -0.1027891E-01
1030641. -0.6282756E-02 -0.8139055E+01 -0.1432349E-01  0.3978986E+00 -0.5850976E-03 -0.1480911E-01
 992469.  0.4615979E-01 -0.8890823E+01 -0.1407457E-01 -0.4765409E+00 -0.4907348E-03 -0.1625687E-01
 954297.  0.9438891E-01 -0.6734718E+01 -0.8942639E-02 -0.1188373E+01 -0.3945471E-03 -0.1556528E-01
 916125.  0.1219039E+00 -0.2120800E+01 -0.5909858E-03 -0.1525905E+01 -0.3068294E-03 -0.1355820E-01
 877953.  0.1172238E+00  0.3772226E+01  0.8427689E-02 -0.1410502E+01 -0.2332780E-03 -0.1094459E-01
 839781.  0.7722020E-01  0.9409019E+01  0.1553253E-01 -0.9090333E+00 -0.1757590E-03 -0.8287139E-02
 801609.  0.7877319E-02  0.1335950E+02  0.1889759E-01 -0.1971694E+00 -0.1332822E-03 -0.5973057E-02
 763438. -0.7760155E-01  0.1469913E+02  0.1791042E-01  0.5081252E+00 -0.1030937E-03 -0.4204518E-02
 725266. -0.1626008E+00  0.1322877E+02  0.1319986E-01  0.1020350E+01 -0.8174855E-04 -0.3014134E-02
 687094. -0.2315053E+00  0.9463126E+01  0.6284627E-02  0.1234973E+01 -0.6600303E-04 -0.2312469E-02
 648922. -0.2734291E+00  0.4416562E+01 -0.9891987E-03  0.1147133E+01 -0.5339011E-04 -0.1939091E-02
 610750. -0.2842491E+00 -0.7261441E+00 -0.7011018E-02  0.8351809E+00 -0.4243714E-04 -0.1733133E-02
 572578. -0.2666092E+00 -0.4940523E+01 -0.1079415E-01  0.4214842E+00 -0.3254555E-04 -0.1567216E-02
 534406. -0.2281919E+00 -0.7596451E+01 -0.1210370E-01  0.2758533E-01 -0.2372315E-04 -0.1368880E-02
 496234. -0.1790243E+00 -0.8542134E+01 -0.1133931E-01 -0.2606021E+00 -0.1623757E-04 -0.1122268E-02
 458062. -0.1287391E+00 -0.8039954E+01 -0.9264399E-02 -0.4084053E+00 -0.1032216E-04 -0.8502087E-03
 419891. -0.8455395E-01 -0.6602069E+01 -0.6703026E-02 -0.4281788E+00 -0.6026977E-05 -0.5877236E-03
 381719. -0.5035555E-01 -0.4795664E+01 -0.4306389E-02 -0.3616187E+00 -0.3191716E-05 -0.3671952E-03
 343547. -0.2688495E-01 -0.3083826E+01 -0.2442876E-02 -0.2580491E+00 -0.1508544E-05 -0.2045272E-03
 305375. -0.1265206E-01 -0.1740700E+01 -0.1207384E-02 -0.1572276E+00 -0.6231479E-06 -0.9985937E-04
 267203. -0.5118512E-02 -0.8472213E+00 -0.5082984E-03 -0.8109635E-01 -0.2183268E-06 -0.4167405E-04
 229031. -0.1714289E-02 -0.3449493E+00 -0.1758168E-03 -0.3453062E-01 -0.6213006E-07 -0.1430760E-04
 190859. -0.4478988E-03 -0.1117449E+00 -0.4713751E-04 -0.1158001E-01 -0.1342586E-07 -0.3812639E-05
 152688. -0.8257380E-04 -0.2641446E-01 -0.8867569E-05 -0.2810553E-02 -0.1965636E-08 -0.7130666E-06
 114516. -0.8889917E-05 -0.3864564E-02 -0.9692969E-06 -0.4192892E-03 -0.1574771E-09 -0.7740962E-07
  76344. -0.3652306E-06 -0.2413231E-03 -0.4024584E-07 -0.2653580E-04 -0.4276900E-11 -0.3188433E-08
  38172. -0.1471304E-08 -0.1959460E-05 -0.1631409E-09 -0.2171559E-06 -0.8535759E-14 -0.1278529E-10
      0.  0.0000000E+00  0.0000000E+00  0.0000000E+00  0.0000000E+00  0.0000000E+00  0.0000000E+00
