      21        8 S      706        104.51600         45.05945         12.83560        678.11621      185    7
6371000.  0.3808003E-01 -0.7951725E-01 -0.1752627E-02 -0.3983266E-01 -0.2811038E-04 -0.7155704E-01
6370000.  0.3809045E-01 -0.5317539E-01 -0.1746067E-02 -0.4375479E-01 -0.1688001E-04 -0.7153905E-01
6369000.  0.3809672E-01 -0.2678879E-01 -0.1738893E-02 -0.4765339E-01 -0.5653062E-05 -0.7151352E-01
6368000.  0.3809885E-01 -0.3604611E-03 -0.1731109E-02 -0.5152705E-01  0.5569290E-05 -0.7148044E-01
6368000.  0.3809885E-01 -0.3604611E-03 -0.1731109E-02 -0.5152705E-01  0.5569290E-05 -0.7148044E-01
6367000.  0.3809683E-01  0.2610659E-01 -0.1722719E-02 -0.5537441E-01  0.1678586E-04 -0.7143981E-01
6366000.  0.3809065E-01  0.5260932E-01 -0.1713727E-02 -0.5919410E-01  0.2799545E-04 -0.7139163E-01
6365000.  0.3808032E-01  0.7914470E-01 -0.1704138E-02 -0.6298476E-01  0.3919690E-04 -0.7133592E-01
6364000.  0.3806581E-01  0.1057097E+00 -0.1693956E-02 -0.6674505E-01  0.5038901E-04 -0.7127267E-01
6363000.  0.3804713E-01  0.1323011E+00 -0.1683187E-02 -0.7047364E-01  0.6157060E-04 -0.7120188E-01
6362000.  0.3802427E-01  0.1589160E+00 -0.1671835E-02 -0.7416920E-01  0.7274048E-04 -0.7112357E-01
6361000.  0.3799724E-01  0.1855512E+00 -0.1659905E-02 -0.7783043E-01  0.8389749E-04 -0.7103773E-01
6360000.  0.3796602E-01  0.2122035E+00 -0.1647404E-02 -0.8145601E-01  0.9504044E-04 -0.7094438E-01
6359000.  0.3793062E-01  0.2388700E+00 -0.1634336E-02 -0.8504469E-01  0.1061681E-03 -0.7084353E-01
6358000.  0.3789104E-01  0.2655473E+00 -0.1620708E-02 -0.8859517E-01  0.1172794E-03 -0.7073516E-01
6357000.  0.3784726E-01  0.2922324E+00 -0.1606526E-02 -0.9210622E-01  0.1283731E-03 -0.7061931E-01
6356000.  0.3779930E-01  0.3189221E+00 -0.1591796E-02 -0.9557657E-01  0.1394480E-03 -0.7049599E-01
6356000.  0.3779930E-01  0.1913524E+00 -0.1591796E-02 -0.7334125E-01  0.1394480E-03 -0.7872067E-01
6355000.  0.3776775E-01  0.2107182E+00 -0.1580104E-02 -0.7564603E-01  0.1517961E-03 -0.7861792E-01
6354000.  0.3773315E-01  0.2300912E+00 -0.1568051E-02 -0.7792762E-01  0.1641276E-03 -0.7850917E-01
6353000.  0.3769551E-01  0.2494698E+00 -0.1555641E-02 -0.8018548E-01  0.1764416E-03 -0.7839444E-01
6352000.  0.3765484E-01  0.2688521E+00 -0.1542880E-02 -0.8241907E-01  0.1887371E-03 -0.7827373E-01
6351000.  0.3761112E-01  0.2882367E+00 -0.1529770E-02 -0.8462786E-01  0.2010132E-03 -0.7814705E-01
6350000.  0.3756435E-01  0.3076217E+00 -0.1516315E-02 -0.8681133E-01  0.2132689E-03 -0.7801442E-01
6349000.  0.3751455E-01  0.3270055E+00 -0.1502519E-02 -0.8896898E-01  0.2255033E-03 -0.7787584E-01
6348000.  0.3746170E-01  0.3463864E+00 -0.1488387E-02 -0.9110025E-01  0.2377156E-03 -0.7773131E-01
6347000.  0.3740581E-01  0.3657626E+00 -0.1473922E-02 -0.9320469E-01  0.2499046E-03 -0.7758085E-01
6346600.  0.3738260E-01  0.3735114E+00 -0.1468044E-02 -0.9403882E-01  0.2547736E-03 -0.7751901E-01
6346600.  0.3738260E-01  0.1961858E+00 -0.1468044E-02 -0.7615900E-01  0.2547736E-03 -0.9055378E-01
6318800.  0.3567160E-01  0.5882472E+00 -0.1048621E-02 -0.1131845E+00  0.6400792E-03 -0.8542418E-01
6291000.  0.3226268E-01  0.9708162E+00 -0.5087506E-03 -0.1307334E+00  0.9949448E-03 -0.7663599E-01
6291000.  0.3226268E-01  0.9830174E+00 -0.5087506E-03 -0.1339814E+00  0.9949448E-03 -0.7663599E-01
6263000.  0.2713834E-01  0.1341488E+01  0.7821580E-04 -0.1292361E+00  0.1305671E-02 -0.6422182E-01
6235000.  0.2055329E-01  0.1644042E+01  0.5946165E-03 -0.1023565E+00  0.1555034E-02 -0.4880237E-01
6207000.  0.1280000E-01  0.1869954E+01  0.9520157E-03 -0.5789185E-01  0.1731131E-02 -0.3099577E-01
6179000.  0.4253611E-02  0.2002618E+01  0.1088274E-02 -0.3104744E-02  0.1825078E-02 -0.1155255E-01
6151000. -0.4649647E-02  0.2031058E+01  0.9771694E-03  0.5313148E-01  0.1831527E-02  0.8673184E-02
6151000. -0.4649647E-02  0.1644528E+01  0.9771694E-03  0.4742543E-01  0.1831527E-02  0.8930427E-02
6128500. -0.1033837E-01  0.1569540E+01  0.7465885E-03  0.8210970E-01  0.1776590E-02  0.2211418E-01
6106000. -0.1568474E-01  0.1451439E+01  0.4063553E-03  0.1090485E+00  0.1675979E-02  0.3474610E-01
6083500. -0.2054572E-01  0.1295673E+01 -0.1162436E-04  0.1258042E+00  0.1532162E-02  0.4653578E-01
6061000. -0.2479969E-01  0.1108858E+01 -0.4684151E-03  0.1308580E+00  0.1348589E-02  0.5721919E-01
6038500. -0.2834995E-01  0.8984318E+00 -0.9215095E-03  0.1237162E+00  0.1129587E-02  0.6656319E-01
6016000. -0.3112690E-01  0.6722348E+00 -0.1328501E-02  0.1049245E+00  0.8802474E-03  0.7436993E-01
5993500. -0.3308876E-01  0.4381271E+00 -0.1650654E-02  0.7599743E-01  0.6062910E-03  0.8048089E-01
5971000. -0.3422103E-01  0.2036250E+00 -0.1856087E-02  0.3927273E-01  0.3139280E-03  0.8477756E-01
5971000. -0.3422103E-01  0.1819817E+00 -0.1856087E-02  0.3875057E-01  0.3139280E-03  0.8925738E-01
5937667. -0.3433252E-01 -0.1329321E+00 -0.1911068E-02 -0.1797667E-01 -0.1637142E-03  0.9263669E-01
5904333. -0.3290713E-01 -0.4038068E+00 -0.1673258E-02 -0.7172757E-01 -0.6483242E-03  0.9194421E-01
5871000. -0.3019665E-01 -0.6234701E+00 -0.1179177E-02 -0.1148566E+00 -0.1119155E-02  0.8742843E-01
5837667. -0.2647584E-01 -0.7900974E+00 -0.4991182E-03 -0.1421879E+00 -0.1557161E-02  0.7946838E-01
5804333. -0.2201755E-01 -0.9059833E+00  0.2768323E-03 -0.1513377E+00 -0.1945544E-02  0.6854150E-01
5771000. -0.1707523E-01 -0.9761851E+00  0.1053149E-02 -0.1425855E+00 -0.2270170E-02  0.5519666E-01
5771000. -0.1707523E-01 -0.9761927E+00  0.1053149E-02 -0.1425801E+00 -0.2270170E-02  0.5519666E-01
5701000. -0.5681814E-02 -0.1073612E+01  0.2363027E-02 -0.8561262E-01 -0.2691918E-02  0.2051606E-01
5701000. -0.5681814E-02 -0.8790230E+00  0.2363027E-02 -0.6583307E-01 -0.2691918E-02  0.2211756E-01
5667333. -0.1218170E-02 -0.8202417E+00  0.2596028E-02 -0.2391757E-01 -0.2765636E-02  0.5897818E-02
5633667.  0.3077062E-02 -0.8077148E+00  0.2623357E-02  0.1353411E-01 -0.2754680E-02 -0.1005070E-01
5600000.  0.7284144E-02 -0.7814357E+00  0.2455369E-02  0.4947592E-01 -0.2659698E-02 -0.2581783E-01
5600000.  0.7284144E-02 -0.7814357E+00  0.2455369E-02  0.4947592E-01 -0.2659698E-02 -0.2581783E-01
5563518.  0.1164224E-01 -0.7382229E+00  0.2072405E-02  0.8306636E-01 -0.2464705E-02 -0.4210535E-01
5527037.  0.1571000E-01 -0.6800517E+00  0.1520887E-02  0.1078794E+00 -0.2180081E-02 -0.5703941E-01
5490556.  0.1940100E-01 -0.6065221E+00  0.8580927E-03  0.1216554E+00 -0.1815000E-02 -0.7013120E-01
5454074.  0.2262545E-01 -0.5169725E+00  0.1507288E-03  0.1233844E+00 -0.1381232E-02 -0.8096188E-01
5417593.  0.2529022E-01 -0.4110276E+00 -0.5325273E-03  0.1134044E+00 -0.8927707E-03 -0.8918963E-01
5381111.  0.2730142E-01 -0.2887655E+00 -0.1128551E-02  0.9326112E-01 -0.3652440E-03 -0.9456810E-01
5344630.  0.2856813E-01 -0.1512918E+00 -0.1586061E-02  0.6552996E-01  0.1845199E-03 -0.9694382E-01
5308148.  0.2900935E-01 -0.9336412E-03 -0.1870774E-02  0.3348745E-01  0.7391422E-03 -0.9625880E-01
5271667.  0.2856126E-01  0.1585800E+00 -0.1968189E-02  0.7175033E-03  0.1281150E-02 -0.9255803E-01
5235185.  0.2718530E-01  0.3221949E+00 -0.1884339E-02 -0.2926486E-01  0.1793636E-02 -0.8597159E-01
5198704.  0.2487536E-01  0.4836919E+00 -0.1644246E-02 -0.5340186E-01  0.2260632E-02 -0.7671791E-01
5162222.  0.2166352E-01  0.6359552E+00 -0.1288361E-02 -0.6939863E-01  0.2667712E-02 -0.6509518E-01
5125741.  0.1762376E-01  0.7716827E+00 -0.8675779E-03 -0.7594413E-01  0.3002282E-02 -0.5146047E-01
5089259.  0.1287129E-01  0.8836823E+00 -0.4371639E-03 -0.7281121E-01  0.3253998E-02 -0.3622594E-01
5052778.  0.7561265E-02  0.9655097E+00 -0.5063905E-04 -0.6084491E-01  0.3414965E-02 -0.1984409E-01
5016296.  0.1881109E-02  0.1012205E+01  0.2461802E-03 -0.4184401E-01  0.3479970E-02 -0.2787873E-02
4979815. -0.3957188E-02  0.1020409E+01  0.4199340E-03 -0.1833040E-01  0.3446535E-02  0.1445698E-01
4943333. -0.9729072E-02  0.9889562E+00  0.4531394E-03  0.6732910E-02  0.3314959E-02  0.3141056E-01
4906852. -0.1520937E-01  0.9189766E+00  0.3457598E-03  0.3026816E-01  0.3088257E-02  0.4760853E-01
4870370. -0.2018586E-01  0.8136636E+00  0.1149069E-03  0.4941403E-01  0.2771995E-02  0.6261943E-01
4833889. -0.2447046E-01  0.6784121E+00 -0.2072310E-03  0.6181912E-01  0.2374144E-02  0.7604684E-01
4797407. -0.2791129E-01  0.5201772E+00 -0.5770896E-03  0.6588271E-01  0.1904761E-02  0.8754701E-01
4760926. -0.3039915E-01  0.3470144E+00 -0.9444194E-03  0.6090324E-01  0.1375751E-02  0.9683463E-01
4724444. -0.3187356E-01  0.1676435E+00 -0.1257768E-02  0.4714965E-01  0.8004422E-03  0.1036798E+00
4687963. -0.3232366E-01 -0.9344753E-02 -0.1469876E-02  0.2581577E-01  0.1933407E-03  0.1079243E+00
4651482. -0.3178633E-01 -0.1760075E+00 -0.1542716E-02 -0.1103839E-02 -0.4303885E-03  0.1094773E+00
4615000. -0.3034063E-01 -0.3256021E+00 -0.1451483E-02 -0.3102324E-01 -0.1055238E-02  0.1083109E+00
4578518. -0.2809995E-01 -0.4529623E+00 -0.1187285E-02 -0.6101298E-01 -0.1665712E-02  0.1044694E+00
4542037. -0.2520200E-01 -0.5548137E+00 -0.7583048E-03 -0.8809763E-01 -0.2246751E-02  0.9805772E-01
4505556. -0.2179734E-01 -0.6298890E+00 -0.1891581E-03 -0.1095470E+00 -0.2784088E-02  0.8923772E-01
4469074. -0.1803853E-01 -0.6787196E+00  0.4811610E-03 -0.1231076E+00 -0.3264555E-02  0.7823034E-01
4432593. -0.1407015E-01 -0.7036405E+00  0.1202693E-02 -0.1272545E+00 -0.3676335E-02  0.6529869E-01
4396111. -0.1001902E-01 -0.7082509E+00  0.1919182E-02 -0.1212966E+00 -0.4009283E-02  0.5074652E-01
4359630. -0.5989506E-02 -0.6969190E+00  0.2572863E-02 -0.1054353E+00 -0.4255057E-02  0.3491280E-01
4323148. -0.2058707E-02 -0.6745472E+00  0.3109815E-02 -0.8077160E-01 -0.4407352E-02  0.1815601E-01
4286667.  0.1723410E-02 -0.6457481E+00  0.3484597E-02 -0.4916345E-01 -0.4461945E-02  0.8524106E-03
4250185.  0.5332029E-02 -0.6145192E+00  0.3664264E-02 -0.1307025E-01 -0.4416796E-02 -0.1661676E-01
4213704.  0.8762475E-02 -0.5839552E+00  0.3631138E-02  0.2466795E-01 -0.4272057E-02 -0.3387036E-01
4177222.  0.1202426E-01 -0.5557496E+00  0.3384266E-02  0.6109425E-01 -0.4030014E-02 -0.5054027E-01
4140741.  0.1513247E-01 -0.5303035E+00  0.2939385E-02  0.9338611E-01 -0.3695043E-02 -0.6627326E-01
4104259.  0.1810102E-01 -0.5066626E+00  0.2327343E-02  0.1191097E+00 -0.3273442E-02 -0.8074253E-01
4067778.  0.2093409E-01 -0.4825621E+00  0.1591461E-02  0.1363934E+00 -0.2773325E-02 -0.9365501E-01
4031296.  0.2362089E-01 -0.4549873E+00  0.7835930E-03  0.1441271E+00 -0.2204342E-02 -0.1047501E+00
3994815.  0.2613127E-01 -0.4203412E+00 -0.4026442E-04  0.1420011E+00 -0.1577575E-02 -0.1138112E+00
3958333.  0.2841417E-01 -0.3749254E+00 -0.8247347E-03  0.1305153E+00 -0.9051373E-03 -0.1206709E+00
3921852.  0.3039831E-01 -0.3155314E+00 -0.1519543E-02  0.1109639E+00 -0.2000601E-03 -0.1252009E+00
3885370.  0.3199630E-01 -0.2397218E+00 -0.2083740E-02  0.8525069E-01  0.5241223E-03 -0.1273293E+00
3848889.  0.3310994E-01 -0.1462899E+00 -0.2488610E-02  0.5574403E-01  0.1253528E-02 -0.1270316E+00
3812407.  0.3363835E-01 -0.3548101E-01 -0.2719904E-02  0.2506569E-01  0.1974336E-02 -0.1243270E+00
3775926.  0.3348660E-01  0.9081991E-01 -0.2778456E-02 -0.4161277E-02  0.2672912E-02 -0.1192893E+00
3739444.  0.3257512E-01  0.2291721E+00 -0.2679665E-02 -0.2951485E-01  0.3336234E-02 -0.1120282E+00
3702963.  0.3084826E-01  0.3746948E+00 -0.2451709E-02 -0.4898599E-01  0.3951939E-02 -0.1026934E+00
3666482.  0.2828206E-01  0.5212450E+00 -0.2132666E-02 -0.6114557E-01  0.4508708E-02 -0.9147701E-01
3630000.  0.2488963E-01  0.6620796E+00 -0.1766874E-02 -0.6524754E-01  0.4996374E-02 -0.7859005E-01
3630000.  0.2488963E-01  0.6620796E+00 -0.1766874E-02 -0.6524754E-01  0.4996374E-02 -0.7859005E-01
3592500.  0.2059782E-01  0.7933098E+00 -0.1391091E-02 -0.6106023E-01  0.5416276E-02 -0.6385882E-01
3555000.  0.1559224E-01  0.9034306E+00 -0.1063290E-02 -0.4913877E-01  0.5745719E-02 -0.4790098E-01
3517500.  0.1001680E-01  0.9859448E+00 -0.8248723E-03 -0.3099379E-01  0.5978335E-02 -0.3100790E-01
3480000.  0.4050301E-02  0.1035577E+01 -0.7065763E-03 -0.8708640E-02  0.6109504E-02 -0.1348130E-01
3480000.  0.4050301E-02  0.1642168E+01 -0.1498221E-02  0.1018475E-01  0.6109504E-02 -0.2647055E-01
3409422. -0.1382494E-01  0.1521436E+01 -0.1425985E-02 -0.2315208E-01  0.5681461E-02  0.1026397E+00
3338844. -0.2840588E-01  0.1063689E+01 -0.1000944E-02 -0.5228504E-01  0.3914384E-02  0.2105894E+00
3268266. -0.3660436E-01  0.3936498E+00 -0.3072470E-03 -0.7075468E-01  0.1183133E-02  0.2735582E+00
3197688. -0.3691842E-01 -0.3332275E+00  0.5122183E-03 -0.7457682E-01 -0.1931475E-02  0.2787102E+00
3127109. -0.2957159E-01 -0.9663987E+00  0.1287360E-02 -0.6287001E-01 -0.4776508E-02  0.2258980E+00
3056531. -0.1629080E-01 -0.1389021E+01  0.1855602E-02 -0.3782119E-01 -0.6763863E-02  0.1266156E+00
2985953.  0.1778129E-03 -0.1535801E+01  0.2093050E-02 -0.4081229E-02 -0.7483289E-02  0.7877986E-03
2915375.  0.1668063E-01 -0.1398403E+01  0.1936508E-02  0.3222613E-01 -0.6771691E-02 -0.1276731E+00
2844797.  0.3026546E-01 -0.1019786E+01  0.1393437E-02  0.6466387E-01 -0.4731154E-02 -0.2355558E+00
2774219.  0.3867858E-01 -0.4802875E+00  0.5391524E-03  0.8758882E-01 -0.1697823E-02 -0.3043988E+00
2703641.  0.4067986E-01  0.1206494E+00 -0.4971141E-03  0.9703010E-01  0.1827482E-02 -0.3232692E+00
2633062.  0.3614860E-01  0.6833557E+00 -0.1554060E-02  0.9122242E-01  0.5270841E-02 -0.2899561E+00
2562484.  0.2599322E-01  0.1124088E+01 -0.2463827E-02  0.7074710E-01  0.8080921E-02 -0.2105913E+00
2491906.  0.1190629E-01  0.1386384E+01 -0.3077141E-02  0.3830374E-01  0.9813326E-02 -0.9795204E-01
2421328. -0.3972582E-02  0.1446411E+01 -0.3284037E-02 -0.1813927E-02  0.1019041E-01  0.3109680E-01
2350750. -0.1942100E-01  0.1312523E+01 -0.3027714E-02 -0.4442951E-01  0.9130593E-02  0.1585080E+00
2280172. -0.3246450E-01  0.1019916E+01 -0.2310041E-02 -0.8425353E-01  0.6745870E-02  0.2678044E+00
2209594. -0.4162852E-01  0.6220302E+00 -0.1188748E-02 -0.1166007E+00  0.3311598E-02  0.3462730E+00
2139016. -0.4608514E-01  0.1804616E+00  0.2325859E-03 -0.1379564E+00 -0.7836765E-03  0.3863463E+00
2068438. -0.4568806E-01 -0.2448650E+00  0.1819675E-02 -0.1463310E+00 -0.5098650E-02  0.3860707E+00
1997859. -0.4090676E-01 -0.6038480E+00  0.3425306E-02 -0.1413755E+00 -0.9200102E-02  0.3487205E+00
1927281. -0.3268463E-01 -0.8617495E+00  0.4907007E-02 -0.1242725E+00 -0.1271520E-01  0.2817328E+00
1856703. -0.2225142E-01 -0.1001742E+01  0.6142650E-02 -0.9743658E-01 -0.1536992E-01  0.1952092E+00
1786125. -0.1092447E-01 -0.1024584E+01  0.7041730E-02 -0.6408899E-01 -0.1700926E-01  0.1002727E+00
1715547.  0.7310565E-04 -0.9459126E+00  0.7551671E-02 -0.2777439E-01 -0.1759988E-01  0.7528530E-02
1644969.  0.9754650E-02 -0.7920022E+00  0.7658719E-02  0.8121097E-02 -0.1721722E-01 -0.7415433E-01
1574391.  0.1746116E-01 -0.5949185E+00  0.7383770E-02  0.4078924E-01 -0.1602161E-01 -0.1384098E+00
1503812.  0.2289960E-01 -0.3879655E+00  0.6774051E-02  0.6833237E-01 -0.1422860E-01 -0.1816231E+00
1433234.  0.2613614E-01 -0.2023119E+00  0.5891612E-02  0.9001091E-01 -0.1207970E-01 -0.2026449E+00
1362656.  0.2756295E-01 -0.6557022E-01  0.4799308E-02  0.1064517E+00 -0.9818939E-02 -0.2019729E+00
1292078.  0.2786374E-01 -0.3362053E-02  0.3544253E-02  0.1199358E+00 -0.7682090E-02 -0.1802980E+00
1221500.  0.2802091E-01 -0.4557824E-01  0.2136537E-02  0.1350207E+00 -0.5906810E-02 -0.1360574E+00
1221500.  0.2802091E-01  0.1348847E+01  0.6804092E-02 -0.1106610E+00 -0.5906810E-02 -0.1481962E+00
1183328.  0.1864562E-01  0.1710918E+01  0.6917908E-02  0.7985347E-01 -0.5048153E-02 -0.1380568E+00
1145156.  0.8471726E-02  0.1601100E+01  0.5835965E-02  0.2759434E+00 -0.4256051E-02 -0.1261201E+00
1106984.  0.4180351E-03  0.1016860E+01  0.3743306E-02  0.4067372E+00 -0.3538894E-02 -0.1131559E+00
1068812. -0.3075527E-02  0.1171665E+00  0.1189330E-02  0.4250689E+00 -0.2900888E-02 -0.9979241E-01
1030641. -0.9010970E-03 -0.8240780E+00 -0.1106829E-02  0.3229111E+00 -0.2342889E-02 -0.8652692E-01
 992469.  0.6272478E-02 -0.1503770E+01 -0.2501824E-02  0.1324662E+00 -0.1863078E-02 -0.7374320E-01
 954297.  0.1611436E-01 -0.1685443E+01 -0.2636880E-02 -0.8643776E-01 -0.1457666E-02 -0.6173455E-01
 916125.  0.2527352E-01 -0.1274285E+01 -0.1542867E-02 -0.2673944E+00 -0.1121321E-02 -0.5071924E-01
 877953.  0.3034377E-01 -0.3472695E+00  0.3870256E-03 -0.3591206E+00 -0.8475957E-03 -0.4085273E-01
 839781.  0.2884999E-01  0.8698059E+00  0.2537755E-02 -0.3405071E+00 -0.6292900E-03 -0.3223121E-01
 801609.  0.1995618E-01  0.2069418E+01  0.4271284E-02 -0.2246659E+00 -0.4588037E-03 -0.2489189E-01
 763438.  0.4693584E-02  0.2951061E+01  0.5115045E-02 -0.5173188E-01 -0.3284908E-03 -0.1881420E-01
 725266. -0.1434031E-01  0.3303813E+01  0.4881783E-02  0.1260555E+00 -0.2309865E-03 -0.1392240E-01
 687094. -0.3369086E-01  0.3058099E+01  0.3690810E-02  0.2612471E+00 -0.1595296E-03 -0.1009642E-01
 648922. -0.4994294E-01  0.2294147E+01  0.1896610E-02  0.3244682E+00 -0.1081756E-03 -0.7184966E-02
 610750. -0.6053467E-01  0.1207927E+01 -0.4130640E-04  0.3103116E+00 -0.7193361E-04 -0.5024476E-02
 572578. -0.6427322E-01  0.4877339E-01 -0.1698932E-02  0.2350415E+00 -0.4678877E-04 -0.3454930E-02
 534406. -0.6144401E-01 -0.9502375E+00 -0.2794465E-02  0.1281175E+00 -0.2964055E-04 -0.2333159E-02
 496234. -0.5353454E-01 -0.1628213E+01 -0.3234791E-02  0.2125125E-01 -0.1817258E-04 -0.1541496E-02
 458062. -0.4270201E-01 -0.1924451E+01 -0.3098965E-02 -0.6108613E-01 -0.1069041E-04 -0.9896816E-03
 419891. -0.3116962E-01 -0.1874658E+01 -0.2576505E-02 -0.1069547E+00 -0.5968237E-05 -0.6109132E-03
 381719. -0.2072545E-01 -0.1581698E+01 -0.1889056E-02 -0.1172085E+00 -0.3119033E-05 -0.3577688E-03
 343547. -0.1244400E-01 -0.1174063E+01 -0.1223595E-02 -0.1017274E+00 -0.1499925E-05 -0.1953405E-03
 305375. -0.6653190E-02 -0.7667258E+00 -0.6946642E-03 -0.7385150E-01 -0.6494624E-06 -0.9737098E-04
 267203. -0.3100849E-02 -0.4355933E+00 -0.3396684E-03 -0.4528664E-01 -0.2459009E-06 -0.4311188E-04
 229031. -0.1219513E-02 -0.2102842E+00 -0.1388105E-03 -0.2314374E-01 -0.7814836E-07 -0.1632640E-04
 190859. -0.3843449E-03 -0.8276366E-01 -0.4509965E-04 -0.9509219E-02 -0.1959558E-07 -0.5006410E-05
 152688. -0.8893201E-04 -0.2468501E-01 -0.1068521E-04 -0.2929233E-02 -0.3498246E-08 -0.1135396E-05
 114516. -0.1280504E-04 -0.4848598E-02 -0.1565987E-05 -0.5890591E-03 -0.3673366E-09 -0.1609893E-06
  76344. -0.7908035E-06 -0.4563001E-03 -0.9790550E-07 -0.5633361E-04 -0.1481064E-10 -0.9824129E-08
  38172. -0.6379468E-08 -0.7430436E-05 -0.7955303E-09 -0.9259518E-06 -0.5887570E-13 -0.7841634E-10
      0.  0.0000000E+00  0.0000000E+00  0.0000000E+00  0.0000000E+00  0.0000000E+00  0.0000000E+00
