      21       10 S      708         97.84461         38.96379         12.69107        798.68347      185    7
6371000. -0.3954175E-01  0.5280707E-01  0.5027669E-03  0.4004452E-01  0.0000000E+00  0.0000000E+00
6370000. -0.3954759E-01  0.2156885E-01  0.4963804E-03  0.4132735E-01  0.0000000E+00  0.0000000E+00
6369000. -0.3954852E-01 -0.9697027E-02  0.4897947E-03  0.4258297E-01  0.0000000E+00  0.0000000E+00
6368000. -0.3954454E-01 -0.4098644E-01  0.4830141E-03  0.4381084E-01  0.0000000E+00  0.0000000E+00
6368000. -0.3954454E-01 -0.4098644E-01  0.4830141E-03  0.4381084E-01  0.0000000E+00  0.0000000E+00
6367000. -0.3953565E-01 -0.7229525E-01  0.4760430E-03  0.4501047E-01  0.0000000E+00  0.0000000E+00
6366000. -0.3952185E-01 -0.1036193E+00  0.4688858E-03  0.4618136E-01  0.0000000E+00  0.0000000E+00
6365000. -0.3950312E-01 -0.1349544E+00  0.4615471E-03  0.4732303E-01  0.0000000E+00  0.0000000E+00
6364000. -0.3947948E-01 -0.1662964E+00  0.4540316E-03  0.4843501E-01  0.0000000E+00  0.0000000E+00
6363000. -0.3945092E-01 -0.1976412E+00  0.4463439E-03  0.4951686E-01  0.0000000E+00  0.0000000E+00
6362000. -0.3941744E-01 -0.2289845E+00  0.4384888E-03  0.5056813E-01  0.0000000E+00  0.0000000E+00
6361000. -0.3937903E-01 -0.2603221E+00  0.4304711E-03  0.5158839E-01  0.0000000E+00  0.0000000E+00
6360000. -0.3933572E-01 -0.2916499E+00  0.4222956E-03  0.5257723E-01  0.0000000E+00  0.0000000E+00
6359000. -0.3928748E-01 -0.3229636E+00  0.4139675E-03  0.5353425E-01  0.0000000E+00  0.0000000E+00
6358000. -0.3923433E-01 -0.3542591E+00  0.4054917E-03  0.5445907E-01  0.0000000E+00  0.0000000E+00
6357000. -0.3917627E-01 -0.3855321E+00  0.3968733E-03  0.5535131E-01  0.0000000E+00  0.0000000E+00
6356000. -0.3911331E-01 -0.4167784E+00  0.3881174E-03  0.5621061E-01  0.0000000E+00  0.0000000E+00
6356000. -0.3911331E-01 -0.2612723E+00  0.3881174E-03  0.4962397E-01  0.0000000E+00  0.0000000E+00
6355000. -0.3907051E-01 -0.2839829E+00  0.3802840E-03  0.5018613E-01  0.0000000E+00  0.0000000E+00
6354000. -0.3902416E-01 -0.3066821E+00  0.3723639E-03  0.5072789E-01  0.0000000E+00  0.0000000E+00
6353000. -0.3897424E-01 -0.3293674E+00  0.3643605E-03  0.5124909E-01  0.0000000E+00  0.0000000E+00
6352000. -0.3892076E-01 -0.3520367E+00  0.3562768E-03  0.5174960E-01  0.0000000E+00  0.0000000E+00
6351000. -0.3886373E-01 -0.3746878E+00  0.3481162E-03  0.5222927E-01  0.0000000E+00  0.0000000E+00
6350000. -0.3880314E-01 -0.3973183E+00  0.3398820E-03  0.5268799E-01  0.0000000E+00  0.0000000E+00
6349000. -0.3873900E-01 -0.4199260E+00  0.3315774E-03  0.5312562E-01  0.0000000E+00  0.0000000E+00
6348000. -0.3867132E-01 -0.4425088E+00  0.3232057E-03  0.5354205E-01  0.0000000E+00  0.0000000E+00
6347000. -0.3860009E-01 -0.4650642E+00  0.3147704E-03  0.5393719E-01  0.0000000E+00  0.0000000E+00
6346600. -0.3857061E-01 -0.4740782E+00  0.3113792E-03  0.5408925E-01  0.0000000E+00  0.0000000E+00
6346600. -0.3857061E-01 -0.2711753E+00  0.3113792E-03  0.4919760E-01  0.0000000E+00  0.0000000E+00
6318800. -0.3639979E-01 -0.7217438E+00  0.8769117E-04  0.5120570E-01  0.0000000E+00  0.0000000E+00
6291000. -0.3230959E-01 -0.1146428E+01 -0.1173167E-03  0.4079070E-01  0.0000000E+00  0.0000000E+00
6291000. -0.3230959E-01 -0.1161094E+01 -0.1173167E-03  0.4105935E-01  0.0000000E+00  0.0000000E+00
6263000. -0.2634803E-01 -0.1540551E+01 -0.2531748E-03  0.1923310E-01  0.0000000E+00  0.0000000E+00
6235000. -0.1888520E-01 -0.1840479E+01 -0.2764148E-03 -0.9345227E-02  0.0000000E+00  0.0000000E+00
6207000. -0.1031669E-01 -0.2040887E+01 -0.1692811E-03 -0.3910646E-01  0.0000000E+00  0.0000000E+00
6179000. -0.1111987E-02 -0.2128362E+01  0.6033868E-04 -0.6412204E-01  0.0000000E+00  0.0000000E+00
6151000.  0.8216823E-02 -0.2097045E+01  0.3796057E-03 -0.7913370E-01  0.0000000E+00  0.0000000E+00
6151000.  0.8216823E-02 -0.1689290E+01  0.3796057E-03 -0.7058256E-01  0.0000000E+00  0.0000000E+00
6128500.  0.1398299E-01 -0.1568754E+01  0.6328120E-03 -0.7154570E-01  0.0000000E+00  0.0000000E+00
6106000.  0.1924879E-01 -0.1407133E+01  0.8759223E-03 -0.6486504E-01  0.0000000E+00  0.0000000E+00
6083500.  0.2388251E-01 -0.1212151E+01  0.1082384E-02 -0.5091466E-01  0.0000000E+00  0.0000000E+00
6061000.  0.2778086E-01 -0.9920698E+00  0.1228234E-02 -0.3077390E-01  0.0000000E+00  0.0000000E+00
6038500.  0.3086998E-01 -0.7552495E+00  0.1294411E-02 -0.6114468E-02  0.0000000E+00  0.0000000E+00
6016000.  0.3310510E-01 -0.5097248E+00  0.1268564E-02  0.2096532E-01  0.0000000E+00  0.0000000E+00
5993500.  0.3446874E-01 -0.2628806E+00  0.1146215E-02  0.4814020E-01  0.0000000E+00  0.0000000E+00
5971000.  0.3496800E-01 -0.2120883E-01  0.9311836E-03  0.7307376E-01  0.0000000E+00  0.0000000E+00
5971000.  0.3496800E-01 -0.1808064E-01  0.9311836E-03  0.6102254E-01  0.0000000E+00  0.0000000E+00
5937667.  0.3421401E-01  0.2989284E+00  0.5457458E-03  0.8456369E-01  0.0000000E+00  0.0000000E+00
5904333.  0.3192358E-01  0.5681445E+00  0.6675127E-04  0.9645078E-01  0.0000000E+00  0.0000000E+00
5871000.  0.2835948E-01  0.7855277E+00 -0.4415420E-03  0.9579888E-01  0.0000000E+00  0.0000000E+00
5837667.  0.2379461E-01  0.9509168E+00 -0.9156524E-03  0.8370998E-01  0.0000000E+00  0.0000000E+00
5804333.  0.1849558E-01  0.1066637E+01 -0.1302020E-02  0.6277803E-01  0.0000000E+00  0.0000000E+00
5771000.  0.1271345E-01  0.1136323E+01 -0.1563175E-02  0.3646478E-01  0.0000000E+00  0.0000000E+00
5771000.  0.1271345E-01  0.1136328E+01 -0.1563175E-02  0.3646307E-01  0.0000000E+00  0.0000000E+00
5701000. -0.4554276E-03  0.1231553E+01 -0.1650472E-02 -0.2055932E-01  0.0000000E+00  0.0000000E+00
5701000. -0.4554276E-03  0.1009797E+01 -0.1650472E-02 -0.1654250E-01  0.0000000E+00  0.0000000E+00
5667333. -0.5539000E-02  0.9247584E+00 -0.1510859E-02 -0.3553914E-01  0.0000000E+00  0.0000000E+00
5633667. -0.1031927E-01  0.8857341E+00 -0.1278074E-02 -0.5216295E-01  0.0000000E+00  0.0000000E+00
5600000. -0.1484827E-01  0.8235813E+00 -0.9693329E-03 -0.6365225E-01  0.0000000E+00  0.0000000E+00
5600000. -0.1484827E-01  0.8235813E+00 -0.9693329E-03 -0.6365225E-01  0.0000000E+00  0.0000000E+00
5563518. -0.1931036E-01  0.7305349E+00 -0.5848529E-03 -0.6944846E-01  0.0000000E+00  0.0000000E+00
5527037. -0.2316596E-01  0.6120377E+00 -0.1874274E-03 -0.6822968E-01  0.0000000E+00  0.0000000E+00
5490556. -0.2627452E-01  0.4700155E+00  0.1844530E-03 -0.6070782E-01  0.0000000E+00  0.0000000E+00
5454074. -0.2850954E-01  0.3075323E+00  0.4984454E-03 -0.4829280E-01  0.0000000E+00  0.0000000E+00
5417593. -0.2976587E-01  0.1290533E+00  0.7318268E-03 -0.3290035E-01  0.0000000E+00  0.0000000E+00
5381111. -0.2996778E-01 -0.5969156E-01  0.8736029E-03 -0.1665389E-01  0.0000000E+00  0.0000000E+00
5344630. -0.2907598E-01 -0.2517071E+00  0.9249106E-03 -0.1631240E-02  0.0000000E+00  0.0000000E+00
5308148. -0.2709381E-01 -0.4391449E+00  0.8980268E-03  0.1040022E-01  0.0000000E+00  0.0000000E+00
5271667. -0.2407159E-01 -0.6135886E+00  0.8139363E-03  0.1819281E-01  0.0000000E+00  0.0000000E+00
5235185. -0.2010727E-01 -0.7668389E+00  0.6989642E-03  0.2114249E-01  0.0000000E+00  0.0000000E+00
5198704. -0.1534440E-01 -0.8913621E+00  0.5809188E-03  0.1933919E-01  0.0000000E+00  0.0000000E+00
5162222. -0.9966300E-02 -0.9807657E+00  0.4851776E-03  0.1352351E-01  0.0000000E+00  0.0000000E+00
5125741. -0.4187793E-02 -0.1030712E+01  0.4312976E-03  0.4965819E-02  0.0000000E+00  0.0000000E+00
5089259.  0.1757791E-02 -0.1038855E+01  0.4304629E-03 -0.4716511E-02  0.0000000E+00  0.0000000E+00
5052778.  0.7629540E-02 -0.1005204E+01  0.4841121E-03 -0.1377392E-01  0.0000000E+00  0.0000000E+00
5016296.  0.1319467E-01 -0.9323049E+00  0.5838417E-03 -0.2055449E-01  0.0000000E+00  0.0000000E+00
4979815.  0.1824022E-01 -0.8247011E+00  0.7125579E-03 -0.2370949E-01  0.0000000E+00  0.0000000E+00
4943333.  0.2258534E-01 -0.6888249E+00  0.8467393E-03 -0.2236166E-01  0.0000000E+00  0.0000000E+00
4906852.  0.2608967E-01 -0.5324244E+00  0.9594440E-03 -0.1621058E-01  0.0000000E+00  0.0000000E+00
4870370.  0.2865944E-01 -0.3637928E+00  0.1023781E-02 -0.5569734E-02  0.0000000E+00  0.0000000E+00
4833889.  0.3024881E-01 -0.1913885E+00  0.1016328E-02  0.8671980E-02  0.0000000E+00  0.0000000E+00
4797407.  0.3085904E-01 -0.2301569E-01  0.9201685E-03  0.2515299E-01  0.0000000E+00  0.0000000E+00
4760926.  0.3053302E-01  0.1346062E+00  0.7272143E-03  0.4218337E-01  0.0000000E+00  0.0000000E+00
4724444.  0.2934806E-01  0.2762590E+00  0.4394673E-03  0.5795786E-01  0.0000000E+00  0.0000000E+00
4687963.  0.2740653E-01  0.3984276E+00  0.6921001E-04  0.7072943E-01  0.0000000E+00  0.0000000E+00
4651482.  0.2482586E-01  0.4993574E+00 -0.3619416E-03  0.7901114E-01  0.0000000E+00  0.0000000E+00
4615000.  0.2172841E-01  0.5790069E+00 -0.8250384E-03  0.8174738E-01  0.0000000E+00  0.0000000E+00
4578518.  0.1823312E-01  0.6386128E+00 -0.1286500E-02  0.7839854E-01  0.0000000E+00  0.0000000E+00
4542037.  0.1444873E-01  0.6804701E+00 -0.1711341E-02  0.6902030E-01  0.0000000E+00  0.0000000E+00
4505556.  0.1046862E-01  0.7074527E+00 -0.2066608E-02  0.5424762E-01  0.0000000E+00  0.0000000E+00
4469074.  0.6369766E-02  0.7223741E+00 -0.2324439E-02  0.3521220E-01  0.0000000E+00  0.0000000E+00
4432593.  0.2213644E-02  0.7278904E+00 -0.2464656E-02  0.1345080E-01  0.0000000E+00  0.0000000E+00
4396111. -0.1952035E-02  0.7259007E+00 -0.2476636E-02 -0.9274579E-02  0.0000000E+00  0.0000000E+00
4359630. -0.6087027E-02  0.7172985E+00 -0.2360092E-02 -0.3113982E-01  0.0000000E+00  0.0000000E+00
4323148. -0.1015445E-01  0.7021902E+00 -0.2124912E-02 -0.5044521E-01  0.0000000E+00  0.0000000E+00
4286667. -0.1411451E-01  0.6796006E+00 -0.1790007E-02 -0.6576715E-01  0.0000000E+00  0.0000000E+00
4250185. -0.1791993E-01  0.6478207E+00 -0.1381292E-02 -0.7609279E-01  0.0000000E+00  0.0000000E+00
4213704. -0.2151213E-01  0.6047896E+00 -0.9291093E-03 -0.8091077E-01  0.0000000E+00  0.0000000E+00
4177222. -0.2482035E-01  0.5482450E+00 -0.4652125E-03 -0.8022438E-01  0.0000000E+00  0.0000000E+00
4140741. -0.2776143E-01  0.4763338E+00 -0.1989073E-04 -0.7455453E-01  0.0000000E+00  0.0000000E+00
4104259. -0.3024387E-01  0.3879008E+00  0.3809135E-03 -0.6486059E-01  0.0000000E+00  0.0000000E+00
4067778. -0.3217182E-01  0.2827671E+00  0.7176480E-03 -0.5241402E-01  0.0000000E+00  0.0000000E+00
4031296. -0.3345241E-01  0.1620773E+00  0.9787455E-03 -0.3869395E-01  0.0000000E+00  0.0000000E+00
3994815. -0.3400293E-01  0.2831115E-01  0.1161236E-02 -0.2520474E-01  0.0000000E+00  0.0000000E+00
3958333. -0.3375887E-01 -0.1147098E+00  0.1270487E-02 -0.1332630E-01  0.0000000E+00  0.0000000E+00
3921852. -0.3268096E-01 -0.2620357E+00  0.1319135E-02 -0.4201333E-02  0.0000000E+00  0.0000000E+00
3885370. -0.3076083E-01 -0.4078266E+00  0.1325357E-02  0.1398112E-02  0.0000000E+00  0.0000000E+00
3848889. -0.2802540E-01 -0.5457639E+00  0.1310545E-02  0.3124227E-02  0.0000000E+00  0.0000000E+00
3812407. -0.2453739E-01 -0.6696311E+00  0.1296811E-02  0.1075667E-02  0.0000000E+00  0.0000000E+00
3775926. -0.2039477E-01 -0.7735266E+00  0.1304431E-02 -0.4212123E-02  0.0000000E+00  0.0000000E+00
3739444. -0.1572608E-01 -0.8526424E+00  0.1349538E-02 -0.1184208E-01  0.0000000E+00  0.0000000E+00
3702963. -0.1068401E-01 -0.9035122E+00  0.1442304E-02 -0.2064721E-01  0.0000000E+00  0.0000000E+00
3666482. -0.5436857E-02 -0.9241056E+00  0.1585715E-02 -0.2930622E-01  0.0000000E+00  0.0000000E+00
3630000. -0.1586051E-03 -0.9144810E+00  0.1775109E-02 -0.3649062E-01  0.0000000E+00  0.0000000E+00
3630000. -0.1586051E-03 -0.9144810E+00  0.1775109E-02 -0.3649062E-01  0.0000000E+00  0.0000000E+00
3592500.  0.5121378E-02 -0.8748173E+00  0.2005021E-02 -0.4105845E-01  0.0000000E+00  0.0000000E+00
3555000.  0.1008784E-01 -0.8087354E+00  0.2250771E-02 -0.4172435E-01  0.0000000E+00  0.0000000E+00
3517500.  0.1460072E-01 -0.7217034E+00  0.2487177E-02 -0.3780434E-01  0.0000000E+00  0.0000000E+00
3480000.  0.1855523E-01 -0.6201503E+00  0.2686295E-02 -0.2905201E-01  0.0000000E+00  0.0000000E+00
3480000.  0.1855523E-01 -0.1297295E+01  0.1036873E-02  0.3205346E-01  0.0000000E+00  0.0000000E+00
3409422.  0.2983393E-01 -0.6997983E+00  0.5461475E-03  0.5472213E-01  0.0000000E+00  0.0000000E+00
3338844.  0.3353749E-01  0.3882230E-01 -0.1265460E-03  0.6423706E-01  0.0000000E+00  0.0000000E+00
3268266.  0.2914226E-01  0.7329710E+00 -0.8199824E-03  0.5841048E-01  0.0000000E+00  0.0000000E+00
3197688.  0.1803470E-01  0.1229682E+01 -0.1368902E-02  0.3866150E-01  0.0000000E+00  0.0000000E+00
3127109.  0.2972987E-02  0.1437522E+01 -0.1641218E-02  0.9400323E-02  0.0000000E+00  0.0000000E+00
3056531. -0.1266820E-01  0.1336948E+01 -0.1565002E-02 -0.2314584E-01  0.0000000E+00  0.0000000E+00
2985953. -0.2567268E-01  0.9736977E+00 -0.1140876E-02 -0.5234525E-01  0.0000000E+00  0.0000000E+00
2915375. -0.3360924E-01  0.4399596E+00 -0.4389242E-03 -0.7248867E-01  0.0000000E+00  0.0000000E+00
2844797. -0.3521167E-01 -0.1504363E+00  0.4174574E-03 -0.7979105E-01  0.0000000E+00  0.0000000E+00
2774219. -0.3047867E-01 -0.6867968E+00  0.1276283E-02 -0.7292138E-01  0.0000000E+00  0.0000000E+00
2703641. -0.2052246E-01 -0.1081531E+01  0.1984767E-02 -0.5303173E-01  0.0000000E+00  0.0000000E+00
2633062. -0.7236558E-02 -0.1282487E+01  0.2414923E-02 -0.2334746E-01  0.0000000E+00  0.0000000E+00
2562484.  0.7124896E-02 -0.1276771E+01  0.2482763E-02  0.1154602E-01  0.0000000E+00  0.0000000E+00
2491906.  0.2036881E-01 -0.1087038E+01  0.2158707E-02  0.4656018E-01  0.0000000E+00  0.0000000E+00
2421328.  0.3070880E-01 -0.7622305E+00  0.1468423E-02  0.7693827E-01  0.0000000E+00  0.0000000E+00
2350750.  0.3699089E-01 -0.3654627E+00  0.4851830E-03  0.9893779E-01  0.0000000E+00  0.0000000E+00
2280172.  0.3878104E-01  0.3836687E-01 -0.6840478E-03  0.1102691E+00  0.0000000E+00  0.0000000E+00
2209594.  0.3632431E-01  0.3930542E+00 -0.1915877E-02  0.1102606E+00  0.0000000E+00  0.0000000E+00
2139016.  0.3040523E-01  0.6583009E+00 -0.3088095E-02  0.9976206E-01  0.0000000E+00  0.0000000E+00
2068438.  0.2214921E-01  0.8130974E+00 -0.4095005E-02  0.8083996E-01  0.0000000E+00  0.0000000E+00
1997859.  0.1280748E-01  0.8553997E+00 -0.4858570E-02  0.5634168E-01  0.0000000E+00  0.0000000E+00
1927281.  0.3562658E-02  0.7989915E+00 -0.5334386E-02  0.2941748E-01  0.0000000E+00  0.0000000E+00
1856703. -0.4620501E-02  0.6684225E+00 -0.5512526E-02  0.3066682E-02  0.0000000E+00  0.0000000E+00
1786125. -0.1108280E-01  0.4933955E+00 -0.5413748E-02 -0.2021761E-01  0.0000000E+00  0.0000000E+00
1715547. -0.1549760E-01  0.3034357E+00 -0.5082502E-02 -0.3867746E-01  0.0000000E+00  0.0000000E+00
1644969. -0.1784446E-01  0.1237256E+00 -0.4578157E-02 -0.5138274E-01  0.0000000E+00  0.0000000E+00
1574391. -0.1834498E-01 -0.2752119E-01 -0.3965918E-02 -0.5819208E-01  0.0000000E+00  0.0000000E+00
1503812. -0.1737842E-01 -0.1401002E+00 -0.3308791E-02 -0.5961443E-01  0.0000000E+00  0.0000000E+00
1433234. -0.1539388E-01 -0.2114644E+00 -0.2661474E-02 -0.5660704E-01  0.0000000E+00  0.0000000E+00
1362656. -0.1283187E-01 -0.2454355E+00 -0.2066632E-02 -0.5034149E-01  0.0000000E+00  0.0000000E+00
1292078. -0.1006307E-01 -0.2505197E+00 -0.1553864E-02 -0.4196648E-01  0.0000000E+00  0.0000000E+00
1221500. -0.7344667E-02 -0.2385547E+00 -0.1141291E-02 -0.3236317E-01  0.0000000E+00  0.0000000E+00
1221500. -0.7344667E-02  0.9553220E+00  0.1315093E-02  0.4516687E-01  0.0000000E+00  0.0000000E+00
1183328. -0.1234034E-01  0.6454196E+00  0.7066319E-03  0.1504116E+00  0.0000000E+00  0.0000000E+00
1145156. -0.1441660E-01  0.8364217E-02 -0.3635680E-03  0.1945524E+00  0.0000000E+00  0.0000000E+00
1106984. -0.1221932E-01 -0.7377566E+00 -0.1471590E-02  0.1630170E+00  0.0000000E+00  0.0000000E+00
1068812. -0.5895897E-02 -0.1325257E+01 -0.2191636E-02  0.6945278E-01  0.0000000E+00  0.0000000E+00
1030641.  0.2891256E-02 -0.1531491E+01 -0.2249338E-02 -0.5115082E-01  0.0000000E+00  0.0000000E+00
 992469.  0.1148250E-01 -0.1255675E+01 -0.1609519E-02 -0.1565991E+00  0.0000000E+00  0.0000000E+00
 954297.  0.1707315E-01 -0.5513511E+00 -0.4723532E-03 -0.2128637E+00  0.0000000E+00  0.0000000E+00
 916125.  0.1760245E-01  0.3944106E+00  0.8116162E-03 -0.2049926E+00  0.0000000E+00  0.0000000E+00
 877953.  0.1237853E-01  0.1324791E+01  0.1869032E-02 -0.1401085E+00  0.0000000E+00  0.0000000E+00
 839781.  0.2252057E-02  0.1995379E+01  0.2424574E-02 -0.4243916E-01  0.0000000E+00  0.0000000E+00
 801609. -0.1068518E-01  0.2246072E+01  0.2374762E-02  0.5677455E-01  0.0000000E+00  0.0000000E+00
 763438. -0.2374258E-01  0.2040301E+01  0.1796499E-02  0.1302347E+00  0.0000000E+00  0.0000000E+00
 725266. -0.3438549E-01  0.1462571E+01  0.8974441E-03  0.1624902E+00  0.0000000E+00  0.0000000E+00
 687094. -0.4085840E-01  0.6802139E+00 -0.6563379E-04  0.1525917E+00  0.0000000E+00  0.0000000E+00
 648922. -0.4251539E-01 -0.1138415E+00 -0.8685077E-03  0.1115706E+00  0.0000000E+00  0.0000000E+00
 610750. -0.3980093E-01 -0.7566867E+00 -0.1374747E-02  0.5658890E-01  0.0000000E+00  0.0000000E+00
 572578. -0.3394647E-01 -0.1152613E+01 -0.1552604E-02  0.4423502E-02  0.0000000E+00  0.0000000E+00
 534406. -0.2652204E-01 -0.1283871E+01 -0.1456921E-02 -0.3338197E-01  0.0000000E+00  0.0000000E+00
 496234. -0.1899967E-01 -0.1197042E+01 -0.1190383E-02 -0.5247295E-01  0.0000000E+00  0.0000000E+00
 458062. -0.1244908E-01 -0.9744824E+00 -0.8617909E-03 -0.5483050E-01  0.0000000E+00  0.0000000E+00
 419891. -0.7418578E-02 -0.7031134E+00 -0.5554056E-03 -0.4616272E-01  0.0000000E+00  0.0000000E+00
 381719. -0.3983690E-02 -0.4507498E+00 -0.3176142E-03 -0.3293835E-01  0.0000000E+00  0.0000000E+00
 343547. -0.1901634E-02 -0.2552681E+00 -0.1595830E-03 -0.2018911E-01  0.0000000E+00  0.0000000E+00
 305375. -0.7912470E-03 -0.1260009E+00 -0.6924865E-04 -0.1058817E-01  0.0000000E+00  0.0000000E+00
 267203. -0.2788895E-03 -0.5299131E-01 -0.2526381E-04 -0.4669033E-02  0.0000000E+00  0.0000000E+00
 229031. -0.7978507E-04 -0.1831486E-01 -0.7433741E-05 -0.1675058E-02  0.0000000E+00  0.0000000E+00
 190859. -0.1732371E-04 -0.4907344E-02 -0.1651093E-05 -0.4621522E-03  0.0000000E+00  0.0000000E+00
 152688. -0.2549567E-05 -0.9227518E-03 -0.2473664E-06 -0.8888455E-04  0.0000000E+00  0.0000000E+00
 114516. -0.2055360E-06 -0.1008303E-03 -0.2021177E-07 -0.9876920E-05  0.0000000E+00  0.0000000E+00
  76344. -0.5623178E-08 -0.4185558E-05 -0.5581844E-09 -0.4147850E-06  0.0000000E+00  0.0000000E+00
  38172. -0.1131874E-10 -0.1696409E-07 -0.1129797E-11 -0.1692602E-08  0.0000000E+00  0.0000000E+00
      0.  0.0000000E+00  0.0000000E+00  0.0000000E+00  0.0000000E+00  0.0000000E+00  0.0000000E+00
