       3       38 S      258        121.09740          8.58602          8.70013        421.56461      185    7
6371000. -0.1662067E-03 -0.1278691E-01 -0.2217739E-04  0.1440293E-03  0.1540687E-04 -0.2874410E-03
6370000. -0.1641921E-03 -0.1288215E-01 -0.2219804E-04  0.1190790E-03  0.1545182E-04 -0.2852836E-03
6369000. -0.1621630E-03 -0.1297248E-01 -0.2221477E-04  0.9407508E-04  0.1549643E-04 -0.2831538E-03
6368000. -0.1601200E-03 -0.1305788E-01 -0.2222757E-04  0.6902282E-04  0.1554071E-04 -0.2810515E-03
6368000. -0.1601200E-03 -0.1305788E-01 -0.2222757E-04  0.6902282E-04  0.1554071E-04 -0.2810515E-03
6367000. -0.1580641E-03 -0.1313834E-01 -0.2223643E-04  0.4392759E-04  0.1558466E-04 -0.2789771E-03
6366000. -0.1559959E-03 -0.1321384E-01 -0.2224135E-04  0.1879477E-04  0.1562829E-04 -0.2769306E-03
6365000. -0.1539162E-03 -0.1328437E-01 -0.2224233E-04 -0.6370253E-05  0.1567159E-04 -0.2749125E-03
6364000. -0.1518259E-03 -0.1334991E-01 -0.2223935E-04 -0.3156208E-04  0.1571459E-04 -0.2729227E-03
6363000. -0.1497256E-03 -0.1341046E-01 -0.2223242E-04 -0.5677530E-04  0.1575727E-04 -0.2709615E-03
6362000. -0.1476163E-03 -0.1346601E-01 -0.2222153E-04 -0.8200452E-04  0.1579965E-04 -0.2690291E-03
6361000. -0.1454986E-03 -0.1351654E-01 -0.2220668E-04 -0.1072443E-03  0.1584173E-04 -0.2671257E-03
6360000. -0.1433734E-03 -0.1356206E-01 -0.2218786E-04 -0.1324893E-03  0.1588351E-04 -0.2652515E-03
6359000. -0.1412414E-03 -0.1360255E-01 -0.2216509E-04 -0.1577340E-03  0.1592500E-04 -0.2634067E-03
6358000. -0.1391035E-03 -0.1363801E-01 -0.2213835E-04 -0.1829729E-03  0.1596620E-04 -0.2615916E-03
6357000. -0.1369604E-03 -0.1366844E-01 -0.2210765E-04 -0.2082008E-03  0.1600712E-04 -0.2598062E-03
6356000. -0.1348129E-03 -0.1369383E-01 -0.2207299E-04 -0.2334122E-03  0.1604776E-04 -0.2580508E-03
6356000. -0.1348129E-03 -0.1178190E-01 -0.2207299E-04 -0.9609051E-04  0.1604776E-04 -0.2287171E-03
6355000. -0.1329615E-03 -0.1180892E-01 -0.2205687E-04 -0.1092589E-03  0.1608342E-04 -0.2257046E-03
6354000. -0.1311060E-03 -0.1183332E-01 -0.2203869E-04 -0.1224275E-03  0.1611862E-04 -0.2227146E-03
6353000. -0.1292469E-03 -0.1185511E-01 -0.2201844E-04 -0.1355948E-03  0.1615334E-04 -0.2197473E-03
6352000. -0.1273845E-03 -0.1187430E-01 -0.2199612E-04 -0.1487591E-03  0.1618760E-04 -0.2168025E-03
6351000. -0.1255194E-03 -0.1189087E-01 -0.2197174E-04 -0.1619185E-03  0.1622140E-04 -0.2138805E-03
6350000. -0.1236519E-03 -0.1190482E-01 -0.2194529E-04 -0.1750715E-03  0.1625474E-04 -0.2109811E-03
6349000. -0.1217824E-03 -0.1191616E-01 -0.2191678E-04 -0.1882163E-03  0.1628763E-04 -0.2081046E-03
6348000. -0.1199113E-03 -0.1192489E-01 -0.2188621E-04 -0.2013513E-03  0.1632007E-04 -0.2052509E-03
6347000. -0.1180390E-03 -0.1193100E-01 -0.2185358E-04 -0.2144746E-03  0.1635207E-04 -0.2024202E-03
6346600. -0.1172899E-03 -0.1193271E-01 -0.2183994E-04 -0.2197204E-03  0.1636474E-04 -0.2012943E-03
6346600. -0.1172899E-03 -0.1340759E-01 -0.2183994E-04 -0.1172154E-03  0.1636474E-04 -0.1603970E-03
6318800. -0.5890262E-04 -0.1315775E-01 -0.2092482E-04 -0.3012463E-03  0.1687056E-04 -0.7356326E-04
6291000. -0.4160908E-05 -0.1174289E-01 -0.1922933E-04 -0.4726657E-03  0.1702383E-04  0.1509116E-05
6291000. -0.4160908E-05 -0.1210881E-01 -0.1922933E-04 -0.4883975E-03  0.1702383E-04  0.1509116E-05
6263000.  0.4362735E-04 -0.9453054E-02 -0.1671746E-04 -0.6488072E-03  0.1687840E-04  0.6312977E-04
6235000.  0.7746313E-04 -0.5800000E-02 -0.1358703E-04 -0.7679606E-03  0.1648130E-04  0.1163064E-03
6207000.  0.9356315E-04 -0.1436285E-02 -0.1004218E-04 -0.8360843E-03  0.1586616E-04  0.1626014E-03
6179000.  0.8956696E-04  0.3281358E-02 -0.6321353E-05 -0.8474587E-03  0.1506011E-04  0.2033949E-03
6151000.  0.6478623E-04  0.7953833E-02 -0.2678152E-05 -0.8009790E-03  0.1408473E-04  0.2398197E-03
6151000.  0.6478623E-04  0.6076531E-02 -0.2678152E-05 -0.7124364E-03  0.1408473E-04  0.2362354E-03
6128500.  0.3839484E-04  0.8812131E-02 -0.2810645E-06 -0.6413332E-03  0.1323006E-04  0.2471363E-03
6106000.  0.3016090E-05  0.1114793E-01  0.1827957E-05 -0.5500405E-03  0.1234355E-04  0.2542999E-03
6083500. -0.3975645E-04  0.1298502E-01  0.3585810E-05 -0.4432951E-03  0.1143801E-04  0.2579479E-03
6061000. -0.8802389E-04  0.1424988E-01  0.4946963E-05 -0.3262710E-03  0.1052550E-04  0.2582814E-03
6038500. -0.1396760E-03  0.1489656E-01  0.5884576E-05 -0.2043379E-03  0.9617394E-05  0.2554815E-03
6016000. -0.1924901E-03  0.1490742E-01  0.6390755E-05 -0.8281397E-04  0.8724473E-05  0.2497082E-03
5993500. -0.2442309E-03  0.1429267E-01  0.6475959E-05  0.3325807E-04  0.7856979E-05  0.2411012E-03
5971000. -0.2927462E-03  0.1308894E-01  0.6167687E-05  0.1392995E-03  0.7024726E-05  0.2297669E-03
5971000. -0.2927462E-03  0.1217133E-01  0.6167687E-05  0.1590897E-03  0.7024726E-05  0.2680898E-03
5937667. -0.3493450E-03  0.9343505E-02  0.5032301E-05  0.2682009E-03  0.5690831E-05  0.2411017E-03
5904333. -0.3895412E-03  0.5954589E-02  0.3432024E-05  0.3368253E-03  0.4507987E-05  0.2105650E-03
5871000. -0.4112270E-03  0.2318472E-02  0.1574915E-05  0.3670107E-03  0.3491331E-05  0.1777934E-03
5837667. -0.4138648E-03 -0.1283458E-02 -0.3497020E-06  0.3636092E-03  0.2649499E-05  0.1438991E-03
5804333. -0.3982647E-03 -0.4618773E-02 -0.2182622E-05  0.3330967E-03  0.1986068E-05  0.1096999E-03
5771000. -0.3663079E-03 -0.7511836E-02 -0.3800390E-05  0.2825767E-03  0.1501254E-05  0.7567515E-04
5771000. -0.3663079E-03 -0.7512188E-02 -0.3800390E-05  0.2825805E-03  0.1501254E-05  0.7567515E-04
5701000. -0.2559260E-03 -0.1212357E-01 -0.6061109E-05  0.1190588E-03  0.1184496E-05 -0.2062820E-04
5701000. -0.2559260E-03 -0.1045945E-01 -0.6061109E-05  0.1525937E-03  0.1184496E-05  0.5150813E-04
5667333. -0.1988769E-03 -0.1118036E-01 -0.6782157E-05  0.1203518E-03  0.9711423E-06  0.3184630E-04
5633667. -0.1371819E-03 -0.1217064E-01 -0.7325467E-05  0.8460709E-04  0.8312687E-06  0.2159807E-04
5600000. -0.7090617E-04 -0.1285059E-01 -0.7676226E-05  0.4844851E-04  0.7406450E-06  0.1302907E-04
5600000. -0.7090617E-04 -0.1285059E-01 -0.7676226E-05  0.4844851E-04  0.7406450E-06  0.1302907E-04
5563518.  0.3969292E-05 -0.1324326E-01 -0.7846570E-05  0.1150325E-04  0.6872966E-06  0.5938496E-05
5527037.  0.8011547E-04 -0.1329951E-01 -0.7814303E-05 -0.2214020E-04  0.6690875E-06  0.7038296E-06
5490556.  0.1556918E-03 -0.1305001E-01 -0.7601082E-05 -0.5157461E-04  0.6762639E-06 -0.2976988E-05
5454074.  0.2290555E-03 -0.1253297E-01 -0.7232885E-05 -0.7618405E-04  0.7007445E-06 -0.5380605E-05
5417593.  0.2987977E-03 -0.1179359E-01 -0.6738537E-05 -0.9560421E-04  0.7358506E-06 -0.6725102E-05
5381111.  0.3637830E-03 -0.1087882E-01 -0.6148066E-05 -0.1097567E-03  0.7761889E-06 -0.7245645E-05
5344630.  0.4231420E-03 -0.9837169E-02 -0.5491429E-05 -0.1187504E-03  0.8176215E-06 -0.7130925E-05
5308148.  0.4762899E-03 -0.8716648E-02 -0.4797461E-05 -0.1228513E-03  0.8568683E-06 -0.6510807E-05
5271667.  0.5229022E-03 -0.7562155E-02 -0.4092959E-05 -0.1225165E-03  0.8916263E-06 -0.5588533E-05
5235185.  0.5629091E-03 -0.6415877E-02 -0.3401951E-05 -0.1182119E-03  0.9204106E-06 -0.4430309E-05
5198704.  0.5964666E-03 -0.5315700E-02 -0.2745699E-05 -0.1104880E-03  0.9420634E-06 -0.3124020E-05
5162222.  0.6239359E-03 -0.4294215E-02 -0.2141899E-05 -0.9997928E-04  0.9562293E-06 -0.1824255E-05
5125741.  0.6458497E-03 -0.3379887E-02 -0.1605110E-05 -0.8717009E-04  0.9628758E-06 -0.4955693E-06
5089259.  0.6628926E-03 -0.2596243E-02 -0.1146955E-05 -0.7260145E-04  0.9619877E-06  0.7907487E-06
5052778.  0.6758687E-03 -0.1962424E-02 -0.7760620E-06 -0.5676071E-04  0.9540106E-06  0.1984665E-05
5016296.  0.6856824E-03 -0.1493977E-02 -0.4987384E-06 -0.3997128E-04  0.9393071E-06  0.3143320E-05
4979815.  0.6933180E-03 -0.1203598E-02 -0.3194488E-06 -0.2256941E-04  0.9181480E-06  0.4235699E-05
4943333.  0.6998262E-03 -0.1101821E-02 -0.2410873E-06 -0.4732459E-05  0.8908571E-06  0.5301867E-05
4906852.  0.7063150E-03 -0.1198502E-02 -0.2660009E-06  0.1349091E-04  0.8572672E-06  0.6440760E-05
4870370.  0.7139496E-03 -0.1503667E-02 -0.3962165E-06  0.3205588E-04  0.8169965E-06  0.7645317E-05
4833889.  0.7239549E-03 -0.2028803E-02 -0.6341448E-06  0.5116071E-04  0.7692591E-06  0.9082230E-05
4797407.  0.7376321E-03 -0.2788882E-02 -0.9837072E-06  0.7108431E-04  0.7122520E-06  0.1089333E-04
4760926.  0.7563781E-03 -0.3803009E-02 -0.1450311E-05  0.9212269E-04  0.6436695E-06  0.1316240E-04
4724444.  0.7817190E-03 -0.5097166E-02 -0.2042114E-05  0.1149211E-03  0.5599568E-06  0.1623116E-04
4687963.  0.8153520E-03 -0.6706029E-02 -0.2771007E-05  0.1401232E-03  0.4557953E-06  0.2034718E-04
4651482.  0.8592034E-03 -0.8674990E-02 -0.3652967E-05  0.1685540E-03  0.3242643E-06  0.2587615E-04
4615000.  0.9155016E-03 -0.1106430E-01 -0.4709766E-05  0.2013806E-03  0.1555694E-06  0.3342776E-04
4578518.  0.9868649E-03 -0.1395138E-01 -0.5970000E-05  0.2398368E-03 -0.6358128E-07  0.4361998E-04
4542037.  0.1076414E-02 -0.1743591E-01 -0.7470324E-05  0.2855684E-03 -0.3508125E-06  0.5740511E-04
4505556.  0.1187927E-02 -0.2164669E-01 -0.9258256E-05  0.3406415E-03 -0.7303984E-06  0.7610276E-04
4469074.  0.1326010E-02 -0.2674563E-01 -0.1139354E-04  0.4073115E-03 -0.1234537E-05  0.1012181E-03
4432593.  0.1496311E-02 -0.3293995E-01 -0.1395108E-04  0.4887281E-03 -0.1906388E-05  0.1351441E-03
4396111.  0.1705837E-02 -0.4049268E-01 -0.1702578E-04  0.5885449E-03 -0.2804806E-05  0.1808946E-03
4359630.  0.1963257E-02 -0.4973239E-01 -0.2073446E-04  0.7110338E-03 -0.4007913E-05  0.2423654E-03
4323148.  0.2279403E-02 -0.6107996E-01 -0.2522322E-04  0.8619991E-03 -0.5621388E-05  0.3252938E-03
4286667.  0.2667779E-02 -0.7506206E-01 -0.3067313E-04  0.1047965E-02 -0.7788048E-05  0.4369927E-03
4250185.  0.3145319E-02 -0.9234270E-01 -0.3730699E-04  0.1276993E-02 -0.1069976E-04  0.5874680E-03
4213704.  0.3733197E-02 -0.1137621E+00 -0.4539933E-04  0.1559215E-02 -0.1461626E-04  0.7906012E-03
4177222.  0.4458040E-02 -0.1403699E+00 -0.5528654E-04  0.1905855E-02 -0.1988888E-04  0.1064609E-02
4140741.  0.5353143E-02 -0.1734839E+00 -0.6737520E-04  0.2330770E-02 -0.2699137E-04  0.1434725E-02
4104259.  0.6460384E-02 -0.2147601E+00 -0.8215956E-04  0.2849881E-02 -0.3656882E-04  0.1935472E-02
4067778.  0.7832051E-02 -0.2662297E+00 -0.1002228E-03  0.3479018E-02 -0.4949145E-04  0.2612118E-02
4031296.  0.9533586E-02 -0.3304286E+00 -0.1222487E-03  0.4236775E-02 -0.6694062E-04  0.3528674E-02
3994815.  0.1164635E-01 -0.4104421E+00 -0.1490196E-03  0.5138503E-02 -0.9052211E-04  0.4770400E-02
3958333.  0.1427126E-01 -0.5099570E+00 -0.1813868E-03  0.6191935E-02 -0.1224091E-03  0.6451694E-02
3921852.  0.1753205E-01 -0.6333548E+00 -0.2202205E-03  0.7395213E-02 -0.1655483E-03  0.8731270E-02
3885370.  0.2157968E-01 -0.7856096E+00 -0.2663081E-03  0.8716388E-02 -0.2239421E-03  0.1181959E-01
3848889.  0.2659432E-01 -0.9720618E+00 -0.3201216E-03  0.1007578E-01 -0.3029902E-03  0.1600101E-01
3812407.  0.3278754E-01 -0.1198040E+01 -0.3814797E-03  0.1131402E-01 -0.4100064E-03  0.2166031E-01
3775926.  0.4039795E-01 -0.1467612E+01 -0.4488836E-03  0.1212010E-01 -0.5548239E-03  0.2930193E-01
3739444.  0.4968073E-01 -0.1781858E+01 -0.5184469E-03  0.1195047E-01 -0.7506433E-03  0.3960103E-01
3702963.  0.6087987E-01 -0.2135299E+01 -0.5821306E-03  0.9863916E-02 -0.1015086E-02  0.5343687E-01
3666482.  0.7417537E-01 -0.2509459E+01 -0.6247457E-03  0.4252054E-02 -0.1371474E-02  0.7192614E-01
3630000.  0.8958168E-01 -0.2862739E+01 -0.6191411E-03 -0.7540701E-02 -0.1850394E-02  0.9649146E-01
3630000.  0.8958168E-01 -0.2862739E+01 -0.6191411E-03 -0.7540701E-02 -0.1850394E-02  0.9649146E-01
3592500.  0.1072635E+00 -0.3115857E+01 -0.5134768E-03 -0.3077034E-01 -0.2512018E-02  0.1298570E+00
3555000.  0.1257186E+00 -0.3087743E+01 -0.2197025E-03 -0.7313236E-01 -0.3399312E-02  0.1735360E+00
3517500.  0.1424669E+00 -0.2467990E+01  0.4101721E-03 -0.1477458E+00 -0.4579359E-02  0.2296613E+00
3480000.  0.1525548E+00 -0.7049563E+00  0.1624543E-02 -0.2763150E+00 -0.6130420E-02  0.2997542E+00
3480000.  0.1525548E+00  0.8295849E+01  0.4845138E-02  0.2703356E+00 -0.6130420E-02 -0.1894865E+00
3409422.  0.8251638E-01  0.4667367E+01  0.2581990E-02  0.1493388E+00 -0.4072924E-02 -0.1707265E+00
3338844.  0.4356917E-01  0.2559104E+01  0.1345099E-02  0.8055964E-01 -0.2456755E-02 -0.1201987E+00
3268266.  0.2245730E-01  0.1367952E+01  0.6849144E-03  0.4243927E-01 -0.1386808E-02 -0.7502473E-01
3197688.  0.1129878E-01  0.7130120E+00  0.3407907E-03  0.2183192E-01 -0.7436158E-03 -0.4335219E-01
3127109.  0.5547510E-02  0.3623796E+00  0.1656333E-03  0.1096478E-01 -0.3818841E-03 -0.2365392E-01
3056531.  0.2657151E-02  0.1795621E+00  0.7860069E-04  0.5374821E-02 -0.1887452E-03 -0.1231480E-01
2985953.  0.1241031E-02  0.8671985E-01  0.3639811E-04  0.2570360E-02 -0.9004157E-04 -0.6154336E-02
2915375.  0.5648719E-03  0.4080294E-01  0.1643700E-04  0.1198547E-02 -0.4153173E-04 -0.2962836E-02
2844797.  0.2503939E-03  0.1869365E-01  0.7233231E-05  0.5445863E-03 -0.1853916E-04 -0.1376947E-02
2774219.  0.1080091E-03  0.8333606E-02  0.3099119E-05  0.2409349E-03 -0.8011862E-05 -0.6184598E-03
2703641.  0.4529660E-04  0.3612098E-02  0.1291587E-05  0.1036991E-03 -0.3351864E-05 -0.2686009E-03
2633062.  0.1844967E-04  0.1520774E-02  0.5230190E-06  0.4337675E-04 -0.1356981E-05 -0.1127993E-03
2562484.  0.7290197E-05  0.6212955E-03  0.2055477E-06  0.1761463E-04 -0.5312691E-06 -0.4578899E-04
2491906.  0.2790948E-05  0.2459981E-03  0.7829390E-07  0.6935482E-05 -0.2009563E-06 -0.1795444E-04
2421328.  0.1033720E-05  0.9427110E-04  0.2886199E-07  0.2644001E-05 -0.7335532E-07 -0.6793945E-05
2350750.  0.3698273E-06  0.3491257E-04  0.1028024E-07  0.9744455E-06 -0.2580493E-07 -0.2477896E-05
2280172.  0.1275766E-06  0.1247407E-04  0.3531656E-08  0.3465913E-06 -0.8734013E-08 -0.8697999E-06
2209594.  0.4235115E-07  0.4291807E-05  0.1167855E-08  0.1187445E-06 -0.2838971E-08 -0.2933490E-06
2139016.  0.1350001E-07  0.1418954E-05  0.3709192E-09  0.3910429E-07 -0.8843631E-09 -0.9486819E-07
2068438.  0.4122165E-08  0.4497579E-06  0.1128728E-09  0.1234889E-07 -0.2633850E-09 -0.2935265E-07
1997859.  0.1202428E-08  0.1363119E-06  0.3281956E-10  0.3729741E-08 -0.7479500E-10 -0.8666573E-08
1927281.  0.3340759E-09  0.3938980E-07  0.9090998E-11  0.1074290E-08 -0.2019216E-10 -0.2434904E-08
1856703.  0.8811053E-10  0.1081670E-07  0.2390782E-11  0.2941321E-09 -0.5164496E-11 -0.6488459E-09
1786125.  0.2198892E-10  0.2810769E-08  0.5943544E-12  0.7631273E-10 -0.1245879E-11 -0.1634971E-09
1715547.  0.0000000E+00  0.0000000E+00  0.0000000E+00  0.0000000E+00  0.0000000E+00  0.0000000E+00
1644969.  0.0000000E+00  0.0000000E+00  0.0000000E+00  0.0000000E+00  0.0000000E+00  0.0000000E+00
1574391.  0.0000000E+00  0.0000000E+00  0.0000000E+00  0.0000000E+00  0.0000000E+00  0.0000000E+00
1503812.  0.0000000E+00  0.0000000E+00  0.0000000E+00  0.0000000E+00  0.0000000E+00  0.0000000E+00
1433234.  0.0000000E+00  0.0000000E+00  0.0000000E+00  0.0000000E+00  0.0000000E+00  0.0000000E+00
1362656.  0.0000000E+00  0.0000000E+00  0.0000000E+00  0.0000000E+00  0.0000000E+00  0.0000000E+00
1292078.  0.0000000E+00  0.0000000E+00  0.0000000E+00  0.0000000E+00  0.0000000E+00  0.0000000E+00
1221500.  0.0000000E+00  0.0000000E+00  0.0000000E+00  0.0000000E+00  0.0000000E+00  0.0000000E+00
1221500.  0.0000000E+00  0.0000000E+00  0.0000000E+00  0.0000000E+00  0.0000000E+00  0.0000000E+00
1183328.  0.0000000E+00  0.0000000E+00  0.0000000E+00  0.0000000E+00  0.0000000E+00  0.0000000E+00
1145156.  0.0000000E+00  0.0000000E+00  0.0000000E+00  0.0000000E+00  0.0000000E+00  0.0000000E+00
1106984.  0.0000000E+00  0.0000000E+00  0.0000000E+00  0.0000000E+00  0.0000000E+00  0.0000000E+00
1068812.  0.0000000E+00  0.0000000E+00  0.0000000E+00  0.0000000E+00  0.0000000E+00  0.0000000E+00
1030641.  0.0000000E+00  0.0000000E+00  0.0000000E+00  0.0000000E+00  0.0000000E+00  0.0000000E+00
 992469.  0.0000000E+00  0.0000000E+00  0.0000000E+00  0.0000000E+00  0.0000000E+00  0.0000000E+00
 954297.  0.0000000E+00  0.0000000E+00  0.0000000E+00  0.0000000E+00  0.0000000E+00  0.0000000E+00
 916125.  0.0000000E+00  0.0000000E+00  0.0000000E+00  0.0000000E+00  0.0000000E+00  0.0000000E+00
 877953.  0.0000000E+00  0.0000000E+00  0.0000000E+00  0.0000000E+00  0.0000000E+00  0.0000000E+00
 839781.  0.0000000E+00  0.0000000E+00  0.0000000E+00  0.0000000E+00  0.0000000E+00  0.0000000E+00
 801609.  0.0000000E+00  0.0000000E+00  0.0000000E+00  0.0000000E+00  0.0000000E+00  0.0000000E+00
 763438.  0.0000000E+00  0.0000000E+00  0.0000000E+00  0.0000000E+00  0.0000000E+00  0.0000000E+00
 725266.  0.0000000E+00  0.0000000E+00  0.0000000E+00  0.0000000E+00  0.0000000E+00  0.0000000E+00
 687094.  0.0000000E+00  0.0000000E+00  0.0000000E+00  0.0000000E+00  0.0000000E+00  0.0000000E+00
 648922.  0.0000000E+00  0.0000000E+00  0.0000000E+00  0.0000000E+00  0.0000000E+00  0.0000000E+00
 610750.  0.0000000E+00  0.0000000E+00  0.0000000E+00  0.0000000E+00  0.0000000E+00  0.0000000E+00
 572578.  0.0000000E+00  0.0000000E+00  0.0000000E+00  0.0000000E+00  0.0000000E+00  0.0000000E+00
 534406.  0.0000000E+00  0.0000000E+00  0.0000000E+00  0.0000000E+00  0.0000000E+00  0.0000000E+00
 496234.  0.0000000E+00  0.0000000E+00  0.0000000E+00  0.0000000E+00  0.0000000E+00  0.0000000E+00
 458062.  0.0000000E+00  0.0000000E+00  0.0000000E+00  0.0000000E+00  0.0000000E+00  0.0000000E+00
 419891.  0.0000000E+00  0.0000000E+00  0.0000000E+00  0.0000000E+00  0.0000000E+00  0.0000000E+00
 381719.  0.0000000E+00  0.0000000E+00  0.0000000E+00  0.0000000E+00  0.0000000E+00  0.0000000E+00
 343547.  0.0000000E+00  0.0000000E+00  0.0000000E+00  0.0000000E+00  0.0000000E+00  0.0000000E+00
 305375.  0.0000000E+00  0.0000000E+00  0.0000000E+00  0.0000000E+00  0.0000000E+00  0.0000000E+00
 267203.  0.0000000E+00  0.0000000E+00  0.0000000E+00  0.0000000E+00  0.0000000E+00  0.0000000E+00
 229031.  0.0000000E+00  0.0000000E+00  0.0000000E+00  0.0000000E+00  0.0000000E+00  0.0000000E+00
 190859.  0.0000000E+00  0.0000000E+00  0.0000000E+00  0.0000000E+00  0.0000000E+00  0.0000000E+00
 152688.  0.0000000E+00  0.0000000E+00  0.0000000E+00  0.0000000E+00  0.0000000E+00  0.0000000E+00
 114516.  0.0000000E+00  0.0000000E+00  0.0000000E+00  0.0000000E+00  0.0000000E+00  0.0000000E+00
  76344.  0.0000000E+00  0.0000000E+00  0.0000000E+00  0.0000000E+00  0.0000000E+00  0.0000000E+00
  38172.  0.0000000E+00  0.0000000E+00  0.0000000E+00  0.0000000E+00  0.0000000E+00  0.0000000E+00
      0.  0.0000000E+00  0.0000000E+00  0.0000000E+00  0.0000000E+00  0.0000000E+00  0.0000000E+00
