       4       15 S      284        217.26849         11.88664          5.96187        261.24951      185    7
6371000. -0.3617385E-01  0.7663249E+00  0.7818129E-02  0.4399198E-01 -0.1603682E-02  0.9387434E-01
6370000. -0.3629363E-01  0.7598274E+00  0.7810957E-02  0.4739883E-01 -0.1618396E-02  0.9361371E-01
6369000. -0.3641238E-01  0.7532210E+00  0.7803250E-02  0.5080115E-01 -0.1633070E-02  0.9335200E-01
6368000. -0.3653008E-01  0.7465060E+00  0.7795009E-02  0.5419870E-01 -0.1647702E-02  0.9308922E-01
6368000. -0.3653008E-01  0.7465060E+00  0.7795009E-02  0.5419870E-01 -0.1647702E-02  0.9308922E-01
6367000. -0.3664672E-01  0.7396826E+00  0.7786236E-02  0.5759121E-01 -0.1662292E-02  0.9282538E-01
6366000. -0.3676227E-01  0.7327510E+00  0.7776930E-02  0.6097845E-01 -0.1676842E-02  0.9256047E-01
6365000. -0.3687674E-01  0.7257115E+00  0.7767094E-02  0.6436015E-01 -0.1691349E-02  0.9229451E-01
6364000. -0.3699008E-01  0.7185643E+00  0.7756727E-02  0.6773606E-01 -0.1705815E-02  0.9202749E-01
6363000. -0.3710230E-01  0.7113098E+00  0.7745830E-02  0.7110593E-01 -0.1720239E-02  0.9175943E-01
6362000. -0.3721338E-01  0.7039481E+00  0.7734405E-02  0.7446951E-01 -0.1734620E-02  0.9149033E-01
6361000. -0.3732328E-01  0.6964796E+00  0.7722453E-02  0.7782655E-01 -0.1748959E-02  0.9122019E-01
6360000. -0.3743201E-01  0.6889046E+00  0.7709974E-02  0.8117680E-01 -0.1763256E-02  0.9094901E-01
6359000. -0.3753954E-01  0.6812233E+00  0.7696970E-02  0.8452001E-01 -0.1777510E-02  0.9067682E-01
6358000. -0.3764586E-01  0.6734362E+00  0.7683442E-02  0.8785593E-01 -0.1791722E-02  0.9040361E-01
6357000. -0.3775094E-01  0.6655435E+00  0.7669390E-02  0.9118431E-01 -0.1805890E-02  0.9012938E-01
6356000. -0.3785478E-01  0.6575456E+00  0.7654817E-02  0.9450489E-01 -0.1820015E-02  0.8985414E-01
6356000. -0.3785478E-01  0.5970713E+00  0.7654817E-02  0.7512552E-01 -0.1820015E-02  0.9809090E-01
6355000. -0.3794805E-01  0.5913884E+00  0.7642867E-02  0.7714193E-01 -0.1835385E-02  0.9775446E-01
6354000. -0.3804043E-01  0.5856429E+00  0.7630601E-02  0.7915399E-01 -0.1850702E-02  0.9741744E-01
6353000. -0.3813190E-01  0.5798351E+00  0.7618019E-02  0.8116160E-01 -0.1865967E-02  0.9707984E-01
6352000. -0.3822245E-01  0.5739651E+00  0.7605123E-02  0.8316468E-01 -0.1881178E-02  0.9674167E-01
6351000. -0.3831207E-01  0.5680330E+00  0.7591912E-02  0.8516312E-01 -0.1896336E-02  0.9640291E-01
6350000. -0.3840076E-01  0.5620391E+00  0.7578388E-02  0.8715684E-01 -0.1911441E-02  0.9606359E-01
6349000. -0.3848851E-01  0.5559835E+00  0.7564552E-02  0.8914572E-01 -0.1926493E-02  0.9572370E-01
6348000. -0.3857530E-01  0.5498664E+00  0.7550403E-02  0.9112969E-01 -0.1941491E-02  0.9538326E-01
6347000. -0.3866112E-01  0.5436880E+00  0.7535944E-02  0.9310865E-01 -0.1956436E-02  0.9504224E-01
6346600. -0.3869518E-01  0.5411996E+00  0.7530074E-02  0.9389880E-01 -0.1962398E-02  0.9490569E-01
6346600. -0.3869518E-01  0.6887633E+00  0.7530074E-02  0.7846938E-01 -0.1962398E-02  0.1083981E+00
6318800. -0.4140445E-01  0.5470318E+00  0.7108015E-02  0.1144587E+00 -0.2413606E-02  0.9838574E-01
6291000. -0.4341874E-01  0.3706978E+00  0.6536435E-02  0.1468437E+00 -0.2820800E-02  0.8822514E-01
6291000. -0.4341874E-01  0.3897923E+00  0.6536435E-02  0.1505757E+00 -0.2820800E-02  0.8822514E-01
6263000. -0.4466883E-01  0.1738950E+00  0.5807569E-02  0.1802188E+00 -0.3186219E-02  0.7803908E-01
6235000. -0.4490532E-01 -0.7054034E-01  0.4960780E-02  0.2041082E+00 -0.3506506E-02  0.6768659E-01
6207000. -0.4401596E-01 -0.3373337E+00  0.4022942E-02  0.2215541E+00 -0.3780931E-02  0.5716871E-01
6179000. -0.4191791E-01 -0.6193127E+00  0.3023533E-02  0.2320619E+00 -0.4008770E-02  0.4648802E-01
6151000. -0.3856174E-01 -0.9084803E+00  0.1993751E-02  0.2353463E+00 -0.4189324E-02  0.3565139E-01
6151000. -0.3856174E-01 -0.6863404E+00  0.1993751E-02  0.2115602E+00 -0.4189324E-02  0.3778484E-01
6128500. -0.3583071E-01 -0.8593783E+00  0.1252013E-02  0.2078966E+00 -0.4311126E-02  0.3122005E-01
6106000. -0.3249980E-01 -0.1025599E+01  0.5294306E-03  0.2007464E+00 -0.4410038E-02  0.2482467E-01
6083500. -0.2859803E-01 -0.1182219E+01 -0.1620746E-03  0.1903395E+00 -0.4486689E-02  0.1861602E-01
6061000. -0.2416397E-01 -0.1326640E+01 -0.8114747E-03  0.1769512E+00 -0.4541767E-02  0.1261039E-01
6038500. -0.1924494E-01 -0.1456499E+01 -0.1408789E-02  0.1608983E+00 -0.4576015E-02  0.6821597E-02
6016000. -0.1389617E-01 -0.1569687E+01 -0.1945214E-02  0.1425300E+00 -0.4590220E-02  0.1261620E-02
5993500. -0.8179845E-02 -0.1664376E+01 -0.2413229E-02  0.1222202E+00 -0.4585208E-02 -0.4059162E-02
5971000. -0.2164044E-02 -0.1739068E+01 -0.2806666E-02  0.1003626E+00 -0.4561840E-02 -0.9132849E-02
5971000. -0.2164044E-02 -0.1596036E+01 -0.2806666E-02  0.8923042E-01 -0.4561840E-02 -0.8849557E-02
5937667.  0.6268217E-02 -0.1620301E+01 -0.3188433E-02  0.5683933E-01 -0.4500696E-02 -0.1437347E-01
5904333.  0.1472065E-01 -0.1604111E+01 -0.3403737E-02  0.2575951E-01 -0.4412989E-02 -0.1900609E-01
5871000.  0.2298916E-01 -0.1550705E+01 -0.3461801E-02 -0.3140460E-02 -0.4303322E-02 -0.2277473E-01
5837667.  0.3088948E-01 -0.1464088E+01 -0.3375793E-02 -0.2922683E-01 -0.4176104E-02 -0.2572398E-01
5804333.  0.3825972E-01 -0.1348769E+01 -0.3161619E-02 -0.5207656E-01 -0.4035471E-02 -0.2791161E-01
5771000.  0.4496167E-01 -0.1209524E+01 -0.2836929E-02 -0.7145022E-01 -0.3885240E-02 -0.2940691E-01
5771000.  0.4496167E-01 -0.1209580E+01 -0.2836929E-02 -0.7144960E-01 -0.3885240E-02 -0.2940691E-01
5701000.  0.5665723E-01 -0.9027081E+00 -0.1861712E-02 -0.1041133E+00 -0.3564639E-02 -0.2867140E-01
5701000.  0.5665723E-01 -0.7747073E+00 -0.1861712E-02 -0.9596256E-01 -0.3564639E-02 -0.4464103E-01
5667333.  0.6022295E-01 -0.5842423E+00 -0.1342615E-02 -0.1004830E+00 -0.3336384E-02 -0.4174138E-01
5633667.  0.6289674E-01 -0.4287657E+00 -0.7986879E-03 -0.1053018E+00 -0.3122658E-02 -0.3921236E-01
5600000.  0.6473698E-01 -0.2664834E+00 -0.2334078E-03 -0.1082824E+00 -0.2922006E-02 -0.3671982E-01
5600000.  0.6473698E-01 -0.2664834E+00 -0.2334078E-03 -0.1082824E+00 -0.2922006E-02 -0.3671982E-01
5563518.  0.6574751E-01 -0.8589667E-01  0.3909522E-03 -0.1094333E+00 -0.2719389E-02 -0.3405407E-01
5527037.  0.6571706E-01  0.9659802E-01  0.1015907E-02 -0.1085131E+00 -0.2531918E-02 -0.3143432E-01
5490556.  0.6464335E-01  0.2780058E+00  0.1629937E-02 -0.1056398E+00 -0.2359275E-02 -0.2887893E-01
5454074.  0.6254088E-01  0.4554332E+00  0.2222281E-02 -0.1009604E+00 -0.2201023E-02 -0.2640780E-01
5417593.  0.5944042E-01  0.6261801E+00  0.2783066E-02 -0.9465327E-01 -0.2056672E-02 -0.2402683E-01
5381111.  0.5538728E-01  0.7877412E+00  0.3303543E-02 -0.8691043E-01 -0.1925655E-02 -0.2175228E-01
5344630.  0.5044095E-01  0.9378507E+00  0.3776057E-02 -0.7794192E-01 -0.1807332E-02 -0.1959491E-01
5308148.  0.4467238E-01  0.1074570E+01  0.4194241E-02 -0.6796678E-01 -0.1701019E-02 -0.1755815E-01
5271667.  0.3816373E-01  0.1196138E+01  0.4552941E-02 -0.5720675E-01 -0.1605991E-02 -0.1565552E-01
5235185.  0.3100542E-01  0.1301226E+01  0.4848325E-02 -0.4588648E-01 -0.1521469E-02 -0.1388749E-01
5198704.  0.2329534E-01  0.1388764E+01  0.5077800E-02 -0.3422448E-01 -0.1446685E-02 -0.1225614E-01
5162222.  0.1513617E-01  0.1457907E+01  0.5240025E-02 -0.2243045E-01 -0.1380835E-02 -0.1076634E-01
5125741.  0.6634905E-02  0.1508289E+01  0.5334820E-02 -0.1070662E-01 -0.1323121E-02 -0.9414559E-02
5089259. -0.2100893E-02  0.1539727E+01  0.5363126E-02  0.7636403E-03 -0.1272756E-02 -0.8198580E-02
5052778. -0.1096234E-01  0.1552310E+01  0.5326887E-02  0.1181030E-01 -0.1228975E-02 -0.7114721E-02
5016296. -0.1984316E-01  0.1546494E+01  0.5228968E-02  0.2228271E-01 -0.1191032E-02 -0.6157951E-02
4979815. -0.2863910E-01  0.1522869E+01  0.5073047E-02  0.3205009E-01 -0.1158224E-02 -0.5320354E-02
4943333. -0.3725102E-01  0.1482306E+01  0.4863479E-02  0.4100156E-01 -0.1129888E-02 -0.4594355E-02
4906852. -0.4558454E-01  0.1425896E+01  0.4605216E-02  0.4904705E-01 -0.1105405E-02 -0.3973117E-02
4870370. -0.5355262E-01  0.1354799E+01  0.4303633E-02  0.5611925E-01 -0.1084216E-02 -0.3441850E-02
4833889. -0.6107465E-01  0.1270425E+01  0.3964475E-02  0.6216791E-01 -0.1065826E-02 -0.2994945E-02
4797407. -0.6807927E-01  0.1174250E+01  0.3593673E-02  0.6716534E-01 -0.1049774E-02 -0.2621791E-02
4760926. -0.7450274E-01  0.1067776E+01  0.3197297E-02  0.7110354E-01 -0.1035700E-02 -0.2302688E-02
4724444. -0.8029117E-01  0.9526614E+00  0.2781385E-02  0.7398701E-01 -0.1023297E-02 -0.2036903E-02
4687963. -0.8539943E-01  0.8305246E+00  0.2351938E-02  0.7584114E-01 -0.1012304E-02 -0.1806918E-02
4651482. -0.8979207E-01  0.7029808E+00  0.1914728E-02  0.7670512E-01 -0.1002567E-02 -0.1597282E-02
4615000. -0.9344289E-01  0.5716578E+00  0.1475285E-02  0.7662614E-01 -0.9939751E-03 -0.1404903E-02
4578518. -0.9633464E-01  0.4381056E+00  0.1038843E-02  0.7566852E-01 -0.9864850E-03 -0.1209180E-02
4542037. -0.9845880E-01  0.3038287E+00  0.6102479E-03  0.7390112E-01 -0.9801534E-03 -0.1000140E-02
4505556. -0.9981542E-01  0.1702421E+00  0.1939200E-03  0.7139754E-01 -0.9750616E-03 -0.7729051E-03
4469074. -0.1004123E+00  0.3865728E-01 -0.2061867E-03  0.6824570E-01 -0.9713931E-03 -0.5003971E-03
4432593. -0.1002643E+00 -0.8971415E-01 -0.5865677E-03  0.6452490E-01 -0.9694150E-03 -0.1825808E-03
4396111. -0.9939300E-01 -0.2137921E+00 -0.9442256E-03  0.6032099E-01 -0.9694115E-03  0.1934817E-03
4359630. -0.9782597E-01 -0.3325896E+00 -0.1276643E-02  0.5572638E-01 -0.9717928E-03  0.6522003E-03
4323148. -0.9559569E-01 -0.4453046E+00 -0.1581822E-02  0.5081727E-01 -0.9770361E-03  0.1194081E-02
4286667. -0.9273922E-01 -0.5512158E+00 -0.1858183E-02  0.4567826E-01 -0.9856644E-03  0.1838641E-02
4250185. -0.8929711E-01 -0.6497485E+00 -0.2104658E-02  0.4038776E-01 -0.9983263E-03  0.2604431E-02
4213704. -0.8531303E-01 -0.7404824E+00 -0.2320553E-02  0.3501097E-01 -0.1015736E-02  0.3499865E-02
4177222. -0.8083247E-01 -0.8230670E+00 -0.2505588E-02  0.2961790E-01 -0.1038707E-02  0.4551036E-02
4140741. -0.7590299E-01 -0.8973080E+00 -0.2659824E-02  0.2426340E-01 -0.1068189E-02  0.5775821E-02
4104259. -0.7057232E-01 -0.9631302E+00 -0.2783617E-02  0.1899148E-01 -0.1105213E-02  0.7190485E-02
4067778. -0.6488921E-01 -0.1020461E+01 -0.2877576E-02  0.1385048E-01 -0.1150978E-02  0.8834056E-02
4031296. -0.5890168E-01 -0.1069435E+01 -0.2942531E-02  0.8863021E-02 -0.1206857E-02  0.1072615E-01
3994815. -0.5265748E-01 -0.1110181E+01 -0.2979409E-02  0.4047963E-02 -0.1274356E-02  0.1290125E-01
3958333. -0.4620308E-01 -0.1142830E+01 -0.2989250E-02 -0.5801131E-03 -0.1355242E-02  0.1540753E-01
3921852. -0.3958441E-01 -0.1167660E+01 -0.2973104E-02 -0.5031046E-02 -0.1451512E-02  0.1828335E-01
3885370. -0.3284531E-01 -0.1184852E+01 -0.2931945E-02 -0.9319102E-02 -0.1565446E-02  0.2158699E-01
3848889. -0.2602942E-01 -0.1194583E+01 -0.2866640E-02 -0.1347184E-01 -0.1699675E-02  0.2538377E-01
3812407. -0.1917848E-01 -0.1197046E+01 -0.2777826E-02 -0.1753850E-01 -0.1857229E-02  0.2974626E-01
3775926. -0.1233444E-01 -0.1192233E+01 -0.2665841E-02 -0.2157667E-01 -0.2041595E-02  0.3476649E-01
3739444. -0.5538681E-02 -0.1180101E+01 -0.2530623E-02 -0.2566776E-01 -0.2256843E-02  0.4054934E-01
3702963.  0.1166036E-02 -0.1160432E+01 -0.2371588E-02 -0.2991532E-01 -0.2507671E-02  0.4721874E-01
3666482.  0.7735239E-02 -0.1132664E+01 -0.2187496E-02 -0.3444328E-01 -0.2799576E-02  0.5492343E-01
3630000.  0.1412082E-01 -0.1096082E+01 -0.1976297E-02 -0.3940986E-01 -0.3138988E-02  0.6384040E-01
3630000.  0.1412082E-01 -0.1096082E+01 -0.1976297E-02 -0.3940986E-01 -0.3138988E-02  0.6384040E-01
3592500.  0.2043641E-01 -0.1047987E+01 -0.1727751E-02 -0.4517351E-01 -0.3545294E-02  0.7448799E-01
3555000.  0.2643332E-01 -0.9874462E+00 -0.1442708E-02 -0.5185825E-01 -0.4019339E-02  0.8690714E-01
3517500.  0.3203140E-01 -0.9119728E+00 -0.1114850E-02 -0.5978000E-01 -0.4572490E-02  0.1014264E+00
3480000.  0.3713297E-01 -0.8180707E+00 -0.7357885E-03 -0.6932812E-01 -0.5218216E-02  0.1184335E+00
3480000.  0.3713297E-01  0.4740326E+00  0.3726210E-02  0.6109512E-01 -0.5218216E-02 -0.6513461E-03
3409422.  0.3196280E-01  0.4565107E+00  0.3089060E-02  0.5391860E-01 -0.5031023E-02 -0.3046844E-01
3338844.  0.2707052E-01  0.4248638E+00  0.2531343E-02  0.4680544E-01 -0.4593164E-02 -0.4670253E-01
3268266.  0.2258148E-01  0.3845239E+00  0.2050843E-02  0.4001312E-01 -0.4030786E-02 -0.5355872E-01
3197688.  0.1856693E-01  0.3398353E+00  0.1642973E-02  0.3371637E-01 -0.3429269E-02 -0.5422568E-01
3127109.  0.1505570E-01  0.2941226E+00  0.1301586E-02  0.2802217E-01 -0.2843406E-02 -0.5106474E-01
3056531.  0.1204509E-01  0.2497953E+00  0.1019685E-02  0.2298277E-01 -0.2305660E-02 -0.4577670E-01
2985953.  0.9510024E-02  0.2084818E+00  0.7899231E-03  0.1860759E-01 -0.1832612E-02 -0.3954528E-01
2915375.  0.7411106E-02  0.1711741E+00  0.6050389E-03  0.1487507E-01 -0.1430033E-02 -0.3315810E-01
2844797.  0.5700837E-02  0.1383627E+00  0.4581336E-03  0.1174252E-01 -0.1096693E-02 -0.2710703E-01
2774219.  0.4328476E-02  0.1101631E+00  0.3428618E-03  0.9153964E-02 -0.8271661E-03 -0.2166937E-01
2703641.  0.3243570E-02  0.8642355E-01  0.2535415E-03  0.7046522E-02 -0.6138408E-03 -0.1697190E-01
2633062.  0.2398391E-02  0.6681611E-01  0.1852006E-03  0.5355468E-02 -0.4482974E-03 -0.1304056E-01
2562484.  0.1749504E-02  0.5091025E-01  0.1335800E-03  0.4017837E-02 -0.3222155E-03 -0.9838101E-02
2491906.  0.1258523E-02  0.3822690E-01  0.9509485E-04  0.2974628E-02 -0.2279020E-03 -0.7291058E-02
2421328.  0.8924430E-03  0.2828092E-01  0.6678460E-04  0.2172516E-02 -0.1585870E-03 -0.5309272E-02
2350750.  0.6235379E-03  0.2060889E-01  0.4624432E-04  0.1564587E-02 -0.1085297E-03 -0.3798853E-02
2280172.  0.4290056E-03  0.1478716E-01  0.3155226E-04  0.1110510E-02 -0.7301028E-04 -0.2670379E-02
2209594.  0.2904683E-03  0.1044176E-01  0.2119763E-04  0.7763840E-03 -0.4825224E-04 -0.1843548E-02
2139016.  0.1933964E-03  0.7252150E-02  0.1401154E-04  0.5342793E-03 -0.3130696E-04 -0.1249366E-02
2068438.  0.1265161E-03  0.4950655E-02  0.9104224E-05  0.3616299E-03 -0.1992479E-04 -0.8306287E-03
1997859.  0.8124092E-04  0.3319003E-02  0.5809321E-05  0.2405378E-03 -0.1242668E-04 -0.5413376E-03
1927281.  0.5115314E-04  0.2183238E-02  0.3636276E-05  0.1570719E-03 -0.7586666E-05 -0.3455227E-03
1856703.  0.3154320E-04  0.1407591E-02  0.2229947E-05  0.1005818E-03 -0.4528251E-05 -0.2157525E-03
1786125.  0.1902277E-04  0.8883907E-03  0.1337925E-05  0.6307993E-04 -0.2638573E-05 -0.1316298E-03
1715547.  0.1120176E-04  0.5481363E-03  0.7841379E-06  0.3868764E-04 -0.1498498E-05 -0.7834895E-04
1644969.  0.6428796E-05  0.3301318E-03  0.4481667E-06  0.2316330E-04 -0.8279135E-06 -0.4542046E-04
1574391.  0.3587166E-05  0.1938267E-03  0.2493745E-06  0.1350716E-04 -0.4440665E-06 -0.2559446E-04
1503812.  0.1938258E-05  0.1109261E-03  0.1349898E-06  0.7639957E-05 -0.2307003E-06 -0.1398574E-04
1433234.  0.1003759E-05  0.6229211E-04  0.7139782E-07  0.4144757E-05 -0.1158269E-06 -0.7389373E-05
1362656.  0.4774896E-06  0.3567530E-04  0.3800080E-07  0.2054965E-05 -0.5611574E-07 -0.3761067E-05
1292078.  0.1568471E-06  0.2456159E-04  0.2331010E-07  0.6585810E-06 -0.2625654E-07 -0.1839660E-05
1221500. -0.1233209E-06  0.2918080E-04  0.2345082E-07 -0.7653478E-06 -0.1181831E-07 -0.8886068E-06
1221500. -0.1233209E-06  0.5457518E-06  0.7422125E-09  0.6470780E-06 -0.1181831E-07 -0.8351838E-06
1183328. -0.1170790E-06 -0.2261437E-05 -0.1903867E-08  0.2707243E-06 -0.7670816E-08 -0.5648105E-06
1145156. -0.9964503E-07 -0.3342530E-05 -0.2835447E-08  0.6228559E-07 -0.4889356E-08 -0.3751402E-06
1106984. -0.7895233E-07 -0.3449751E-05 -0.2858627E-08 -0.4112285E-07 -0.3057820E-08 -0.2445519E-06
1068812. -0.5926714E-07 -0.3069544E-05 -0.2465994E-08 -0.8227152E-07 -0.1874509E-08 -0.1563433E-06
1030641. -0.4253910E-07 -0.2500223E-05 -0.1940339E-08 -0.8922481E-07 -0.1125084E-08 -0.9792680E-07
 992469. -0.2934039E-07 -0.1911405E-05 -0.1429440E-08 -0.7959130E-07 -0.6602665E-09 -0.6002456E-07
 954297. -0.1949937E-07 -0.1388487E-05 -0.9985764E-09 -0.6378674E-07 -0.3783052E-09 -0.3595697E-07
 916125. -0.1250211E-07 -0.9646416E-06 -0.6658858E-09 -0.4747106E-07 -0.2112554E-09 -0.2101825E-07
 877953. -0.7734582E-08 -0.6431196E-06 -0.4252905E-09 -0.3331262E-07 -0.1147527E-09 -0.1196718E-07
 839781. -0.4614472E-08 -0.4120573E-06 -0.2605226E-09 -0.2221175E-07 -0.6049670E-10 -0.6623331E-08
 801609. -0.2651471E-08 -0.2537712E-06 -0.1530738E-09 -0.1412457E-07 -0.3087408E-10 -0.3554846E-08
 763438. -0.1464593E-08 -0.1501052E-06 -0.8618438E-10 -0.8577758E-08 -0.1520775E-10 -0.1845179E-08
 725266. -0.7757207E-09 -0.8513030E-07 -0.4640888E-10 -0.4973562E-08 -0.7204955E-11 -0.9232648E-09
 687094. -0.3927150E-09 -0.4617805E-07 -0.2383621E-10 -0.2749187E-08 -0.3270021E-11 -0.4436887E-09
 648922. -0.1892953E-09 -0.2387838E-07 -0.1163496E-10 -0.1444930E-08 -0.1415007E-11 -0.2038833E-09
 610750. -0.8647189E-10 -0.1171997E-07 -0.5372622E-11 -0.7193362E-09 -0.5805078E-12 -0.8911277E-10
 572578. -0.3723413E-10 -0.5433399E-08 -0.2334895E-11 -0.3369996E-09 -0.2244052E-12 -0.3676125E-10
 534406.  0.0000000E+00  0.0000000E+00  0.0000000E+00  0.0000000E+00  0.0000000E+00  0.0000000E+00
 496234.  0.0000000E+00  0.0000000E+00  0.0000000E+00  0.0000000E+00  0.0000000E+00  0.0000000E+00
 458062.  0.0000000E+00  0.0000000E+00  0.0000000E+00  0.0000000E+00  0.0000000E+00  0.0000000E+00
 419891.  0.0000000E+00  0.0000000E+00  0.0000000E+00  0.0000000E+00  0.0000000E+00  0.0000000E+00
 381719.  0.0000000E+00  0.0000000E+00  0.0000000E+00  0.0000000E+00  0.0000000E+00  0.0000000E+00
 343547.  0.0000000E+00  0.0000000E+00  0.0000000E+00  0.0000000E+00  0.0000000E+00  0.0000000E+00
 305375.  0.0000000E+00  0.0000000E+00  0.0000000E+00  0.0000000E+00  0.0000000E+00  0.0000000E+00
 267203.  0.0000000E+00  0.0000000E+00  0.0000000E+00  0.0000000E+00  0.0000000E+00  0.0000000E+00
 229031.  0.0000000E+00  0.0000000E+00  0.0000000E+00  0.0000000E+00  0.0000000E+00  0.0000000E+00
 190859.  0.0000000E+00  0.0000000E+00  0.0000000E+00  0.0000000E+00  0.0000000E+00  0.0000000E+00
 152688.  0.0000000E+00  0.0000000E+00  0.0000000E+00  0.0000000E+00  0.0000000E+00  0.0000000E+00
 114516.  0.0000000E+00  0.0000000E+00  0.0000000E+00  0.0000000E+00  0.0000000E+00  0.0000000E+00
  76344.  0.0000000E+00  0.0000000E+00  0.0000000E+00  0.0000000E+00  0.0000000E+00  0.0000000E+00
  38172.  0.0000000E+00  0.0000000E+00  0.0000000E+00  0.0000000E+00  0.0000000E+00  0.0000000E+00
      0.  0.0000000E+00  0.0000000E+00  0.0000000E+00  0.0000000E+00  0.0000000E+00  0.0000000E+00
