       4       30 S      299        141.28630          9.28940          6.68212        255.42371      185    7
6371000. -0.4202232E-02 -0.1179462E+01 -0.3235408E-02  0.9668238E-03  0.1704229E-02 -0.4490668E-01
6370000. -0.4016986E-02 -0.1180876E+01 -0.3235334E-02 -0.1905569E-02  0.1711256E-02 -0.4463113E-01
6369000. -0.3831547E-02 -0.1181937E+01 -0.3234810E-02 -0.4778655E-02  0.1718240E-02 -0.4435680E-01
6368000. -0.3645968E-02 -0.1182645E+01 -0.3233834E-02 -0.7651964E-02  0.1725181E-02 -0.4408370E-01
6368000. -0.3645968E-02 -0.1182645E+01 -0.3233834E-02 -0.7651964E-02  0.1725181E-02 -0.4408370E-01
6367000. -0.3460306E-02 -0.1182998E+01 -0.3232408E-02 -0.1052503E-01  0.1732079E-02 -0.4381185E-01
6366000. -0.3274617E-02 -0.1182998E+01 -0.3230530E-02 -0.1339738E-01  0.1738934E-02 -0.4354126E-01
6365000. -0.3088955E-02 -0.1182645E+01 -0.3228202E-02 -0.1626856E-01  0.1745748E-02 -0.4327194E-01
6364000. -0.2903377E-02 -0.1181937E+01 -0.3225423E-02 -0.1913808E-01  0.1752518E-02 -0.4300391E-01
6363000. -0.2717937E-02 -0.1180876E+01 -0.3222194E-02 -0.2200550E-01  0.1759248E-02 -0.4273717E-01
6362000. -0.2532692E-02 -0.1179461E+01 -0.3218515E-02 -0.2487033E-01  0.1765935E-02 -0.4247176E-01
6361000. -0.2347696E-02 -0.1177692E+01 -0.3214387E-02 -0.2773212E-01  0.1772580E-02 -0.4220768E-01
6360000. -0.2163006E-02 -0.1175571E+01 -0.3209810E-02 -0.3059038E-01  0.1779185E-02 -0.4194495E-01
6359000. -0.1978677E-02 -0.1173096E+01 -0.3204784E-02 -0.3344467E-01  0.1785748E-02 -0.4168358E-01
6358000. -0.1794763E-02 -0.1170269E+01 -0.3199311E-02 -0.3629452E-01  0.1792270E-02 -0.4142358E-01
6357000. -0.1611321E-02 -0.1167091E+01 -0.3193391E-02 -0.3913945E-01  0.1798752E-02 -0.4116498E-01
6356000. -0.1428406E-02 -0.1163560E+01 -0.3187025E-02 -0.4197901E-01  0.1805193E-02 -0.4090778E-01
6356000. -0.1428406E-02 -0.1019120E+01 -0.3187025E-02 -0.2603712E-01  0.1805193E-02 -0.4059698E-01
6355000. -0.1268600E-02 -0.1017090E+01 -0.3182815E-02 -0.2760296E-01  0.1811536E-02 -0.4023170E-01
6354000. -0.1109128E-02 -0.1014870E+01 -0.3178359E-02 -0.2916650E-01  0.1817823E-02 -0.3986770E-01
6353000. -0.9500199E-03 -0.1012458E+01 -0.3173659E-02 -0.3072757E-01  0.1824052E-02 -0.3950498E-01
6352000. -0.7913049E-03 -0.1009857E+01 -0.3168714E-02 -0.3228604E-01  0.1830224E-02 -0.3914353E-01
6351000. -0.6330131E-03 -0.1007065E+01 -0.3163524E-02 -0.3384173E-01  0.1836340E-02 -0.3878338E-01
6350000. -0.4751745E-03 -0.1004084E+01 -0.3158090E-02 -0.3539449E-01  0.1842399E-02 -0.3842451E-01
6349000. -0.3178187E-03 -0.1000913E+01 -0.3152413E-02 -0.3694418E-01  0.1848402E-02 -0.3806695E-01
6348000. -0.1609755E-03 -0.9975524E+00 -0.3146493E-02 -0.3849063E-01  0.1854349E-02 -0.3771069E-01
6347000. -0.4674465E-05 -0.9940034E+00 -0.3140330E-02 -0.4003369E-01  0.1860241E-02 -0.3735573E-01
6346600.  0.5768747E-04 -0.9925310E+00 -0.3137797E-02 -0.4064993E-01  0.1862581E-02 -0.3721412E-01
6346600.  0.5768747E-04 -0.1161548E+01 -0.3137797E-02 -0.2848653E-01  0.1862581E-02 -0.3723424E-01
6318800.  0.4923515E-02 -0.1053315E+01 -0.2960970E-02 -0.5224369E-01  0.2001806E-02 -0.2673353E-01
6291000.  0.9120115E-02 -0.8559867E+00 -0.2685587E-02 -0.7344539E-01  0.2097169E-02 -0.1711476E-01
6291000.  0.9120115E-02 -0.8867915E+00 -0.2685587E-02 -0.7563101E-01  0.2097169E-02 -0.1711476E-01
6263000.  0.1240680E-01 -0.5957263E+00 -0.2309900E-02 -0.9454036E-01  0.2153294E-02 -0.8550514E-02
6235000.  0.1425424E-01 -0.2351377E+00 -0.1862347E-02 -0.1081685E+00  0.2173354E-02 -0.6876345E-03
6207000.  0.1440425E-01  0.1726360E+00 -0.1368082E-02 -0.1156902E+00  0.2160238E-02  0.6560913E-02
6179000.  0.1270607E-01  0.6012851E+00 -0.8550690E-03 -0.1166596E+00  0.2116470E-02  0.1327277E-01
6151000.  0.9130476E-02  0.1022117E+01 -0.3523300E-03 -0.1110451E+00  0.2044266E-02  0.1951029E-01
6151000.  0.9130476E-02  0.7955400E+00 -0.3523300E-03 -0.9873496E-01  0.2044266E-02  0.1900514E-01
6128500.  0.5883831E-02  0.1038566E+01 -0.1761293E-04 -0.9037693E-01  0.1972122E-02  0.2177320E-01
6106000.  0.1831783E-02  0.1250311E+01  0.2831538E-03 -0.7958151E-01  0.1891016E-02  0.2408266E-01
6083500. -0.2901670E-02  0.1423356E+01  0.5421716E-03 -0.6681628E-01  0.1802546E-02  0.2594595E-01
6061000. -0.8169009E-02  0.1551829E+01  0.7533790E-03 -0.5259422E-01  0.1708264E-02  0.2737591E-01
6038500. -0.1380495E-01  0.1631556E+01  0.9125790E-03 -0.3745496E-01  0.1609678E-02  0.2838579E-01
6016000. -0.1963257E-01  0.1660136E+01  0.1017497E-02 -0.2194427E-01  0.1508247E-02  0.2898904E-01
5993500. -0.2546963E-01  0.1636950E+01  0.1067769E-02 -0.6595112E-02  0.1405383E-02  0.2919951E-01
5971000. -0.3113483E-01  0.1563139E+01  0.1064867E-02  0.8088487E-02  0.1302451E-02  0.2903025E-01
5971000. -0.3113483E-01  0.1449880E+01  0.1064867E-02  0.1098238E-01  0.1302451E-02  0.3310607E-01
5937667. -0.3818697E-01  0.1233816E+01  0.9616912E-03  0.2777303E-01  0.1133321E-02  0.3141169E-01
5904333. -0.4393883E-01  0.9564211E+00  0.7817156E-03  0.4029286E-01  0.9750315E-03  0.2898510E-01
5871000. -0.4812675E-01  0.6396951E+00  0.5476752E-03  0.4845769E-01  0.8310346E-03  0.2597429E-01
5837667. -0.5060119E-01  0.3048207E+00  0.2818514E-03  0.5250346E-01  0.7040109E-03  0.2251901E-01
5804333. -0.5131832E-01 -0.2909536E-01  0.4658809E-05  0.5289138E-01  0.5959531E-03  0.1874193E-01
5771000. -0.5032694E-01 -0.3458336E+00 -0.2662750E-03  0.5022167E-01  0.5082742E-03  0.1474492E-01
5771000. -0.5032694E-01 -0.3458458E+00 -0.2662750E-03  0.5022183E-01  0.5082742E-03  0.1474492E-01
5701000. -0.4313335E-01 -0.9392436E+00 -0.7500009E-03  0.3613887E-01  0.4101120E-03  0.2856927E-02
5701000. -0.4313335E-01 -0.8078929E+00 -0.7500009E-03  0.3849255E-01  0.4101120E-03  0.1501467E-01
5667333. -0.3844258E-01 -0.9697820E+00 -0.9415959E-03  0.3397140E-01  0.3411138E-03  0.1139074E-01
5633667. -0.3283980E-01 -0.1150948E+01 -0.1107604E-02  0.2870890E-01  0.2874963E-03  0.8996977E-02
5600000. -0.2633907E-01 -0.1303340E+01 -0.1244148E-02  0.2292736E-01  0.2455717E-03  0.6923644E-02
5600000. -0.2633907E-01 -0.1303340E+01 -0.1244148E-02  0.2292736E-01  0.2455717E-03  0.6923644E-02
5563518. -0.1848586E-01 -0.1433354E+01 -0.1356908E-02  0.1643198E-01  0.2114405E-03  0.5057497E-02
5527037. -0.9996282E-02 -0.1525559E+01 -0.1432280E-02  0.9907056E-02  0.1869997E-03  0.3532472E-02
5490556. -0.1087709E-02 -0.1579757E+01 -0.1470715E-02  0.3563364E-02  0.1704092E-03  0.2309312E-02
5454074.  0.8024515E-02 -0.1596863E+01 -0.1473786E-02 -0.2416651E-02  0.1600450E-03  0.1351822E-02
5417593.  0.1713308E-01 -0.1578983E+01 -0.1444025E-02 -0.7882359E-02  0.1544841E-03  0.6262051E-03
5381111.  0.2604584E-01 -0.1528909E+01 -0.1384717E-02 -0.1271976E-01  0.1524936E-03  0.9936249E-04
5344630.  0.3458769E-01 -0.1450165E+01 -0.1299715E-02 -0.1684627E-01  0.1530229E-03 -0.2581952E-03
5308148.  0.4260644E-01 -0.1346809E+01 -0.1193243E-02 -0.2021195E-01  0.1551728E-03 -0.4713529E-03
5271667.  0.4997273E-01 -0.1223087E+01 -0.1069726E-02 -0.2280033E-01  0.1582052E-03 -0.5707635E-03
5235185.  0.5658322E-01 -0.1083516E+01 -0.9336032E-03 -0.2461617E-01  0.1615258E-03 -0.5745539E-03
5198704.  0.6235970E-01 -0.9325725E+00 -0.7892321E-03 -0.2569019E-01  0.1646390E-03 -0.5028092E-03
5162222.  0.6724963E-01 -0.7745156E+00 -0.6407006E-03 -0.2607740E-01  0.1671939E-03 -0.3822792E-03
5125741.  0.7122397E-01 -0.6134811E+00 -0.4917866E-03 -0.2583632E-01  0.1689335E-03 -0.2194930E-03
5089259.  0.7427676E-01 -0.4531894E+00 -0.3458652E-03 -0.2504492E-01  0.1696614E-03 -0.3242438E-04
5052778.  0.7642180E-01 -0.2969684E+00 -0.2058501E-03 -0.2378845E-01  0.1692897E-03  0.1633924E-03
5016296.  0.7769098E-01 -0.1476968E+00 -0.7416697E-04 -0.2214770E-01  0.1677777E-03  0.3646018E-03
4979815.  0.7813115E-01 -0.7780248E-02  0.4723343E-04 -0.2021300E-01  0.1651307E-03  0.5577067E-03
4943333.  0.7780156E-01  0.1208848E+00  0.1569158E-03 -0.1806647E-01  0.1614179E-03  0.7370615E-03
4906852.  0.7677098E-01  0.2368668E+00  0.2538751E-03 -0.1578320E-01  0.1567125E-03  0.9030840E-03
4870370.  0.7511499E-01  0.3391911E+00  0.3375616E-03 -0.1344148E-01  0.1511276E-03  0.1043307E-02
4833889.  0.7291356E-01  0.4273384E+00  0.4078135E-03 -0.1110036E-01  0.1448032E-03  0.1162680E-02
4797407.  0.7024834E-01  0.5011617E+00  0.4647895E-03 -0.8813521E-02  0.1378505E-03  0.1261123E-02
4760926.  0.6720120E-01  0.5608271E+00  0.5089605E-03 -0.6635208E-02  0.1304216E-03  0.1329431E-02
4724444.  0.6385160E-01  0.6068734E+00  0.5410382E-03 -0.4593764E-02  0.1226593E-03  0.1378655E-02
4687963.  0.6027580E-01  0.6400056E+00  0.5618920E-03 -0.2720288E-02  0.1146761E-03  0.1405580E-02
4651482.  0.5654511E-01  0.6611431E+00  0.5725579E-03 -0.1037456E-02  0.1066082E-03  0.1409312E-02
4615000.  0.5272501E-01  0.6713842E+00  0.5741485E-03  0.4483015E-03  0.9856361E-04  0.1397821E-02
4578518.  0.4887479E-01  0.6718617E+00  0.5678202E-03  0.1727353E-02  0.9063520E-04  0.1368377E-02
4542037.  0.4504696E-01  0.6638114E+00  0.5547590E-03  0.2801436E-02  0.8292124E-04  0.1324264E-02
4505556.  0.4128664E-01  0.6484841E+00  0.5361102E-03  0.3679849E-02  0.7548478E-04  0.1271290E-02
4469074.  0.3763200E-01  0.6270645E+00  0.5129846E-03  0.4366507E-02  0.6838912E-04  0.1205268E-02
4432593.  0.3411462E-01  0.6007743E+00  0.4864361E-03  0.4878818E-02  0.6169298E-04  0.1132936E-02
4396111.  0.3075896E-01  0.5707209E+00  0.4574140E-03  0.5232166E-02  0.5542266E-04  0.1056056E-02
4359630.  0.2758382E-01  0.5379229E+00  0.4267967E-03  0.5439240E-02  0.4961289E-04  0.9724831E-03
4323148.  0.2460188E-01  0.5033622E+00  0.3953589E-03  0.5521765E-02  0.4428778E-04  0.8872705E-03
4286667.  0.2182095E-01  0.4678720E+00  0.3637674E-03  0.5495649E-02  0.3945579E-04  0.8000074E-03
4250185.  0.1924404E-01  0.4321976E+00  0.3325981E-03  0.5377156E-02  0.3513075E-04  0.7104614E-03
4213704.  0.1687038E-01  0.3970049E+00  0.3023262E-03  0.5185108E-02  0.3131929E-04  0.6206917E-03
4177222.  0.1469552E-01  0.3628221E+00  0.2733321E-03  0.4932798E-02  0.2802657E-04  0.5289611E-03
4140741.  0.1271242E-01  0.3301170E+00  0.2459210E-03  0.4635112E-02  0.2526581E-04  0.4350808E-03
4104259.  0.1091140E-01  0.2992605E+00  0.2203090E-03  0.4305925E-02  0.2304734E-04  0.3391125E-03
4067778.  0.9281158E-02  0.2705263E+00  0.1966513E-03  0.3954456E-02  0.2139398E-04  0.2373251E-03
4031296.  0.7808757E-02  0.2441491E+00  0.1750415E-03  0.3592295E-02  0.2034187E-04  0.1288908E-03
3994815.  0.6480301E-02  0.2202819E+00  0.1555143E-03  0.3228381E-02  0.1993639E-04  0.1068598E-04
3958333.  0.5281072E-02  0.1990147E+00  0.1380600E-03  0.2869425E-02  0.2024820E-04 -0.1223677E-03
3921852.  0.4196038E-02  0.1804128E+00  0.1226268E-03  0.2523932E-02  0.2137398E-04 -0.2745302E-03
3885370.  0.3209856E-02  0.1644732E+00  0.1091163E-03  0.2198897E-02  0.2344217E-04 -0.4528435E-03
3848889.  0.2307446E-02  0.1511518E+00  0.9739051E-04  0.1902205E-02  0.2662631E-04 -0.6658552E-03
3812407.  0.1474002E-02  0.1403546E+00  0.8725787E-04  0.1644225E-02  0.3115354E-04 -0.9238984E-03
3775926.  0.6955896E-03  0.1319011E+00  0.7846238E-04  0.1437794E-02  0.3731881E-04 -0.1240521E-02
3739444. -0.4052031E-04  0.1255154E+00  0.7065846E-04  0.1301538E-02  0.4550371E-04 -0.1632300E-02
3702963. -0.7449804E-03  0.1207622E+00  0.6337201E-04  0.1262511E-02  0.5619486E-04 -0.2119774E-02
3666482. -0.1425319E-02  0.1169495E+00  0.5594002E-04  0.1360336E-02  0.7001027E-04 -0.2728179E-02
3630000. -0.2084140E-02  0.1130236E+00  0.4742154E-04  0.1653740E-02  0.8772853E-04 -0.3488414E-02
3630000. -0.2084140E-02  0.1130236E+00  0.4742154E-04  0.1653740E-02  0.8772853E-04 -0.3488414E-02
3592500. -0.2733533E-02  0.1071277E+00  0.3610508E-04  0.2251358E-02  0.1110314E-03 -0.4466388E-02
3555000. -0.3336227E-02  0.9658416E-01  0.2005881E-04  0.3289395E-02  0.1407880E-03 -0.5689609E-02
3517500. -0.3853075E-02  0.7706851E-01 -0.3890297E-05  0.4979425E-02  0.1785941E-03 -0.7210525E-02
3480000. -0.4212899E-02  0.4184661E-01 -0.4045098E-04  0.7638697E-02  0.2263615E-03 -0.9083317E-02
3480000. -0.4212899E-02 -0.1696576E+00 -0.1758420E-03 -0.7387809E-02  0.2263615E-03  0.4427384E-02
3409422. -0.2668649E-02 -0.1124911E+00 -0.1093686E-03 -0.4781110E-02  0.1722517E-03  0.4988678E-02
3338844. -0.1655846E-02 -0.7286948E-01 -0.6675499E-04 -0.3031720E-02  0.1205727E-03  0.4229586E-02
3268266. -0.1006616E-02 -0.4615152E-01 -0.3998351E-04 -0.1884145E-02  0.7963667E-04  0.3154925E-02
3197688. -0.5995995E-03 -0.2859300E-01 -0.2349795E-04 -0.1147775E-02  0.5028295E-04  0.2176661E-02
3127109. -0.3499392E-03 -0.1733394E-01 -0.1354674E-04 -0.6853507E-03  0.3057692E-04  0.1420233E-02
3056531. -0.2000779E-03 -0.1028398E-01 -0.7659028E-05 -0.4010874E-03  0.1798823E-04  0.8866638E-03
2985953. -0.1120382E-03 -0.5970891E-02 -0.4244996E-05 -0.2300039E-03  0.1026633E-04  0.5332069E-03
2915375. -0.6142413E-04 -0.3392053E-02 -0.2305396E-05 -0.1291993E-03  0.5694109E-05  0.3101198E-03
2844797. -0.3295490E-04 -0.1884988E-02 -0.1226145E-05 -0.7106102E-04  0.3072299E-05  0.1748816E-03
2774219. -0.1729296E-04 -0.1024243E-02 -0.6382533E-06 -0.3824943E-04  0.1613441E-05  0.9576210E-04
2703641. -0.8869610E-05 -0.5439017E-03 -0.3249282E-06 -0.2013598E-04  0.8248102E-06  0.5096123E-04
2633062. -0.4443186E-05 -0.2820873E-03 -0.1616476E-06 -0.1036003E-04  0.4103858E-06  0.2636501E-04
2562484. -0.2172077E-05 -0.1427830E-03 -0.7851509E-07 -0.5205274E-05  0.1986545E-06  0.1326033E-04
2491906. -0.1035194E-05 -0.7047229E-04 -0.3719582E-07 -0.2551605E-05  0.9349644E-07  0.6481460E-05
2421328. -0.4804641E-06 -0.3388288E-04 -0.1716735E-07 -0.1219038E-05  0.4274854E-07  0.3077002E-05
2350750. -0.2169024E-06 -0.1585165E-04 -0.7709693E-08 -0.5669549E-06  0.1896852E-07  0.1417630E-05
2280172. -0.9511338E-07 -0.7206947E-05 -0.3364281E-08 -0.2563540E-06  0.8158399E-08  0.6331811E-06
2209594. -0.4045157E-07 -0.3179758E-05 -0.1424295E-08 -0.1125278E-06  0.3396441E-08  0.2738285E-06
2139016. -0.1665765E-07 -0.1359287E-05 -0.5840066E-09 -0.4787433E-07  0.1366438E-08  0.1144923E-06
2068438. -0.6629194E-08 -0.5619910E-06 -0.2314841E-09 -0.1970533E-07  0.5302799E-09  0.4620421E-07
1997859. -0.2544255E-08 -0.2242729E-06 -0.8850869E-10 -0.7831058E-08  0.1980899E-09  0.1796155E-07
1927281. -0.9395270E-09 -0.8619734E-07 -0.3256870E-10 -0.2998088E-08  0.7106483E-10  0.6711393E-08
1856703. -0.3329376E-09 -0.3182636E-07 -0.1150310E-10 -0.1102943E-08  0.2441899E-10  0.2404310E-08
1786125. -0.1128870E-09 -0.1125722E-07 -0.3888175E-11 -0.3887898E-09  0.8012791E-11  0.8234537E-09
1715547. -0.3650179E-10 -0.3802283E-08 -0.1253572E-11 -0.1309005E-09  0.2502391E-11  0.2687537E-09
1644969. -0.1121368E-10 -0.1221979E-08 -0.3840551E-12 -0.4194354E-10  0.7409279E-12  0.8327981E-10
1574391. -0.3259212E-11 -0.3721327E-09 -0.1113309E-12 -0.1273849E-10  0.2070793E-12  0.2440002E-10
1503812. -0.8922677E-12 -0.1068288E-09 -0.3037396E-13 -0.3651536E-11  0.5432840E-13  0.6730682E-11
1433234.  0.0000000E+00  0.0000000E+00  0.0000000E+00  0.0000000E+00  0.0000000E+00  0.0000000E+00
1362656.  0.0000000E+00  0.0000000E+00  0.0000000E+00  0.0000000E+00  0.0000000E+00  0.0000000E+00
1292078.  0.0000000E+00  0.0000000E+00  0.0000000E+00  0.0000000E+00  0.0000000E+00  0.0000000E+00
1221500.  0.0000000E+00  0.0000000E+00  0.0000000E+00  0.0000000E+00  0.0000000E+00  0.0000000E+00
1221500.  0.0000000E+00  0.0000000E+00  0.0000000E+00  0.0000000E+00  0.0000000E+00  0.0000000E+00
1183328.  0.0000000E+00  0.0000000E+00  0.0000000E+00  0.0000000E+00  0.0000000E+00  0.0000000E+00
1145156.  0.0000000E+00  0.0000000E+00  0.0000000E+00  0.0000000E+00  0.0000000E+00  0.0000000E+00
1106984.  0.0000000E+00  0.0000000E+00  0.0000000E+00  0.0000000E+00  0.0000000E+00  0.0000000E+00
1068812.  0.0000000E+00  0.0000000E+00  0.0000000E+00  0.0000000E+00  0.0000000E+00  0.0000000E+00
1030641.  0.0000000E+00  0.0000000E+00  0.0000000E+00  0.0000000E+00  0.0000000E+00  0.0000000E+00
 992469.  0.0000000E+00  0.0000000E+00  0.0000000E+00  0.0000000E+00  0.0000000E+00  0.0000000E+00
 954297.  0.0000000E+00  0.0000000E+00  0.0000000E+00  0.0000000E+00  0.0000000E+00  0.0000000E+00
 916125.  0.0000000E+00  0.0000000E+00  0.0000000E+00  0.0000000E+00  0.0000000E+00  0.0000000E+00
 877953.  0.0000000E+00  0.0000000E+00  0.0000000E+00  0.0000000E+00  0.0000000E+00  0.0000000E+00
 839781.  0.0000000E+00  0.0000000E+00  0.0000000E+00  0.0000000E+00  0.0000000E+00  0.0000000E+00
 801609.  0.0000000E+00  0.0000000E+00  0.0000000E+00  0.0000000E+00  0.0000000E+00  0.0000000E+00
 763438.  0.0000000E+00  0.0000000E+00  0.0000000E+00  0.0000000E+00  0.0000000E+00  0.0000000E+00
 725266.  0.0000000E+00  0.0000000E+00  0.0000000E+00  0.0000000E+00  0.0000000E+00  0.0000000E+00
 687094.  0.0000000E+00  0.0000000E+00  0.0000000E+00  0.0000000E+00  0.0000000E+00  0.0000000E+00
 648922.  0.0000000E+00  0.0000000E+00  0.0000000E+00  0.0000000E+00  0.0000000E+00  0.0000000E+00
 610750.  0.0000000E+00  0.0000000E+00  0.0000000E+00  0.0000000E+00  0.0000000E+00  0.0000000E+00
 572578.  0.0000000E+00  0.0000000E+00  0.0000000E+00  0.0000000E+00  0.0000000E+00  0.0000000E+00
 534406.  0.0000000E+00  0.0000000E+00  0.0000000E+00  0.0000000E+00  0.0000000E+00  0.0000000E+00
 496234.  0.0000000E+00  0.0000000E+00  0.0000000E+00  0.0000000E+00  0.0000000E+00  0.0000000E+00
 458062.  0.0000000E+00  0.0000000E+00  0.0000000E+00  0.0000000E+00  0.0000000E+00  0.0000000E+00
 419891.  0.0000000E+00  0.0000000E+00  0.0000000E+00  0.0000000E+00  0.0000000E+00  0.0000000E+00
 381719.  0.0000000E+00  0.0000000E+00  0.0000000E+00  0.0000000E+00  0.0000000E+00  0.0000000E+00
 343547.  0.0000000E+00  0.0000000E+00  0.0000000E+00  0.0000000E+00  0.0000000E+00  0.0000000E+00
 305375.  0.0000000E+00  0.0000000E+00  0.0000000E+00  0.0000000E+00  0.0000000E+00  0.0000000E+00
 267203.  0.0000000E+00  0.0000000E+00  0.0000000E+00  0.0000000E+00  0.0000000E+00  0.0000000E+00
 229031.  0.0000000E+00  0.0000000E+00  0.0000000E+00  0.0000000E+00  0.0000000E+00  0.0000000E+00
 190859.  0.0000000E+00  0.0000000E+00  0.0000000E+00  0.0000000E+00  0.0000000E+00  0.0000000E+00
 152688.  0.0000000E+00  0.0000000E+00  0.0000000E+00  0.0000000E+00  0.0000000E+00  0.0000000E+00
 114516.  0.0000000E+00  0.0000000E+00  0.0000000E+00  0.0000000E+00  0.0000000E+00  0.0000000E+00
  76344.  0.0000000E+00  0.0000000E+00  0.0000000E+00  0.0000000E+00  0.0000000E+00  0.0000000E+00
  38172.  0.0000000E+00  0.0000000E+00  0.0000000E+00  0.0000000E+00  0.0000000E+00  0.0000000E+00
      0.  0.0000000E+00  0.0000000E+00  0.0000000E+00  0.0000000E+00  0.0000000E+00  0.0000000E+00
