      12       16 S      566        114.57820         21.17393          9.89189        400.47000      185    7
6371000. -0.1171630E-01  0.3189461E+00  0.2897514E-02  0.1461382E-01 -0.2095643E-03  0.2565680E-01
6370000. -0.1176582E-01  0.3119062E+00  0.2894816E-02  0.1977077E-01 -0.2135812E-03  0.2552709E-01
6369000. -0.1181421E-01  0.3046834E+00  0.2891308E-02  0.2492126E-01 -0.2175777E-03  0.2539559E-01
6368000. -0.1186145E-01  0.2972787E+00  0.2886993E-02  0.3006381E-01 -0.2215534E-03  0.2526231E-01
6368000. -0.1186145E-01  0.2972787E+00  0.2886993E-02  0.3006381E-01 -0.2215534E-03  0.2526231E-01
6367000. -0.1190752E-01  0.2896928E+00  0.2881871E-02  0.3519695E-01 -0.2255080E-03  0.2512725E-01
6366000. -0.1195238E-01  0.2819266E+00  0.2875944E-02  0.4031922E-01 -0.2294413E-03  0.2499043E-01
6365000. -0.1199601E-01  0.2739809E+00  0.2869214E-02  0.4542914E-01 -0.2333530E-03  0.2485186E-01
6364000. -0.1203838E-01  0.2658570E+00  0.2861683E-02  0.5052526E-01 -0.2372428E-03  0.2471156E-01
6363000. -0.1207946E-01  0.2575556E+00  0.2853354E-02  0.5560611E-01 -0.2411104E-03  0.2456952E-01
6362000. -0.1211923E-01  0.2490781E+00  0.2844229E-02  0.6067024E-01 -0.2449556E-03  0.2442577E-01
6361000. -0.1215765E-01  0.2404256E+00  0.2834309E-02  0.6571619E-01 -0.2487781E-03  0.2428032E-01
6360000. -0.1219469E-01  0.2315993E+00  0.2823600E-02  0.7074253E-01 -0.2525777E-03  0.2413317E-01
6359000. -0.1223034E-01  0.2226005E+00  0.2812103E-02  0.7574780E-01 -0.2563540E-03  0.2398434E-01
6358000. -0.1226456E-01  0.2134305E+00  0.2799822E-02  0.8073057E-01 -0.2601068E-03  0.2383384E-01
6357000. -0.1229733E-01  0.2040909E+00  0.2786761E-02  0.8568943E-01 -0.2638359E-03  0.2368169E-01
6356000. -0.1232862E-01  0.1945830E+00  0.2772923E-02  0.9062295E-01 -0.2675409E-03  0.2352789E-01
6356000. -0.1232862E-01  0.1953227E+00  0.2772923E-02  0.6070006E-01 -0.2675409E-03  0.2621045E-01
6355000. -0.1235876E-01  0.1886298E+00  0.2763143E-02  0.6392008E-01 -0.2716413E-03  0.2603628E-01
6354000. -0.1238783E-01  0.1818302E+00  0.2752858E-02  0.6712744E-01 -0.2757142E-03  0.2586084E-01
6353000. -0.1241583E-01  0.1749248E+00  0.2742071E-02  0.7032154E-01 -0.2797595E-03  0.2568415E-01
6352000. -0.1244274E-01  0.1679143E+00  0.2730783E-02  0.7350176E-01 -0.2837770E-03  0.2550623E-01
6351000. -0.1246854E-01  0.1607994E+00  0.2718998E-02  0.7666749E-01 -0.2877664E-03  0.2532707E-01
6350000. -0.1249321E-01  0.1535810E+00  0.2706717E-02  0.7981813E-01 -0.2917277E-03  0.2514670E-01
6349000. -0.1251675E-01  0.1462599E+00  0.2693942E-02  0.8295310E-01 -0.2956605E-03  0.2496511E-01
6348000. -0.1253912E-01  0.1388371E+00  0.2680677E-02  0.8607179E-01 -0.2995647E-03  0.2478233E-01
6347000. -0.1256032E-01  0.1313133E+00  0.2666923E-02  0.8917361E-01 -0.3034401E-03  0.2459836E-01
6346600. -0.1256847E-01  0.1282757E+00  0.2661285E-02  0.9040948E-01 -0.3049822E-03  0.2452444E-01
6346600. -0.1256847E-01  0.2201624E+00  0.2661285E-02  0.6600574E-01 -0.3049822E-03  0.2890689E-01
6318800. -0.1315344E-01  0.3797168E-01  0.2238279E-02  0.1259390E+00 -0.4194934E-03  0.2346926E-01
6291000. -0.1282458E-01 -0.1957067E+00  0.1583713E-02  0.1711460E+00 -0.5089371E-03  0.1743917E-01
6291000. -0.1282458E-01 -0.1951181E+00  0.1583713E-02  0.1764659E+00 -0.5089371E-03  0.1743917E-01
6263000. -0.1137210E-01 -0.4689002E+00  0.7420215E-03  0.2026730E+00 -0.5713732E-03  0.1090778E-01
6235000. -0.8698956E-02 -0.7453669E+00 -0.1619882E-03  0.2045684E+00 -0.6043576E-03  0.4065128E-02
6207000. -0.4863787E-02 -0.9922901E+00 -0.1020257E-02  0.1820958E+00 -0.6069150E-03 -0.2906393E-02
6179000. -0.6634108E-04 -0.1178321E+01 -0.1730925E-02  0.1381022E+00 -0.5789227E-03 -0.9800824E-02
6151000.  0.5364760E-02 -0.1276779E+01 -0.2210442E-02  0.7798856E-01 -0.5212150E-03 -0.1638910E-01
6151000.  0.5364760E-02 -0.1079798E+01 -0.2210442E-02  0.6760880E-01 -0.5212150E-03 -0.1668590E-01
6128500.  0.9174895E-02 -0.1068907E+01 -0.2364256E-02  0.1916740E-01 -0.4562432E-03 -0.2003671E-01
6106000.  0.1285041E-01 -0.1003651E+01 -0.2345504E-02 -0.2955090E-01 -0.3802252E-03 -0.2293395E-01
6083500.  0.1620226E-01 -0.8862593E+00 -0.2159124E-02 -0.7522741E-01 -0.2948362E-03 -0.2533801E-01
6061000.  0.1905506E-01 -0.7221820E+00 -0.1821312E-02 -0.1148397E+00 -0.2018704E-03 -0.2722104E-01
6038500.  0.2125782E-01 -0.5197300E+00 -0.1358131E-02 -0.1458525E+00 -0.1032008E-03 -0.2856619E-01
6016000.  0.2269320E-01 -0.2895199E+00 -0.8035064E-03 -0.1663677E+00 -0.7409942E-06 -0.2936742E-01
5993500.  0.2328441E-01 -0.4379197E-01 -0.1967879E-03 -0.1752258E+00  0.1035934E-03 -0.2962925E-01
5971000.  0.2299964E-01  0.2043585E+00  0.4199719E-03 -0.1720595E+00  0.2079179E-03 -0.2936466E-01
5971000.  0.2299964E-01  0.1871849E+00  0.4199719E-03 -0.1557584E+00  0.2079179E-03 -0.3237550E-01
5937667.  0.2119705E-01  0.4929959E+00  0.1173501E-02 -0.1293022E+00  0.3758557E-03 -0.3165995E-01
5904333.  0.1795553E-01  0.7333475E+00  0.1747117E-02 -0.8803413E-01  0.5376838E-03 -0.3006830E-01
5871000.  0.1366892E-01  0.8904613E+00  0.2080434E-02 -0.3858161E-01  0.6892764E-03 -0.2777774E-01
5837667.  0.8795802E-02  0.9572198E+00  0.2148133E-02  0.1244627E-01  0.8274142E-03 -0.2495031E-01
5804333.  0.3805531E-02  0.9363971E+00  0.1957683E-02  0.5922153E-01  0.9496664E-03 -0.2172479E-01
5771000. -0.8689643E-03  0.8389721E+00  0.1543860E-02  0.9720515E-01  0.1054250E-02 -0.1821419E-01
5771000. -0.8689643E-03  0.8390049E+00  0.1543860E-02  0.9720206E-01  0.1054250E-02 -0.1821419E-01
5701000. -0.8356817E-02  0.4881586E+00  0.1560484E-03  0.1460652E+00  0.1210285E-02 -0.9988492E-02
5701000. -0.8356817E-02  0.4068502E+00  0.1560484E-03  0.1174903E+00  0.1210285E-02 -0.7633007E-02
5667333. -0.9973923E-02  0.2117973E+00 -0.4447316E-03  0.1103192E+00  0.1241844E-02 -0.4339845E-02
5633667. -0.1063821E-01  0.4091088E-01 -0.1012659E-02  0.1039547E+00  0.1256018E-02 -0.1002072E-02
5600000. -0.1041880E-01 -0.1214612E+00 -0.1528135E-02  0.8979804E-01  0.1252344E-02  0.2395210E-02
5600000. -0.1041880E-01 -0.1214612E+00 -0.1528135E-02  0.8979804E-01  0.1252344E-02  0.2395210E-02
5563518. -0.9273569E-02 -0.2732312E+00 -0.1980397E-02  0.6702461E-01  0.1228063E-02  0.6081567E-02
5527037. -0.7362158E-02 -0.3871873E+00 -0.2284837E-02  0.3855927E-01  0.1182798E-02  0.9714510E-02
5490556. -0.4929874E-02 -0.4539447E+00 -0.2415875E-02  0.6898634E-02  0.1117021E-02  0.1323661E-01
5454074. -0.2263507E-02 -0.4684734E+00 -0.2362890E-02 -0.2526120E-01  0.1031526E-02  0.1659160E-01
5417593.  0.3345769E-03 -0.4304600E+00 -0.2130716E-02 -0.5526178E-01  0.9274344E-03  0.1972356E-01
5381111.  0.2573780E-02 -0.3441764E+00 -0.1738737E-02 -0.8070538E-01  0.8061704E-03  0.2257985E-01
5344630.  0.4199868E-02 -0.2180411E+00 -0.1218917E-02 -0.9963849E-01  0.6694627E-03  0.2511106E-01
5308148.  0.5016993E-02 -0.6379353E-01 -0.6126940E-03 -0.1107054E+00  0.5192935E-03  0.2727334E-01
5271667.  0.4903538E-02  0.1045149E+00  0.3252495E-04 -0.1132081E+00  0.3578973E-03  0.2902809E-01
5235185.  0.3822069E-02  0.2717636E+00  0.6674639E-03 -0.1071712E+00  0.1876875E-03  0.3034597E-01
5198704.  0.1821916E-02  0.4229880E+00  0.1244875E-02 -0.9328696E-01  0.1123846E-04  0.3120626E-01
5162222. -0.9653529E-03  0.5445681E+00  0.1723237E-02 -0.7282882E-01 -0.1688026E-03  0.3159798E-01
5125741. -0.4336546E-02  0.6253670E+00  0.2069745E-02 -0.4756253E-01 -0.3497382E-03  0.3152138E-01
5089259. -0.8034086E-02  0.6575123E+00  0.2262691E-02 -0.1955215E-01 -0.5289238E-03  0.3098793E-01
5052778. -0.1176571E-01  0.6369826E+00  0.2292657E-02  0.8988577E-02 -0.7037930E-03  0.3001989E-01
5016296. -0.1522841E-01  0.5639168E+00  0.2162914E-02  0.3587711E-01 -0.8719509E-03  0.2864831E-01
4979815. -0.1813128E-01  0.4425016E+00  0.1888754E-02  0.5912422E-01 -0.1031193E-02  0.2691501E-01
4943333. -0.2021862E-01  0.2806466E+00  0.1495932E-02  0.7707845E-01 -0.1179592E-02  0.2486773E-01
4906852. -0.2128896E-01  0.8934835E-01  0.1018459E-02  0.8853529E-01 -0.1315487E-02  0.2255864E-01
4870370. -0.2121080E-01 -0.1181546E+00  0.4957526E-03  0.9280295E-01 -0.1437555E-02  0.2004679E-01
4833889. -0.1993253E-01 -0.3273728E+00 -0.3033821E-04  0.8974578E-01 -0.1544790E-02  0.1738821E-01
4797407. -0.1748635E-01 -0.5236492E+00 -0.5187996E-03  0.7976338E-01 -0.1636518E-02  0.1463931E-01
4760926. -0.1398692E-01 -0.6930939E+00 -0.9322583E-03  0.6373903E-01 -0.1712382E-02  0.1185676E-01
4724444. -0.9622964E-02 -0.8237763E+00 -0.1239693E-02  0.4297317E-01 -0.1772330E-02  0.9087455E-02
4687963. -0.4644922E-02 -0.9063127E+00 -0.1418386E-02  0.1905992E-01 -0.1816565E-02  0.6375606E-02
4651482.  0.6524274E-03 -0.9345924E+00 -0.1455343E-02 -0.6228541E-02 -0.1845526E-02  0.3757931E-02
4615000.  0.5949961E-02 -0.9062364E+00 -0.1347905E-02 -0.3107301E-01 -0.1859837E-02  0.1262786E-02
4578518.  0.1092515E-01 -0.8225372E+00 -0.1103662E-02 -0.5373314E-01 -0.1860262E-02 -0.1089395E-02
4542037.  0.1527362E-01 -0.6885102E+00 -0.7396724E-03 -0.7266509E-01 -0.1847660E-02 -0.3285248E-02
4505556.  0.1872968E-01 -0.5124536E+00 -0.2810020E-03 -0.8662342E-01 -0.1822950E-02 -0.5318327E-02
4469074.  0.2108284E-01 -0.3052866E+00  0.2411555E-03 -0.9472060E-01 -0.1787056E-02 -0.7192111E-02
4432593.  0.2219128E-01 -0.7999888E-01  0.7916686E-03 -0.9649064E-01 -0.1740881E-02 -0.8910462E-02
4396111.  0.2199117E-01  0.1493852E+00  0.1334017E-02 -0.9189088E-01 -0.1685286E-02 -0.1048464E-01
4359630.  0.2049995E-01  0.3686134E+00  0.1832555E-02 -0.8128880E-01 -0.1621050E-02 -0.1193140E-01
4323148.  0.1781506E-01  0.5641314E+00  0.2254925E-02 -0.6543610E-01 -0.1548860E-02 -0.1326459E-01
4286667.  0.1410779E-01  0.7238973E+00  0.2573936E-02 -0.4539008E-01 -0.1469319E-02 -0.1450309E-01
4250185.  0.9611910E-02  0.8381222E+00  0.2769199E-02 -0.2244271E-01 -0.1382909E-02 -0.1566588E-01
4213704.  0.4609856E-02  0.8998299E+00  0.2828165E-02  0.1967966E-02 -0.1290020E-02 -0.1676996E-01
4177222. -0.5854024E-03  0.9051948E+00  0.2746699E-02  0.2635974E-01 -0.1190930E-02 -0.1783362E-01
4140741. -0.5648060E-02  0.8537755E+00  0.2529083E-02  0.4929169E-01 -0.1085827E-02 -0.1887388E-01
4104259. -0.1025996E-01  0.7484528E+00  0.2187478E-02  0.6946012E-01 -0.9747911E-03 -0.1990770E-01
4067778. -0.1412783E-01  0.5951784E+00  0.1741012E-02  0.8575678E-01 -0.8578208E-03 -0.2095036E-01
4031296. -0.1700098E-01  0.4026344E+00  0.1214362E-02  0.9734687E-01 -0.7348052E-03 -0.2202146E-01
3994815. -0.1868451E-01  0.1816365E+00  0.6361912E-03  0.1036925E+00 -0.6055314E-03 -0.2314041E-01
3958333. -0.1905021E-01 -0.5551929E-01  0.3729739E-04  0.1045700E+00 -0.4696640E-03 -0.2432740E-01
3921852. -0.1804282E-01 -0.2957521E+00 -0.5511340E-03  0.1000873E+00 -0.3267372E-03 -0.2561273E-01
3885370. -0.1568229E-01 -0.5259774E+00 -0.1099448E-02  0.9064160E-01 -0.1760897E-03 -0.2702839E-01
3848889. -0.1206211E-01 -0.7337744E+00 -0.1580974E-02  0.7689574E-01 -0.1687277E-04 -0.2861525E-01
3812407. -0.7342778E-02 -0.9081533E+00 -0.1973551E-02  0.5973097E-01  0.1520506E-03 -0.3042655E-01
3775926. -0.1743117E-02 -0.1039966E+01 -0.2260469E-02  0.4017668E-01  0.3321294E-03 -0.3252497E-01
3739444.  0.4472996E-02 -0.1122512E+01 -0.2431255E-02  0.1935913E-01  0.5252368E-03 -0.3498993E-01
3702963.  0.1101031E-01 -0.1151769E+01 -0.2481971E-02 -0.1569658E-02  0.7337293E-03 -0.3791851E-01
3666482.  0.1755884E-01 -0.1126467E+01 -0.2415195E-02 -0.2149804E-01  0.9606008E-03 -0.4143116E-01
3630000.  0.2380980E-01 -0.1048281E+01 -0.2239639E-02 -0.3940244E-01  0.1209599E-02 -0.4567080E-01
3630000.  0.2380980E-01 -0.1048281E+01 -0.2239639E-02 -0.3940244E-01  0.1209599E-02 -0.4567080E-01
3592500.  0.2961814E-01 -0.9173157E+00 -0.1960772E-02 -0.5477143E-01  0.1493508E-02 -0.5097576E-01
3555000.  0.3452199E-01 -0.7423765E+00 -0.1602400E-02 -0.6630825E-01  0.1812027E-02 -0.5747315E-01
3517500.  0.3828993E-01 -0.5331121E+00 -0.1188774E-02 -0.7347602E-01  0.2172975E-02 -0.6544524E-01
3480000.  0.4075262E-01 -0.3008773E+00 -0.7466105E-03 -0.7597461E-01  0.2586041E-02 -0.7524736E-01
3480000.  0.4075262E-01 -0.1767765E+00  0.1367431E-03  0.7435574E-01  0.2586041E-02 -0.2059404E+00
3409422.  0.4042311E-01  0.2237992E+00 -0.7083488E-03  0.7686923E-01  0.5044679E-02 -0.2314823E+00
3338844.  0.3613599E-01  0.5325717E+00 -0.1538650E-02  0.7190092E-01  0.7585367E-02 -0.2220653E+00
3268266.  0.2903781E-01  0.7297958E+00 -0.2279648E-02  0.6105847E-01  0.9868134E-02 -0.1865098E+00
3197688.  0.2038042E-01  0.8154457E+00 -0.2877154E-02  0.4634250E-01  0.1165714E-01 -0.1345434E+00
3127109.  0.1133049E-01  0.8039351E+00 -0.3299723E-02  0.2980598E-01  0.1282294E-01 -0.7544573E-01
3056531.  0.2842361E-02  0.7183047E+00 -0.3537677E-02  0.1329287E-01  0.1333166E-01 -0.1707241E-01
2985953. -0.4407722E-02  0.5848199E+00 -0.3599790E-02 -0.1732834E-02  0.1322581E-01  0.3470938E-01
2915375. -0.1003182E-01  0.4286945E+00 -0.3508548E-02 -0.1426566E-01  0.1260094E-01  0.7618746E-01
2844797. -0.1390158E-01  0.2712161E+00 -0.3294977E-02 -0.2376386E-01  0.1158231E-01  0.1056682E+00
2774219. -0.1609500E-01  0.1281961E+00 -0.2993766E-02 -0.3009606E-01  0.1030428E-01  0.1231327E+00
2703641. -0.1683282E-01  0.9618310E-02 -0.2639179E-02 -0.3345382E-01  0.8894186E-02  0.1297881E+00
2633062. -0.1641601E-01 -0.7988250E-01 -0.2262023E-02 -0.3425226E-01  0.7461369E-02  0.1275995E+00
2562484. -0.1517176E-01 -0.1400176E+00 -0.1887743E-02 -0.3303089E-01  0.6091229E-02  0.1188680E+00
2491906. -0.1341207E-01 -0.1735974E+00 -0.1535515E-02 -0.3036652E-01  0.4843375E-02  0.1058905E+00
2421328. -0.1140643E-01 -0.1852941E+00 -0.1218235E-02 -0.2680800E-01  0.3753164E-02  0.9072058E-01
2350750. -0.9367367E-02 -0.1805554E+00 -0.9430872E-03 -0.2283161E-01  0.2835241E-02  0.7502839E-01
2280172. -0.7446725E-02 -0.1647761E+00 -0.7125095E-03 -0.1881578E-01  0.2088159E-02  0.6004605E-01
2209594. -0.5739616E-02 -0.1427283E+00 -0.5253271E-03 -0.1503419E-01  0.1499224E-02  0.4657754E-01
2139016. -0.4293273E-02 -0.1182517E+00 -0.3778913E-03 -0.1166148E-01  0.1048971E-02  0.3505309E-01
2068438. -0.3118122E-02 -0.9415015E-01 -0.2651061E-03 -0.8787256E-02  0.7148878E-03  0.2560648E-01
1997859. -0.2199053E-02 -0.7224518E-01 -0.1812688E-03 -0.6434312E-02  0.4742312E-03  0.1815903E-01
1927281. -0.1505621E-02 -0.5352021E-01 -0.1207088E-03 -0.4577948E-02  0.3059457E-03  0.1249854E-01
1856703. -0.1000217E-02 -0.3831197E-01 -0.7820547E-04 -0.3163662E-02  0.1917475E-03  0.8344800E-02
1786125. -0.6441789E-03 -0.2650738E-01 -0.4923792E-04 -0.2122087E-02  0.1165957E-03  0.5400116E-02
1715547. -0.4017566E-03 -0.1772137E-01 -0.3008210E-04 -0.1380277E-02  0.6868087E-04  0.3383256E-02
1644969. -0.2422944E-03 -0.1143948E-01 -0.1780460E-04 -0.8694617E-03  0.3912038E-04  0.2049241E-02
1574391. -0.1410566E-03 -0.7121516E-02 -0.1018840E-04 -0.5295901E-03  0.2150115E-04  0.1197901E-02
1503812. -0.7911072E-04 -0.4268100E-02 -0.5623159E-05 -0.3113476E-03  0.1137403E-04  0.6743951E-03
1433234. -0.4265729E-04 -0.2456005E-02 -0.2983895E-05 -0.1763659E-03  0.5773359E-05  0.3648034E-03
1362656. -0.2210080E-04 -0.1349329E-02 -0.1514009E-05 -0.9625893E-04  0.2799989E-05  0.1891772E-03
1292078. -0.1110241E-04 -0.6941063E-03 -0.7226901E-06 -0.5118468E-04  0.1287164E-05  0.9402254E-04
1221500. -0.5765392E-05 -0.2989071E-03 -0.2980399E-06 -0.2851826E-04  0.5470661E-06  0.4528773E-04
1221500. -0.5765392E-05  0.4422695E-03  0.2980692E-06  0.3162531E-04  0.5470661E-06  0.4778532E-04
1183328. -0.7807890E-05  0.2434307E-03  0.1274273E-06  0.2523058E-04  0.3213060E-06  0.2902567E-04
1145156. -0.8740741E-05  0.7365924E-04 -0.3440991E-08  0.1842865E-04  0.1852139E-06  0.1733609E-04
1106984. -0.8766367E-05 -0.5833216E-04 -0.9373006E-07  0.1178992E-04  0.1045983E-06  0.1016584E-04
1068812. -0.8125010E-05 -0.1488115E-03 -0.1462529E-06  0.5913327E-05  0.5774949E-07  0.5842262E-05
1030641. -0.7063277E-05 -0.1993247E-03 -0.1670121E-06  0.1242404E-05  0.3109213E-07  0.3283418E-05
 992469. -0.5804809E-05 -0.2157216E-03 -0.1639661E-06 -0.2020396E-05  0.1627442E-07  0.1799818E-05
 954297. -0.4529545E-05 -0.2064602E-03 -0.1455492E-06 -0.3912124E-05  0.8251468E-08  0.9592909E-06
 916125. -0.3363504E-05 -0.1807782E-03 -0.1193934E-06 -0.4650853E-05  0.4034418E-08  0.4952203E-06
 877953. -0.2379011E-05 -0.1471441E-03 -0.9148922E-07 -0.4551859E-05  0.1891616E-08  0.2464660E-06
 839781. -0.1602626E-05 -0.1122475E-03 -0.6585695E-07 -0.3945279E-05  0.8443772E-09  0.1175659E-06
 801609. -0.1027331E-05 -0.8058415E-04 -0.4464915E-07 -0.3116726E-05  0.3553159E-09  0.5333846E-07
 763438. -0.6256497E-06 -0.5453880E-04 -0.2853045E-07 -0.2274304E-05  0.1389548E-09  0.2278174E-07
 725266. -0.3611303E-06 -0.3479719E-04 -0.1716948E-07 -0.1542756E-05  0.4933134E-10  0.9025562E-08
 687094. -0.1969542E-06 -0.2090210E-04 -0.9712108E-08 -0.9752455E-06  0.1520377E-10  0.3234550E-08
 648922. -0.1010928E-06 -0.1179084E-04 -0.5147955E-08 -0.5744564E-06  0.3627059E-11  0.1001440E-08
 610750. -0.4859427E-07 -0.6222842E-05 -0.2546011E-08 -0.3146461E-06  0.3525836E-12  0.2368419E-09
 572578. -0.2174209E-07 -0.3057277E-05 -0.1168290E-08 -0.1596344E-06 -0.2675600E-12  0.2035299E-10
 534406. -0.8986108E-08 -0.1389111E-05 -0.4938351E-09 -0.7459165E-07 -0.2274768E-12 -0.1955342E-10
 496234. -0.3398489E-08 -0.5788219E-06 -0.1905385E-09 -0.3185201E-07 -0.1139930E-12 -0.1582308E-10
 458062. -0.1162181E-08 -0.2188183E-06 -0.6632784E-10 -0.1230275E-07 -0.4444658E-13 -0.7729594E-11
 419891. -0.3539670E-09 -0.7401857E-07 -0.2052296E-10 -0.4240688E-08 -0.1426919E-13 -0.2922882E-11
 381719. -0.9414318E-10 -0.2200017E-07 -0.5535134E-11 -0.1281387E-08 -0.3804664E-14 -0.8997570E-12
 343547. -0.2130435E-10 -0.5609046E-08 -0.1268053E-11 -0.3314237E-09 -0.8312383E-15 -0.2258789E-12
 305375. -0.3959545E-11 -0.1187053E-08 -0.2382135E-12 -0.7101854E-10 -0.1445038E-15 -0.4527230E-13
 267203. -0.5750924E-12 -0.1991044E-09 -0.3491993E-13 -0.1203986E-10 -0.1904486E-16 -0.6948832E-14
 229031. -0.6068586E-13 -0.2472987E-10 -0.3713955E-14 -0.1508998E-11 -0.1765725E-17 -0.7625764E-15
 190859. -0.4155529E-14 -0.2046732E-11 -0.2559533E-15 -0.1258118E-12 -0.1024607E-18 -0.5290838E-16
 152688.  0.0000000E+00  0.0000000E+00  0.0000000E+00  0.0000000E+00  0.0000000E+00  0.0000000E+00
 114516.  0.0000000E+00  0.0000000E+00  0.0000000E+00  0.0000000E+00  0.0000000E+00  0.0000000E+00
  76344.  0.0000000E+00  0.0000000E+00  0.0000000E+00  0.0000000E+00  0.0000000E+00  0.0000000E+00
  38172.  0.0000000E+00  0.0000000E+00  0.0000000E+00  0.0000000E+00  0.0000000E+00  0.0000000E+00
      0.  0.0000000E+00  0.0000000E+00  0.0000000E+00  0.0000000E+00  0.0000000E+00  0.0000000E+00
