       3       11 S      231        309.39139         11.25075          5.55943        249.89890      185    7
6371000. -0.3347434E-01  0.9550164E+00  0.1788442E-01  0.5135876E-01 -0.4458573E-02  0.1166276E+00
6370000. -0.3362399E-01  0.9518855E+00  0.1787607E-01  0.5511453E-01 -0.4476855E-02  0.1163205E+00
6369000. -0.3377315E-01  0.9486887E+00  0.1786712E-01  0.5886837E-01 -0.4495088E-02  0.1160129E+00
6368000. -0.3392180E-01  0.9454260E+00  0.1785759E-01  0.6262014E-01 -0.4513274E-02  0.1157047E+00
6368000. -0.3392180E-01  0.9454260E+00  0.1785759E-01  0.6262014E-01 -0.4513274E-02  0.1157047E+00
6367000. -0.3406994E-01  0.9420975E+00  0.1784746E-01  0.6636971E-01 -0.4531411E-02  0.1153961E+00
6366000. -0.3421754E-01  0.9387032E+00  0.1783675E-01  0.7011694E-01 -0.4549500E-02  0.1150871E+00
6365000. -0.3436461E-01  0.9352432E+00  0.1782545E-01  0.7386170E-01 -0.4567539E-02  0.1147775E+00
6364000. -0.3451113E-01  0.9317175E+00  0.1781357E-01  0.7760384E-01 -0.4585531E-02  0.1144675E+00
6363000. -0.3465710E-01  0.9281262E+00  0.1780109E-01  0.8134324E-01 -0.4603473E-02  0.1141571E+00
6362000. -0.3480249E-01  0.9244692E+00  0.1778803E-01  0.8507976E-01 -0.4621367E-02  0.1138461E+00
6361000. -0.3494731E-01  0.9207466E+00  0.1777438E-01  0.8881325E-01 -0.4639212E-02  0.1135347E+00
6360000. -0.3509153E-01  0.9169586E+00  0.1776015E-01  0.9254359E-01 -0.4657008E-02  0.1132229E+00
6359000. -0.3523516E-01  0.9131052E+00  0.1774533E-01  0.9627066E-01 -0.4674755E-02  0.1129106E+00
6358000. -0.3537817E-01  0.9091864E+00  0.1772993E-01  0.9999429E-01 -0.4692453E-02  0.1125978E+00
6357000. -0.3552057E-01  0.9052023E+00  0.1771394E-01  0.1037144E+00 -0.4710102E-02  0.1122846E+00
6356000. -0.3566233E-01  0.9011530E+00  0.1769737E-01  0.1074307E+00 -0.4727702E-02  0.1119710E+00
6356000. -0.3566233E-01  0.7995723E+00  0.1769737E-01  0.8604667E-01 -0.4727702E-02  0.1197307E+00
6355000. -0.3578762E-01  0.7967805E+00  0.1768369E-01  0.8827399E-01 -0.4746464E-02  0.1193340E+00
6354000. -0.3591246E-01  0.7939504E+00  0.1766966E-01  0.9049924E-01 -0.4765164E-02  0.1189370E+00
6353000. -0.3603685E-01  0.7910822E+00  0.1765528E-01  0.9272236E-01 -0.4783801E-02  0.1185399E+00
6352000. -0.3616079E-01  0.7881758E+00  0.1764055E-01  0.9494330E-01 -0.4802376E-02  0.1181425E+00
6351000. -0.3628428E-01  0.7852312E+00  0.1762547E-01  0.9716200E-01 -0.4820888E-02  0.1177449E+00
6350000. -0.3640729E-01  0.7822484E+00  0.1761005E-01  0.9937843E-01 -0.4839339E-02  0.1173470E+00
6349000. -0.3652984E-01  0.7792277E+00  0.1759428E-01  0.1015925E+00 -0.4857726E-02  0.1169490E+00
6348000. -0.3665191E-01  0.7761689E+00  0.1757816E-01  0.1038042E+00 -0.4876052E-02  0.1165507E+00
6347000. -0.3677350E-01  0.7730721E+00  0.1756169E-01  0.1060135E+00 -0.4894314E-02  0.1161522E+00
6346600. -0.3682199E-01  0.7718228E+00  0.1755501E-01  0.1068965E+00 -0.4901602E-02  0.1159928E+00
6346600. -0.3682199E-01  0.9264523E+00  0.1755501E-01  0.8990302E-01 -0.4901602E-02  0.1288321E+00
6318800. -0.4072463E-01  0.8586034E+00  0.1707437E-01  0.1301372E+00 -0.5437862E-02  0.1169612E+00
6291000. -0.4428284E-01  0.7686306E+00  0.1642193E-01  0.1685629E+00 -0.5922335E-02  0.1050955E+00
6291000. -0.4428284E-01  0.8007299E+00  0.1642193E-01  0.1730006E+00 -0.5922335E-02  0.1050955E+00
6263000. -0.4755367E-01  0.6839170E+00  0.1557559E-01  0.2116732E+00 -0.6358710E-02  0.9348387E-01
6235000. -0.5026120E-01  0.5445651E+00  0.1456589E-01  0.2472514E+00 -0.6744015E-02  0.8185410E-01
6207000. -0.5230915E-01  0.3840098E+00  0.1340757E-01  0.2792257E+00 -0.7078151E-02  0.7019569E-01
6179000. -0.5360799E-01  0.2039793E+00  0.1211750E-01  0.3071371E+00 -0.7360964E-02  0.5849623E-01
6151000. -0.5407665E-01  0.6597896E-02  0.1071444E-01  0.3305815E+00 -0.7592245E-02  0.4674323E-01
6151000. -0.5407665E-01  0.1297697E+00  0.1071444E-01  0.2978602E+00 -0.7592245E-02  0.4973505E-01
6128500. -0.5431231E-01  0.3042729E-02  0.9643325E-02  0.3082721E+00 -0.7753753E-02  0.4175026E-01
6106000. -0.5409362E-01 -0.1273485E+00  0.8540218E-02  0.3159798E+00 -0.7887293E-02  0.3389781E-01
6083500. -0.5340966E-01 -0.2602682E+00  0.7414640E-02  0.3210021E+00 -0.7993347E-02  0.2618563E-01
6061000. -0.5225351E-01 -0.3945825E+00  0.6276016E-02  0.3233773E+00 -0.8072424E-02  0.1862222E-01
6038500. -0.5062221E-01 -0.5291718E+00  0.5133590E-02  0.3231663E+00 -0.8125063E-02  0.1121411E-01
6016000. -0.4851676E-01 -0.6629243E+00  0.3996360E-02  0.3204491E+00 -0.8151822E-02  0.3967165E-02
5993500. -0.4594205E-01 -0.7947555E+00  0.2873015E-02  0.3153209E+00 -0.8153281E-02 -0.3112472E-02
5971000. -0.4290671E-01 -0.9236245E+00  0.1771872E-02  0.3078959E+00 -0.8130039E-02 -0.1002095E-01
5971000. -0.4290671E-01 -0.8246071E+00  0.1771872E-02  0.2792278E+00 -0.8130039E-02 -0.4404099E-02
5937667. -0.3822871E-01 -0.9610526E+00  0.3641395E-03  0.2584752E+00 -0.8084459E-02 -0.1291491E-01
5904333. -0.3287759E-01 -0.1081711E+01 -0.9291258E-03  0.2355870E+00 -0.7996009E-02 -0.2078742E-01
5871000. -0.2693813E-01 -0.1185936E+01 -0.2098640E-02  0.2112989E+00 -0.7868081E-02 -0.2800445E-01
5837667. -0.2049695E-01 -0.1273483E+01 -0.3138833E-02  0.1862516E+00 -0.7704126E-02 -0.3455883E-01
5804333. -0.1364099E-01 -0.1344451E+01 -0.4047241E-02  0.1609961E+00 -0.7507604E-02 -0.4045261E-01
5771000. -0.6456570E-02 -0.1399198E+01 -0.4823971E-02  0.1359967E+00 -0.7281962E-02 -0.4569476E-01
5771000. -0.6456570E-02 -0.1399249E+01 -0.4823971E-02  0.1359923E+00 -0.7281962E-02 -0.4569476E-01
5701000.  0.9765272E-02 -0.1543124E+01 -0.6080016E-02  0.9219772E-01 -0.6724097E-02 -0.5560152E-01
5701000.  0.9765272E-02 -0.1316951E+01 -0.6080016E-02  0.6898373E-01 -0.6724097E-02 -0.5835400E-01
5667333.  0.1657315E-01 -0.1273075E+01 -0.6382660E-02  0.4763031E-01 -0.6413450E-02 -0.5897787E-01
5633667.  0.2334740E-01 -0.1295372E+01 -0.6598973E-02  0.3476607E-01 -0.6101781E-02 -0.5897537E-01
5600000.  0.3023591E-01 -0.1309159E+01 -0.6749227E-02  0.2206170E-01 -0.5790391E-02 -0.5883875E-01
5600000.  0.3023591E-01 -0.1309159E+01 -0.6749227E-02  0.2206170E-01 -0.5790391E-02 -0.5883875E-01
5563518.  0.3775209E-01 -0.1314395E+01 -0.6837105E-02  0.8709796E-02 -0.5454399E-02 -0.5847830E-01
5527037.  0.4526990E-01 -0.1309835E+01 -0.6849980E-02 -0.4117668E-02 -0.5121062E-02 -0.5791650E-01
5490556.  0.5273408E-01 -0.1295700E+01 -0.6791128E-02 -0.1632869E-01 -0.4791481E-02 -0.5716970E-01
5454074.  0.6009068E-01 -0.1272251E+01 -0.6664305E-02 -0.2784373E-01 -0.4466650E-02 -0.5625668E-01
5417593.  0.6728730E-01 -0.1239973E+01 -0.6473732E-02 -0.3858547E-01 -0.4147513E-02 -0.5518615E-01
5381111.  0.7427496E-01 -0.1199264E+01 -0.6223991E-02 -0.4849935E-01 -0.3834900E-02 -0.5397872E-01
5344630.  0.8100638E-01 -0.1150636E+01 -0.5919976E-02 -0.5753696E-01 -0.3529559E-02 -0.5265047E-01
5308148.  0.8743829E-01 -0.1094682E+01 -0.5566803E-02 -0.6566082E-01 -0.3232145E-02 -0.5121035E-01
5271667.  0.9352987E-01 -0.1031925E+01 -0.5169788E-02 -0.7285052E-01 -0.2943236E-02 -0.4968637E-01
5235185.  0.9924438E-01 -0.9630347E+00 -0.4734311E-02 -0.7908839E-01 -0.2663269E-02 -0.4808467E-01
5198704.  0.1045483E+00 -0.8886623E+00 -0.4265868E-02 -0.8437021E-01 -0.2392677E-02 -0.4641953E-01
5162222.  0.1094122E+00 -0.8094099E+00 -0.3769877E-02 -0.8870646E-01 -0.2131716E-02 -0.4472056E-01
5125741.  0.1138099E+00 -0.7260076E+00 -0.3251762E-02 -0.9210487E-01 -0.1880593E-02 -0.4298643E-01
5089259.  0.1177199E+00 -0.6391088E+00 -0.2716803E-02 -0.9458974E-01 -0.1639447E-02 -0.4123783E-01
5052778.  0.1211237E+00 -0.5493773E+00 -0.2170171E-02 -0.9619203E-01 -0.1408309E-02 -0.3949472E-01
5016296.  0.1240073E+00 -0.4574907E+00 -0.1616804E-02 -0.9694310E-01 -0.1187127E-02 -0.3776003E-01
4979815.  0.1263601E+00 -0.3640917E+00 -0.1061484E-02 -0.9688746E-01 -0.9758077E-03 -0.3605578E-01
4943333.  0.1281752E+00 -0.2698108E+00 -0.5086691E-03 -0.9606978E-01 -0.7741223E-03 -0.3439338E-01
4906852.  0.1294495E+00 -0.1752636E+00  0.3737525E-04 -0.9453700E-01 -0.5818396E-03 -0.3277665E-01
4870370.  0.1301830E+00 -0.8102696E-01  0.5727509E-03 -0.9234769E-01 -0.3986086E-03 -0.3123275E-01
4833889.  0.1303791E+00  0.1234400E-01  0.1093818E-02 -0.8955276E-01 -0.2240152E-03 -0.2976074E-01
4797407.  0.1300442E+00  0.1043383E+00  0.1597290E-02 -0.8620793E-01 -0.5762648E-04 -0.2836990E-01
4760926.  0.1291878E+00  0.1944534E+00  0.2080183E-02 -0.8237950E-01  0.1011012E-03 -0.2708761E-01
4724444.  0.1278217E+00  0.2822699E+00  0.2539898E-02 -0.7811689E-01  0.2527733E-03 -0.2590388E-01
4687963.  0.1259603E+00  0.3673683E+00  0.2974096E-02 -0.7348184E-01  0.3979871E-03 -0.2483751E-01
4651482.  0.1236204E+00  0.4493756E+00  0.3380835E-02 -0.6853527E-01  0.5374731E-03 -0.2390335E-01
4615000.  0.1208204E+00  0.5279964E+00  0.3758483E-02 -0.6332620E-01  0.6719783E-03 -0.2309781E-01
4578518.  0.1175806E+00  0.6029217E+00  0.4105696E-02 -0.5791482E-01  0.8022886E-03 -0.2244147E-01
4542037.  0.1139231E+00  0.6739176E+00  0.4421457E-02 -0.5235175E-01  0.9292856E-03 -0.2194116E-01
4505556.  0.1098707E+00  0.7408091E+00  0.4705030E-02 -0.4668052E-01  0.1053858E-02 -0.2159762E-01
4469074.  0.1054474E+00  0.8033902E+00  0.4955962E-02 -0.4095643E-01  0.1176985E-02 -0.2143753E-01
4432593.  0.1006785E+00  0.8615795E+00  0.5174044E-02 -0.3521429E-01  0.1299711E-02 -0.2145804E-01
4396111.  0.9558893E-01  0.9152945E+00  0.5359285E-02 -0.2949165E-01  0.1423095E-02 -0.2167037E-01
4359630.  0.9020504E-01  0.9644347E+00  0.5511916E-02 -0.2383106E-01  0.1548303E-02 -0.2209773E-01
4323148.  0.8455262E-01  0.1009044E+01  0.5632362E-02 -0.1825266E-01  0.1676575E-02 -0.2274070E-01
4286667.  0.7865793E-01  0.1049101E+01  0.5721166E-02 -0.1278537E-01  0.1809186E-02 -0.2361811E-01
4250185.  0.7254671E-01  0.1084628E+01  0.5779041E-02 -0.7451369E-02  0.1947543E-02 -0.2474859E-01
4213704.  0.6624495E-01  0.1115725E+01  0.5806773E-02 -0.2259297E-02  0.2093117E-02 -0.2614279E-01
4177222.  0.5977757E-01  0.1142418E+01  0.5805218E-02  0.2775881E-02  0.2247494E-02 -0.2782661E-01
4140741.  0.5316990E-01  0.1164815E+01  0.5775288E-02  0.7652482E-02  0.2412389E-02 -0.2982034E-01
4104259.  0.4644577E-01  0.1183037E+01  0.5717868E-02  0.1237728E-01  0.2589636E-02 -0.3214423E-01
4067778.  0.3962942E-01  0.1197105E+01  0.5633831E-02  0.1695119E-01  0.2781221E-02 -0.3483545E-01
4031296.  0.3274385E-01  0.1207172E+01  0.5523983E-02  0.2139598E-01  0.2989334E-02 -0.3791990E-01
3994815.  0.2581206E-01  0.1213312E+01  0.5388999E-02  0.2573513E-01  0.3216313E-02 -0.4143411E-01
3958333.  0.1885623E-01  0.1215514E+01  0.5229411E-02  0.2999443E-01  0.3464763E-02 -0.4542445E-01
3921852.  0.1189900E-01  0.1213873E+01  0.5045562E-02  0.3421808E-01  0.3737521E-02 -0.4993481E-01
3885370.  0.4962095E-02  0.1208332E+01  0.4837512E-02  0.3845380E-01  0.4037735E-02 -0.5502121E-01
3848889. -0.1931485E-02  0.1198794E+01  0.4605045E-02  0.4275928E-01  0.4368863E-02 -0.6074631E-01
3812407. -0.8759018E-02  0.1185164E+01  0.4347542E-02  0.4720889E-01  0.4734780E-02 -0.6718173E-01
3775926. -0.1549589E-01  0.1167138E+01  0.4063962E-02  0.5188514E-01  0.5139761E-02 -0.7440822E-01
3739444. -0.2211638E-01  0.1144392E+01  0.3752712E-02  0.5688889E-01  0.5588622E-02 -0.8252118E-01
3702963. -0.2859192E-01  0.1116473E+01  0.3411600E-02  0.6233939E-01  0.6086722E-02 -0.9162898E-01
3666482. -0.3489104E-01  0.1082642E+01  0.3037676E-02  0.6837466E-01  0.6640100E-02 -0.1018509E+00
3630000. -0.4097786E-01  0.1042111E+01  0.2627122E-02  0.7515872E-01  0.7255565E-02 -0.1133347E+00
3630000. -0.4097786E-01  0.1042111E+01  0.2627122E-02  0.7515872E-01  0.7255565E-02 -0.1133347E+00
3592500. -0.4696936E-01  0.9922352E+00  0.2161863E-02  0.8311544E-01  0.7960975E-02 -0.1266202E+00
3555000. -0.5263915E-01  0.9325155E+00  0.1646248E-02  0.9231339E-01  0.8749492E-02 -0.1416105E+00
3517500. -0.5792396E-01  0.8610616E+00  0.1072135E-02  0.1030456E+00  0.9631850E-02 -0.1585494E+00
3480000. -0.6274766E-01  0.7753750E+00  0.4294950E-03  0.1156614E+00  0.1062029E-01 -0.1777049E+00
3480000. -0.6274766E-01 -0.6282372E+00 -0.7915498E-02 -0.1002501E+00  0.1062029E-01  0.2352588E-01
3409422. -0.5585387E-01 -0.6137860E+00 -0.6853220E-02 -0.9148615E-01  0.1017561E-01  0.5452634E-01
3338844. -0.4919745E-01 -0.5860836E+00 -0.5888988E-02 -0.8259579E-01  0.9455713E-02  0.7372686E-01
3268266. -0.4290317E-01 -0.5489983E+00 -0.5022789E-02 -0.7382224E-01  0.8575185E-02  0.8395457E-01
3197688. -0.3705634E-01 -0.5057987E+00 -0.4252256E-02 -0.6535165E-01  0.7620092E-02  0.8753864E-01
3127109. -0.3170914E-01 -0.4591882E+00 -0.3573209E-02 -0.5732340E-01  0.6653167E-02  0.8637006E-01
3056531. -0.2688699E-01 -0.4113412E+00 -0.2980188E-02 -0.4983549E-01  0.5718393E-02  0.8195948E-01
2985953. -0.2259370E-01 -0.3639546E+00 -0.2466826E-02 -0.4294962E-01  0.4844833E-02  0.7549192E-01
2915375. -0.1881673E-01 -0.3183084E+00 -0.2026250E-02 -0.3669799E-01  0.4050004E-02  0.6787648E-01
2844797. -0.1553141E-01 -0.2753205E+00 -0.1651367E-02 -0.3108946E-01  0.3342666E-02  0.5979291E-01
2774219. -0.1270461E-01 -0.2356048E+00 -0.1335092E-02 -0.2611391E-01  0.2725125E-02  0.5173286E-01
2703641. -0.1029790E-01 -0.1995231E+00 -0.1070540E-02 -0.2174656E-01  0.2195115E-02  0.4403618E-01
2633062. -0.8269922E-02 -0.1672349E+00 -0.8511549E-03 -0.1795235E-01  0.1747290E-02  0.3692221E-01
2562484. -0.6578579E-02 -0.1387423E+00 -0.6708218E-03 -0.1468934E-01  0.1374431E-02  0.3051767E-01
2491906. -0.5182359E-02 -0.1139259E+00 -0.5239083E-03 -0.1191080E-01  0.1068306E-02  0.2487868E-01
2421328. -0.4041608E-02 -0.9258075E-01 -0.4053165E-03 -0.9568067E-02  0.8203694E-03  0.2000999E-01
2350750. -0.3119291E-02 -0.7444292E-01 -0.3104887E-03 -0.7612452E-02  0.6222319E-03  0.1588055E-01
2280172. -0.2381508E-02 -0.5921344E-01 -0.2354015E-03 -0.5996342E-02  0.4659894E-03  0.1243584E-01
2209594. -0.1797781E-02 -0.4657698E-01 -0.1765475E-03 -0.4674448E-02  0.3444264E-03  0.9607485E-02
2139016. -0.1341145E-02 -0.3621636E-01 -0.1309043E-03 -0.3604545E-02  0.2511259E-03  0.7320681E-02
2068438. -0.9881050E-03 -0.2782388E-01 -0.9589783E-04 -0.2747978E-02  0.1805099E-03  0.5499603E-02
1997859. -0.7184821E-03 -0.2110918E-01 -0.6936100E-04 -0.2069909E-02  0.1278263E-03  0.4071274E-02
1927281. -0.5151998E-03 -0.1580513E-01 -0.4949197E-04 -0.1539430E-02  0.8910590E-04  0.2968133E-02
1856703. -0.3639880E-03 -0.1167063E-01 -0.3480868E-04 -0.1129495E-02  0.6108872E-04  0.2129438E-02
1786125. -0.2530970E-03 -0.8492529E-02 -0.2410829E-04 -0.8167739E-03  0.4114659E-04  0.1502079E-02
1715547. -0.1729822E-03 -0.6085844E-02 -0.1642701E-04 -0.5813937E-03  0.2719672E-04  0.1040679E-02
1644969. -0.1159948E-03 -0.4293172E-02 -0.1100340E-04 -0.4066385E-03  0.1761739E-04  0.7073027E-03
1574391. -0.7608167E-04 -0.2983636E-02 -0.7245435E-05 -0.2785645E-03  0.1116837E-04  0.4708995E-03
1503812. -0.4849619E-04 -0.2052130E-02 -0.4702253E-05 -0.1855459E-03  0.6918603E-05  0.3065665E-03
1433234. -0.2951214E-04 -0.1420089E-02 -0.3041677E-05 -0.1176760E-03  0.4182615E-05  0.1947602E-03
1362656. -0.1610645E-04 -0.1040359E-02 -0.2035873E-05 -0.6579481E-04  0.2465352E-05  0.1204915E-03
1292078. -0.5539511E-05 -0.9132497E-03 -0.1562267E-05 -0.1962012E-04  0.1415852E-05  0.7264410E-04
1221500.  0.5380491E-05 -0.1132020E-02 -0.1636405E-05  0.3658605E-04  0.7871072E-06  0.4352656E-04
1221500.  0.5380491E-05 -0.1246357E-04 -0.1850640E-07 -0.2815965E-04  0.7871072E-06  0.4119572E-04
1183328.  0.5215030E-05  0.6091653E-04  0.1077028E-06 -0.1484312E-04  0.5716688E-06  0.3111681E-04
1145156.  0.4718911E-05  0.9995212E-04  0.1684015E-06 -0.6064316E-05  0.4098899E-06  0.2321422E-04
1106984.  0.4064105E-05  0.1154599E-03  0.1869700E-06 -0.5986121E-06  0.2899322E-06  0.1709550E-04
1068812.  0.3365714E-05  0.1156851E-03  0.1802472E-06  0.2519373E-05  0.2021565E-06  0.1241901E-04
1030641.  0.2696037E-05  0.1067446E-03  0.1599677E-06  0.4034653E-05  0.1388216E-06  0.8892896E-05
 992469.  0.2096043E-05  0.9302638E-04  0.1339688E-06  0.4508362E-05  0.9379026E-07  0.6271382E-05
 954297.  0.1584729E-05  0.7754856E-04  0.1071946E-06  0.4351014E-05  0.6227295E-07  0.4351256E-05
 916125.  0.1166315E-05  0.6226934E-04  0.8250375E-07  0.3852781E-05  0.4058096E-07  0.2966917E-05
 877953.  0.8357879E-06  0.4835152E-04  0.6130926E-07  0.3210102E-05  0.2591735E-07  0.1985489E-05
 839781.  0.5829927E-06  0.3638233E-04  0.4407163E-07  0.2547961E-05  0.1619497E-07  0.1302126E-05
 801609.  0.3955231E-06  0.2655230E-04  0.3066710E-07  0.1939282E-05  0.9882396E-08  0.8354466E-06
 763438.  0.2606658E-06  0.1879516E-04  0.2065265E-07  0.1420082E-05  0.5876103E-08  0.5233717E-06
 725266.  0.1665893E-06  0.1289440E-04  0.1344741E-07  0.1001896E-05  0.3395841E-08  0.3193892E-06
 687094.  0.1030170E-06  0.8561911E-05  0.8451723E-08  0.6810581E-06  0.1901764E-08  0.1893634E-06
 648922.  0.6147152E-07  0.5491339E-05  0.5115381E-08  0.4456025E-06  0.1028511E-08  0.1087345E-06
 610750.  0.3527481E-07  0.3392726E-05  0.2972325E-08  0.2800554E-06  0.5349592E-09  0.6024472E-07
 572578.  0.1938493E-07  0.2012184E-05  0.1651543E-08  0.1685708E-06  0.2662923E-09  0.3206393E-07
 534406.  0.1014923E-07  0.1140554E-05  0.8731781E-09  0.9678579E-07  0.1261089E-09  0.1630499E-07
 496234.  0.5030294E-08  0.6144274E-06  0.4365403E-09  0.5272739E-07  0.5640675E-10  0.7869877E-08
 458062.  0.2341344E-08  0.3123637E-06  0.2047512E-09  0.2706991E-07  0.2361578E-10  0.3576085E-08
 419891.  0.1013076E-08  0.1485114E-06  0.8919424E-10  0.1298138E-07  0.9150234E-11  0.1514136E-08
 381719.  0.4021805E-09  0.6525667E-07  0.3561603E-10  0.5747394E-08  0.3233253E-11  0.5894469E-09
 343547.  0.1440147E-09  0.2609476E-07  0.1281585E-10  0.2311449E-08  0.1022224E-11  0.2072122E-09
 305375.  0.0000000E+00  0.0000000E+00  0.0000000E+00  0.0000000E+00  0.0000000E+00  0.0000000E+00
 267203.  0.0000000E+00  0.0000000E+00  0.0000000E+00  0.0000000E+00  0.0000000E+00  0.0000000E+00
 229031.  0.0000000E+00  0.0000000E+00  0.0000000E+00  0.0000000E+00  0.0000000E+00  0.0000000E+00
 190859.  0.0000000E+00  0.0000000E+00  0.0000000E+00  0.0000000E+00  0.0000000E+00  0.0000000E+00
 152688.  0.0000000E+00  0.0000000E+00  0.0000000E+00  0.0000000E+00  0.0000000E+00  0.0000000E+00
 114516.  0.0000000E+00  0.0000000E+00  0.0000000E+00  0.0000000E+00  0.0000000E+00  0.0000000E+00
  76344.  0.0000000E+00  0.0000000E+00  0.0000000E+00  0.0000000E+00  0.0000000E+00  0.0000000E+00
  38172.  0.0000000E+00  0.0000000E+00  0.0000000E+00  0.0000000E+00  0.0000000E+00  0.0000000E+00
      0.  0.0000000E+00  0.0000000E+00  0.0000000E+00  0.0000000E+00  0.0000000E+00  0.0000000E+00
