      26        4 S      740        100.72060         88.31951         20.76009        123.23790      185    7
6371000.  0.2269076E-01 -0.2757568E-01 -0.1239670E-02 -0.2393043E-01 -0.1465994E-04 -0.4271617E-01
6370000.  0.2269377E-01 -0.1076781E-01 -0.1235678E-02 -0.2694232E-01 -0.7955226E-05 -0.4271446E-01
6369000.  0.2269414E-01  0.6053158E-02 -0.1231213E-02 -0.2993884E-01 -0.1251169E-05 -0.4270781E-01
6368000.  0.2269187E-01  0.2288524E-01 -0.1226280E-02 -0.3291887E-01  0.5451457E-05 -0.4269623E-01
6368000.  0.2269187E-01  0.2288524E-01 -0.1226280E-02 -0.3291887E-01  0.5451457E-05 -0.4269623E-01
6367000.  0.2268696E-01  0.3972646E-01 -0.1220880E-02 -0.3588123E-01  0.1215188E-04 -0.4267971E-01
6366000.  0.2267940E-01  0.5657482E-01 -0.1215017E-02 -0.3882481E-01  0.1884932E-04 -0.4265826E-01
6365000.  0.2266920E-01  0.7342835E-01 -0.1208693E-02 -0.4174847E-01  0.2554301E-04 -0.4263187E-01
6364000.  0.2265635E-01  0.9028503E-01 -0.1201913E-02 -0.4465109E-01  0.3223216E-04 -0.4260055E-01
6363000.  0.2264085E-01  0.1071429E+00 -0.1194678E-02 -0.4753156E-01  0.3891602E-04 -0.4256431E-01
6362000.  0.2262271E-01  0.1239999E+00 -0.1186992E-02 -0.5038878E-01  0.4559380E-04 -0.4252313E-01
6361000.  0.2260193E-01  0.1408541E+00 -0.1178861E-02 -0.5322164E-01  0.5226473E-04 -0.4247703E-01
6360000.  0.2257850E-01  0.1577034E+00 -0.1170286E-02 -0.5602907E-01  0.5892804E-04 -0.4242601E-01
6359000.  0.2255242E-01  0.1745459E+00 -0.1161273E-02 -0.5880999E-01  0.6558294E-04 -0.4237007E-01
6358000.  0.2252370E-01  0.1913795E+00 -0.1151826E-02 -0.6156334E-01  0.7222869E-04 -0.4230922E-01
6357000.  0.2249234E-01  0.2082023E+00 -0.1141949E-02 -0.6428805E-01  0.7886450E-04 -0.4224346E-01
6356000.  0.2245834E-01  0.2250122E+00 -0.1131646E-02 -0.6698310E-01  0.8548961E-04 -0.4217281E-01
6356000.  0.2245834E-01  0.1408577E+00 -0.1131646E-02 -0.4980395E-01  0.8548961E-04 -0.4705948E-01
6355000.  0.2243528E-01  0.1530619E+00 -0.1123687E-02 -0.5160195E-01  0.9287180E-04 -0.4700372E-01
6354000.  0.2241030E-01  0.1652609E+00 -0.1115448E-02 -0.5338340E-01  0.1002449E-03 -0.4694401E-01
6353000.  0.2238340E-01  0.1774535E+00 -0.1106930E-02 -0.5514782E-01  0.1076084E-03 -0.4688035E-01
6352000.  0.2235459E-01  0.1896388E+00 -0.1098137E-02 -0.5689477E-01  0.1149615E-03 -0.4681274E-01
6351000.  0.2232387E-01  0.2018156E+00 -0.1089070E-02 -0.5862379E-01  0.1223037E-03 -0.4674118E-01
6350000.  0.2229124E-01  0.2139830E+00 -0.1079734E-02 -0.6033445E-01  0.1296344E-03 -0.4666569E-01
6349000.  0.2225669E-01  0.2261397E+00 -0.1070131E-02 -0.6202630E-01  0.1369529E-03 -0.4658627E-01
6348000.  0.2222024E-01  0.2382848E+00 -0.1060264E-02 -0.6369890E-01  0.1442587E-03 -0.4650292E-01
6347000.  0.2218189E-01  0.2504172E+00 -0.1050136E-02 -0.6535183E-01  0.1515510E-03 -0.4641565E-01
6346600.  0.2216602E-01  0.2552663E+00 -0.1046012E-02 -0.6600739E-01  0.1544641E-03 -0.4637964E-01
6346600.  0.2216602E-01  0.1450200E+00 -0.1046012E-02 -0.5213394E-01  0.1544641E-03 -0.5410860E-01
6318800.  0.2100346E-01  0.3870758E+00 -0.7490678E-03 -0.8181485E-01  0.3847780E-03 -0.5103749E-01
6291000.  0.1880366E-01  0.6183521E+00 -0.3536372E-03 -0.9670787E-01  0.5963162E-03 -0.4552669E-01
6291000.  0.1880366E-01  0.6261972E+00 -0.3536372E-03 -0.9926071E-01  0.5963162E-03 -0.4552669E-01
6263000.  0.1557431E-01  0.8382620E+00  0.8400878E-04 -0.9684129E-01  0.7798098E-03 -0.3761687E-01
6235000.  0.1148959E-01  0.1013451E+01  0.4718824E-03 -0.7697802E-01  0.9240744E-03 -0.2773959E-01
6207000.  0.6736686E-02  0.1140648E+01  0.7402089E-03 -0.4325142E-01  0.1021396E-02 -0.1633625E-01
6179000.  0.1546896E-02  0.1211017E+01  0.8402851E-03 -0.1535684E-02  0.1066209E-02 -0.3939861E-02
6151000. -0.3815900E-02  0.1218673E+01  0.7525486E-03  0.4096564E-01  0.1055451E-02  0.8848006E-02
6151000. -0.3815900E-02  0.9847411E+00  0.7525486E-03  0.3659925E-01  0.1055451E-02  0.9059122E-02
6128500. -0.7211426E-02  0.9338146E+00  0.5759600E-03  0.6253550E-01  0.1008652E-02  0.1738520E-01
6106000. -0.1038202E-01  0.8577977E+00  0.3183815E-03  0.8209145E-01  0.9331933E-03  0.2525475E-01
6083500. -0.1324414E-01  0.7596778E+00  0.5884388E-05  0.9338621E-01  0.8310472E-03  0.3246640E-01
6061000. -0.1572589E-01  0.6430080E+00 -0.3301986E-03  0.9534081E-01  0.7048624E-03  0.3884002E-01
6038500. -0.1776864E-01  0.5117568E+00 -0.6562686E-03  0.8775718E-01  0.5578809E-03  0.4422015E-01
6016000. -0.1932829E-01  0.3701341E+00 -0.9395881E-03  0.7131350E-01  0.3938450E-03  0.4847943E-01
5993500. -0.2037580E-01  0.2224323E+00 -0.1151251E-02  0.4748176E-01  0.2168927E-03  0.5152134E-01
5971000. -0.2089719E-01  0.7287512E-01 -0.1268742E-02  0.1837939E-01  0.3144759E-04  0.5328086E-01
5971000. -0.2089719E-01  0.6648112E-01 -0.1268742E-02  0.1866186E-01  0.3144759E-04  0.5601648E-01
5937667. -0.2070677E-01 -0.1358800E+00 -0.1253686E-02 -0.2424211E-01 -0.2642246E-03  0.5653377E-01
5904333. -0.1951759E-01 -0.3140877E+00 -0.1023096E-02 -0.6259889E-01 -0.5553060E-03  0.5428949E-01
5871000. -0.1747251E-01 -0.4623407E+00 -0.6167730E-03 -0.9064121E-01 -0.8279198E-03  0.4952683E-01
5837667. -0.1473746E-01 -0.5775148E+00 -0.9877734E-04 -0.1049203E+00 -0.1069746E-02  0.4258318E-01
5804333. -0.1148857E-01 -0.6587414E+00  0.4552818E-03 -0.1044541E+00 -0.1270415E-02  0.3386351E-01
5771000. -0.7901983E-02 -0.7069176E+00  0.9705817E-03 -0.9047658E-01 -0.1421784E-02  0.2381690E-01
5771000. -0.7901983E-02 -0.7069254E+00  0.9705817E-03 -0.9047331E-01 -0.1421784E-02  0.2381690E-01
5701000.  0.2682545E-03 -0.7589579E+00  0.1691252E-02 -0.3434477E-01 -0.1553155E-02 -0.2934627E-03
5701000.  0.2682545E-03 -0.6262520E+00  0.1691252E-02 -0.2683411E-01 -0.1553155E-02 -0.3690740E-03
5667333.  0.3408318E-02 -0.5681429E+00  0.1746999E-02  0.4730394E-02 -0.1523242E-02 -0.1080203E-01
5633667.  0.6322934E-02 -0.5353577E+00  0.1645677E-02  0.3343028E-01 -0.1440037E-02 -0.2061652E-01
5600000.  0.9032635E-02 -0.4871997E+00  0.1399921E-02  0.5872111E-01 -0.1306427E-02 -0.2981443E-01
5600000.  0.9032635E-02 -0.4871997E+00  0.1399921E-02  0.5872111E-01 -0.1306427E-02 -0.2981443E-01
5563518.  0.1163591E-01 -0.4195672E+00  0.1000438E-02  0.7944172E-01 -0.1109662E-02 -0.3869290E-01
5527037.  0.1381159E-01 -0.3382895E+00  0.5075820E-03  0.9105685E-01 -0.8660906E-03 -0.4611272E-01
5490556.  0.1548894E-01 -0.2459588E+00 -0.2283672E-04  0.9248271E-01 -0.5848890E-03 -0.5179577E-01
5454074.  0.1661262E-01 -0.1453907E+00 -0.5323275E-03  0.8387268E-01 -0.2766227E-03 -0.5553402E-01
5417593.  0.1714414E-01 -0.3965920E-01 -0.9667509E-03  0.6658242E-01  0.4713000E-04 -0.5719193E-01
5381111.  0.1706309E-01  0.6800867E-01 -0.1282655E-02  0.4292561E-01  0.3742828E-03 -0.5671623E-01
5344630.  0.1636812E-01  0.1741915E+00 -0.1451888E-02  0.1589156E-01  0.6926344E-03 -0.5413125E-01
5308148.  0.1507767E-01  0.2753952E+00 -0.1464459E-02 -0.1124565E-01  0.9903702E-03 -0.4953565E-01
5271667.  0.1323055E-01  0.3680484E+00 -0.1328968E-02 -0.3532571E-01  0.1256425E-02 -0.4310296E-01
5235185.  0.1088546E-01  0.4487608E+00 -0.1070891E-02 -0.5367098E-01  0.1480934E-02 -0.3506564E-01
5198704.  0.8120025E-02  0.5143830E+00 -0.7289362E-03 -0.6438575E-01  0.1655494E-02 -0.2571130E-01
5162222.  0.5028807E-02  0.5621078E+00 -0.3499167E-03 -0.6654763E-01  0.1773504E-02 -0.1537075E-01
5125741.  0.1720739E-02  0.5898641E+00  0.1707751E-04 -0.6030005E-01  0.1830329E-02 -0.4403562E-02
5089259. -0.1685596E-02  0.5962204E+00  0.3267288E-03 -0.4678193E-01  0.1823456E-02  0.6813827E-02
5052778. -0.5065328E-02  0.5805961E+00  0.5427061E-03 -0.2797299E-01  0.1752548E-02  0.1789938E-01
5016296. -0.8293602E-02  0.5434334E+00  0.6418656E-03 -0.6438683E-02  0.1619429E-02  0.2848083E-01
4979815. -0.1125019E-01  0.4860296E+00  0.6166486E-03  0.1499210E-01  0.1428012E-02  0.3820629E-01
4943333. -0.1382537E-01  0.4106423E+00  0.4756556E-03  0.3356165E-01  0.1184123E-02  0.4675587E-01
4906852. -0.1592453E-01  0.3203575E+00  0.2423098E-03  0.4690390E-01  0.8953306E-03  0.5384962E-01
4870370. -0.1747273E-01  0.2188494E+00 -0.4821413E-04  0.5331151E-01  0.5706320E-03  0.5926042E-01
4833889. -0.1841746E-01  0.1103187E+00 -0.3532968E-03  0.5192562E-01  0.2202105E-03  0.6281283E-01
4797407. -0.1873108E-01 -0.8495075E-03 -0.6280904E-03  0.4281955E-01 -0.1449554E-03  0.6439345E-01
4760926. -0.1841110E-01 -0.1102634E+00 -0.8307765E-03  0.2697873E-01 -0.5133871E-03  0.6395368E-01
4724444. -0.1747955E-01 -0.2137949E+00 -0.9275649E-03  0.6183594E-02 -0.8735324E-03  0.6150264E-01
4687963. -0.1598098E-01 -0.3077493E+00 -0.8966355E-03 -0.1719931E-01 -0.1214038E-02  0.5711512E-01
4651482. -0.1397937E-01 -0.3890481E+00 -0.7307828E-03 -0.4048359E-01 -0.1524180E-02  0.5092343E-01
4615000. -0.1155404E-01 -0.4554002E+00 -0.4383623E-03 -0.6096735E-01 -0.1794133E-02  0.4311066E-01
4578518. -0.8795478E-02 -0.5052446E+00 -0.4258315E-04 -0.7621503E-01 -0.2015254E-02  0.3391001E-01
4542037. -0.5800750E-02 -0.5378668E+00  0.4208234E-03 -0.8433415E-01 -0.2180352E-02  0.2359305E-01
4505556. -0.2668527E-02 -0.5533258E+00  0.9073776E-03 -0.8417635E-01 -0.2283890E-02  0.1246127E-01
4469074.  0.5044762E-03 -0.5522383E+00  0.1368406E-02 -0.7543954E-01 -0.2322125E-02  0.8393468E-03
4432593.  0.3626682E-02 -0.5358602E+00  0.1756066E-02 -0.5872771E-01 -0.2293212E-02 -0.1093540E-01
4396111.  0.6615132E-02 -0.5057667E+00  0.2028421E-02 -0.3546157E-01 -0.2197243E-02 -0.2252439E-01
4359630.  0.9396009E-02 -0.4637001E+00  0.2153652E-02 -0.7740136E-02 -0.2036246E-02 -0.3359490E-01
4323148.  0.1190641E-01 -0.4115891E+00  0.2113433E-02  0.2187488E-01 -0.1814098E-02 -0.4382981E-01
4286667.  0.1409395E-01 -0.3512426E+00  0.1904801E-02  0.5061995E-01 -0.1536446E-02 -0.5293729E-01
4250185.  0.1591646E-01 -0.2843497E+00  0.1540523E-02  0.7580893E-01 -0.1210489E-02 -0.6065835E-01
4213704.  0.1734092E-01 -0.2124686E+00  0.1047897E-02  0.9510385E-01 -0.8448398E-03 -0.6677048E-01
4177222.  0.1834271E-01 -0.1369219E+00  0.4660500E-03  0.1067273E+00 -0.4492151E-03 -0.7109924E-01
4140741.  0.1890431E-01 -0.5891405E-01 -0.1577215E-03  0.1096505E+00 -0.3423792E-04 -0.7351629E-01
4104259.  0.1901478E-01  0.2046954E-01 -0.7726810E-03  0.1036800E+00  0.3889194E-03 -0.7394435E-01
4067778.  0.1866931E-01  0.1001560E+00 -0.1329274E-02  0.8944450E-01  0.8087640E-03 -0.7236411E-01
4031296.  0.1786926E-01  0.1790462E+00 -0.1783927E-02  0.6836426E-01  0.1213874E-02 -0.6880309E-01
3994815.  0.1662267E-01  0.2559092E+00 -0.2102991E-02  0.4246836E-01  0.1593096E-02 -0.6334385E-01
3958333.  0.1494510E-01  0.3293091E+00 -0.2265732E-02  0.1419243E-01  0.1935941E-02 -0.5612024E-01
3921852.  0.1286088E-01  0.3976867E+00 -0.2266000E-02 -0.1384150E-01  0.2232768E-02 -0.4730691E-01
3885370.  0.1040369E-01  0.4592336E+00 -0.2112516E-02 -0.3910663E-01  0.2475095E-02 -0.3712163E-01
3848889.  0.7618348E-02  0.5120043E+00 -0.1827669E-02 -0.5939695E-01  0.2655762E-02 -0.2581707E-01
3812407.  0.4560455E-02  0.5540709E+00 -0.1444997E-02 -0.7304635E-01  0.2769152E-02 -0.1367075E-01
3775926.  0.1297215E-02  0.5834410E+00 -0.1005730E-02 -0.7906604E-01  0.2811293E-02 -0.9836955E-03
3739444. -0.2093795E-02  0.5984115E+00 -0.5545226E-03 -0.7724366E-01  0.2779979E-02  0.1193252E-01
3702963. -0.5525864E-02  0.5976061E+00 -0.1350413E-03 -0.6814388E-01  0.2674808E-02  0.2476038E-01
3666482. -0.8905545E-02  0.5800021E+00  0.2143545E-03 -0.5302898E-01  0.2497184E-02  0.3718684E-01
3630000. -0.1213560E-01  0.5453173E+00  0.4642919E-03 -0.3374932E-01  0.2250278E-02  0.4890760E-01
3630000. -0.1213560E-01  0.5453173E+00  0.4642919E-03 -0.3374932E-01  0.2250278E-02  0.4890760E-01
3592500. -0.1519737E-01  0.4921470E+00  0.5991083E-03 -0.1193315E-01  0.1929407E-02  0.5992105E-01
3555000. -0.1789653E-01  0.4223719E+00  0.6058542E-03  0.9333390E-02  0.1547491E-02  0.6960540E-01
3517500. -0.2014084E-01  0.3379816E+00  0.4952576E-03  0.2754250E-01  0.1113111E-02  0.7770940E-01
3480000. -0.2185176E-01  0.2416398E+00  0.2918855E-03  0.4053942E-01  0.6361986E-03  0.8402593E-01
3480000. -0.2185176E-01  0.4097872E+00 -0.2730167E-03 -0.3950067E-01  0.6361986E-03  0.1541042E+00
3409422. -0.2313452E-01 -0.1804000E+00  0.1982844E-03 -0.4360337E-01 -0.1177164E-02  0.1653938E+00
3338844. -0.1810035E-01 -0.7051733E+00  0.6486283E-03 -0.3578090E-01 -0.2855968E-02  0.1304457E+00
3268266. -0.8243063E-02 -0.1033658E+01  0.9537039E-03 -0.1793177E-01 -0.3930932E-02  0.5887292E-01
3197688.  0.3802668E-02 -0.1094079E+01  0.1025021E-02  0.5532483E-02 -0.4093638E-02 -0.3063502E-01
3127109.  0.1499249E-01 -0.8844947E+00  0.8316694E-03  0.2885069E-01 -0.3269677E-02 -0.1154625E+00
3056531.  0.2262392E-01 -0.4662980E+00  0.4076163E-03  0.4630804E-01 -0.1630701E-02 -0.1747180E+00
2985953.  0.2493884E-01  0.5559297E-01 -0.1562972E-03  0.5354398E-01  0.4527677E-03 -0.1940558E+00
2915375.  0.2145943E-01  0.5596628E+00 -0.7329992E-03  0.4849514E-01  0.2502298E-02 -0.1686524E+00
2844797.  0.1301739E-01  0.9353130E+00 -0.1187461E-02  0.3180847E-01  0.4042977E-02 -0.1038825E+00
2774219.  0.1502153E-02  0.1105252E+01 -0.1406322E-02  0.6675048E-02  0.4709586E-02 -0.1374761E-01
2703641. -0.1059190E-01  0.1038931E+01 -0.1322739E-02 -0.2184595E-01  0.4325146E-02  0.8242282E-01
2633062. -0.2070921E-01  0.7554244E+00 -0.9316091E-03 -0.4785627E-01  0.2936993E-02  0.1641875E+00
2562484. -0.2675142E-01  0.3163842E+00 -0.2924526E-03 -0.6578434E-01  0.8054379E-03  0.2142055E+00
2491906. -0.2747445E-01 -0.1885783E+00  0.4804267E-03 -0.7147095E-01 -0.1650613E-02  0.2216343E+00
2421328. -0.2269628E-01 -0.6605651E+00  0.1238362E-02 -0.6297600E-01 -0.3937930E-02  0.1840909E+00
2350750. -0.1329338E-01 -0.1010363E+01  0.1825531E-02 -0.4097499E-01 -0.5585765E-02  0.1079175E+00
2280172. -0.1001701E-02 -0.1174239E+01  0.2107972E-02 -0.8689330E-02 -0.6236253E-02  0.6798906E-02
2209594.  0.1192783E-01 -0.1124078E+01  0.1999332E-02  0.2862585E-01 -0.5711891E-02 -0.1009151E+00
2139016.  0.2314806E-01 -0.8705593E+00  0.1478897E-02  0.6453953E-01 -0.4048684E-02 -0.1956245E+00
2068438.  0.3063067E-01 -0.4594058E+00  0.5988802E-03  0.9250025E-01 -0.1490355E-02 -0.2599864E+00
1997859.  0.3300616E-01  0.3813037E-01 -0.5202945E-03  0.1069137E+00  0.1553960E-02 -0.2818977E+00
1927281.  0.2977599E-01  0.5384238E+00 -0.1705881E-02  0.1040716E+00  0.4579606E-02 -0.2564664E+00
1856703.  0.2136963E-01  0.9599497E+00 -0.2757675E-02  0.8279219E-01  0.7071600E-02 -0.1866969E+00
1786125.  0.9045995E-02  0.1236459E+01 -0.3477717E-02  0.4467362E-01  0.8589494E-02 -0.8283498E-01
1715547. -0.5334382E-02  0.1326877E+01 -0.3700597E-02 -0.6066697E-02  0.8838548E-02  0.3943968E-01
1644969. -0.1962197E-01  0.1220546E+01 -0.3319763E-02 -0.6314030E-01  0.7716049E-02  0.1616152E+00
1574391. -0.3172027E-01  0.9372874E+00 -0.2305997E-02 -0.1190321E+00  0.5326532E-02  0.2652751E+00
1503812. -0.3990125E-01  0.5226240E+00 -0.7154630E-03 -0.1660148E+00  0.1965031E-02  0.3348558E+00
1433234. -0.4304519E-01  0.3926329E-01  0.1313622E-02 -0.1971788E+00 -0.1926928E-02  0.3597861E+00
1362656. -0.4077335E-01 -0.4436689E+00  0.3575357E-02 -0.2073326E+00 -0.5824580E-02  0.3356928E+00
1292078. -0.3345657E-01 -0.8617474E+00  0.5818850E-02 -0.1936252E+00 -0.9189889E-02  0.2644798E+00
1221500. -0.2210679E-01 -0.1165119E+01  0.7775973E-02 -0.1558042E+00 -0.1153633E-01  0.1532758E+00
1221500. -0.2210679E-01 -0.4180068E+01 -0.2979728E-01 -0.4011143E-01 -0.1153633E-01  0.1628526E+00
1183328.  0.2719077E-02 -0.3822297E+01 -0.2172160E-01 -0.2582221E+01 -0.1243479E-01  0.1362744E+00
1145156.  0.2052485E-01 -0.1900911E+01 -0.8260194E-03 -0.4150899E+01 -0.1316108E-01  0.1055750E+00
1106984.  0.2376803E-01  0.8708438E+00  0.2456039E-01 -0.4013118E+01 -0.1369398E-01  0.7191465E-01
1068812.  0.1070995E-01  0.3332138E+01  0.4377286E-01 -0.2153615E+01 -0.1401924E-01  0.3645456E-01
1030641. -0.1321270E-01  0.4334936E+01  0.4834421E-01  0.7030250E+00 -0.1412960E-01  0.3830762E-03
 992469. -0.3698801E-01  0.3240096E+01  0.3570179E-01  0.3383813E+01 -0.1402506E-01 -0.3507340E-01
 954297. -0.4818421E-01  0.2446357E+00  0.1045663E-01  0.4750153E+01 -0.1371305E-01 -0.6866131E-01
 916125. -0.3817182E-01 -0.3607979E+01 -0.1728470E-01  0.4173710E+01 -0.1320845E-01 -0.9916934E-01
 877953. -0.6342388E-02 -0.6765291E+01 -0.3593276E-01  0.1808413E+01 -0.1253301E-01 -0.1255244E+00
 839781.  0.3850005E-01 -0.7744278E+01 -0.3713700E-01 -0.1453246E+01 -0.1171424E-01 -0.1469023E+00
 801609.  0.8042817E-01 -0.5741724E+01 -0.1930884E-01 -0.4322927E+01 -0.1078361E-01 -0.1628114E+00
 763438.  0.1018365E+00 -0.1040759E+01  0.1148719E-01 -0.5622153E+01 -0.9774486E-02 -0.1731236E+00
 725266.  0.9025072E-01  0.4960789E+01  0.4366777E-01 -0.4750501E+01 -0.8719880E-02 -0.1780413E+00
 687094.  0.4402988E-01  0.1014042E+02  0.6447019E-01 -0.1931149E+01 -0.7650906E-02 -0.1780102E+00
 648922. -0.2527985E-01  0.1234992E+02  0.6483902E-01  0.1860786E+01 -0.6595497E-02 -0.1736163E+00
 610750. -0.9514043E-01  0.1018890E+02  0.4296571E-01  0.5259548E+01 -0.5577928E-02 -0.1654828E+00
 572578. -0.1383883E+00  0.3579796E+01  0.5129199E-02  0.7018422E+01 -0.4618773E-02 -0.1542150E+00
 534406. -0.1318783E+00 -0.6073555E+01 -0.3647543E-01  0.6472208E+01 -0.3735071E-02 -0.1403905E+00
 496234. -0.6458579E-01 -0.1622500E+02 -0.6808469E-01  0.3777815E+01 -0.2940407E-02 -0.1245931E+00
 458062.  0.5763216E-01 -0.2393338E+02 -0.7924535E-01 -0.1539280E+00 -0.2244733E-02 -0.1074592E+00
 419891.  0.2124108E+00 -0.2678281E+02 -0.6641090E-01 -0.4003000E+01 -0.1653964E-02 -0.8970644E-01
 381719.  0.3665486E+00 -0.2367263E+02 -0.3396198E-01 -0.6525832E+01 -0.1169447E-02 -0.7212194E-01
 343547.  0.4852782E+00 -0.1520675E+02  0.7634315E-02 -0.6994656E+01 -0.7877644E-03 -0.5551116E-01
 305375.  0.5423239E+00 -0.3543274E+01  0.4574564E-01 -0.5429804E+01 -0.5008447E-03 -0.4059992E-01
 267203.  0.5274616E+00  0.8260134E+01  0.7003585E-01 -0.2544304E+01 -0.2967236E-03 -0.2794762E-01
 229031.  0.4491377E+00  0.1719592E+02  0.7578935E-01  0.5657769E+00 -0.1607979E-03 -0.1786483E-01
 190859.  0.3312779E+00  0.2124215E+02  0.6492465E-01  0.2855792E+01 -0.7743707E-04 -0.1038515E-01
 152688.  0.2053215E+00  0.1997600E+02  0.4446005E-01  0.3720192E+01 -0.3156249E-04 -0.5299914E-02
 114516.  0.1000802E+00  0.1466001E+02  0.2318062E-01  0.3184785E+01 -0.9922021E-05 -0.2219053E-02
  76344.  0.3280887E-01  0.7774409E+01  0.7938528E-02  0.1836543E+01 -0.1947982E-05 -0.6520057E-03
  38172.  0.4354323E-02  0.2151306E+01  0.1079902E-02  0.5306329E+00 -0.1212272E-06 -0.8111180E-04
      0.  0.0000000E+00  0.0000000E+00  0.0000000E+00  0.0000000E+00  0.0000000E+00  0.0000000E+00
