      18        2 S      663        151.77341        105.49990         13.75832        563.45428      185    7
6371000.  0.5288879E-01 -0.1349902E-01  0.1190646E-01 -0.4098233E-01 -0.1866968E-04 -0.9967988E-01
6370000.  0.5288956E-01  0.3750449E-02  0.1191190E-01 -0.2826111E-01 -0.3021965E-05 -0.9970245E-01
6369000.  0.5288761E-01  0.2099680E-01  0.1191533E-01 -0.1552497E-01  0.1262889E-04 -0.9971995E-01
6368000.  0.5288297E-01  0.3823914E-01  0.1191677E-01 -0.2776020E-02  0.2828210E-04 -0.9973237E-01
6368000.  0.5288297E-01  0.3823914E-01  0.1191677E-01 -0.2776020E-02  0.2828210E-04 -0.9973237E-01
6367000.  0.5287561E-01  0.5547658E-01  0.1191620E-01  0.9983598E-02  0.4393686E-04 -0.9973972E-01
6366000.  0.5286555E-01  0.7270823E-01  0.1191363E-01  0.2275175E-01  0.5959237E-04 -0.9974198E-01
6365000.  0.5285278E-01  0.8993320E-01  0.1190906E-01  0.3552629E-01  0.7524784E-04 -0.9973916E-01
6364000.  0.5283732E-01  0.1071506E+00  0.1190248E-01  0.4830509E-01  0.9090247E-04 -0.9973127E-01
6363000.  0.5281915E-01  0.1243596E+00  0.1189390E-01  0.6108599E-01  0.1065555E-03 -0.9971829E-01
6362000.  0.5279828E-01  0.1415592E+00  0.1188331E-01  0.7386687E-01  0.1222060E-03 -0.9970022E-01
6361000.  0.5277471E-01  0.1587486E+00  0.1187071E-01  0.8664556E-01  0.1378533E-03 -0.9967707E-01
6360000.  0.5274845E-01  0.1759269E+00  0.1185611E-01  0.9941993E-01  0.1534966E-03 -0.9964883E-01
6359000.  0.5271949E-01  0.1930932E+00  0.1183950E-01  0.1121878E+00  0.1691351E-03 -0.9961551E-01
6358000.  0.5268783E-01  0.2102467E+00  0.1182089E-01  0.1249471E+00  0.1847679E-03 -0.9957710E-01
6357000.  0.5265348E-01  0.2273865E+00  0.1180028E-01  0.1376956E+00  0.2003943E-03 -0.9953360E-01
6356000.  0.5261645E-01  0.2445116E+00  0.1177766E-01  0.1504312E+00  0.2160135E-03 -0.9948502E-01
6356000.  0.5261645E-01  0.1564739E+00  0.1177766E-01  0.7457275E-01  0.2160135E-03 -0.1109338E+00
6355000.  0.5259091E-01  0.1689378E+00  0.1176529E-01  0.8312817E-01  0.2334235E-03 -0.1109037E+00
6354000.  0.5256341E-01  0.1813939E+00  0.1175157E-01  0.9168090E-01  0.2508284E-03 -0.1108696E+00
6353000.  0.5253397E-01  0.1938417E+00  0.1173651E-01  0.1002300E+00  0.2682277E-03 -0.1108313E+00
6352000.  0.5250257E-01  0.2062809E+00  0.1172010E-01  0.1087745E+00  0.2856206E-03 -0.1107889E+00
6351000.  0.5246921E-01  0.2187109E+00  0.1170236E-01  0.1173134E+00  0.3030066E-03 -0.1107424E+00
6350000.  0.5243391E-01  0.2311312E+00  0.1168328E-01  0.1258458E+00  0.3203849E-03 -0.1106918E+00
6349000.  0.5239666E-01  0.2435414E+00  0.1166285E-01  0.1343706E+00  0.3377550E-03 -0.1106371E+00
6348000.  0.5235745E-01  0.2559411E+00  0.1164109E-01  0.1428870E+00  0.3551162E-03 -0.1105783E+00
6347000.  0.5231631E-01  0.2683298E+00  0.1161800E-01  0.1513939E+00  0.3724678E-03 -0.1105154E+00
6346600.  0.5229931E-01  0.2732821E+00  0.1160839E-01  0.1547938E+00  0.3794057E-03 -0.1104890E+00
6346600.  0.5229931E-01  0.1618266E+00  0.1160839E-01  0.9123814E-01  0.3794057E-03 -0.1287250E+00
6318800.  0.5105212E-01  0.4093128E+00  0.1081057E-01  0.2728911E+00  0.9367976E-03 -0.1263080E+00
6291000.  0.4873531E-01  0.6512382E+00  0.9249241E-02  0.4391870E+00  0.1477822E-02 -0.1212255E+00
6291000.  0.4873531E-01  0.6602855E+00  0.9249241E-02  0.4564756E+00  0.1477822E-02 -0.1212255E+00
6263000.  0.4531001E-01  0.8962004E+00  0.6911799E-02  0.6013995E+00  0.1994244E-02 -0.1133412E+00
6235000.  0.4088147E-01  0.1116027E+01  0.4021415E-02  0.7065719E+00  0.2470277E-02 -0.1028692E+00
6207000.  0.3553067E-01  0.1315161E+01  0.7708061E-03  0.7643101E+00  0.2894901E-02 -0.8997943E-01
6179000.  0.2935793E-01  0.1489402E+01 -0.2620670E-02  0.7702421E+00  0.3257972E-02 -0.7490123E-01
6151000.  0.2248111E-01  0.1634974E+01 -0.5922277E-02  0.7235911E+00  0.3550481E-02 -0.5792084E-01
6151000.  0.2248111E-01  0.1311197E+01 -0.5922277E-02  0.6318381E+00  0.3550481E-02 -0.5916461E-01
6128500.  0.1775981E-01  0.1359933E+01 -0.8035556E-02  0.5610924E+00  0.3738654E-02 -0.4729348E-01
6106000.  0.1289407E-01  0.1393053E+01 -0.9860266E-02  0.4690098E+00  0.3883862E-02 -0.3485743E-01
6083500.  0.7938380E-02  0.1410948E+01 -0.1132775E-01  0.3595001E+00  0.3984370E-02 -0.2200422E-01
6061000.  0.2945661E-02  0.1414116E+01 -0.1238428E-01  0.2370672E+00  0.4038970E-02 -0.8883851E-02
6038500. -0.2033122E-02  0.1403160E+01 -0.1299278E-01  0.1066221E+00  0.4046981E-02  0.4353654E-02
6016000. -0.6949243E-02  0.1378743E+01 -0.1313396E-01 -0.2672540E-01  0.4008256E-02  0.1755959E-01
5993500. -0.1175640E-01  0.1341575E+01 -0.1280661E-01 -0.1578701E+00  0.3923162E-02  0.3058833E-01
5971000. -0.1641089E-01  0.1292418E+01 -0.1202726E-01 -0.2819082E+00  0.3792578E-02  0.4329859E-01
5971000. -0.1641089E-01  0.1167793E+01 -0.1202726E-01 -0.2503360E+00  0.3792578E-02  0.4544691E-01
5937667. -0.2221851E-01  0.1050097E+01 -0.1033696E-01 -0.3898750E+00  0.3508984E-02  0.6272101E-01
5904333. -0.2738027E-01  0.9214531E+00 -0.8014395E-02 -0.4912103E+00  0.3139014E-02  0.7841494E-01
5871000. -0.3184761E-01  0.7852233E+00 -0.5268810E-02 -0.5514135E+00  0.2691635E-02  0.9227931E-01
5837667. -0.3558878E-01  0.6443241E+00 -0.2315582E-02 -0.5709025E+00  0.2176931E-02  0.1041238E+00
5804333. -0.3858626E-01  0.5012972E+00  0.6395602E-03 -0.5528278E+00  0.1605832E-02  0.1138123E+00
5771000. -0.4083467E-01  0.3583689E+00  0.3412757E-02 -0.5023870E+00  0.9898940E-03  0.1212607E+00
5771000. -0.4083467E-01  0.3583789E+00  0.3412757E-02 -0.5023690E+00  0.9898940E-03  0.1212607E+00
5701000. -0.4320858E-01  0.7084713E-01  0.8187080E-02 -0.3485480E+00 -0.3853812E-03  0.1274064E+00
5701000. -0.4320858E-01  0.6547230E-01  0.8187080E-02 -0.2633671E+00 -0.3853812E-03  0.1395854E+00
5667333. -0.4322199E-01 -0.5789078E-01  0.9271721E-02 -0.1535277E+00 -0.1121745E-02  0.1388342E+00
5633667. -0.4259979E-01 -0.1781396E+00  0.9850547E-02 -0.6627166E-01 -0.1849912E-02  0.1364530E+00
5600000. -0.4134440E-01 -0.2962194E+00  0.9967620E-02  0.2187648E-01 -0.2560093E-02  0.1319812E+00
5600000. -0.4134440E-01 -0.2962194E+00  0.9967620E-02  0.2187648E-01 -0.2560093E-02  0.1319812E+00
5563518. -0.3929163E-01 -0.4198546E+00  0.9576952E-02  0.1134827E+00 -0.3296619E-02  0.1248812E+00
5527037. -0.3654820E-01 -0.5371473E+00  0.8685081E-02  0.1961535E+00 -0.3986035E-02  0.1155593E+00
5490556. -0.3315596E-01 -0.6461442E+00  0.7355981E-02  0.2655335E+00 -0.4616110E-02  0.1041858E+00
5454074. -0.2916791E-01 -0.7449135E+00  0.5676252E-02  0.3181010E+00 -0.5175677E-02  0.9096301E-01
5417593. -0.2464768E-01 -0.8317851E+00  0.3749835E-02  0.3513915E+00 -0.5654748E-02  0.7611517E-01
5381111. -0.1966798E-01 -0.9050816E+00  0.1691499E-02  0.3640216E+00 -0.6044750E-02  0.5989312E-01
5344630. -0.1431106E-01 -0.9633881E+00 -0.3791637E-03  0.3557834E+00 -0.6338559E-02  0.4256641E-01
5308148. -0.8665651E-02 -0.1005610E+01 -0.2344981E-02  0.3276257E+00 -0.6530658E-02  0.2441424E-01
5271667. -0.2827235E-02 -0.1030724E+01 -0.4096891E-02  0.2815000E+00 -0.6617147E-02  0.5730176E-02
5235185.  0.3104891E-02 -0.1038236E+01 -0.5540063E-02  0.2203332E+00 -0.6595826E-02 -0.1319183E-01
5198704.  0.9028935E-02 -0.1027925E+01 -0.6598462E-02  0.1477760E+00 -0.6466182E-02 -0.3205610E-01
5162222.  0.1484284E-01 -0.9997615E+00 -0.7218613E-02  0.6798834E-01 -0.6229368E-02 -0.5057383E-01
5125741.  0.2044561E-01 -0.9543613E+00 -0.7371905E-02 -0.1452055E-01 -0.5888200E-02 -0.6846035E-01
5089259.  0.2574102E-01 -0.8925046E+00 -0.7055792E-02 -0.9521028E-01 -0.5447048E-02 -0.8544898E-01
5052778.  0.3063755E-01 -0.8153268E+00 -0.6293406E-02 -0.1696923E+00 -0.4911806E-02 -0.1012870E+00
5016296.  0.3505212E-01 -0.7243967E+00 -0.5131886E-02 -0.2339873E+00 -0.4289718E-02 -0.1157395E+00
4979815.  0.3891058E-01 -0.6214436E+00 -0.3639717E-02 -0.2846804E+00 -0.3589361E-02 -0.1285977E+00
4943333.  0.4214997E-01 -0.5084990E+00 -0.1902700E-02 -0.3191197E+00 -0.2820368E-02 -0.1396759E+00
4906852.  0.4471928E-01 -0.3878051E+00 -0.1952081E-04 -0.3355257E+00 -0.1993454E-02 -0.1488120E+00
4870370.  0.4658079E-01 -0.2616599E+00  0.1903716E-02 -0.3330305E+00 -0.1120063E-02 -0.1558816E+00
4833889.  0.4771017E-01 -0.1325140E+00  0.3758596E-02 -0.3117732E+00 -0.2123892E-03 -0.1607795E+00
4797407.  0.4809723E-01 -0.2777567E-02  0.5440433E-02 -0.2728245E+00  0.7169602E-03 -0.1634355E+00
4760926.  0.4774542E-01  0.1251667E+00  0.6852948E-02 -0.2181166E+00  0.1654992E-02 -0.1638169E+00
4724444.  0.4667148E-01  0.2490757E+00  0.7913499E-02 -0.1503934E+00  0.2588676E-02 -0.1619082E+00
4687963.  0.4490466E-01  0.3668461E+00  0.8556841E-02 -0.7300737E-01  0.3504900E-02 -0.1577351E+00
4651482.  0.4248566E-01  0.4765826E+00  0.8738423E-02  0.1022284E-01  0.4390871E-02 -0.1513516E+00
4615000.  0.3946503E-01  0.5767046E+00  0.8436404E-02  0.9520651E-01  0.5234156E-02 -0.1428334E+00
4578518.  0.3590199E-01  0.6658266E+00  0.7652706E-02  0.1777648E+00  0.6022810E-02 -0.1322916E+00
4542037.  0.3186277E-01  0.7429212E+00  0.6412974E-02  0.2538449E+00  0.6745597E-02 -0.1198586E+00
4505556.  0.2741819E-01  0.8073094E+00  0.4765116E-02  0.3197236E+00  0.7392134E-02 -0.1056873E+00
4469074.  0.2264246E-01  0.8584901E+00  0.2777179E-02  0.3721111E+00  0.7952992E-02 -0.8995847E-01
4432593.  0.1761178E-01  0.8964259E+00  0.5343379E-03  0.4084012E+00  0.8419767E-02 -0.7286546E-01
4396111.  0.1240125E-01  0.9212940E+00 -0.1865613E-02  0.4267091E+00  0.8785267E-02 -0.5461828E-01
4359630.  0.7085216E-02  0.9334171E+00 -0.4315999E-02  0.4259361E+00  0.9043509E-02 -0.3544429E-01
4323148.  0.1734352E-02  0.9335405E+00 -0.6706824E-02  0.4059265E+00  0.9189860E-02 -0.1557601E-01
4286667. -0.3584529E-02  0.9224297E+00 -0.8929293E-02  0.3673336E+00  0.9221032E-02  0.4743283E-02
4250185. -0.8809865E-02  0.9009916E+00 -0.1088098E-01  0.3116519E+00  0.9135145E-02  0.2526762E-01
4213704. -0.1388539E-01  0.8703298E+00 -0.1247016E-01  0.2411692E+00  0.8931747E-02  0.4574692E-01
4177222. -0.1876142E-01  0.8314337E+00 -0.1362017E-01  0.1587794E+00  0.8611786E-02  0.6593616E-01
4140741. -0.2339361E-01  0.7854020E+00 -0.1427241E-01  0.6793361E-01  0.8177646E-02  0.8559025E-01
4104259. -0.2774453E-01  0.7332999E+00 -0.1438926E-01 -0.2756765E-01  0.7633050E-02  0.1044722E+00
4067778. -0.3178162E-01  0.6759830E+00 -0.1395547E-01 -0.1237133E+00  0.6983094E-02  0.1223583E+00
4031296. -0.3547795E-01  0.6143878E+00 -0.1297889E-01 -0.2164855E+00  0.6234077E-02  0.1390294E+00
3994815. -0.3881104E-01  0.5492468E+00 -0.1149007E-01 -0.3020063E+00  0.5393587E-02  0.1542836E+00
3958333. -0.4176235E-01  0.4811074E+00 -0.9540919E-02 -0.3766896E+00  0.4470209E-02  0.1679417E+00
3921852. -0.4431619E-01  0.4105204E+00 -0.7202659E-02 -0.4374672E+00  0.3473642E-02  0.1798292E+00
3885370. -0.4645969E-01  0.3378074E+00 -0.4562275E-02 -0.4818207E+00  0.2414393E-02  0.1898029E+00
3848889. -0.4818128E-01  0.2632141E+00 -0.1719575E-02 -0.5079221E+00  0.1303843E-02  0.1977376E+00
3812407. -0.4947083E-01  0.1869105E+00  0.1217850E-02 -0.5147700E+00  0.1539328E-03  0.2035246E+00
3775926. -0.5031872E-01  0.1089762E+00  0.4138396E-02 -0.5020773E+00 -0.1022753E-02  0.2070898E+00
3739444. -0.5071584E-01  0.2946754E-01  0.6931599E-02 -0.4704352E+00 -0.2213379E-02  0.2083735E+00
3702963. -0.5065326E-01 -0.5157177E-01  0.9492414E-02 -0.4212162E+00 -0.3404696E-02  0.2073403E+00
3666482. -0.5012250E-01 -0.1340400E+00  0.1172568E-01 -0.3564294E+00 -0.4583465E-02  0.2039919E+00
3630000. -0.4911563E-01 -0.2178315E+00  0.1354985E-01 -0.2788102E+00 -0.5736479E-02  0.1983371E+00
3630000. -0.4911563E-01 -0.2178315E+00  0.1354985E-01 -0.2788102E+00 -0.5736479E-02  0.1983371E+00
3592500. -0.4757722E-01 -0.3050556E+00  0.1493068E-01 -0.1889888E+00 -0.6881022E-02  0.1901709E+00
3555000. -0.4552305E-01 -0.3930119E+00  0.1576224E-01 -0.9285714E-01 -0.7970644E-02  0.1796888E+00
3517500. -0.4295010E-01 -0.4812329E+00  0.1601955E-01  0.5438346E-02 -0.8991962E-02  0.1669799E+00
3480000. -0.3985887E-01 -0.5689801E+00  0.1570218E-01  0.1017182E+00 -0.9932222E-02  0.1521686E+00
3480000. -0.3985887E-01 -0.1058482E+01  0.2015732E-02 -0.7669920E-01 -0.9932222E-02  0.2799954E+00
3409422. -0.2590260E-01 -0.1433360E+01  0.2745701E-02 -0.5356754E-01 -0.1252126E-01  0.1820267E+00
3338844. -0.8767839E-02 -0.1628504E+01  0.3174326E-02 -0.2281217E-01 -0.1387021E-01  0.5841659E-01
3268266.  0.9469223E-02 -0.1632264E+01  0.3235589E-02  0.1213796E-01 -0.1377528E-01 -0.7607296E-01
3197688.  0.2672276E-01 -0.1454135E+01  0.2904056E-02  0.4745122E-01 -0.1220189E-01 -0.2059498E+00
3127109.  0.4111511E-01 -0.1121514E+01  0.2197123E-02  0.7928988E-01 -0.9283214E-02 -0.3166797E+00
3056531.  0.5115068E-01 -0.6752777E+00  0.1173061E-02  0.1041745E+00 -0.5301430E-02 -0.3961314E+00
2985953.  0.5583832E-01 -0.1646229E+00 -0.7481522E-04  0.1192990E+00 -0.6543602E-03 -0.4356880E+00
2915375.  0.5475346E-01  0.3581776E+00 -0.1426955E-02  0.1227672E+00  0.4187471E-02 -0.4309250E+00
2844797.  0.4804455E-01  0.8427255E+00 -0.2748581E-02  0.1137439E+00  0.8729104E-02 -0.3818612E+00
2774219.  0.3638788E-01  0.1244764E+01 -0.3901854E-02  0.9251340E-01  0.1249979E-01 -0.2927873E+00
2703641.  0.2090007E-01  0.1529526E+01 -0.4758183E-02  0.6044925E-01  0.1509762E-01 -0.1717241E+00
2633062.  0.3019021E-02  0.1674008E+01 -0.5209738E-02  0.1989873E-01  0.1622646E-01 -0.2958274E-01
2562484. -0.1563248E-01  0.1668072E+01 -0.5179254E-02 -0.2599876E-01  0.1572231E-01  0.1208666E+00
2491906. -0.3339222E-01  0.1514514E+01 -0.4627575E-02 -0.7354792E-01  0.1356766E-01  0.2661532E+00
2421328. -0.4869616E-01  0.1228080E+01 -0.3558322E-02 -0.1187690E+00  0.9892773E-02  0.3932497E+00
2350750. -0.6020195E-01  0.8336824E+00 -0.2019439E-02 -0.1576865E+00  0.4964797E-02  0.4906419E+00
2280172. -0.6688845E-01  0.3639510E+00 -0.1015960E-03 -0.1866083E+00 -0.8342393E-03  0.5492346E+00
2209594. -0.6812581E-01 -0.1435919E+00  0.2066438E-02 -0.2023892E+00 -0.7038206E-02  0.5630326E+00
2139016. -0.6371301E-01 -0.6495540E+00  0.4325131E-02 -0.2026542E+00 -0.1313379E-01  0.5295605E+00
2068438. -0.5388192E-01 -0.1115662E+01  0.6493736E-02 -0.1859714E+00 -0.1860053E-01  0.4500001E+00
1997859. -0.3926928E-01 -0.1507479E+01  0.8381435E-02 -0.1519648E+00 -0.2295084E-01  0.3290500E+00
1927281. -0.2086166E-01 -0.1796743E+01  0.9799302E-02 -0.1013680E+00 -0.2576678E-01  0.1745339E+00
1856703.  0.8455967E-04 -0.1963142E+01  0.1057267E-01 -0.3599969E-01 -0.2673178E-01 -0.3222636E-02
1786125.  0.2213749E-01 -0.1995472E+01  0.1055269E-01  0.4131532E-01 -0.2565397E-01 -0.1921649E+00
1715547.  0.4379400E-01 -0.1892097E+01  0.9626727E-02  0.1268847E+00 -0.2248051E-01 -0.3793940E+00
1644969.  0.6358521E-01 -0.1660750E+01  0.7727010E-02  0.2163435E+00 -0.1730191E-01 -0.5520858E+00
1574391.  0.8017631E-01 -0.1317719E+01  0.4836805E-02  0.3048783E+00 -0.1034616E-01 -0.6983855E+00
1503812.  0.9245434E-01 -0.8864665E+00  0.9939822E-03  0.3874797E+00 -0.1963331E-02 -0.8082114E+00
1433234.  0.9959745E-01 -0.3958500E+00 -0.3708033E-02  0.4591992E+00  0.7397403E-02 -0.8739126E+00
1362656.  0.1011240E+00  0.1220261E+00 -0.9122699E-02  0.5154075E+00  0.1721828E-01 -0.8907558E+00
1292078.  0.9691556E-01  0.6340616E+00 -0.1505494E-01  0.5520154E+00  0.2694644E-01 -0.8571845E+00
1221500.  0.8721516E-01  0.1108461E+01 -0.2126828E-01  0.5656649E+00  0.3602968E-01 -0.7748609E+00
1221500.  0.8721516E-01  0.8000955E+00 -0.2940323E-01 -0.6082487E+00  0.3602968E-01 -0.8126428E+00
1183328.  0.8123197E-01  0.1203518E+01 -0.2517628E-01 -0.7624946E+00  0.4071280E-01 -0.7489104E+00
1145156.  0.7276159E-01  0.1622473E+01 -0.2077347E-01 -0.6644433E+00  0.4498466E-01 -0.6755488E+00
1106984.  0.6186064E-01  0.2005837E+01 -0.1770064E-01 -0.3244975E+00  0.4879102E-01 -0.5937287E+00
1068812.  0.4890420E-01  0.2299935E+01 -0.1725293E-01  0.1983601E+00  0.5208506E-01 -0.5047616E+00
1030641.  0.3457347E-01  0.2457984E+01 -0.2024957E-01  0.8066544E+00  0.5482810E-01 -0.4100720E+00
 992469.  0.1978514E-01  0.2449155E+01 -0.2685313E-01  0.1381961E+01  0.5699047E-01 -0.3111641E+00
 954297.  0.5575845E-02  0.2265574E+01 -0.3650698E-01  0.1806469E+01  0.5855151E-01 -0.2096093E+00
 916125. -0.7050563E-02  0.1926225E+01 -0.4800606E-01  0.1984982E+01  0.5950014E-01 -0.1070097E+00
 877953. -0.1728421E-01  0.1476435E+01 -0.5968979E-01  0.1863172E+01  0.5983494E-01 -0.4975388E-02
 839781. -0.2465508E-01  0.9831811E+00 -0.6972441E-01  0.1438720E+01  0.5956408E-01  0.9489929E-01
 801609. -0.2913828E-01  0.5263330E+00 -0.7642610E-01  0.7635394E+00  0.5870518E-01  0.1910593E+00
 763438. -0.3119781E-01  0.1871576E+00 -0.7856806E-01 -0.6371576E-01  0.5728506E-01  0.2820090E+00
 725266. -0.3175709E-01  0.3558974E-01 -0.7561688E-01 -0.9134941E+00  0.5533911E-01  0.3663427E+00
 687094. -0.3209429E-01  0.1182999E+00 -0.6785517E-01 -0.1646795E+01  0.5291099E-01  0.4427522E+00
 648922. -0.3367281E-01  0.4491844E+00 -0.5636737E-01 -0.2138907E+01  0.5005178E-01  0.5100581E+00
 610750. -0.3792696E-01  0.1004161E+01 -0.4288688E-01 -0.2301153E+01  0.4681920E-01  0.5672258E+00
 572578. -0.4603130E-01  0.1721054E+01 -0.2952833E-01 -0.2097018E+01  0.4327668E-01  0.6133865E+00
 534406. -0.5868595E-01  0.2505028E+01 -0.1844719E-01 -0.1549873E+01  0.3949232E-01  0.6478540E+00
 496234. -0.7595007E-01  0.3239073E+01 -0.1148221E-01 -0.7408946E+00  0.3553776E-01  0.6701389E+00
 458062. -0.9715042E-01  0.3798344E+01 -0.9839574E-02  0.2026317E+00  0.3148692E-01  0.6799597E+00
 419891. -0.1208823E+00  0.4066503E+01 -0.1387175E-01  0.1126791E+01  0.2741491E-01  0.6772513E+00
 381719. -0.1451123E+00  0.3952025E+01 -0.2298970E-01  0.1875356E+01  0.2339623E-01  0.6621643E+00
 343547. -0.1673667E+00  0.3402038E+01 -0.3572368E-01  0.2314700E+01  0.1950417E-01  0.6350652E+00
 305375. -0.1849968E+00  0.2412023E+01 -0.4992747E-01  0.2355792E+01  0.1580908E-01  0.5965245E+00
 267203. -0.1954831E+00  0.1029597E+01 -0.6309490E-01  0.1969317E+01  0.1237732E-01  0.5473089E+00
 229031. -0.1967421E+00 -0.6480986E+00 -0.7274029E-01  0.1191570E+01  0.9270099E-02  0.4883603E+00
 190859. -0.1874003E+00 -0.2483405E+01 -0.7678384E-01  0.1201668E+00  0.6542527E-02  0.4207767E+00
 152688. -0.1669957E+00 -0.4312520E+01 -0.7388156E-01 -0.1099961E+01  0.4242755E-02  0.3457946E+00
 114516. -0.1360796E+00 -0.5963741E+01 -0.6364653E-01 -0.2298253E+01  0.2411014E-02  0.2647578E+00
  76344. -0.9620955E-01 -0.7276665E+01 -0.4672787E-01 -0.3303927E+01  0.1079373E-02  0.1791046E+00
  38172. -0.4982176E-01 -0.8121128E+01 -0.2473269E-01 -0.3972002E+01  0.2710176E-03  0.9033859E-01
      0.  0.0000000E+00 -0.8412496E+01  0.0000000E+00 -0.4205917E+01  0.0000000E+00  0.0000000E+00
