       4       33 S      302        132.01630          9.05138          6.56021        249.70680      185    7
6371000. -0.8175764E-02 -0.1307952E+01 -0.2980365E-02  0.5195400E-02  0.1703834E-02 -0.4251278E-01
6370000. -0.7970178E-02 -0.1311561E+01 -0.2980948E-02  0.2230210E-02  0.1710485E-02 -0.4222927E-01
6369000. -0.7764059E-02 -0.1314731E+01 -0.2981065E-02 -0.7369450E-03  0.1717091E-02 -0.4194754E-01
6368000. -0.7557477E-02 -0.1317459E+01 -0.2980716E-02 -0.3705520E-02  0.1723653E-02 -0.4166763E-01
6368000. -0.7557477E-02 -0.1317459E+01 -0.2980716E-02 -0.3705520E-02  0.1723653E-02 -0.4166763E-01
6367000. -0.7350502E-02 -0.1319746E+01 -0.2979902E-02 -0.6674965E-02  0.1730171E-02 -0.4138952E-01
6366000. -0.7143203E-02 -0.1321590E+01 -0.2978621E-02 -0.9644735E-02  0.1736646E-02 -0.4111326E-01
6365000. -0.6935649E-02 -0.1322993E+01 -0.2976874E-02 -0.1261428E-01  0.1743078E-02 -0.4083886E-01
6364000. -0.6727909E-02 -0.1323953E+01 -0.2974661E-02 -0.1558305E-01  0.1749467E-02 -0.4056633E-01
6363000. -0.6520053E-02 -0.1324470E+01 -0.2971982E-02 -0.1855050E-01  0.1755813E-02 -0.4029569E-01
6362000. -0.6312151E-02 -0.1324544E+01 -0.2968838E-02 -0.2151608E-01  0.1762116E-02 -0.4002696E-01
6361000. -0.6104272E-02 -0.1324176E+01 -0.2965228E-02 -0.2447924E-01  0.1768378E-02 -0.3976016E-01
6360000. -0.5896486E-02 -0.1323366E+01 -0.2961153E-02 -0.2743944E-01  0.1774598E-02 -0.3949530E-01
6359000. -0.5688861E-02 -0.1322113E+01 -0.2956614E-02 -0.3039613E-01  0.1780777E-02 -0.3923241E-01
6358000. -0.5481468E-02 -0.1320418E+01 -0.2951611E-02 -0.3334876E-01  0.1786914E-02 -0.3897149E-01
6357000. -0.5274375E-02 -0.1318282E+01 -0.2946146E-02 -0.3629678E-01  0.1793011E-02 -0.3871258E-01
6356000. -0.5067653E-02 -0.1315705E+01 -0.2940217E-02 -0.3923966E-01  0.1799067E-02 -0.3845568E-01
6356000. -0.5067653E-02 -0.1147124E+01 -0.2940217E-02 -0.2283957E-01  0.1799067E-02 -0.3735302E-01
6355000. -0.4887689E-02 -0.1145932E+01 -0.2936507E-02 -0.2443613E-01  0.1804900E-02 -0.3697433E-01
6354000. -0.4707931E-02 -0.1144505E+01 -0.2932546E-02 -0.2603069E-01  0.1810674E-02 -0.3659736E-01
6353000. -0.4528415E-02 -0.1142841E+01 -0.2928336E-02 -0.2762307E-01  0.1816389E-02 -0.3622211E-01
6352000. -0.4349180E-02 -0.1140943E+01 -0.2923875E-02 -0.2921310E-01  0.1822045E-02 -0.3584859E-01
6351000. -0.4170260E-02 -0.1138809E+01 -0.2919165E-02 -0.3080058E-01  0.1827643E-02 -0.3547679E-01
6350000. -0.3991694E-02 -0.1136440E+01 -0.2914206E-02 -0.3238535E-01  0.1833182E-02 -0.3510673E-01
6349000. -0.3813519E-02 -0.1133836E+01 -0.2908999E-02 -0.3396722E-01  0.1838664E-02 -0.3473842E-01
6348000. -0.3635770E-02 -0.1130997E+01 -0.2903543E-02 -0.3554603E-01  0.1844087E-02 -0.3437186E-01
6347000. -0.3458485E-02 -0.1127925E+01 -0.2897840E-02 -0.3712158E-01  0.1849454E-02 -0.3400706E-01
6346600. -0.3387710E-02 -0.1126631E+01 -0.2895490E-02 -0.3775086E-01  0.1851584E-02 -0.3386163E-01
6346600. -0.3387710E-02 -0.1305149E+01 -0.2895490E-02 -0.2532665E-01  0.1851584E-02 -0.3268039E-01
6318800.  0.2119243E-02 -0.1200409E+01 -0.2733028E-02 -0.4883872E-01  0.1970119E-02 -0.2184230E-01
6291000.  0.6931425E-02 -0.9880848E+00 -0.2472938E-02 -0.6983513E-01  0.2043784E-02 -0.1209109E-01
6291000.  0.6931425E-02 -0.1022302E+01 -0.2472938E-02 -0.7194828E-01  0.2043784E-02 -0.1209109E-01
6263000.  0.1074600E-01 -0.6977504E+00 -0.2113935E-02 -0.9059723E-01  0.2077930E-02 -0.3597512E-02
6235000.  0.1294237E-01 -0.2901197E+00 -0.1684738E-02 -0.1037066E+00  0.2076627E-02  0.4061522E-02
6207000.  0.1321594E-01  0.1720150E+00 -0.1211832E-02 -0.1103734E+00  0.2043278E-02  0.1100500E-01
6179000.  0.1139971E-01  0.6549761E+00 -0.7246999E-03 -0.1101456E+00  0.1980789E-02  0.1733750E-01
6151000.  0.7481718E-02  0.1122298E+01 -0.2537394E-03 -0.1030624E+00  0.1891656E-02  0.2314226E-01
6151000.  0.7481718E-02  0.8801785E+00 -0.2537394E-03 -0.9152415E-01  0.1891656E-02  0.2272833E-01
6128500.  0.3895295E-02  0.1144865E+01  0.5376040E-04 -0.8217885E-01  0.1807213E-02  0.2501107E-01
6106000. -0.5562942E-03  0.1368542E+01  0.3239169E-03 -0.7046209E-01  0.1715563E-02  0.2681242E-01
6083500. -0.5712372E-02  0.1542577E+01  0.5493017E-03 -0.5691951E-01  0.1618376E-02  0.2815018E-01
6061000. -0.1138557E-01  0.1660524E+01  0.7244986E-03 -0.4214070E-01  0.1517257E-02  0.2904183E-01
6038500. -0.1736989E-01  0.1718299E+01  0.8462158E-03 -0.2673524E-01  0.1413751E-02  0.2950442E-01
6016000. -0.2344919E-01  0.1714233E+01  0.9133128E-03 -0.1130777E-01  0.1309346E-02  0.2955430E-01
5993500. -0.2940563E-01  0.1649046E+01  0.9267419E-03  0.3564590E-02  0.1205469E-02  0.2920731E-01
5971000. -0.3502805E-01  0.1525745E+01  0.8894167E-03  0.1735139E-01  0.1103499E-02  0.2847722E-01
5971000. -0.3502805E-01  0.1416562E+01  0.8894167E-03  0.1966183E-01  0.1103499E-02  0.3306269E-01
5937667. -0.4171018E-01  0.1125301E+01  0.7458127E-03  0.3444402E-01  0.9364722E-03  0.3066542E-01
5904333. -0.4669901E-01  0.7741066E+00  0.5373865E-03  0.4442544E-01  0.7837175E-03  0.2763362E-01
5871000. -0.4975658E-01  0.3917919E+00  0.2891149E-03  0.4972985E-01  0.6481291E-03  0.2413140E-01
5837667. -0.5079105E-01  0.4908212E-02  0.2439077E-04  0.5081142E-01  0.5317687E-03  0.2030606E-01
5804333. -0.4983997E-01 -0.3637630E+00 -0.2363721E-03  0.4833540E-01  0.4359955E-03  0.1627824E-01
5771000. -0.4704834E-01 -0.6960479E+00 -0.4765390E-03  0.4307412E-01  0.3616252E-03  0.1213757E-01
5771000. -0.4704834E-01 -0.6960798E+00 -0.4765390E-03  0.4307440E-01  0.3616252E-03  0.1213757E-01
5701000. -0.3602470E-01 -0.1270514E+01 -0.8546551E-03  0.2428939E-01  0.2922893E-03  0.1972754E-03
5701000. -0.3602470E-01 -0.1095969E+01 -0.8546551E-03  0.2743540E-01  0.2922893E-03  0.1035134E-01
5667333. -0.2993182E-01 -0.1214474E+01 -0.9870895E-03  0.2269463E-01  0.2460554E-03  0.7452178E-02
5633667. -0.2312937E-01 -0.1360176E+01 -0.1093460E-02  0.1744984E-01  0.2114418E-03  0.5721112E-02
5600000. -0.1563014E-01 -0.1470929E+01 -0.1171096E-02  0.1193578E-01  0.1852610E-03  0.4231962E-02
5600000. -0.1563014E-01 -0.1470929E+01 -0.1171096E-02  0.1193578E-01  0.1852610E-03  0.4231962E-02
5563518. -0.6959817E-02 -0.1550363E+01 -0.1222446E-02  0.6023210E-02  0.1649015E-03  0.2927301E-02
5527037.  0.2045301E-02 -0.1588134E+01 -0.1240547E-02  0.3552762E-03  0.1512147E-03  0.1895645E-02
5490556.  0.1115128E-01 -0.1585973E+01 -0.1227317E-02 -0.4894502E-02  0.1427361E-03  0.1102520E-02
5454074.  0.2013727E-01 -0.1546714E+01 -0.1185558E-02 -0.9588428E-02  0.1381951E-03  0.5152479E-03
5417593.  0.2880126E-01 -0.1474297E+01 -0.1118767E-02 -0.1362449E-01  0.1364953E-03  0.1054250E-03
5381111.  0.3696639E-01 -0.1373183E+01 -0.1030902E-02 -0.1694055E-01  0.1367065E-03 -0.1571917E-03
5344630.  0.4448194E-01 -0.1248350E+01 -0.9261942E-03 -0.1950575E-01  0.1380644E-03 -0.2986196E-03
5308148.  0.5122748E-01 -0.1105039E+01 -0.8089545E-03 -0.2131903E-01  0.1399315E-03 -0.3392074E-03
5271667.  0.5711166E-01 -0.9484168E+00 -0.6834199E-03 -0.2241063E-01  0.1418125E-03 -0.3072731E-03
5235185.  0.6207329E-01 -0.7835935E+00 -0.5535947E-03 -0.2282514E-01  0.1433370E-03 -0.2164638E-03
5198704.  0.6607907E-01 -0.6153586E+00 -0.4231900E-03 -0.2262714E-01  0.1442078E-03 -0.8287626E-04
5162222.  0.6912221E-01 -0.4480186E+00 -0.2954703E-03 -0.2189949E-01  0.1442526E-03  0.6999816E-04
5125741.  0.7121904E-01 -0.2854573E+00 -0.1732544E-03 -0.2071970E-01  0.1433709E-03  0.2399093E-03
5089259.  0.7240671E-01 -0.1309495E+00 -0.5887223E-04 -0.1917789E-01  0.1414996E-03  0.4127945E-03
5052778.  0.7273925E-01  0.1281497E-01  0.4586117E-04 -0.1736462E-01  0.1386618E-03  0.5769627E-03
5016296.  0.7228442E-01  0.1437630E+00  0.1396249E-03 -0.1535896E-01  0.1349066E-03  0.7324800E-03
4979815.  0.7112024E-01  0.2603787E+00  0.2215504E-03 -0.1324385E-01  0.1303092E-03  0.8696871E-03
4943333.  0.6933164E-01  0.3617346E+00  0.2912236E-03 -0.1108914E-01  0.1249874E-03  0.9860737E-03
4906852.  0.6700755E-01  0.4473977E+00  0.3485834E-03 -0.8953703E-02  0.1190484E-03  0.1084502E-02
4870370.  0.6423791E-01  0.5173665E+00  0.3939159E-03 -0.6896100E-02  0.1126209E-03  0.1156236E-02
4833889.  0.6111168E-01  0.5720766E+00  0.4277824E-03 -0.4954545E-02  0.1058453E-03  0.1207501E-02
4797407.  0.5771408E-01  0.6122577E+00  0.4509380E-03 -0.3160482E-02  0.9882664E-04  0.1240033E-02
4760926.  0.5412589E-01  0.6388665E+00  0.4643214E-03 -0.1544656E-02  0.9169440E-04  0.1247778E-02
4724444.  0.5042116E-01  0.6531389E+00  0.4689818E-03 -0.1147115E-03  0.8456231E-04  0.1241034E-02
4687963.  0.4666708E-01  0.6563621E+00  0.4660100E-03  0.1119513E-02  0.7751261E-04  0.1218428E-02
4651482.  0.4292290E-01  0.6499223E+00  0.4565426E-03  0.2154851E-02  0.7063969E-04  0.1180231E-02
4615000.  0.3923967E-01  0.6352692E+00  0.4416929E-03  0.3000679E-02  0.6401158E-04  0.1133337E-02
4578518.  0.3566059E-01  0.6137787E+00  0.4225293E-03  0.3662879E-02  0.5768039E-04  0.1076358E-02
4542037.  0.3222095E-01  0.5868226E+00  0.4000700E-03  0.4155018E-02  0.5169905E-04  0.1012194E-02
4505556.  0.2894820E-01  0.5556896E+00  0.3752348E-03  0.4495058E-02  0.4609245E-04  0.9454107E-03
4469074.  0.2586284E-01  0.5215265E+00  0.3488593E-03  0.4695506E-02  0.4088361E-04  0.8733196E-03
4432593.  0.2297921E-01  0.4854342E+00  0.3216866E-03  0.4777271E-02  0.3609135E-04  0.8007421E-03
4396111.  0.2030542E-01  0.4483461E+00  0.2943405E-03  0.4758258E-02  0.3171150E-04  0.7289624E-03
4359630.  0.1784500E-01  0.4110652E+00  0.2673592E-03  0.4653067E-02  0.2774517E-04  0.6565723E-03
4323148.  0.1559679E-01  0.3743106E+00  0.2411790E-03  0.4481065E-02  0.2418666E-04  0.5868255E-03
4286667.  0.1355622E-01  0.3386420E+00  0.2161413E-03  0.4256404E-02  0.2102045E-04  0.5193916E-03
4250185.  0.1171563E-01  0.3045160E+00  0.1925091E-03  0.3992247E-02  0.1823485E-04  0.4540169E-03
4213704.  0.1006516E-01  0.2723014E+00  0.1704694E-03  0.3702320E-02  0.1581449E-04  0.3918466E-03
4177222.  0.8593043E-02  0.2422446E+00  0.1501408E-03  0.3395871E-02  0.1374369E-04  0.3317107E-03
4140741.  0.7286427E-02  0.2145346E+00  0.1315924E-03  0.3082301E-02  0.1201238E-04  0.2733596E-03
4104259.  0.6131443E-02  0.1892821E+00  0.1148393E-03  0.2769632E-02  0.1060959E-04  0.2166913E-03
4067778.  0.5113947E-02  0.1665290E+00  0.9986341E-04  0.2462539E-02  0.9532250E-05  0.1594486E-03
4031296.  0.4219508E-02  0.1462902E+00  0.8661619E-04  0.2166542E-02  0.8785698E-05  0.1010034E-03
3994815.  0.3433854E-02  0.1285320E+00  0.7502329E-04  0.1885236E-02  0.8381387E-05  0.3945109E-04
3958333.  0.2742919E-02  0.1131890E+00  0.6499419E-04  0.1620653E-02  0.8345703E-05 -0.2819121E-04
3921852.  0.2133104E-02  0.1001906E+00  0.5642569E-04  0.1375570E-02  0.8720710E-05 -0.1045408E-03
3885370.  0.1591225E-02  0.8943757E-01  0.4920012E-04  0.1151814E-02  0.9567550E-05 -0.1937771E-03
3848889.  0.1104763E-02  0.8082092E-01  0.4318982E-04  0.9516711E-03  0.1097428E-04 -0.3010356E-03
3812407.  0.6618003E-03  0.7421622E-01  0.3824927E-04  0.7788408E-03  0.1306147E-04 -0.4326393E-03
3775926.  0.2512834E-03  0.6946241E-01  0.3420816E-04  0.6387046E-03  0.1599127E-04 -0.5969041E-03
3739444. -0.1368414E-03  0.6635073E-01  0.3085531E-04  0.5403269E-03  0.1997945E-04 -0.8042064E-03
3702963. -0.5111519E-03  0.6457902E-01  0.2791299E-04  0.4984002E-03  0.2530817E-04 -0.1067585E-02
3666482. -0.8780848E-03  0.6367801E-01  0.2499600E-04  0.5363270E-03  0.3234336E-04 -0.1403237E-02
3630000. -0.1240707E-02  0.6291767E-01  0.2154938E-04  0.6909582E-03  0.4155457E-04 -0.1831196E-02
3630000. -0.1240707E-02  0.6291767E-01  0.2154938E-04  0.6909582E-03  0.4155457E-04 -0.1831196E-02
3592500. -0.1606462E-02  0.6103633E-01  0.1658779E-04  0.1032497E-02  0.5391712E-04 -0.2392238E-02
3555000. -0.1953078E-02  0.5597912E-01  0.8844701E-05  0.1656174E-02  0.7001528E-04 -0.3105825E-02
3517500. -0.2252741E-02  0.4437610E-01 -0.3755866E-05  0.2714368E-02  0.9084318E-04 -0.4004866E-02
3480000. -0.2452109E-02  0.2075561E-01 -0.2441901E-04  0.4444487E-02  0.1175869E-03 -0.5120743E-02
3480000. -0.2452109E-02 -0.1112823E+00 -0.9187817E-04 -0.4319407E-02  0.1175869E-03  0.2743134E-02
3409422. -0.1466772E-02 -0.6950787E-01 -0.5402603E-04 -0.2639290E-02  0.8540208E-04  0.2861917E-02
3338844. -0.8582083E-03 -0.4237199E-01 -0.3112737E-04 -0.1577959E-02  0.5669997E-04  0.2270586E-02
3268266. -0.4912482E-03 -0.2522490E-01 -0.1757112E-04 -0.9232921E-03  0.3538635E-04  0.1587685E-02
3197688. -0.2751052E-03 -0.1467082E-01 -0.9716310E-05 -0.5287398E-03  0.2105337E-04  0.1026678E-02
3127109. -0.1507089E-03 -0.8337511E-02 -0.5261757E-05 -0.2963273E-03  0.1203526E-04  0.6273340E-03
3056531. -0.8074859E-04 -0.4630155E-02 -0.2789607E-05 -0.1625011E-03  0.6641787E-05  0.3663293E-03
2985953. -0.4230011E-04 -0.2512330E-02 -0.1447248E-05 -0.8716947E-04  0.3548628E-05  0.2057623E-03
2915375. -0.2165567E-04 -0.1331589E-02 -0.7343477E-06 -0.4572167E-04  0.1838843E-05  0.1116022E-03
2844797. -0.1082913E-04 -0.6891462E-03 -0.3642095E-06 -0.2343754E-04  0.9250703E-06  0.5858938E-04
2774219. -0.5286036E-05 -0.3480828E-03 -0.1764347E-06 -0.1173472E-04  0.4520191E-06  0.2981304E-04
2703641. -0.2516859E-05 -0.1714803E-03 -0.8341609E-07 -0.5734509E-05  0.2145476E-06  0.1471451E-04
2633062. -0.1167899E-05 -0.8233430E-04 -0.3845491E-07 -0.2732903E-05  0.9889327E-07  0.7045812E-05
2562484. -0.5276662E-06 -0.3849612E-04 -0.1726871E-07 -0.1269010E-05  0.4424630E-07  0.3272703E-05
2491906. -0.2318699E-06 -0.1751008E-04 -0.7545340E-08 -0.5735350E-06  0.1920127E-07  0.1473906E-05
2421328. -0.9897656E-07 -0.7739396E-05 -0.3203801E-08 -0.2519994E-06  0.8074457E-08  0.6431404E-06
2350750. -0.4098583E-07 -0.3319889E-05 -0.1320131E-08 -0.1075021E-06  0.3286435E-08  0.2716406E-06
2280172. -0.1643963E-07 -0.1380130E-05 -0.5270648E-09 -0.4446094E-07  0.1292928E-08  0.1109219E-06
2209594. -0.6376422E-08 -0.5551432E-06 -0.2035477E-09 -0.1779833E-07  0.4908828E-09  0.4372746E-07
2139016. -0.2387134E-08 -0.2156783E-06 -0.7589294E-10 -0.6883894E-08  0.1795378E-09  0.1661441E-07
2068438. -0.8607703E-09 -0.8077205E-07 -0.2726200E-10 -0.2567258E-08  0.6312827E-10  0.6072679E-08
1997859. -0.2982597E-09 -0.2909364E-07 -0.9412677E-11 -0.9210968E-09  0.2129004E-10  0.2130541E-08
1927281. -0.9905745E-10 -0.1005426E-07 -0.3115657E-11 -0.3171505E-09  0.6869112E-11  0.7157400E-09
1856703. -0.3144129E-10 -0.3324311E-08 -0.9858166E-12 -0.1045024E-09  0.2114075E-11  0.2295919E-09
1786125. -0.9506551E-11 -0.1048313E-08 -0.2971899E-12 -0.3284905E-10  0.6185903E-12  0.7010052E-10
1715547. -0.2728219E-11 -0.3141734E-09 -0.8504623E-13 -0.9815895E-11  0.1714405E-12  0.2030064E-10
1644969. -0.7404450E-12 -0.8907633E-10 -0.2299554E-13 -0.2778707E-11  0.4478764E-13  0.5556736E-11
1574391.  0.0000000E+00  0.0000000E+00  0.0000000E+00  0.0000000E+00  0.0000000E+00  0.0000000E+00
1503812.  0.0000000E+00  0.0000000E+00  0.0000000E+00  0.0000000E+00  0.0000000E+00  0.0000000E+00
1433234.  0.0000000E+00  0.0000000E+00  0.0000000E+00  0.0000000E+00  0.0000000E+00  0.0000000E+00
1362656.  0.0000000E+00  0.0000000E+00  0.0000000E+00  0.0000000E+00  0.0000000E+00  0.0000000E+00
1292078.  0.0000000E+00  0.0000000E+00  0.0000000E+00  0.0000000E+00  0.0000000E+00  0.0000000E+00
1221500.  0.0000000E+00  0.0000000E+00  0.0000000E+00  0.0000000E+00  0.0000000E+00  0.0000000E+00
1221500.  0.0000000E+00  0.0000000E+00  0.0000000E+00  0.0000000E+00  0.0000000E+00  0.0000000E+00
1183328.  0.0000000E+00  0.0000000E+00  0.0000000E+00  0.0000000E+00  0.0000000E+00  0.0000000E+00
1145156.  0.0000000E+00  0.0000000E+00  0.0000000E+00  0.0000000E+00  0.0000000E+00  0.0000000E+00
1106984.  0.0000000E+00  0.0000000E+00  0.0000000E+00  0.0000000E+00  0.0000000E+00  0.0000000E+00
1068812.  0.0000000E+00  0.0000000E+00  0.0000000E+00  0.0000000E+00  0.0000000E+00  0.0000000E+00
1030641.  0.0000000E+00  0.0000000E+00  0.0000000E+00  0.0000000E+00  0.0000000E+00  0.0000000E+00
 992469.  0.0000000E+00  0.0000000E+00  0.0000000E+00  0.0000000E+00  0.0000000E+00  0.0000000E+00
 954297.  0.0000000E+00  0.0000000E+00  0.0000000E+00  0.0000000E+00  0.0000000E+00  0.0000000E+00
 916125.  0.0000000E+00  0.0000000E+00  0.0000000E+00  0.0000000E+00  0.0000000E+00  0.0000000E+00
 877953.  0.0000000E+00  0.0000000E+00  0.0000000E+00  0.0000000E+00  0.0000000E+00  0.0000000E+00
 839781.  0.0000000E+00  0.0000000E+00  0.0000000E+00  0.0000000E+00  0.0000000E+00  0.0000000E+00
 801609.  0.0000000E+00  0.0000000E+00  0.0000000E+00  0.0000000E+00  0.0000000E+00  0.0000000E+00
 763438.  0.0000000E+00  0.0000000E+00  0.0000000E+00  0.0000000E+00  0.0000000E+00  0.0000000E+00
 725266.  0.0000000E+00  0.0000000E+00  0.0000000E+00  0.0000000E+00  0.0000000E+00  0.0000000E+00
 687094.  0.0000000E+00  0.0000000E+00  0.0000000E+00  0.0000000E+00  0.0000000E+00  0.0000000E+00
 648922.  0.0000000E+00  0.0000000E+00  0.0000000E+00  0.0000000E+00  0.0000000E+00  0.0000000E+00
 610750.  0.0000000E+00  0.0000000E+00  0.0000000E+00  0.0000000E+00  0.0000000E+00  0.0000000E+00
 572578.  0.0000000E+00  0.0000000E+00  0.0000000E+00  0.0000000E+00  0.0000000E+00  0.0000000E+00
 534406.  0.0000000E+00  0.0000000E+00  0.0000000E+00  0.0000000E+00  0.0000000E+00  0.0000000E+00
 496234.  0.0000000E+00  0.0000000E+00  0.0000000E+00  0.0000000E+00  0.0000000E+00  0.0000000E+00
 458062.  0.0000000E+00  0.0000000E+00  0.0000000E+00  0.0000000E+00  0.0000000E+00  0.0000000E+00
 419891.  0.0000000E+00  0.0000000E+00  0.0000000E+00  0.0000000E+00  0.0000000E+00  0.0000000E+00
 381719.  0.0000000E+00  0.0000000E+00  0.0000000E+00  0.0000000E+00  0.0000000E+00  0.0000000E+00
 343547.  0.0000000E+00  0.0000000E+00  0.0000000E+00  0.0000000E+00  0.0000000E+00  0.0000000E+00
 305375.  0.0000000E+00  0.0000000E+00  0.0000000E+00  0.0000000E+00  0.0000000E+00  0.0000000E+00
 267203.  0.0000000E+00  0.0000000E+00  0.0000000E+00  0.0000000E+00  0.0000000E+00  0.0000000E+00
 229031.  0.0000000E+00  0.0000000E+00  0.0000000E+00  0.0000000E+00  0.0000000E+00  0.0000000E+00
 190859.  0.0000000E+00  0.0000000E+00  0.0000000E+00  0.0000000E+00  0.0000000E+00  0.0000000E+00
 152688.  0.0000000E+00  0.0000000E+00  0.0000000E+00  0.0000000E+00  0.0000000E+00  0.0000000E+00
 114516.  0.0000000E+00  0.0000000E+00  0.0000000E+00  0.0000000E+00  0.0000000E+00  0.0000000E+00
  76344.  0.0000000E+00  0.0000000E+00  0.0000000E+00  0.0000000E+00  0.0000000E+00  0.0000000E+00
  38172.  0.0000000E+00  0.0000000E+00  0.0000000E+00  0.0000000E+00  0.0000000E+00  0.0000000E+00
      0.  0.0000000E+00  0.0000000E+00  0.0000000E+00  0.0000000E+00  0.0000000E+00  0.0000000E+00
