      27        3 S      744         97.00585        117.90210         14.94314        685.78113      185    7
6371000. -0.3641775E-01  0.3811372E-01  0.2013359E-02  0.3843110E-01  0.0000000E+00  0.0000000E+00
6370000. -0.3642145E-01  0.9074918E-02  0.2006912E-02  0.4370992E-01  0.0000000E+00  0.0000000E+00
6369000. -0.3642059E-01 -0.1998105E-01  0.1999639E-02  0.4896196E-01  0.0000000E+00  0.0000000E+00
6368000. -0.3641517E-01 -0.4905051E-01  0.1991543E-02  0.5418507E-01  0.0000000E+00  0.0000000E+00
6368000. -0.3641517E-01 -0.4905051E-01  0.1991543E-02  0.5418507E-01  0.0000000E+00  0.0000000E+00
6367000. -0.3640519E-01 -0.7812983E-01  0.1982630E-02  0.5937708E-01  0.0000000E+00  0.0000000E+00
6366000. -0.3639065E-01 -0.1072153E+00  0.1972905E-02  0.6453583E-01  0.0000000E+00  0.0000000E+00
6365000. -0.3637154E-01 -0.1363033E+00  0.1962373E-02  0.6965921E-01  0.0000000E+00  0.0000000E+00
6364000. -0.3634786E-01 -0.1653901E+00  0.1951040E-02  0.7474509E-01  0.0000000E+00  0.0000000E+00
6363000. -0.3631962E-01 -0.1944721E+00  0.1938911E-02  0.7979136E-01  0.0000000E+00  0.0000000E+00
6362000. -0.3628681E-01 -0.2235455E+00  0.1925994E-02  0.8479594E-01  0.0000000E+00  0.0000000E+00
6361000. -0.3624944E-01 -0.2526067E+00  0.1912294E-02  0.8975676E-01  0.0000000E+00  0.0000000E+00
6360000. -0.3620751E-01 -0.2816519E+00  0.1897819E-02  0.9467179E-01  0.0000000E+00  0.0000000E+00
6359000. -0.3616102E-01 -0.3106776E+00  0.1882577E-02  0.9953897E-01  0.0000000E+00  0.0000000E+00
6358000. -0.3610998E-01 -0.3396799E+00  0.1866575E-02  0.1043563E+00  0.0000000E+00  0.0000000E+00
6357000. -0.3605439E-01 -0.3686552E+00  0.1849820E-02  0.1091218E+00  0.0000000E+00  0.0000000E+00
6356000. -0.3599426E-01 -0.3975999E+00  0.1832321E-02  0.1138335E+00  0.0000000E+00  0.0000000E+00
6356000. -0.3599426E-01 -0.2511261E+00  0.1832321E-02  0.8373944E-01  0.0000000E+00  0.0000000E+00
6355000. -0.3595319E-01 -0.2721408E+00  0.1818930E-02  0.8688404E-01  0.0000000E+00  0.0000000E+00
6354000. -0.3590883E-01 -0.2931414E+00  0.1805048E-02  0.8999885E-01  0.0000000E+00  0.0000000E+00
6353000. -0.3586117E-01 -0.3141258E+00  0.1790679E-02  0.9308300E-01  0.0000000E+00  0.0000000E+00
6352000. -0.3581022E-01 -0.3350923E+00  0.1775829E-02  0.9613564E-01  0.0000000E+00  0.0000000E+00
6351000. -0.3575598E-01 -0.3560388E+00  0.1760502E-02  0.9915591E-01  0.0000000E+00  0.0000000E+00
6350000. -0.3569845E-01 -0.3769634E+00  0.1744704E-02  0.1021430E+00  0.0000000E+00  0.0000000E+00
6349000. -0.3563764E-01 -0.3978642E+00  0.1728439E-02  0.1050960E+00  0.0000000E+00  0.0000000E+00
6348000. -0.3557355E-01 -0.4187391E+00  0.1711713E-02  0.1080142E+00  0.0000000E+00  0.0000000E+00
6347000. -0.3550619E-01 -0.4395863E+00  0.1694533E-02  0.1108967E+00  0.0000000E+00  0.0000000E+00
6346600. -0.3547833E-01 -0.4479170E+00  0.1687534E-02  0.1120396E+00  0.0000000E+00  0.0000000E+00
6346600. -0.3547833E-01 -0.2588556E+00  0.1687534E-02  0.8776262E-01  0.0000000E+00  0.0000000E+00
6318800. -0.3344138E-01 -0.6728973E+00  0.1183930E-02  0.1391566E+00  0.0000000E+00  0.0000000E+00
6291000. -0.2963855E-01 -0.1064509E+01  0.5124283E-03  0.1636763E+00  0.0000000E+00  0.0000000E+00
6291000. -0.2963855E-01 -0.1077982E+01  0.5124283E-03  0.1680358E+00  0.0000000E+00  0.0000000E+00
6263000. -0.2410270E-01 -0.1431590E+01 -0.2229585E-03  0.1611114E+00  0.0000000E+00  0.0000000E+00
6235000. -0.1715547E-01 -0.1716816E+01 -0.8579185E-03  0.1231158E+00  0.0000000E+00  0.0000000E+00
6207000. -0.9140278E-02 -0.1914765E+01 -0.1270093E-02  0.6135066E-01  0.0000000E+00  0.0000000E+00
6179000. -0.4744646E-03 -0.2010892E+01 -0.1379143E-02 -0.1265228E-01  0.0000000E+00  0.0000000E+00
6151000.  0.8372342E-02 -0.1996124E+01 -0.1161073E-02 -0.8516643E-01  0.0000000E+00  0.0000000E+00
6151000.  0.8372342E-02 -0.1612516E+01 -0.1161073E-02 -0.7610255E-01  0.0000000E+00  0.0000000E+00
6128500.  0.1389495E-01 -0.1507556E+01 -0.8151312E-03 -0.1179818E+00  0.0000000E+00  0.0000000E+00
6106000.  0.1897047E-01 -0.1360181E+01 -0.3430128E-03 -0.1469327E+00  0.0000000E+00  0.0000000E+00
6083500.  0.2345886E-01 -0.1176080E+01  0.2038846E-03 -0.1599632E+00  0.0000000E+00  0.0000000E+00
6061000.  0.2724183E-01 -0.9618575E+00  0.7664544E-03 -0.1557291E+00  0.0000000E+00  0.0000000E+00
6038500.  0.3022568E-01 -0.7247733E+00  0.1283915E-02 -0.1346263E+00  0.0000000E+00  0.0000000E+00
6016000.  0.3234306E-01 -0.4724399E+00  0.1699857E-02 -0.9870858E-01  0.0000000E+00  0.0000000E+00
5993500.  0.3355371E-01 -0.2125553E+00  0.1967725E-02 -0.5144926E-01  0.0000000E+00  0.0000000E+00
5971000.  0.3384435E-01  0.4735281E-01  0.2055213E-02  0.2622710E-02  0.0000000E+00  0.0000000E+00
5971000.  0.3384435E-01  0.4137240E-01  0.2055213E-02 -0.1402939E-02  0.0000000E+00  0.0000000E+00
5937667.  0.3271531E-01  0.3833821E+00  0.1867181E-02  0.7198969E-01  0.0000000E+00  0.0000000E+00
5904333.  0.2991565E-01  0.6779094E+00  0.1326102E-02  0.1316420E+00  0.0000000E+00  0.0000000E+00
5871000.  0.2572165E-01  0.9152012E+00  0.5298798E-03  0.1684055E+00  0.0000000E+00  0.0000000E+00
5837667.  0.2044777E-01  0.1090224E+01 -0.3885685E-03  0.1780853E+00  0.0000000E+00  0.0000000E+00
5804333.  0.1442387E-01  0.1201958E+01 -0.1287279E-02  0.1613225E+00  0.0000000E+00  0.0000000E+00
5771000.  0.7976963E-02  0.1252586E+01 -0.2038433E-02  0.1227224E+00  0.0000000E+00  0.0000000E+00
5771000.  0.7976963E-02  0.1252601E+01 -0.2038433E-02  0.1227181E+00  0.0000000E+00  0.0000000E+00
5701000. -0.6055338E-02  0.1261593E+01 -0.2782946E-02  0.5617462E-02  0.0000000E+00  0.0000000E+00
5701000. -0.6055338E-02  0.1042768E+01 -0.2782946E-02  0.5207852E-02  0.0000000E+00  0.0000000E+00
5667333. -0.1118228E-01  0.9076269E+00 -0.2671198E-02 -0.4592758E-01  0.0000000E+00  0.0000000E+00
5633667. -0.1572571E-01  0.8120061E+00 -0.2304581E-02 -0.9212002E-01  0.0000000E+00  0.0000000E+00
5600000. -0.1970746E-01  0.6901420E+00 -0.1716200E-02 -0.1283790E+00  0.0000000E+00  0.0000000E+00
5600000. -0.1970746E-01  0.6901420E+00 -0.1716200E-02 -0.1283790E+00  0.0000000E+00  0.0000000E+00
5563518. -0.2322194E-01  0.5336276E+00 -0.9045217E-03 -0.1521561E+00  0.0000000E+00  0.0000000E+00
5527037. -0.2578209E-01  0.3579299E+00 -0.9316288E-05 -0.1573336E+00  0.0000000E+00  0.0000000E+00
5490556. -0.2729711E-01  0.1697238E+00  0.8614261E-03 -0.1437991E+00  0.0000000E+00  0.0000000E+00
5454074. -0.2771520E-01 -0.2402314E-01  0.1606039E-02 -0.1138427E+00  0.0000000E+00  0.0000000E+00
5417593. -0.2702497E-01 -0.2162126E+00  0.2142075E-02 -0.7181620E-01  0.0000000E+00  0.0000000E+00
5381111. -0.2525542E-01 -0.3998320E+00  0.2416324E-02 -0.2343266E-01  0.0000000E+00  0.0000000E+00
5344630. -0.2247533E-01 -0.5680997E+00  0.2410406E-02  0.2497615E-01  0.0000000E+00  0.0000000E+00
5308148. -0.1879059E-01 -0.7147697E+00  0.2141925E-02  0.6731983E-01  0.0000000E+00  0.0000000E+00
5271667. -0.1434179E-01 -0.8341277E+00  0.1660833E-02  0.9851071E-01  0.0000000E+00  0.0000000E+00
5235185. -0.9298922E-02 -0.9215453E+00  0.1041748E-02  0.1150969E+00  0.0000000E+00  0.0000000E+00
5198704. -0.3855752E-02 -0.9734870E+00  0.3734688E-03  0.1156347E+00  0.0000000E+00  0.0000000E+00
5162222.  0.1777406E-02 -0.9876027E+00 -0.2530612E-03  0.1007961E+00  0.0000000E+00  0.0000000E+00
5125741.  0.7381196E-02 -0.9633090E+00 -0.7565351E-03  0.7325035E-01  0.0000000E+00  0.0000000E+00
5089259.  0.1273763E-01 -0.9014123E+00 -0.1075685E-02  0.3721773E-01  0.0000000E+00  0.0000000E+00
5052778.  0.1763714E-01 -0.8043148E+00 -0.1176500E-02 -0.2090059E-02  0.0000000E+00  0.0000000E+00
5016296.  0.2188932E-01 -0.6760495E+00 -0.1056032E-02 -0.3916632E-01  0.0000000E+00  0.0000000E+00
4979815.  0.2532993E-01 -0.5218678E+00 -0.7420062E-03 -0.6891736E-01  0.0000000E+00  0.0000000E+00
4943333.  0.2782860E-01 -0.3481774E+00 -0.2885593E-03 -0.8730140E-01  0.0000000E+00  0.0000000E+00
4906852.  0.2929387E-01 -0.1621851E+00  0.2312121E-03 -0.9181716E-01  0.0000000E+00  0.0000000E+00
4870370.  0.2967693E-01  0.2853740E-01  0.7350752E-03 -0.8178645E-01  0.0000000E+00  0.0000000E+00
4833889.  0.2897269E-01  0.2163291E+00  0.1142307E-02 -0.5842495E-01  0.0000000E+00  0.0000000E+00
4797407.  0.2721894E-01  0.3939176E+00  0.1384223E-02 -0.2465484E-01  0.0000000E+00  0.0000000E+00
4760926.  0.2449372E-01  0.5546335E+00  0.1412883E-02  0.1526257E-01  0.0000000E+00  0.0000000E+00
4724444.  0.2090998E-01  0.6929109E+00  0.1207333E-02  0.5626988E-01  0.0000000E+00  0.0000000E+00
4687963.  0.1660975E-01  0.8042778E+00  0.7764285E-03  0.9311936E-01  0.0000000E+00  0.0000000E+00
4651482.  0.1175674E-01  0.8855880E+00  0.1580792E-03  0.1210101E+00  0.0000000E+00  0.0000000E+00
4615000.  0.6528307E-02  0.9351810E+00 -0.5850380E-03  0.1361718E+00  0.0000000E+00  0.0000000E+00
4578518.  0.1108164E-02  0.9525735E+00 -0.1372575E-02  0.1362753E+00  0.0000000E+00  0.0000000E+00
4542037. -0.4320920E-02  0.9385989E+00 -0.2115731E-02  0.1207320E+00  0.0000000E+00  0.0000000E+00
4505556. -0.9584568E-02  0.8951667E+00 -0.2727559E-02  0.9074977E-01  0.0000000E+00  0.0000000E+00
4469074. -0.1452130E-01  0.8248710E+00 -0.3132807E-02  0.4917328E-01  0.0000000E+00  0.0000000E+00
4432593. -0.1898647E-01  0.7311186E+00 -0.3276528E-02  0.1926598E-03  0.0000000E+00  0.0000000E+00
4396111. -0.2285659E-01  0.6176212E+00 -0.3130460E-02 -0.5115995E-01  0.0000000E+00  0.0000000E+00
4359630. -0.2602936E-01  0.4882521E+00 -0.2696316E-02 -0.9954496E-01  0.0000000E+00  0.0000000E+00
4323148. -0.2842563E-01  0.3470511E+00 -0.2005738E-02 -0.1399368E+00  0.0000000E+00  0.0000000E+00
4286667. -0.2998877E-01  0.1979170E+00 -0.1117075E-02 -0.1681324E+00  0.0000000E+00  0.0000000E+00
4250185. -0.3068429E-01  0.4462754E-01 -0.1091633E-03 -0.1812214E+00  0.0000000E+00  0.0000000E+00
4213704. -0.3049890E-01 -0.1091751E+00  0.9269134E-03 -0.1779022E+00  0.0000000E+00  0.0000000E+00
4177222. -0.2943962E-01 -0.2600177E+00  0.1897540E-02 -0.1585592E+00  0.0000000E+00  0.0000000E+00
4140741. -0.2753316E-01 -0.4045460E+00  0.2716053E-02 -0.1252542E+00  0.0000000E+00  0.0000000E+00
4104259. -0.2482477E-01 -0.5395517E+00  0.3311908E-02 -0.8145929E-01  0.0000000E+00  0.0000000E+00
4067778. -0.2137846E-01 -0.6617877E+00  0.3637455E-02 -0.3165770E-01  0.0000000E+00  0.0000000E+00
4031296. -0.1727585E-01 -0.7682533E+00  0.3672613E-02  0.1911201E-01  0.0000000E+00  0.0000000E+00
3994815. -0.1261592E-01 -0.8559904E+00  0.3426364E-02  0.6582252E-01  0.0000000E+00  0.0000000E+00
3958333. -0.7514029E-02 -0.9221368E+00  0.2935176E-02  0.1039801E+00  0.0000000E+00  0.0000000E+00
3921852. -0.2101016E-02 -0.9643382E+00  0.2258624E-02  0.1300931E+00  0.0000000E+00  0.0000000E+00
3885370.  0.3480116E-02 -0.9804883E+00  0.1472487E-02  0.1420148E+00  0.0000000E+00  0.0000000E+00
3848889.  0.9075191E-02 -0.9690860E+00  0.6605505E-03  0.1391484E+00  0.0000000E+00  0.0000000E+00
3812407.  0.1452453E-01 -0.9294718E+00 -0.9469263E-04  0.1224989E+00  0.0000000E+00  0.0000000E+00
3775926.  0.1966588E-01 -0.8616558E+00 -0.7206196E-03  0.9450348E-01  0.0000000E+00  0.0000000E+00
3739444.  0.2434072E-01 -0.7667627E+00 -0.1162184E-02  0.5878304E-01  0.0000000E+00  0.0000000E+00
3702963.  0.2839945E-01 -0.6469283E+00 -0.1387437E-02  0.1972231E-01  0.0000000E+00  0.0000000E+00
3666482.  0.3170754E-01 -0.5051875E+00 -0.1390567E-02 -0.1802508E-01  0.0000000E+00  0.0000000E+00
3630000.  0.3415105E-01 -0.3456856E+00 -0.1192046E-02 -0.5001149E-01  0.0000000E+00  0.0000000E+00
3630000.  0.3415105E-01 -0.3456856E+00 -0.1192046E-02 -0.5001149E-01  0.0000000E+00  0.0000000E+00
3592500.  0.3566914E-01 -0.1683642E+00 -0.8244045E-03 -0.7295346E-01  0.0000000E+00  0.0000000E+00
3555000.  0.3611821E-01  0.1649949E-01 -0.3586438E-03 -0.8299547E-01  0.0000000E+00  0.0000000E+00
3517500.  0.3547278E-01  0.2024404E+00  0.1246173E-03 -0.7881878E-01  0.0000000E+00  0.0000000E+00
3480000.  0.3374590E-01  0.3828669E+00  0.5419271E-03 -0.6078809E-01  0.0000000E+00  0.0000000E+00
3480000.  0.3374590E-01  0.6087695E+00 -0.4949626E-03  0.6269563E-01  0.0000000E+00  0.0000000E+00
3409422.  0.2223666E-01  0.1411533E+01 -0.1100200E-02  0.4362185E-01  0.0000000E+00  0.0000000E+00
3338844.  0.4085765E-02  0.1782042E+01 -0.1409063E-02  0.1049583E-01  0.0000000E+00  0.0000000E+00
3268266. -0.1533388E-01  0.1639626E+01 -0.1315271E-02 -0.2732174E-01  0.0000000E+00  0.0000000E+00
3197688. -0.3056902E-01  0.1048082E+01 -0.8256467E-03 -0.5925874E-01  0.0000000E+00  0.0000000E+00
3127109. -0.3754362E-01  0.1845326E+00 -0.5755595E-04 -0.7637206E-01  0.0000000E+00  0.0000000E+00
3056531. -0.3452193E-01 -0.7159833E+00  0.7924182E-03 -0.7360754E-01  0.0000000E+00  0.0000000E+00
2985953. -0.2239983E-01 -0.1423730E+01  0.1499347E-02 -0.5098887E-01  0.0000000E+00  0.0000000E+00
2915375. -0.4327565E-02 -0.1769225E+01  0.1866861E-02 -0.1353126E-01  0.0000000E+00  0.0000000E+00
2844797.  0.1517543E-01 -0.1678631E+01  0.1776461E-02  0.3001276E-01  0.0000000E+00  0.0000000E+00
2774219.  0.3136050E-01 -0.1183949E+01  0.1217983E-02  0.6922597E-01  0.0000000E+00  0.0000000E+00
2703641.  0.4036373E-01 -0.4087207E+00  0.2948227E-03  0.9442118E-01  0.0000000E+00  0.0000000E+00
2633062.  0.4005005E-01  0.4651226E+00 -0.7967170E-03  0.9883166E-01  0.0000000E+00  0.0000000E+00
2562484.  0.3042660E-01  0.1240236E+01 -0.1808975E-02  0.8014271E-01  0.0000000E+00  0.0000000E+00
2491906.  0.1357013E-01  0.1747005E+01 -0.2496528E-02  0.4107396E-01  0.0000000E+00  0.0000000E+00
2421328. -0.6881508E-02  0.1877822E+01 -0.2670281E-02 -0.1108239E-01  0.0000000E+00  0.0000000E+00
2350750. -0.2653966E-01  0.1606552E+01 -0.2241184E-02 -0.6585402E-01  0.0000000E+00  0.0000000E+00
2280172. -0.4119418E-01  0.9904153E+00 -0.1244608E-02 -0.1116222E+00  0.0000000E+00  0.0000000E+00
2209594. -0.4766971E-01  0.1553583E+00  0.1595705E-03 -0.1379080E+00  0.0000000E+00  0.0000000E+00
2139016. -0.4444531E-01 -0.7311655E+00  0.1711632E-02 -0.1374789E+00  0.0000000E+00  0.0000000E+00
2068438. -0.3193009E-01 -0.1493981E+01  0.3097194E-02 -0.1078915E+00  0.0000000E+00  0.0000000E+00
1997859. -0.1235921E-01 -0.1983782E+01  0.4004999E-02 -0.5218914E-01  0.0000000E+00  0.0000000E+00
1927281.  0.1065086E-01 -0.2104393E+01  0.4187096E-02  0.2136206E-01  0.0000000E+00  0.0000000E+00
1856703.  0.3279459E-01 -0.1829074E+01  0.3510885E-02  0.1004790E+00  0.0000000E+00  0.0000000E+00
1786125.  0.4987486E-01 -0.1203561E+01  0.1993435E-02  0.1707889E+00  0.0000000E+00  0.0000000E+00
1715547.  0.5856160E-01 -0.3359812E+00 -0.1881467E-03  0.2181781E+00  0.0000000E+00  0.0000000E+00
1644969.  0.5697647E-01  0.6238306E+00 -0.2712945E-02  0.2311772E+00  0.0000000E+00  0.0000000E+00
1574391.  0.4500812E-01  0.1511520E+01 -0.5157285E-02  0.2029947E+00  0.0000000E+00  0.0000000E+00
1503812.  0.2431285E-01  0.2176876E+01 -0.7054853E-02  0.1328753E+00  0.0000000E+00  0.0000000E+00
1433234. -0.1985135E-02  0.2508928E+01 -0.7966904E-02  0.2656293E-01  0.0000000E+00  0.0000000E+00
1362656. -0.2983614E-01  0.2453509E+01 -0.7552448E-02 -0.1042203E+00  0.0000000E+00  0.0000000E+00
1292078. -0.5494310E-01  0.2020462E+01 -0.5627223E-02 -0.2432005E+00  0.0000000E+00  0.0000000E+00
1221500. -0.7346012E-01  0.1279897E+01 -0.2202905E-02 -0.3716729E+00  0.0000000E+00  0.0000000E+00
1221500. -0.7346012E-01  0.1315105E+01  0.2943598E-02  0.3985003E+00  0.0000000E+00  0.0000000E+00
1183328. -0.7925837E-01  0.5956839E+00 -0.1207349E-03  0.5522035E+00  0.0000000E+00  0.0000000E+00
1145156. -0.8048525E-01 -0.1791426E+00 -0.2757681E-02  0.2550197E+00  0.0000000E+00  0.0000000E+00
1106984. -0.7738895E-01 -0.8168590E+00 -0.2473879E-02 -0.3879052E+00  0.0000000E+00  0.0000000E+00
1068812. -0.7126553E-01 -0.1173865E+01  0.2027645E-02 -0.1097746E+01  0.0000000E+00  0.0000000E+00
1030641. -0.6394765E-01 -0.1222699E+01  0.1015435E-01 -0.1547906E+01  0.0000000E+00  0.0000000E+00
 992469. -0.5702033E-01 -0.1071435E+01  0.1959697E-01 -0.1515244E+01  0.0000000E+00  0.0000000E+00
 954297. -0.5110520E-01 -0.9220982E+00  0.2730639E-01 -0.9871702E+00  0.0000000E+00  0.0000000E+00
 916125. -0.4554670E-01 -0.9817994E+00  0.3084943E-01 -0.1750650E+00  0.0000000E+00  0.0000000E+00
 877953. -0.3868857E-01 -0.1362115E+01  0.2953112E-01  0.5740496E+00  0.0000000E+00  0.0000000E+00
 839781. -0.2867579E-01 -0.2011337E+01  0.2476785E-01  0.9297807E+00  0.0000000E+00  0.0000000E+00
 801609. -0.1447535E-01 -0.2712990E+01  0.1952071E-01  0.7277651E+00  0.0000000E+00  0.0000000E+00
 763438.  0.3320700E-02 -0.3158854E+01  0.1701296E-01  0.4987411E-01  0.0000000E+00  0.0000000E+00
 725266.  0.2230444E-01 -0.3073251E+01  0.1927724E-01 -0.8018779E+00  0.0000000E+00  0.0000000E+00
 687094.  0.3883997E-01 -0.2341201E+01  0.2616756E-01 -0.1428678E+01  0.0000000E+00  0.0000000E+00
 648922.  0.4930057E-01 -0.1087151E+01  0.3528212E-01 -0.1504792E+01  0.0000000E+00  0.0000000E+00
 610750.  0.5152416E-01  0.3342390E+00  0.4286413E-01 -0.9218751E+00  0.0000000E+00  0.0000000E+00
 572578.  0.4592455E-01  0.1441887E+01  0.4532854E-01  0.1543367E+00  0.0000000E+00  0.0000000E+00
 534406.  0.3576561E-01  0.1795954E+01  0.4078932E-01  0.1340981E+01  0.0000000E+00  0.0000000E+00
 496234.  0.2638142E-01  0.1170957E+01  0.2994699E-01  0.2187335E+01  0.0000000E+00  0.0000000E+00
 458062.  0.2350948E-01 -0.3315737E+00  0.1594904E-01  0.2356225E+01  0.0000000E+00  0.0000000E+00
 419891.  0.3125848E-01 -0.2279288E+01  0.3254398E-02  0.1763339E+01  0.0000000E+00  0.0000000E+00
 381719.  0.5042169E-01 -0.4026079E+01 -0.4059596E-02  0.6165942E+00  0.0000000E+00  0.0000000E+00
 343547.  0.7777887E-01 -0.4916951E+01 -0.3868371E-02 -0.6615173E+00  0.0000000E+00  0.0000000E+00
 305375.  0.1067336E+00 -0.4515246E+01  0.3176750E-02 -0.1598542E+01  0.0000000E+00  0.0000000E+00
 267203.  0.1291762E+00 -0.2772204E+01  0.1391457E-01 -0.1857710E+01  0.0000000E+00  0.0000000E+00
 229031.  0.1380258E+00 -0.7601812E-01  0.2392540E-01 -0.1369860E+01  0.0000000E+00  0.0000000E+00
 190859.  0.1296309E+00  0.2844225E+01  0.2927041E-01 -0.3586727E+00  0.0000000E+00  0.0000000E+00
 152688.  0.1052118E+00  0.5134590E+01  0.2802450E-01  0.7510949E+00  0.0000000E+00  0.0000000E+00
 114516.  0.7080550E-01  0.6085031E+01  0.2099045E-01  0.1505467E+01  0.0000000E+00  0.0000000E+00
  76344.  0.3567127E-01  0.5361903E+01  0.1131442E-01  0.1603438E+01  0.0000000E+00  0.0000000E+00
  38172.  0.9604389E-02  0.3127064E+01  0.3162999E-02  0.1016954E+01  0.0000000E+00  0.0000000E+00
      0.  0.0000000E+00  0.0000000E+00  0.0000000E+00  0.0000000E+00  0.0000000E+00  0.0000000E+00
