       9       14 S      483        145.68080         18.95034         10.85449        481.51120      185    7
6371000.  0.6656146E-01 -0.1585059E+00 -0.1286192E-02 -0.6784765E-01 -0.1546873E-03 -0.1231990E+00
6370000.  0.6658442E-01 -0.1340594E+00 -0.1275431E-02 -0.6926794E-01 -0.1353530E-03 -0.1231572E+00
6369000.  0.6660354E-01 -0.1095658E+00 -0.1264448E-02 -0.7066835E-01 -0.1160258E-03 -0.1231094E+00
6368000.  0.6661882E-01 -0.8502681E-01 -0.1253248E-02 -0.7204863E-01 -0.9670651E-04 -0.1230556E+00
6368000.  0.6661882E-01 -0.8502681E-01 -0.1253248E-02 -0.7204863E-01 -0.9670651E-04 -0.1230556E+00
6367000.  0.6663023E-01 -0.6044421E-01 -0.1241832E-02 -0.7340854E-01 -0.7739617E-04 -0.1229958E+00
6366000.  0.6663778E-01 -0.3581977E-01 -0.1230204E-02 -0.7474782E-01 -0.5809567E-04 -0.1229301E+00
6365000.  0.6664147E-01 -0.1115528E-01 -0.1218368E-02 -0.7606623E-01 -0.3880595E-04 -0.1228584E+00
6364000.  0.6664129E-01  0.1354746E-01 -0.1206326E-02 -0.7736354E-01 -0.1952795E-04 -0.1227808E+00
6363000.  0.6663722E-01  0.3828666E-01 -0.1194083E-02 -0.7863948E-01 -0.2626123E-06 -0.1226972E+00
6362000.  0.6662927E-01  0.6306051E-01 -0.1181641E-02 -0.7989386E-01  0.1898914E-04 -0.1226076E+00
6361000.  0.6661742E-01  0.8786720E-01 -0.1169004E-02 -0.8112642E-01  0.3822636E-04 -0.1225121E+00
6360000.  0.6660168E-01  0.1127049E+00 -0.1156174E-02 -0.8233695E-01  0.5744812E-04 -0.1224106E+00
6359000.  0.6658204E-01  0.1375718E+00 -0.1143157E-02 -0.8352522E-01  0.7665349E-04 -0.1223032E+00
6358000.  0.6655850E-01  0.1624659E+00 -0.1129955E-02 -0.8469103E-01  0.9584153E-04 -0.1221898E+00
6357000.  0.6653104E-01  0.1873856E+00 -0.1116572E-02 -0.8583417E-01  0.1150113E-03 -0.1220705E+00
6356000.  0.6649967E-01  0.2123290E+00 -0.1103011E-02 -0.8695441E-01  0.1341619E-03 -0.1219453E+00
6356000.  0.6649967E-01  0.1064895E+00 -0.1103011E-02 -0.7934654E-01  0.1341619E-03 -0.1364148E+00
6355000.  0.6648152E-01  0.1246909E+00 -0.1090500E-02 -0.8006197E-01  0.1555651E-03 -0.1363041E+00
6354000.  0.6646052E-01  0.1429090E+00 -0.1077879E-02 -0.8076315E-01  0.1769506E-03 -0.1361890E+00
6353000.  0.6643666E-01  0.1611427E+00 -0.1065148E-02 -0.8144999E-01  0.1983176E-03 -0.1360694E+00
6352000.  0.6640994E-01  0.1793911E+00 -0.1052310E-02 -0.8212241E-01  0.2196656E-03 -0.1359453E+00
6351000.  0.6638034E-01  0.1976532E+00 -0.1039369E-02 -0.8278032E-01  0.2409937E-03 -0.1358168E+00
6350000.  0.6634789E-01  0.2159278E+00 -0.1026325E-02 -0.8342366E-01  0.2623013E-03 -0.1356838E+00
6349000.  0.6631256E-01  0.2342140E+00 -0.1013181E-02 -0.8405233E-01  0.2835877E-03 -0.1355464E+00
6348000.  0.6627436E-01  0.2525108E+00 -0.9999394E-03 -0.8466627E-01  0.3048521E-03 -0.1354045E+00
6347000.  0.6623329E-01  0.2708172E+00 -0.9866029E-03 -0.8526541E-01  0.3260940E-03 -0.1352582E+00
6346600.  0.6621606E-01  0.2781422E+00 -0.9812422E-03 -0.8550089E-01  0.3345842E-03 -0.1351985E+00
6346600.  0.6621606E-01  0.1076234E+00 -0.9812422E-03 -0.7963874E-01  0.3345842E-03 -0.1582870E+00
6318800.  0.6491900E-01  0.4882672E+00 -0.6135148E-03 -0.8740925E-01  0.1016310E-02 -0.1537428E+00
6291000.  0.6195297E-01  0.8702267E+00 -0.2317470E-03 -0.8603907E-01  0.1672520E-02 -0.1465980E+00
6291000.  0.6195297E-01  0.8813460E+00 -0.2317470E-03 -0.8686414E-01  0.1672520E-02 -0.1465980E+00
6263000.  0.5724242E-01  0.1258683E+01  0.1293117E-03 -0.7590193E-01  0.2295970E-02 -0.1366858E+00
6235000.  0.5093236E-01  0.1606717E+01  0.4227099E-03 -0.5628857E-01  0.2870280E-02 -0.1242605E+00
6207000.  0.4318393E-01  0.1910954E+01  0.6137521E-03 -0.2964569E-01  0.3384779E-02 -0.1095028E+00
6179000.  0.3421839E-01  0.2158642E+01  0.6761986E-03  0.1824108E-02  0.3829722E-02 -0.9265213E-01
6151000.  0.2430790E-01  0.2339498E+01  0.5944752E-03  0.3550034E-01  0.4196542E-02 -0.7400568E-01
6151000.  0.2430790E-01  0.1892023E+01  0.5944752E-03  0.2818997E-01  0.4196542E-02 -0.7535053E-01
6128500.  0.1754786E-01  0.1930229E+01  0.4551576E-03  0.5053325E-01  0.4441467E-02 -0.6327397E-01
6106000.  0.1071688E-01  0.1932385E+01  0.2393909E-03  0.7131287E-01  0.4642983E-02 -0.5078960E-01
6083500.  0.3939751E-02  0.1900069E+01 -0.4554795E-04  0.8955266E-01  0.4799881E-02 -0.3802828E-01
6061000. -0.2665915E-02  0.1835766E+01 -0.3891408E-03  0.1043991E+00  0.4911413E-02 -0.2511907E-01
6038500. -0.8992767E-02  0.1742777E+01 -0.7781222E-03  0.1151548E+00  0.4977278E-02 -0.1218760E-01
6016000. -0.1494630E-01  0.1625051E+01 -0.1197076E-02  0.1213022E+00  0.4997614E-02  0.6445471E-03
5993500. -0.2044689E-01  0.1487040E+01 -0.1629097E-02  0.1225184E+00  0.4972979E-02  0.1326119E-01
5971000. -0.2543132E-01  0.1333560E+01 -0.2056502E-02  0.1186853E+00  0.4904332E-02  0.2555163E-01
5971000. -0.2543132E-01  0.1193371E+01 -0.2056502E-02  0.1083577E+00  0.4904332E-02  0.2888081E-01
5937667. -0.3100190E-01  0.9364212E+00 -0.2583960E-02  0.9203280E-01  0.4708374E-02  0.4580709E-01
5904333. -0.3524527E-01  0.6880364E+00 -0.3008303E-02  0.6927025E-01  0.4427428E-02  0.6134202E-01
5871000. -0.3823570E-01  0.4590811E+00 -0.3301220E-02  0.4215316E-01  0.4069122E-02  0.7536618E-01
5837667. -0.4009685E-01  0.2574266E+00 -0.3445490E-02  0.1279398E-01  0.3641565E-02  0.8780497E-01
5804333. -0.4098582E-01  0.8804078E-01 -0.3434654E-02 -0.1682600E-01  0.3153153E-02  0.9861936E-01
5771000. -0.4107850E-01 -0.4677810E-01 -0.3272016E-02 -0.4497101E-01  0.2612449E-02  0.1078009E+00
5771000. -0.4107850E-01 -0.4680962E-01 -0.3272016E-02 -0.4496818E-01  0.2612449E-02  0.1078009E+00
5701000. -0.3952337E-01 -0.2145492E+00 -0.2448287E-02 -0.1029993E+00  0.1356418E-02  0.1196160E+00
5701000. -0.3952337E-01 -0.1995344E+00 -0.2448287E-02 -0.7270724E-01  0.1356418E-02  0.1307562E+00
5667333. -0.3834797E-01 -0.2427333E+00 -0.2048291E-02 -0.7996551E-01  0.6545748E-03  0.1347532E+00
5633667. -0.3697572E-01 -0.2743689E+00 -0.1588445E-02 -0.9457151E-01 -0.6648385E-04  0.1379839E+00
5600000. -0.3548428E-01 -0.2868753E+00 -0.1055307E-02 -0.1065218E+00 -0.8014627E-03  0.1399748E+00
5600000. -0.3548428E-01 -0.2868753E+00 -0.1055307E-02 -0.1065218E+00 -0.8014627E-03  0.1399748E+00
5563518. -0.3384788E-01 -0.2816844E+00 -0.4165683E-03 -0.1159242E+00 -0.1605970E-02  0.1407829E+00
5527037. -0.3228886E-01 -0.2605263E+00  0.2646208E-03 -0.1213114E+00 -0.2411168E-02  0.1402337E+00
5490556. -0.3088671E-01 -0.2276298E+00  0.9647270E-03 -0.1225193E+00 -0.3209492E-02  0.1383945E+00
5454074. -0.2969564E-01 -0.1875754E+00  0.1659815E-02 -0.1195762E+00 -0.3993802E-02  0.1353451E+00
5417593. -0.2874302E-01 -0.1451380E+00  0.2326703E-02 -0.1127310E+00 -0.4757361E-02  0.1311687E+00
5381111. -0.2802933E-01 -0.1048428E+00  0.2944141E-02 -0.1023763E+00 -0.5494026E-02  0.1259620E+00
5344630. -0.2753013E-01 -0.7088462E-01  0.3493497E-02 -0.8906173E-01 -0.6198152E-02  0.1198270E+00
5308148. -0.2719835E-01 -0.4690278E-01  0.3959731E-02 -0.7345530E-01 -0.6864753E-02  0.1128674E+00
5271667. -0.2696852E-01 -0.3567177E-01  0.4331743E-02 -0.5628386E-01 -0.7489397E-02  0.1051978E+00
5235185. -0.2676148E-01 -0.3920876E-01  0.4602825E-02 -0.3833254E-01 -0.8068370E-02  0.9692808E-01
5198704. -0.2648914E-01 -0.5855050E-01  0.4770746E-02 -0.2038052E-01 -0.8598523E-02  0.8817158E-01
5162222. -0.2606075E-01 -0.9363720E-01  0.4837638E-02 -0.3165292E-02 -0.9077436E-02  0.7904498E-01
5125741. -0.2538808E-01 -0.1436612E+00  0.4809722E-02  0.1262679E-01 -0.9503274E-02  0.6965639E-01
5089259. -0.2439034E-01 -0.2067863E+00  0.4696864E-02  0.2641404E-01 -0.9874873E-02  0.6011475E-01
5052778. -0.2299982E-01 -0.2803797E+00  0.4511954E-02  0.3772589E-01 -0.1019164E-01  0.5052631E-01
5016296. -0.2116514E-01 -0.3613277E+00  0.4270193E-02  0.4622358E-01 -0.1045361E-01  0.4098720E-01
4979815. -0.1885485E-01 -0.4458649E+00  0.3988349E-02  0.5170663E-01 -0.1066132E-01  0.3159179E-01
4943333. -0.1605957E-01 -0.5300374E+00  0.3683904E-02  0.5411667E-01 -0.1081585E-01  0.2242504E-01
4906852. -0.1279293E-01 -0.6098445E+00  0.3374306E-02  0.5353345E-01 -0.1091872E-01  0.1356345E-01
4870370. -0.9091566E-02 -0.6811932E+00  0.3076155E-02  0.5015979E-01 -0.1097190E-01  0.5077315E-02
4833889. -0.5014682E-02 -0.7404800E+00  0.2804580E-02  0.4431491E-01 -0.1097770E-01 -0.2973445E-02
4797407. -0.6405066E-03 -0.7844709E+00  0.2572583E-02  0.3640862E-01 -0.1093877E-01 -0.1053876E-01
4760926.  0.3934700E-02 -0.8103513E+00  0.2390642E-02  0.2691841E-01 -0.1085802E-01 -0.1757573E-01
4724444.  0.8601864E-02 -0.8162930E+00  0.2266318E-02  0.1637368E-01 -0.1073856E-01 -0.2405154E-01
4687963.  0.1324264E-01 -0.8010265E+00  0.2204091E-02  0.5322127E-02 -0.1058369E-01 -0.2994277E-01
4651482.  0.1773399E-01 -0.7641168E+00  0.2205293E-02 -0.5691009E-02 -0.1039679E-01 -0.3523436E-01
4615000.  0.2195328E-01 -0.7061045E+00  0.2268195E-02 -0.1614379E-01 -0.1018133E-01 -0.3991754E-01
4578518.  0.2578254E-01 -0.6281561E+00  0.2388201E-02 -0.2556153E-01 -0.9940794E-02 -0.4399420E-01
4542037.  0.2911294E-01 -0.5323044E+00  0.2558165E-02 -0.3353159E-01 -0.9678642E-02 -0.4747024E-01
4505556.  0.3184962E-01 -0.4212651E+00  0.2768804E-02 -0.3971918E-01 -0.9398283E-02 -0.5035667E-01
4469074.  0.3391438E-01 -0.2981754E+00  0.3009164E-02 -0.4387696E-01 -0.9103020E-02 -0.5267588E-01
4432593.  0.3524862E-01 -0.1667843E+00  0.3267123E-02 -0.4585015E-01 -0.8796069E-02 -0.5444561E-01
4396111.  0.3581619E-01 -0.3104709E-01  0.3529968E-02 -0.4557924E-01 -0.8480489E-02 -0.5569178E-01
4359630.  0.3560368E-01  0.1049793E+00  0.3784889E-02 -0.4309820E-01 -0.8159203E-02 -0.5644618E-01
4323148.  0.3462139E-01  0.2371347E+00  0.4019551E-02 -0.3852797E-01 -0.7834939E-02 -0.5673352E-01
4286667.  0.3290295E-01  0.3614751E+00  0.4222516E-02 -0.3206837E-01 -0.7510300E-02 -0.5658615E-01
4250185.  0.3050363E-01  0.4743467E+00  0.4383712E-02 -0.2398712E-01 -0.7187664E-02 -0.5603529E-01
4213704.  0.2749889E-01  0.5724553E+00  0.4494741E-02 -0.1460490E-01 -0.6869284E-02 -0.5510744E-01
4177222.  0.2398120E-01  0.6530643E+00  0.4549178E-02 -0.4283047E-02 -0.6557214E-02 -0.5383292E-01
4140741.  0.2005747E-01  0.7140009E+00  0.4542736E-02  0.6592831E-02 -0.6253383E-02 -0.5223645E-01
4104259.  0.1584480E-01  0.7537519E+00  0.4473362E-02  0.1763161E-01 -0.5959559E-02 -0.5033874E-01
4067778.  0.1146739E-01  0.7715021E+00  0.4341254E-02  0.2844126E-01 -0.5677416E-02 -0.4816213E-01
4031296.  0.7051674E-02  0.7671228E+00  0.4148779E-02  0.3865675E-01 -0.5408497E-02 -0.4571937E-01
3994815.  0.2723332E-02  0.7411785E+00  0.3900323E-02  0.4794229E-01 -0.5154308E-02 -0.4302116E-01
3958333. -0.1397582E-02  0.6948862E+00  0.3602075E-02  0.5599979E-01 -0.4916279E-02 -0.4007324E-01
3921852. -0.5199241E-02  0.6300559E+00  0.3261800E-02  0.6258848E-01 -0.4695851E-02 -0.3687520E-01
3885370. -0.8582166E-02  0.5490282E+00  0.2888458E-02  0.6751867E-01 -0.4494461E-02 -0.3341984E-01
3848889. -0.1146122E-01  0.4545882E+00  0.2491975E-02  0.7065839E-01 -0.4313631E-02 -0.2969321E-01
3812407. -0.1376852E-01  0.3498521E+00  0.2082800E-02  0.7194123E-01 -0.4154961E-02 -0.2567451E-01
3775926. -0.1545461E-01  0.2382106E+00  0.1671657E-02  0.7135158E-01 -0.4020216E-02 -0.2133151E-01
3739444. -0.1649005E-01  0.1231694E+00  0.1269150E-02  0.6893352E-01 -0.3911359E-02 -0.1662418E-01
3702963. -0.1686546E-01  0.8283835E-02  0.8855181E-03  0.6478105E-01 -0.3830621E-02 -0.1150149E-01
3666482. -0.1659195E-01 -0.1029110E+00  0.5303285E-03  0.5902487E-01 -0.3780567E-02 -0.5894328E-02
3630000. -0.1570029E-01 -0.2070757E+00  0.2122792E-03  0.5183646E-01 -0.3764191E-02  0.2765160E-03
3630000. -0.1570029E-01 -0.2070757E+00  0.2122792E-03  0.5183646E-01 -0.3764191E-02  0.2765160E-03
3592500. -0.1419166E-01 -0.3034666E+00 -0.6787641E-04  0.4315697E-01 -0.3786157E-02  0.7314882E-02
3555000. -0.1215522E-01 -0.3859325E+00 -0.2936459E-03  0.3339579E-01 -0.3851944E-02  0.1519079E-01
3517500. -0.9681158E-02 -0.4517363E+00 -0.4593537E-03  0.2278754E-01 -0.3966942E-02  0.2406599E-01
3480000. -0.6874828E-02 -0.4984644E+00 -0.5606883E-03  0.1155959E-01 -0.4137604E-02  0.3414159E-01
3480000. -0.6874828E-02 -0.2558166E+00  0.1084639E-02 -0.1459138E-01 -0.4137604E-02  0.5618905E-01
3409422. -0.4057153E-02 -0.2495340E+00  0.1220315E-02 -0.9876651E-02 -0.4646409E-02  0.3569537E-01
3338844. -0.1409908E-02 -0.2259972E+00  0.1303572E-02 -0.5187849E-02 -0.4931761E-02  0.1607998E-01
3268266.  0.9075505E-03 -0.1909396E+00  0.1336534E-02 -0.8418697E-03 -0.5010393E-02 -0.1459665E-02
3197688.  0.2798014E-02 -0.1497507E+00  0.1324341E-02  0.2933986E-02 -0.4910062E-02 -0.1613082E-01
3127109.  0.4219932E-02 -0.1070338E+00  0.1274152E-02  0.6001879E-02 -0.4665134E-02 -0.2752552E-01
3056531.  0.5177272E-02 -0.6639114E-01  0.1194198E-02  0.8304155E-02 -0.4312614E-02 -0.3556792E-01
2985953.  0.5708018E-02 -0.3035110E-01  0.1092966E-02  0.9849649E-02 -0.3888802E-02 -0.4044512E-01
2915375.  0.5872425E-02 -0.4276142E-03  0.9785496E-03  0.1069749E-01 -0.3426838E-02 -0.4252924E-01
2844797.  0.5742527E-02  0.2273973E-01  0.8581850E-03  0.1094122E-01 -0.2955058E-02 -0.4230366E-01
2774219.  0.5393397E-02  0.3920951E-01  0.7379514E-03  0.1069346E-01 -0.2496130E-02 -0.4029790E-01
2703641.  0.4896501E-02  0.4954230E-01  0.6226369E-03  0.1007284E-01 -0.2066852E-02 -0.3703522E-01
2633062.  0.4315163E-02  0.5461742E-01  0.5157267E-03  0.9194318E-02 -0.1678437E-02 -0.3299426E-01
2562484.  0.3701970E-02  0.5547366E-01  0.4194924E-03  0.8161838E-02 -0.1337176E-02 -0.2858482E-01
2491906.  0.3097714E-02  0.5317903E-01  0.3351340E-03  0.7063461E-02 -0.1045249E-02 -0.2413515E-01
2421328.  0.2531647E-02  0.4873712E-01  0.2629756E-03  0.5969505E-02 -0.8016735E-03 -0.1988960E-01
2350750.  0.2022567E-02  0.4302432E-01  0.2026618E-03  0.4932332E-02 -0.6032012E-03 -0.1601376E-01
2280172.  0.1580423E-02  0.3675781E-01  0.1533527E-03  0.3987314E-02 -0.4451432E-03 -0.1260429E-01
2209594.  0.1208163E-02  0.3048503E-01  0.1139009E-03  0.3155048E-02 -0.3220642E-03 -0.9701457E-02
2139016.  0.9035789E-03  0.2459120E-01  0.8300065E-04  0.2443987E-02 -0.2283330E-03 -0.7302567E-02
2068438.  0.6610136E-03  0.1931793E-01  0.5930677E-04  0.1853246E-02 -0.1585263E-03 -0.5374822E-02
1997859.  0.4728096E-03  0.1478857E-01  0.4152289E-04  0.1375284E-02 -0.1076969E-03 -0.3866726E-02
1927281.  0.3304806E-03  0.1103545E-01  0.2846238E-04  0.9983452E-03 -0.7152875E-04 -0.2717537E-02
1856703.  0.2255561E-03  0.8026185E-02  0.1908198E-04  0.7084652E-03 -0.4639435E-04 -0.1864372E-02
1786125.  0.1501746E-03  0.5687213E-02  0.1249800E-04  0.4910759E-03 -0.2935032E-04 -0.1247393E-02
1715547.  0.9742625E-04  0.3923173E-02  0.7985970E-05  0.3321516E-03 -0.1808388E-04 -0.8129923E-03
1644969.  0.6150824E-04  0.2631662E-02  0.4970123E-05  0.2189755E-03 -0.1083332E-04 -0.5154510E-03
1574391.  0.3774148E-04  0.1713554E-02  0.3006204E-05  0.1405651E-03 -0.6297108E-05 -0.3174095E-03
1503812.  0.2249591E-04  0.1079294E-02  0.1761104E-05  0.8784832E-04 -0.3542633E-05 -0.1895061E-03
1433234.  0.1306701E-04  0.6516179E-03  0.9915505E-06  0.5368103E-04 -0.1922207E-05 -0.1095071E-03
1362656.  0.7540018E-05  0.3646105E-03  0.5228866E-06  0.3281044E-04 -0.1000123E-05 -0.6115259E-04
1292078.  0.4691327E-05  0.1578491E-03  0.2277370E-06  0.2201044E-04 -0.4934404E-06 -0.3291671E-04
1221500.  0.4006171E-05 -0.4074174E-04  0.1040444E-09  0.2089447E-04 -0.2267487E-06 -0.1667686E-04
1221500.  0.4006171E-05 -0.1277423E-03 -0.1077602E-06 -0.2145711E-04 -0.2267487E-06 -0.1841235E-04
1183328.  0.4460145E-05 -0.2943016E-04 -0.2861782E-08 -0.1385219E-04 -0.1382151E-06 -0.1162114E-04
1145156.  0.4421488E-05  0.3753242E-04  0.6161589E-07 -0.7940862E-05 -0.8274954E-07 -0.7216005E-05
1106984.  0.4062596E-05  0.7836289E-04  0.9536378E-07 -0.3565622E-05 -0.4858412E-07 -0.4401994E-05
1068812.  0.3523761E-05  0.9850680E-04  0.1070298E-06 -0.5351614E-06 -0.2792270E-07 -0.2634042E-05
1030641.  0.2912814E-05  0.1033017E-03  0.1040197E-06  0.1372103E-05 -0.1567645E-07 -0.1543183E-05
 992469.  0.2306712E-05  0.9764994E-04  0.9235494E-07  0.2393751E-05 -0.8576025E-08 -0.8832480E-06
 954297.  0.1755060E-05  0.8576021E-04  0.7663269E-07  0.2764410E-05 -0.4558367E-08 -0.4926535E-06
 916125.  0.1284721E-05  0.7099252E-04  0.6009772E-07  0.2698311E-05 -0.2345780E-08 -0.2669686E-06
 877953.  0.9051151E-06  0.5581055E-04  0.4480603E-07  0.2376283E-05 -0.1163721E-08 -0.1400479E-06
 839781.  0.6134837E-06  0.4183123E-04  0.3185068E-07  0.1938280E-05 -0.5534958E-09 -0.7080344E-07
 801609.  0.3996242E-06  0.2994641E-04  0.2161133E-07  0.1482774E-05 -0.2505879E-09 -0.3430184E-07
 763438.  0.2497721E-06  0.2048345E-04  0.1399418E-07  0.1070373E-05 -0.1069272E-09 -0.1580761E-07
 725266.  0.1494513E-06  0.1337659E-04  0.8637389E-08  0.7310974E-06 -0.4236367E-10 -0.6859266E-08
 687094.  0.8536492E-07  0.8326103E-05  0.5070711E-08  0.4727304E-06 -0.1520238E-10 -0.2758993E-08
 648922.  0.4637999E-07  0.4926886E-05  0.2822905E-08  0.2890468E-06 -0.4704226E-11 -0.1003366E-08
 610750.  0.2386366E-07  0.2761912E-05  0.1484342E-08  0.1667090E-06 -0.1096184E-11 -0.3135964E-09
 572578.  0.1156491E-07  0.1460050E-05  0.7334502E-09  0.9034884E-07 -0.7196721E-13 -0.7328841E-10
 534406.  0.5243749E-08  0.7236295E-06  0.3383896E-09  0.4576870E-07  0.1134058E-12 -0.4470581E-11
 496234.  0.2206141E-08  0.3337729E-06  0.1445981E-09  0.2152162E-07  0.8937249E-13  0.7921982E-11
 458062.  0.8523130E-09  0.1419393E-06  0.5664556E-10  0.9309235E-08  0.4480689E-13  0.6146249E-11
 419891.  0.2984081E-09  0.5498759E-07  0.2007983E-10  0.3660917E-08  0.1772578E-13  0.3032747E-11
 381719.  0.9307160E-10  0.1910421E-07  0.6332077E-11  0.1288802E-08  0.5791059E-14  0.1170511E-11
 343547.  0.2528218E-10  0.5830426E-08  0.1736845E-11  0.3979008E-09  0.1565882E-14  0.3676507E-12
 305375.  0.5800598E-11  0.1519582E-08  0.4018949E-12  0.1047521E-09  0.3437638E-15  0.9357869E-13
 267203.  0.1076634E-11  0.3250528E-09  0.7514564E-13  0.2260210E-10  0.5894028E-16  0.1874011E-13
 229031.  0.1517564E-12  0.5383728E-10  0.1065878E-13  0.3771072E-11  0.7408629E-17  0.2792123E-14
 190859.  0.1472690E-13  0.6306891E-11  0.1039787E-14  0.4444740E-12  0.6163003E-18  0.2820575E-15
 152688.  0.8349346E-15  0.4490520E-12  0.5919460E-16  0.3179939E-13  0.2849782E-19  0.1633240E-16
 114516.  0.0000000E+00  0.0000000E+00  0.0000000E+00  0.0000000E+00  0.0000000E+00  0.0000000E+00
  76344.  0.0000000E+00  0.0000000E+00  0.0000000E+00  0.0000000E+00  0.0000000E+00  0.0000000E+00
  38172.  0.0000000E+00  0.0000000E+00  0.0000000E+00  0.0000000E+00  0.0000000E+00  0.0000000E+00
      0.  0.0000000E+00  0.0000000E+00  0.0000000E+00  0.0000000E+00  0.0000000E+00  0.0000000E+00
