       4       32 S      301        134.94940          9.12711          6.60326        251.86110      185    7
6371000. -0.6854414E-02 -0.1263167E+01 -0.3056173E-02  0.3798241E-02  0.1701839E-02 -0.4323488E-01
6370000. -0.6655919E-02 -0.1265986E+01 -0.3056539E-02  0.8674295E-03  0.1708604E-02 -0.4295401E-01
6369000. -0.6457014E-02 -0.1268395E+01 -0.3056445E-02 -0.2064892E-02  0.1715324E-02 -0.4267472E-01
6368000. -0.6257762E-02 -0.1270395E+01 -0.3055891E-02 -0.4998206E-02  0.1722000E-02 -0.4239703E-01
6368000. -0.6257762E-02 -0.1270395E+01 -0.3055891E-02 -0.4998206E-02  0.1722000E-02 -0.4239703E-01
6367000. -0.6058230E-02 -0.1271984E+01 -0.3054876E-02 -0.7931991E-02  0.1728633E-02 -0.4212096E-01
6366000. -0.5858480E-02 -0.1273162E+01 -0.3053401E-02 -0.1086573E-01  0.1735223E-02 -0.4184652E-01
6365000. -0.5658577E-02 -0.1273930E+01 -0.3051465E-02 -0.1379889E-01  0.1741770E-02 -0.4157374E-01
6364000. -0.5458586E-02 -0.1274287E+01 -0.3049069E-02 -0.1673098E-01  0.1748274E-02 -0.4130262E-01
6363000. -0.5258571E-02 -0.1274232E+01 -0.3046213E-02 -0.1966145E-01  0.1754736E-02 -0.4103319E-01
6362000. -0.5058597E-02 -0.1273766E+01 -0.3042897E-02 -0.2258979E-01  0.1761155E-02 -0.4076545E-01
6361000. -0.4858729E-02 -0.1272890E+01 -0.3039121E-02 -0.2551549E-01  0.1767533E-02 -0.4049943E-01
6360000. -0.4659030E-02 -0.1271602E+01 -0.3034887E-02 -0.2843801E-01  0.1773869E-02 -0.4023515E-01
6359000. -0.4459566E-02 -0.1269904E+01 -0.3030194E-02 -0.3135686E-01  0.1780164E-02 -0.3997262E-01
6358000. -0.4260400E-02 -0.1267797E+01 -0.3025044E-02 -0.3427150E-01  0.1786417E-02 -0.3971186E-01
6357000. -0.4061597E-02 -0.1265279E+01 -0.3019436E-02 -0.3718142E-01  0.1792630E-02 -0.3945288E-01
6356000. -0.3863222E-02 -0.1262352E+01 -0.3013372E-02 -0.4008611E-01  0.1798803E-02 -0.3919570E-01
6356000. -0.3863222E-02 -0.1102282E+01 -0.3013372E-02 -0.2385812E-01  0.1798803E-02 -0.3835510E-01
6355000. -0.3690321E-02 -0.1100785E+01 -0.3009503E-02 -0.2544252E-01  0.1804794E-02 -0.3798094E-01
6354000. -0.3517672E-02 -0.1099067E+01 -0.3005385E-02 -0.2702481E-01  0.1810726E-02 -0.3760834E-01
6353000. -0.3345311E-02 -0.1097130E+01 -0.3001019E-02 -0.2860482E-01  0.1816600E-02 -0.3723730E-01
6352000. -0.3173270E-02 -0.1094973E+01 -0.2996405E-02 -0.3018237E-01  0.1822416E-02 -0.3686783E-01
6351000. -0.3001586E-02 -0.1092597E+01 -0.2991544E-02 -0.3175731E-01  0.1828174E-02 -0.3649993E-01
6350000. -0.2830291E-02 -0.1090001E+01 -0.2986436E-02 -0.3332944E-01  0.1833874E-02 -0.3613362E-01
6349000. -0.2659421E-02 -0.1087187E+01 -0.2981082E-02 -0.3489862E-01  0.1839517E-02 -0.3576889E-01
6348000. -0.2489010E-02 -0.1084155E+01 -0.2975481E-02 -0.3646466E-01  0.1845103E-02 -0.3540576E-01
6347000. -0.2319092E-02 -0.1080905E+01 -0.2969635E-02 -0.3802740E-01  0.1850632E-02 -0.3504423E-01
6346600. -0.2251270E-02 -0.1079543E+01 -0.2967228E-02 -0.3865153E-01  0.1852827E-02 -0.3490008E-01
6346600. -0.2251270E-02 -0.1254836E+01 -0.2967228E-02 -0.2632873E-01  0.1852827E-02 -0.3411509E-01
6318800.  0.3030476E-02 -0.1148610E+01 -0.2800263E-02 -0.4989337E-01  0.1977901E-02 -0.2339143E-01
6291000.  0.7625321E-02 -0.9413128E+00 -0.2535495E-02 -0.7092661E-01  0.2058444E-02 -0.1368464E-01
6291000.  0.7625321E-02 -0.9743258E+00 -0.2535495E-02 -0.7306112E-01  0.2058444E-02 -0.1368464E-01
6263000.  0.1125234E-01 -0.6613283E+00 -0.2171511E-02 -0.9176244E-01  0.2099558E-02 -0.5166393E-02
6235000.  0.1332320E-01 -0.2700607E+00 -0.1736921E-02 -0.1050133E+00  0.2105013E-02  0.2561536E-02
6207000.  0.1354980E-01  0.1731109E+00 -0.1257749E-02 -0.1119387E+00  0.2078042E-02  0.9606799E-02
6179000.  0.1177090E-01  0.6371240E+00 -0.7629465E-03 -0.1120896E+00  0.2021431E-02  0.1606445E-01
6151000.  0.7968422E-02  0.1088268E+01 -0.2824260E-03 -0.1054814E+00  0.1937587E-02  0.2201039E-01
6151000.  0.7968422E-02  0.8515257E+00 -0.2824260E-03 -0.9370733E-01  0.1937587E-02  0.2156953E-01
6128500.  0.4497338E-02  0.1108723E+01  0.3335680E-04 -0.8468527E-01  0.1856956E-02  0.2401245E-01
6106000.  0.1816397E-03  0.1328338E+01  0.3129095E-03 -0.7327127E-01  0.1768540E-02  0.2598055E-01
6083500. -0.4830895E-02  0.1502151E+01  0.5486846E-03 -0.5998432E-01  0.1673989E-02  0.2748986E-01
6061000. -0.1036685E-01  0.1623897E+01  0.7350525E-03 -0.4538790E-01  0.1574894E-02  0.2855633E-01
6038500. -0.1623439E-01  0.1689433E+01  0.8684202E-03 -0.3006794E-01  0.1472791E-02  0.2919581E-01
6016000. -0.2223091E-01  0.1696802E+01  0.9472689E-03 -0.1460941E-01  0.1369161E-02  0.2942375E-01
5993500. -0.2815075E-01  0.1646222E+01  0.9721120E-03  0.4250496E-03  0.1265430E-02  0.2925544E-01
5971000. -0.3379275E-01  0.1540011E+01  0.9453840E-03  0.1451323E-01  0.1162973E-02  0.2870454E-01
5971000. -0.3379275E-01  0.1429401E+01  0.9453840E-03  0.1699771E-01  0.1162973E-02  0.3312830E-01
5937667. -0.4060915E-01  0.1163873E+01  0.8140784E-03  0.3244062E-01  0.9950137E-03  0.3095137E-01
5904333. -0.4586592E-01  0.8376084E+00  0.6140206E-03  0.4325254E-01  0.8402612E-03  0.2810504E-01
5871000. -0.4931450E-01  0.4770528E+00  0.3694826E-03  0.4948566E-01  0.7018076E-03  0.2474831E-01
5837667. -0.5084141E-01  0.1069357E+00  0.1035383E-03  0.5152010E-01  0.5819307E-03  0.2102634E-01
5804333. -0.5045469E-01 -0.2511599E+00 -0.1633427E-03  0.4995295E-01  0.4822087E-03  0.1706086E-01
5771000. -0.4826517E-01 -0.5796368E+00 -0.4141418E-03  0.4550027E-01  0.4036615E-03  0.1294607E-01
5771000. -0.4826517E-01 -0.5796620E+00 -0.4141418E-03  0.4550051E-01  0.4036615E-03  0.1294607E-01
5701000. -0.3849445E-01 -0.1164252E+01 -0.8271454E-03  0.2813184E-01  0.3256795E-03  0.9687305E-03
5701000. -0.3849445E-01 -0.1003457E+01 -0.8271454E-03  0.3105808E-01  0.3256795E-03  0.1181893E-01
5667333. -0.3284633E-01 -0.1137958E+01 -0.9788609E-03  0.2634901E-01  0.2723590E-03  0.8664043E-02
5633667. -0.2641288E-01 -0.1297065E+01 -0.1104425E-02  0.2104698E-01  0.2319609E-03  0.6706780E-02
5600000. -0.1920774E-01 -0.1423051E+01 -0.1200743E-02  0.1539562E-01  0.2010981E-03  0.5021976E-02
5600000. -0.1920774E-01 -0.1423051E+01 -0.1200743E-02  0.1539562E-01  0.2010981E-03  0.5021976E-02
5563518. -0.1076060E-01 -0.1520498E+01 -0.1271260E-02  0.9242660E-02  0.1767550E-03  0.3533167E-02
5527037. -0.1872573E-02 -0.1577199E+01 -0.1306905E-02  0.3250794E-02  0.1600640E-03  0.2343114E-02
5490556.  0.7225728E-02 -0.1594213E+01 -0.1309157E-02 -0.2392627E-02  0.1494208E-03  0.1414851E-02
5454074.  0.1631299E-01 -0.1573724E+01 -0.1280466E-02 -0.7533942E-02  0.1434267E-03  0.7137970E-03
5417593.  0.2518310E-01 -0.1519071E+01 -0.1224066E-02 -0.1205435E-01  0.1408699E-03  0.2091911E-03
5381111.  0.3365191E-01 -0.1434178E+01 -0.1143755E-02 -0.1587425E-01  0.1407161E-03 -0.1306522E-03
5344630.  0.4155852E-01 -0.1323581E+01 -0.1043700E-02 -0.1894587E-01  0.1421044E-03 -0.3332900E-03
5308148.  0.4877011E-01 -0.1192175E+01 -0.9282437E-03 -0.2125253E-01  0.1443111E-03 -0.4208587E-03
5271667.  0.5518121E-01 -0.1044879E+01 -0.8017399E-03 -0.2281000E-01  0.1467624E-03 -0.4227572E-03
5235185.  0.6071546E-01 -0.8866720E+00 -0.6683856E-03 -0.2365093E-01  0.1490172E-03 -0.3542707E-03
5198704.  0.6532385E-01 -0.7223069E+00 -0.5321468E-03 -0.2383023E-01  0.1507167E-03 -0.2329617E-03
5162222.  0.6898402E-01 -0.5561427E+00 -0.3965914E-03 -0.2342326E-01  0.1516347E-03 -0.8357561E-04
5125741.  0.7169723E-01 -0.3922130E+00 -0.2648774E-03 -0.2250296E-01  0.1516245E-03  0.9022210E-04
5089259.  0.7348665E-01 -0.2340011E+00 -0.1396920E-03 -0.2115723E-01  0.1505845E-03  0.2730126E-03
5052778.  0.7439365E-01 -0.8446228E-01 -0.2321511E-04 -0.1947659E-01  0.1485072E-03  0.4518038E-03
5016296.  0.7447504E-01  0.5401823E-01  0.8287484E-04 -0.1754223E-01  0.1454178E-03  0.6255918E-03
4979815.  0.7379969E-01  0.1795937E+00  0.1773678E-03 -0.1544095E-01  0.1413741E-03  0.7834649E-03
4943333.  0.7244537E-01  0.2909901E+00  0.2595357E-03 -0.1324783E-01  0.1364833E-03  0.9219446E-03
4906852.  0.7049578E-01  0.3874288E+00  0.3290351E-03 -0.1102803E-01  0.1308463E-03  0.1043190E-02
4870370.  0.6803764E-01  0.4685800E+00  0.3859099E-03 -0.8847320E-02  0.1245909E-03  0.1137292E-02
4833889.  0.6515845E-01  0.5345674E+00  0.4305200E-03 -0.6751188E-02  0.1178614E-03  0.1210180E-02
4797407.  0.6194372E-01  0.5858425E+00  0.4634619E-03 -0.4778563E-02  0.1107682E-03  0.1263099E-02
4760926.  0.5847599E-01  0.6231190E+00  0.4855589E-03 -0.2967912E-02  0.1034508E-03  0.1289050E-02
4724444.  0.5483236E-01  0.6474272E+00  0.4977867E-03 -0.1333390E-02  0.9603453E-04  0.1298693E-02
4687963.  0.5108411E-01  0.6598904E+00  0.5011982E-03  0.1086082E-03  0.8861313E-04  0.1290155E-02
4651482.  0.4729544E-01  0.6617716E+00  0.4969297E-03  0.1349080E-02  0.8129556E-04  0.1263419E-02
4615000.  0.4352292E-01  0.6544377E+00  0.4861227E-03  0.2392913E-02  0.7416341E-04  0.1225813E-02
4578518.  0.3981561E-01  0.6392169E+00  0.4698990E-03  0.3241658E-02  0.6728209E-04  0.1175598E-02
4542037.  0.3621490E-01  0.6174681E+00  0.4493516E-03  0.3905806E-02  0.6071885E-04  0.1115867E-02
4505556.  0.3275426E-01  0.5904976E+00  0.4254901E-03  0.4401283E-02  0.5451029E-04  0.1051638E-02
4469074.  0.2946009E-01  0.5594916E+00  0.3992506E-03  0.4738584E-02  0.4869141E-04  0.9798147E-03
4432593.  0.2635229E-01  0.5256153E+00  0.3714848E-03  0.4938202E-02  0.4329265E-04  0.9058566E-03
4396111.  0.2344415E-01  0.4898794E+00  0.3429254E-03  0.5017897E-02  0.3831824E-04  0.8312376E-03
4359630.  0.2074391E-01  0.4531746E+00  0.3142206E-03  0.4992270E-02  0.3377845E-04  0.7543668E-03
4323148.  0.1825456E-01  0.4163191E+00  0.2859133E-03  0.4881947E-02  0.2967538E-04  0.6790691E-03
4286667.  0.1597514E-01  0.3799713E+00  0.2584440E-03  0.4702092E-02  0.2599938E-04  0.6050209E-03
4250185.  0.1390100E-01  0.3446882E+00  0.2321689E-03  0.4467217E-02  0.2274495E-04  0.5320008E-03
4213704.  0.1202474E-01  0.3109381E+00  0.2073586E-03  0.4192923E-02  0.1990169E-04  0.4614438E-03
4177222.  0.1033648E-01  0.2790591E+00  0.1842054E-03  0.3889948E-02  0.1745846E-04  0.3920380E-03
4140741.  0.8824775E-02  0.2493287E+00  0.1628430E-03  0.3569538E-02  0.1541033E-04  0.3235710E-03
4104259.  0.7476638E-02  0.2219374E+00  0.1433399E-03  0.3241594E-02  0.1375075E-04  0.2560062E-03
4067778.  0.6278411E-02  0.1969966E+00  0.1257223E-03  0.2912226E-02  0.1248229E-04  0.1866885E-03
4031296.  0.5215751E-02  0.1745853E+00  0.1099767E-03  0.2588763E-02  0.1161719E-04  0.1149509E-03
3994815.  0.4274146E-02  0.1547225E+00  0.9605375E-04  0.2276343E-02  0.1117461E-04  0.3856563E-04
3958333.  0.3439010E-02  0.1373856E+00  0.8388014E-04  0.1978300E-02  0.1119140E-04 -0.4601478E-04
3921852.  0.2696010E-02  0.1225397E+00  0.7336176E-04  0.1698961E-02  0.1172288E-04 -0.1418471E-03
3885370.  0.2031042E-02  0.1101097E+00  0.6438147E-04  0.1441500E-02  0.1284684E-04 -0.2538846E-03
3848889.  0.1430571E-02  0.1000016E+00  0.5680454E-04  0.1209643E-02  0.1467293E-04 -0.3881880E-03
3812407.  0.8815907E-03  0.9209572E-01  0.5046919E-04  0.1008793E-02  0.1734902E-04 -0.5521708E-03
3775926.  0.3719842E-03  0.8622176E-01  0.4517875E-04  0.8462394E-03  0.2107172E-04 -0.7555751E-03
3739444. -0.1092866E-03  0.8214819E-01  0.4068309E-04  0.7335325E-03  0.2610028E-04 -0.1010471E-02
3702963. -0.5715923E-03  0.7953126E-01  0.3664932E-04  0.6886380E-03  0.3277087E-04 -0.1331950E-02
3666482. -0.1021861E-02  0.7783451E-01  0.3261522E-04  0.7393356E-03  0.4151650E-04 -0.1738684E-02
3630000. -0.1463183E-02  0.7623094E-01  0.2791942E-04  0.9284868E-03  0.5288937E-04 -0.2253677E-02
3630000. -0.1463183E-02  0.7623094E-01  0.2791942E-04  0.9284868E-03  0.5288937E-04 -0.2253677E-02
3592500. -0.1904313E-02  0.7328562E-01  0.2138116E-04  0.1336896E-02  0.6805052E-04 -0.2924452E-02
3555000. -0.2318955E-02  0.6675534E-01  0.1154515E-04  0.2071521E-02  0.8766430E-04 -0.3772744E-02
3517500. -0.2676092E-02  0.5298420E-01 -0.3971344E-05  0.3301705E-02  0.1128869E-03 -0.4836732E-02
3480000. -0.2917221E-02  0.2612130E-01 -0.2879735E-04  0.5287972E-02  0.1450999E-03 -0.6153903E-02
3480000. -0.2917221E-02 -0.1274218E+00 -0.1131685E-03 -0.5131565E-02  0.1450999E-03  0.3201579E-02
3409422. -0.1778629E-02 -0.8118299E-01 -0.6780328E-04 -0.3196135E-02  0.1070437E-03  0.3424127E-02
3338844. -0.1061240E-02 -0.5049849E-01 -0.3982431E-04 -0.1948713E-02  0.7233699E-04  0.2776656E-02
3268266. -0.6197733E-03 -0.3068820E-01 -0.2292940E-04 -0.1163366E-02  0.4600860E-04  0.1983563E-02
3197688. -0.3542940E-03 -0.1822758E-01 -0.1293949E-04 -0.6800869E-03  0.2792221E-04  0.1310569E-02
3127109. -0.1982294E-03 -0.1058398E-01 -0.7155035E-05 -0.3892861E-03  0.1629463E-04  0.8184735E-03
3056531. -0.1085346E-03 -0.6008480E-02 -0.3875602E-05 -0.2181560E-03  0.9186317E-05  0.4886959E-03
2985953. -0.5813388E-04 -0.3334532E-02 -0.2055479E-05 -0.1196570E-03  0.5017390E-05  0.2808042E-03
2915375. -0.3044914E-04 -0.1808688E-02 -0.1066876E-05 -0.6421236E-04  0.2659582E-05  0.1558878E-03
2844797. -0.1558779E-04 -0.9585166E-03 -0.5416074E-06 -0.3369793E-04  0.1369580E-05  0.8381254E-04
2774219. -0.7794597E-05 -0.4960660E-03 -0.2687378E-06 -0.1728393E-04  0.6855078E-06  0.4370318E-04
2703641. -0.3804458E-05 -0.2505695E-03 -0.1302294E-06 -0.8658484E-05  0.3335267E-06  0.2211830E-04
2633062. -0.1811015E-05 -0.1234401E-03 -0.6158040E-07 -0.4233093E-05  0.1577047E-06  0.1086765E-04
2562484. -0.8400145E-06 -0.5926175E-04 -0.2838662E-07 -0.2017966E-05  0.7243674E-07  0.5183540E-05
2491906. -0.3792516E-06 -0.2769914E-04 -0.1274220E-07 -0.9370623E-06  0.3229719E-07  0.2399055E-05
2421328. -0.1664694E-06 -0.1259110E-04 -0.5563005E-08 -0.4233805E-06  0.1396584E-07  0.1076667E-05
2350750. -0.7094767E-07 -0.5559522E-05 -0.2358988E-08 -0.1858893E-06  0.5850367E-08  0.4681143E-06
2280172. -0.2931599E-07 -0.2381180E-05 -0.9701657E-09 -0.7920043E-07  0.2371066E-08  0.1969495E-06
2209594. -0.1172540E-07 -0.9877834E-06 -0.3863257E-09 -0.3269410E-07  0.9283025E-09  0.8007488E-07
2139016. -0.4531290E-08 -0.3961872E-06 -0.1486802E-09 -0.1305334E-07  0.3504830E-09  0.3141106E-07
2068438. -0.1688546E-08 -0.1533470E-06 -0.5519019E-10 -0.5030838E-08  0.1273564E-09  0.1186628E-07
1997859. -0.6053681E-09 -0.5715422E-07 -0.1971471E-10 -0.1867574E-08  0.4444037E-10  0.4307996E-08
1927281. -0.2082887E-09 -0.2046389E-07 -0.6760142E-11 -0.6661836E-09  0.1485460E-10  0.1499485E-08
1856703. -0.6858469E-10 -0.7019716E-08 -0.2218850E-11 -0.2277223E-09  0.4742797E-11  0.4990403E-09
1786125. -0.2154452E-10 -0.2299998E-08 -0.6949182E-12 -0.7436883E-10  0.1441822E-11  0.1583171E-09
1715547. -0.6433630E-11 -0.7173449E-09 -0.2069320E-12 -0.2312396E-10  0.4158367E-12  0.4771046E-10
1644969. -0.1819106E-11 -0.2121440E-09 -0.5835169E-13 -0.6819464E-11  0.1133117E-12  0.1360495E-10
1574391. -0.4850396E-12 -0.5919697E-10 -0.1550342E-13 -0.1900065E-11  0.2902012E-13  0.3656637E-11
1503812.  0.0000000E+00  0.0000000E+00  0.0000000E+00  0.0000000E+00  0.0000000E+00  0.0000000E+00
1433234.  0.0000000E+00  0.0000000E+00  0.0000000E+00  0.0000000E+00  0.0000000E+00  0.0000000E+00
1362656.  0.0000000E+00  0.0000000E+00  0.0000000E+00  0.0000000E+00  0.0000000E+00  0.0000000E+00
1292078.  0.0000000E+00  0.0000000E+00  0.0000000E+00  0.0000000E+00  0.0000000E+00  0.0000000E+00
1221500.  0.0000000E+00  0.0000000E+00  0.0000000E+00  0.0000000E+00  0.0000000E+00  0.0000000E+00
1221500.  0.0000000E+00  0.0000000E+00  0.0000000E+00  0.0000000E+00  0.0000000E+00  0.0000000E+00
1183328.  0.0000000E+00  0.0000000E+00  0.0000000E+00  0.0000000E+00  0.0000000E+00  0.0000000E+00
1145156.  0.0000000E+00  0.0000000E+00  0.0000000E+00  0.0000000E+00  0.0000000E+00  0.0000000E+00
1106984.  0.0000000E+00  0.0000000E+00  0.0000000E+00  0.0000000E+00  0.0000000E+00  0.0000000E+00
1068812.  0.0000000E+00  0.0000000E+00  0.0000000E+00  0.0000000E+00  0.0000000E+00  0.0000000E+00
1030641.  0.0000000E+00  0.0000000E+00  0.0000000E+00  0.0000000E+00  0.0000000E+00  0.0000000E+00
 992469.  0.0000000E+00  0.0000000E+00  0.0000000E+00  0.0000000E+00  0.0000000E+00  0.0000000E+00
 954297.  0.0000000E+00  0.0000000E+00  0.0000000E+00  0.0000000E+00  0.0000000E+00  0.0000000E+00
 916125.  0.0000000E+00  0.0000000E+00  0.0000000E+00  0.0000000E+00  0.0000000E+00  0.0000000E+00
 877953.  0.0000000E+00  0.0000000E+00  0.0000000E+00  0.0000000E+00  0.0000000E+00  0.0000000E+00
 839781.  0.0000000E+00  0.0000000E+00  0.0000000E+00  0.0000000E+00  0.0000000E+00  0.0000000E+00
 801609.  0.0000000E+00  0.0000000E+00  0.0000000E+00  0.0000000E+00  0.0000000E+00  0.0000000E+00
 763438.  0.0000000E+00  0.0000000E+00  0.0000000E+00  0.0000000E+00  0.0000000E+00  0.0000000E+00
 725266.  0.0000000E+00  0.0000000E+00  0.0000000E+00  0.0000000E+00  0.0000000E+00  0.0000000E+00
 687094.  0.0000000E+00  0.0000000E+00  0.0000000E+00  0.0000000E+00  0.0000000E+00  0.0000000E+00
 648922.  0.0000000E+00  0.0000000E+00  0.0000000E+00  0.0000000E+00  0.0000000E+00  0.0000000E+00
 610750.  0.0000000E+00  0.0000000E+00  0.0000000E+00  0.0000000E+00  0.0000000E+00  0.0000000E+00
 572578.  0.0000000E+00  0.0000000E+00  0.0000000E+00  0.0000000E+00  0.0000000E+00  0.0000000E+00
 534406.  0.0000000E+00  0.0000000E+00  0.0000000E+00  0.0000000E+00  0.0000000E+00  0.0000000E+00
 496234.  0.0000000E+00  0.0000000E+00  0.0000000E+00  0.0000000E+00  0.0000000E+00  0.0000000E+00
 458062.  0.0000000E+00  0.0000000E+00  0.0000000E+00  0.0000000E+00  0.0000000E+00  0.0000000E+00
 419891.  0.0000000E+00  0.0000000E+00  0.0000000E+00  0.0000000E+00  0.0000000E+00  0.0000000E+00
 381719.  0.0000000E+00  0.0000000E+00  0.0000000E+00  0.0000000E+00  0.0000000E+00  0.0000000E+00
 343547.  0.0000000E+00  0.0000000E+00  0.0000000E+00  0.0000000E+00  0.0000000E+00  0.0000000E+00
 305375.  0.0000000E+00  0.0000000E+00  0.0000000E+00  0.0000000E+00  0.0000000E+00  0.0000000E+00
 267203.  0.0000000E+00  0.0000000E+00  0.0000000E+00  0.0000000E+00  0.0000000E+00  0.0000000E+00
 229031.  0.0000000E+00  0.0000000E+00  0.0000000E+00  0.0000000E+00  0.0000000E+00  0.0000000E+00
 190859.  0.0000000E+00  0.0000000E+00  0.0000000E+00  0.0000000E+00  0.0000000E+00  0.0000000E+00
 152688.  0.0000000E+00  0.0000000E+00  0.0000000E+00  0.0000000E+00  0.0000000E+00  0.0000000E+00
 114516.  0.0000000E+00  0.0000000E+00  0.0000000E+00  0.0000000E+00  0.0000000E+00  0.0000000E+00
  76344.  0.0000000E+00  0.0000000E+00  0.0000000E+00  0.0000000E+00  0.0000000E+00  0.0000000E+00
  38172.  0.0000000E+00  0.0000000E+00  0.0000000E+00  0.0000000E+00  0.0000000E+00  0.0000000E+00
      0.  0.0000000E+00  0.0000000E+00  0.0000000E+00  0.0000000E+00  0.0000000E+00  0.0000000E+00
