       3       49 S      269         99.21080          8.15123          6.04593        207.98151      185    7
6371000.  0.3083023E-01  0.1883541E+01  0.1981629E-02 -0.2884860E-01  0.0000000E+00  0.0000000E+00
6370000.  0.3053243E-01  0.1910807E+01  0.1985911E-02 -0.2571054E-01  0.0000000E+00  0.0000000E+00
6369000.  0.3023044E-01  0.1937045E+01  0.1989699E-02 -0.2255755E-01  0.0000000E+00  0.0000000E+00
6368000.  0.2992441E-01  0.1962247E+01  0.1992991E-02 -0.1939062E-01  0.0000000E+00  0.0000000E+00
6368000.  0.2992441E-01  0.1962247E+01  0.1992991E-02 -0.1939062E-01  0.0000000E+00  0.0000000E+00
6367000.  0.2961450E-01  0.1986407E+01  0.1995786E-02 -0.1621073E-01  0.0000000E+00  0.0000000E+00
6366000.  0.2930088E-01  0.2009519E+01  0.1998080E-02 -0.1301887E-01  0.0000000E+00  0.0000000E+00
6365000.  0.2898372E-01  0.2031576E+01  0.1999872E-02 -0.9816046E-02  0.0000000E+00  0.0000000E+00
6364000.  0.2866318E-01  0.2052574E+01  0.2001161E-02 -0.6603244E-02  0.0000000E+00  0.0000000E+00
6363000.  0.2833943E-01  0.2072507E+01  0.2001944E-02 -0.3381472E-02  0.0000000E+00  0.0000000E+00
6362000.  0.2801263E-01  0.2091370E+01  0.2002222E-02 -0.1517386E-03  0.0000000E+00  0.0000000E+00
6361000.  0.2768296E-01  0.2109159E+01  0.2001991E-02  0.3084948E-02  0.0000000E+00  0.0000000E+00
6360000.  0.2735057E-01  0.2125871E+01  0.2001253E-02  0.6327574E-02  0.0000000E+00  0.0000000E+00
6359000.  0.2701565E-01  0.2141501E+01  0.2000005E-02  0.9575125E-02  0.0000000E+00  0.0000000E+00
6358000.  0.2667837E-01  0.2156046E+01  0.1998247E-02  0.1282658E-01  0.0000000E+00  0.0000000E+00
6357000.  0.2633888E-01  0.2169503E+01  0.1995978E-02  0.1608093E-01  0.0000000E+00  0.0000000E+00
6356000.  0.2599737E-01  0.2181870E+01  0.1993199E-02  0.1933715E-01  0.0000000E+00  0.0000000E+00
6356000.  0.2599737E-01  0.1847440E+01  0.1993199E-02  0.2134005E-02  0.0000000E+00  0.0000000E+00
6355000.  0.2570653E-01  0.1858289E+01  0.1992736E-02  0.3757198E-02  0.0000000E+00  0.0000000E+00
6354000.  0.2541404E-01  0.1868595E+01  0.1992019E-02  0.5383279E-02  0.0000000E+00  0.0000000E+00
6353000.  0.2511997E-01  0.1878356E+01  0.1991046E-02  0.7011944E-02  0.0000000E+00  0.0000000E+00
6352000.  0.2482441E-01  0.1887571E+01  0.1989818E-02  0.8642890E-02  0.0000000E+00  0.0000000E+00
6351000.  0.2452744E-01  0.1896238E+01  0.1988333E-02  0.1027581E-01  0.0000000E+00  0.0000000E+00
6350000.  0.2422916E-01  0.1904356E+01  0.1986592E-02  0.1191040E-01  0.0000000E+00  0.0000000E+00
6349000.  0.2392965E-01  0.1911924E+01  0.1984594E-02  0.1354636E-01  0.0000000E+00  0.0000000E+00
6348000.  0.2362900E-01  0.1918940E+01  0.1982339E-02  0.1518337E-01  0.0000000E+00  0.0000000E+00
6347000.  0.2332728E-01  0.1925403E+01  0.1979828E-02  0.1682113E-01  0.0000000E+00  0.0000000E+00
6346600.  0.2320632E-01  0.1927834E+01  0.1978751E-02  0.1747638E-01  0.0000000E+00  0.0000000E+00
6346600.  0.2320632E-01  0.2092543E+01  0.1978751E-02  0.4876561E-02  0.0000000E+00  0.0000000E+00
6318800.  0.1384726E-01  0.2158330E+01  0.1911689E-02  0.2593932E-01  0.0000000E+00  0.0000000E+00
6291000.  0.4713801E-02  0.1988972E+01  0.1753384E-02  0.4631053E-01  0.0000000E+00  0.0000000E+00
6291000.  0.4713801E-02  0.2044624E+01  0.1753384E-02  0.4793327E-01  0.0000000E+00  0.0000000E+00
6263000. -0.3432594E-02  0.1624112E+01  0.1498564E-02  0.6726607E-01  0.0000000E+00  0.0000000E+00
6235000. -0.9261115E-02  0.9992987E+00  0.1170426E-02  0.8095565E-01  0.0000000E+00  0.0000000E+00
6207000. -0.1201680E-01  0.2390297E+00  0.7977744E-03  0.8730397E-01  0.0000000E+00  0.0000000E+00
6179000. -0.1129133E-01 -0.5692588E+00  0.4150993E-03  0.8545217E-01  0.0000000E+00  0.0000000E+00
6151000. -0.7083765E-02 -0.1329408E+01  0.5857367E-04  0.7550412E-01  0.0000000E+00  0.0000000E+00
6151000. -0.7083765E-02 -0.1059252E+01  0.5857367E-04  0.6730027E-01  0.0000000E+00  0.0000000E+00
6128500. -0.2587784E-02 -0.1471655E+01 -0.1598140E-03  0.5593786E-01  0.0000000E+00  0.0000000E+00
6106000.  0.3189955E-02 -0.1781693E+01 -0.3339369E-03  0.4237558E-01  0.0000000E+00  0.0000000E+00
6083500.  0.9855772E-02 -0.1972433E+01 -0.4575866E-03  0.2750802E-01  0.0000000E+00  0.0000000E+00
6061000.  0.1697017E-01 -0.2034933E+01 -0.5277926E-03  0.1226451E-01  0.0000000E+00  0.0000000E+00
6038500.  0.2407653E-01 -0.1968431E+01 -0.5448422E-03 -0.2448935E-02  0.0000000E+00  0.0000000E+00
6016000.  0.3072956E-01 -0.1780001E+01 -0.5121016E-03 -0.1580286E-01  0.0000000E+00  0.0000000E+00
5993500.  0.3652169E-01 -0.1483773E+01 -0.4356646E-03 -0.2708847E-01  0.0000000E+00  0.0000000E+00
5971000.  0.4110609E-01 -0.1099802E+01 -0.3238653E-03 -0.3575048E-01  0.0000000E+00  0.0000000E+00
5971000.  0.4110609E-01 -0.1024656E+01 -0.3238653E-03 -0.3668193E-01  0.0000000E+00  0.0000000E+00
5937667.  0.4477167E-01 -0.3684058E+00 -0.1140129E-03 -0.4248717E-01  0.0000000E+00  0.0000000E+00
5904333.  0.4494458E-01  0.2978220E+00  0.1105107E-03 -0.4245219E-01  0.0000000E+00  0.0000000E+00
5871000.  0.4175717E-01  0.9062430E+00  0.3220963E-03 -0.3777098E-01  0.0000000E+00  0.0000000E+00
5837667.  0.3564967E-01  0.1407462E+01  0.5001319E-03 -0.2987094E-01  0.0000000E+00  0.0000000E+00
5804333.  0.2726909E-01  0.1771660E+01  0.6315415E-03 -0.2017233E-01  0.0000000E+00  0.0000000E+00
5771000.  0.1737083E-01  0.1987125E+01  0.7102706E-03 -0.9921479E-02  0.0000000E+00  0.0000000E+00
5771000.  0.1737083E-01  0.1987239E+01  0.7102706E-03 -0.9921756E-02  0.0000000E+00  0.0000000E+00
5701000. -0.5381151E-02  0.2046053E+01  0.6966090E-03  0.1232868E-01  0.0000000E+00  0.0000000E+00
5701000. -0.5381151E-02  0.1780250E+01  0.6966090E-03  0.1117164E-01  0.0000000E+00  0.0000000E+00
5667333. -0.1417443E-01  0.1561930E+01  0.6309772E-03  0.1330181E-01  0.0000000E+00  0.0000000E+00
5633667. -0.2201509E-01  0.1408343E+01  0.5583270E-03  0.1410812E-01  0.0000000E+00  0.0000000E+00
5600000. -0.2901033E-01  0.1235216E+01  0.4820805E-03  0.1470334E-01  0.0000000E+00  0.0000000E+00
5600000. -0.2901033E-01  0.1235216E+01  0.4820805E-03  0.1470334E-01  0.0000000E+00  0.0000000E+00
5563518. -0.3550805E-01  0.1032309E+01  0.3971029E-03  0.1490273E-01  0.0000000E+00  0.0000000E+00
5527037. -0.4081793E-01  0.8217286E+00  0.3122422E-03  0.1466721E-01  0.0000000E+00  0.0000000E+00
5490556. -0.4491864E-01  0.6111889E+00  0.2298910E-03  0.1403495E-01  0.0000000E+00  0.0000000E+00
5454074. -0.4783054E-01  0.4075290E+00  0.1521497E-03  0.1306715E-01  0.0000000E+00  0.0000000E+00
5417593. -0.4961006E-01  0.2165580E+00  0.8075456E-04  0.1183148E-01  0.0000000E+00  0.0000000E+00
5381111. -0.5034350E-01  0.4279305E-01  0.1700916E-04  0.1040822E-01  0.0000000E+00  0.0000000E+00
5344630. -0.5013925E-01 -0.1105200E+00 -0.3823368E-04  0.8874186E-02  0.0000000E+00  0.0000000E+00
5308148. -0.4912068E-01 -0.2413878E+00 -0.8453916E-04  0.7297728E-02  0.0000000E+00  0.0000000E+00
5271667. -0.4741942E-01 -0.3489299E+00 -0.1218614E-03  0.5746903E-02  0.0000000E+00  0.0000000E+00
5235185. -0.4516887E-01 -0.4333259E+00 -0.1504962E-03  0.4269946E-02  0.0000000E+00  0.0000000E+00
5198704. -0.4249926E-01 -0.4955319E+00 -0.1709791E-03  0.2906437E-02  0.0000000E+00  0.0000000E+00
5162222. -0.3953326E-01 -0.5371429E+00 -0.1840661E-03  0.1690404E-02  0.0000000E+00  0.0000000E+00
5125741. -0.3638301E-01 -0.5602947E+00 -0.1906434E-03  0.6343003E-03  0.0000000E+00  0.0000000E+00
5089259. -0.3314738E-01 -0.5673427E+00 -0.1916539E-03 -0.2527881E-03  0.0000000E+00  0.0000000E+00
5052778. -0.2991161E-01 -0.5608053E+00 -0.1880754E-03 -0.9694733E-03  0.0000000E+00  0.0000000E+00
5016296. -0.2674592E-01 -0.5432506E+00 -0.1808569E-03 -0.1525880E-02  0.0000000E+00  0.0000000E+00
4979815. -0.2370656E-01 -0.5171036E+00 -0.1708880E-03 -0.1932268E-02  0.0000000E+00  0.0000000E+00
4943333. -0.2083594E-01 -0.4846566E+00 -0.1589841E-03 -0.2204765E-02  0.0000000E+00  0.0000000E+00
4906852. -0.1816422E-01 -0.4479734E+00 -0.1458572E-03 -0.2362477E-02  0.0000000E+00  0.0000000E+00
4870370. -0.1571034E-01 -0.4088222E+00 -0.1321168E-03 -0.2421849E-02  0.0000000E+00  0.0000000E+00
4833889. -0.1348402E-01 -0.3687467E+00 -0.1182714E-03 -0.2402636E-02  0.0000000E+00  0.0000000E+00
4797407. -0.1148676E-01 -0.3289797E+00 -0.1047168E-03 -0.2322681E-02  0.0000000E+00  0.0000000E+00
4760926. -0.9714033E-02 -0.2904822E+00 -0.9176086E-04 -0.2196159E-02  0.0000000E+00  0.0000000E+00
4724444. -0.8156207E-02 -0.2540072E+00 -0.7962417E-04 -0.2038789E-02  0.0000000E+00  0.0000000E+00
4687963. -0.6800249E-02 -0.2200555E+00 -0.6844872E-04 -0.1862188E-02  0.0000000E+00  0.0000000E+00
4651482. -0.5630677E-02 -0.1889470E+00 -0.5831675E-04 -0.1675903E-02  0.0000000E+00  0.0000000E+00
4615000. -0.4630616E-02 -0.1608539E+00 -0.4925731E-04 -0.1488677E-02  0.0000000E+00  0.0000000E+00
4578518. -0.3782699E-02 -0.1358040E+00 -0.4125874E-04 -0.1306186E-02  0.0000000E+00  0.0000000E+00
4542037. -0.3069654E-02 -0.1137372E+00 -0.3428062E-04 -0.1133034E-02  0.0000000E+00  0.0000000E+00
4505556. -0.2474735E-02 -0.9451517E-01 -0.2825863E-04 -0.9725956E-03  0.0000000E+00  0.0000000E+00
4469074. -0.1982191E-02 -0.7794033E-01 -0.2311530E-04 -0.8262861E-03  0.0000000E+00  0.0000000E+00
4432593. -0.1577502E-02 -0.6379501E-01 -0.1876640E-04 -0.6953017E-03  0.0000000E+00  0.0000000E+00
4396111. -0.1247424E-02 -0.5183511E-01 -0.1512296E-04 -0.5797720E-03  0.0000000E+00  0.0000000E+00
4359630. -0.9801736E-03 -0.4181327E-01 -0.1209844E-04 -0.4790560E-03  0.0000000E+00  0.0000000E+00
4323148. -0.7653249E-03 -0.3349083E-01 -0.9609615E-05 -0.3924877E-03  0.0000000E+00  0.0000000E+00
4286667. -0.5938252E-03 -0.2663711E-01 -0.7578788E-05 -0.3188910E-03  0.0000000E+00  0.0000000E+00
4250185. -0.4578755E-03 -0.2103890E-01 -0.5935331E-05 -0.2569625E-03  0.0000000E+00  0.0000000E+00
4213704. -0.3508537E-03 -0.1650374E-01 -0.4616076E-05 -0.2054474E-03  0.0000000E+00  0.0000000E+00
4177222. -0.2671755E-03 -0.1285755E-01 -0.3565258E-05 -0.1629705E-03  0.0000000E+00  0.0000000E+00
4140741. -0.2021986E-03 -0.9949036E-02 -0.2734816E-05 -0.1282878E-03  0.0000000E+00  0.0000000E+00
4104259. -0.1520817E-03 -0.7646294E-02 -0.2083392E-05 -0.1002463E-03  0.0000000E+00  0.0000000E+00
4067778. -0.1136919E-03 -0.5836225E-02 -0.1576201E-05 -0.7774792E-04  0.0000000E+00  0.0000000E+00
4031296. -0.8448568E-04 -0.4423867E-02 -0.1184186E-05 -0.5987008E-04  0.0000000E+00  0.0000000E+00
3994815. -0.6242256E-04 -0.3329414E-02 -0.8833061E-06 -0.4578998E-04  0.0000000E+00  0.0000000E+00
3958333. -0.4587680E-04 -0.2486685E-02 -0.6539275E-06 -0.3478559E-04  0.0000000E+00  0.0000000E+00
3921852. -0.3356724E-04 -0.1841825E-02 -0.4801839E-06 -0.2626969E-04  0.0000000E+00  0.0000000E+00
3885370. -0.2449087E-04 -0.1350719E-02 -0.3492988E-06 -0.1973801E-04  0.0000000E+00  0.0000000E+00
3848889. -0.1787303E-04 -0.9779260E-03 -0.2511479E-06 -0.1477576E-04  0.0000000E+00  0.0000000E+00
3812407. -0.1312019E-04 -0.6950378E-03 -0.1777295E-06 -0.1104784E-04  0.0000000E+00  0.0000000E+00
3775926. -0.9785236E-05 -0.4793809E-03 -0.1228059E-06 -0.8274556E-05  0.0000000E+00  0.0000000E+00
3739444. -0.7536254E-05 -0.3130813E-03 -0.8158501E-07 -0.6226291E-05  0.0000000E+00  0.0000000E+00
3702963. -0.6132258E-05 -0.1822500E-03 -0.5049949E-07 -0.4702279E-05  0.0000000E+00  0.0000000E+00
3666482. -0.5401273E-05 -0.7660795E-04 -0.2711251E-07 -0.3502974E-05  0.0000000E+00  0.0000000E+00
3630000. -0.5219346E-05  0.1022424E-04 -0.1019642E-07 -0.2397875E-05  0.0000000E+00  0.0000000E+00
3630000. -0.5219346E-05  0.1022424E-04 -0.1019642E-07 -0.2397875E-05  0.0000000E+00  0.0000000E+00
3592500. -0.5498141E-05  0.8111152E-04  0.7761852E-10 -0.1012298E-05  0.0000000E+00  0.0000000E+00
3555000. -0.6123164E-05  0.1254520E-03  0.1071501E-09  0.1210138E-05  0.0000000E+00  0.0000000E+00
3517500. -0.6875964E-05  0.1183001E-03 -0.1781176E-07  0.5317936E-05  0.0000000E+00  0.0000000E+00
3480000. -0.7305812E-05  0.2128128E-05 -0.6988920E-07  0.1324715E-04  0.0000000E+00  0.0000000E+00
3480000. -0.7305812E-05 -0.5310962E-03 -0.1764573E-06 -0.1304900E-04  0.0000000E+00  0.0000000E+00
3409422. -0.3217038E-05 -0.2425089E-03 -0.7668167E-07 -0.5867313E-05  0.0000000E+00  0.0000000E+00
3338844. -0.1375038E-05 -0.1073527E-03 -0.3238637E-07 -0.2561732E-05  0.0000000E+00  0.0000000E+00
3268266. -0.5704219E-06 -0.4607834E-04 -0.1329022E-07 -0.1085992E-05  0.0000000E+00  0.0000000E+00
3197688. -0.2296082E-06 -0.1917607E-04 -0.5296977E-08 -0.4469044E-06  0.0000000E+00  0.0000000E+00
3127109. -0.8964082E-07 -0.7735705E-05 -0.2049352E-08 -0.1784545E-06  0.0000000E+00  0.0000000E+00
3056531. -0.3392547E-07 -0.3023852E-05 -0.7691844E-09 -0.6911178E-07  0.0000000E+00  0.0000000E+00
2985953. -0.1243789E-07 -0.1144722E-05 -0.2798546E-09 -0.2594175E-07  0.0000000E+00  0.0000000E+00
2915375. -0.4413831E-08 -0.4193900E-06 -0.9861403E-10 -0.9430368E-08  0.0000000E+00  0.0000000E+00
2844797. -0.1514682E-08 -0.1485767E-06 -0.3362108E-10 -0.3316976E-08  0.0000000E+00  0.0000000E+00
2774219. -0.5021034E-09 -0.5084757E-07 -0.1107790E-10 -0.1127674E-08  0.0000000E+00  0.0000000E+00
2703641. -0.1605824E-09 -0.1679123E-07 -0.3523083E-11 -0.3701119E-09  0.0000000E+00  0.0000000E+00
2633062. -0.4948004E-10 -0.5343422E-08 -0.1079905E-11 -0.1171121E-09  0.0000000E+00  0.0000000E+00
2562484. -0.1466683E-10 -0.1636301E-08 -0.3185492E-12 -0.3567411E-10  0.0000000E+00  0.0000000E+00
2491906. -0.4175103E-11 -0.4813913E-09 -0.9026781E-13 -0.1044372E-10  0.0000000E+00  0.0000000E+00
2421328. -0.1139199E-11 -0.1358109E-09 -0.2452559E-13 -0.2932945E-11  0.0000000E+00  0.0000000E+00
2350750. -0.2973180E-12 -0.3666862E-10 -0.6375501E-14 -0.7885129E-12  0.0000000E+00  0.0000000E+00
2280172. -0.7404958E-13 -0.9453696E-11 -0.1581970E-14 -0.2024804E-12  0.0000000E+00  0.0000000E+00
2209594. -0.1755443E-13 -0.2321520E-11 -0.3737187E-15 -0.4953750E-13  0.0000000E+00  0.0000000E+00
2139016. -0.3949892E-14 -0.5414930E-12 -0.8381036E-16 -0.1151494E-13  0.0000000E+00  0.0000000E+00
2068438. -0.8414055E-15 -0.1195221E-12 -0.1777539E-16 -0.2536844E-14  0.0000000E+00  0.0000000E+00
1997859.  0.0000000E+00  0.0000000E+00  0.0000000E+00  0.0000000E+00  0.0000000E+00  0.0000000E+00
1927281.  0.0000000E+00  0.0000000E+00  0.0000000E+00  0.0000000E+00  0.0000000E+00  0.0000000E+00
1856703.  0.0000000E+00  0.0000000E+00  0.0000000E+00  0.0000000E+00  0.0000000E+00  0.0000000E+00
1786125.  0.0000000E+00  0.0000000E+00  0.0000000E+00  0.0000000E+00  0.0000000E+00  0.0000000E+00
1715547.  0.0000000E+00  0.0000000E+00  0.0000000E+00  0.0000000E+00  0.0000000E+00  0.0000000E+00
1644969.  0.0000000E+00  0.0000000E+00  0.0000000E+00  0.0000000E+00  0.0000000E+00  0.0000000E+00
1574391.  0.0000000E+00  0.0000000E+00  0.0000000E+00  0.0000000E+00  0.0000000E+00  0.0000000E+00
1503812.  0.0000000E+00  0.0000000E+00  0.0000000E+00  0.0000000E+00  0.0000000E+00  0.0000000E+00
1433234.  0.0000000E+00  0.0000000E+00  0.0000000E+00  0.0000000E+00  0.0000000E+00  0.0000000E+00
1362656.  0.0000000E+00  0.0000000E+00  0.0000000E+00  0.0000000E+00  0.0000000E+00  0.0000000E+00
1292078.  0.0000000E+00  0.0000000E+00  0.0000000E+00  0.0000000E+00  0.0000000E+00  0.0000000E+00
1221500.  0.0000000E+00  0.0000000E+00  0.0000000E+00  0.0000000E+00  0.0000000E+00  0.0000000E+00
1221500.  0.0000000E+00  0.0000000E+00  0.0000000E+00  0.0000000E+00  0.0000000E+00  0.0000000E+00
1183328.  0.0000000E+00  0.0000000E+00  0.0000000E+00  0.0000000E+00  0.0000000E+00  0.0000000E+00
1145156.  0.0000000E+00  0.0000000E+00  0.0000000E+00  0.0000000E+00  0.0000000E+00  0.0000000E+00
1106984.  0.0000000E+00  0.0000000E+00  0.0000000E+00  0.0000000E+00  0.0000000E+00  0.0000000E+00
1068812.  0.0000000E+00  0.0000000E+00  0.0000000E+00  0.0000000E+00  0.0000000E+00  0.0000000E+00
1030641.  0.0000000E+00  0.0000000E+00  0.0000000E+00  0.0000000E+00  0.0000000E+00  0.0000000E+00
 992469.  0.0000000E+00  0.0000000E+00  0.0000000E+00  0.0000000E+00  0.0000000E+00  0.0000000E+00
 954297.  0.0000000E+00  0.0000000E+00  0.0000000E+00  0.0000000E+00  0.0000000E+00  0.0000000E+00
 916125.  0.0000000E+00  0.0000000E+00  0.0000000E+00  0.0000000E+00  0.0000000E+00  0.0000000E+00
 877953.  0.0000000E+00  0.0000000E+00  0.0000000E+00  0.0000000E+00  0.0000000E+00  0.0000000E+00
 839781.  0.0000000E+00  0.0000000E+00  0.0000000E+00  0.0000000E+00  0.0000000E+00  0.0000000E+00
 801609.  0.0000000E+00  0.0000000E+00  0.0000000E+00  0.0000000E+00  0.0000000E+00  0.0000000E+00
 763438.  0.0000000E+00  0.0000000E+00  0.0000000E+00  0.0000000E+00  0.0000000E+00  0.0000000E+00
 725266.  0.0000000E+00  0.0000000E+00  0.0000000E+00  0.0000000E+00  0.0000000E+00  0.0000000E+00
 687094.  0.0000000E+00  0.0000000E+00  0.0000000E+00  0.0000000E+00  0.0000000E+00  0.0000000E+00
 648922.  0.0000000E+00  0.0000000E+00  0.0000000E+00  0.0000000E+00  0.0000000E+00  0.0000000E+00
 610750.  0.0000000E+00  0.0000000E+00  0.0000000E+00  0.0000000E+00  0.0000000E+00  0.0000000E+00
 572578.  0.0000000E+00  0.0000000E+00  0.0000000E+00  0.0000000E+00  0.0000000E+00  0.0000000E+00
 534406.  0.0000000E+00  0.0000000E+00  0.0000000E+00  0.0000000E+00  0.0000000E+00  0.0000000E+00
 496234.  0.0000000E+00  0.0000000E+00  0.0000000E+00  0.0000000E+00  0.0000000E+00  0.0000000E+00
 458062.  0.0000000E+00  0.0000000E+00  0.0000000E+00  0.0000000E+00  0.0000000E+00  0.0000000E+00
 419891.  0.0000000E+00  0.0000000E+00  0.0000000E+00  0.0000000E+00  0.0000000E+00  0.0000000E+00
 381719.  0.0000000E+00  0.0000000E+00  0.0000000E+00  0.0000000E+00  0.0000000E+00  0.0000000E+00
 343547.  0.0000000E+00  0.0000000E+00  0.0000000E+00  0.0000000E+00  0.0000000E+00  0.0000000E+00
 305375.  0.0000000E+00  0.0000000E+00  0.0000000E+00  0.0000000E+00  0.0000000E+00  0.0000000E+00
 267203.  0.0000000E+00  0.0000000E+00  0.0000000E+00  0.0000000E+00  0.0000000E+00  0.0000000E+00
 229031.  0.0000000E+00  0.0000000E+00  0.0000000E+00  0.0000000E+00  0.0000000E+00  0.0000000E+00
 190859.  0.0000000E+00  0.0000000E+00  0.0000000E+00  0.0000000E+00  0.0000000E+00  0.0000000E+00
 152688.  0.0000000E+00  0.0000000E+00  0.0000000E+00  0.0000000E+00  0.0000000E+00  0.0000000E+00
 114516.  0.0000000E+00  0.0000000E+00  0.0000000E+00  0.0000000E+00  0.0000000E+00  0.0000000E+00
  76344.  0.0000000E+00  0.0000000E+00  0.0000000E+00  0.0000000E+00  0.0000000E+00  0.0000000E+00
  38172.  0.0000000E+00  0.0000000E+00  0.0000000E+00  0.0000000E+00  0.0000000E+00  0.0000000E+00
      0.  0.0000000E+00  0.0000000E+00  0.0000000E+00  0.0000000E+00  0.0000000E+00  0.0000000E+00
