       9        5 S      474        231.10280         31.49341         22.76020         91.58722      185    7
6371000.  0.2264252E-01  0.2087246E-01  0.3278625E-02 -0.1936390E-01 -0.7693755E-04 -0.4223688E-01
6370000.  0.2263900E-01  0.2409600E-01  0.3281549E-02 -0.1789358E-01 -0.7030626E-04 -0.4225887E-01
6369000.  0.2263496E-01  0.2731520E-01  0.3284242E-02 -0.1642039E-01 -0.6367159E-04 -0.4227997E-01
6368000.  0.2263042E-01  0.3052998E-01  0.3286704E-02 -0.1494445E-01 -0.5703368E-04 -0.4230019E-01
6368000.  0.2263042E-01  0.3052998E-01  0.3286704E-02 -0.1494445E-01 -0.5703368E-04 -0.4230019E-01
6367000.  0.2262538E-01  0.3374025E-01  0.3288933E-02 -0.1346586E-01 -0.5039266E-04 -0.4231952E-01
6366000.  0.2261983E-01  0.3694593E-01  0.3290931E-02 -0.1198472E-01 -0.4374868E-04 -0.4233797E-01
6365000.  0.2261378E-01  0.4014694E-01  0.3292695E-02 -0.1050113E-01 -0.3710187E-04 -0.4235553E-01
6364000.  0.2260723E-01  0.4334321E-01  0.3294227E-02 -0.9015205E-02 -0.3045237E-04 -0.4237220E-01
6363000.  0.2260017E-01  0.4653465E-01  0.3295525E-02 -0.7527045E-02 -0.2380033E-04 -0.4238798E-01
6362000.  0.2259262E-01  0.4972118E-01  0.3296590E-02 -0.6036754E-02 -0.1714588E-04 -0.4240288E-01
6361000.  0.2258456E-01  0.5290272E-01  0.3297420E-02 -0.4544439E-02 -0.1048916E-04 -0.4241689E-01
6360000.  0.2257601E-01  0.5607921E-01  0.3298016E-02 -0.3050205E-02 -0.3830312E-05 -0.4243001E-01
6359000.  0.2256696E-01  0.5925055E-01  0.3298378E-02 -0.1554158E-02  0.2830526E-05 -0.4244224E-01
6358000.  0.2255741E-01  0.6241667E-01  0.3298504E-02 -0.5640254E-04  0.9493213E-05 -0.4245358E-01
6357000.  0.2254737E-01  0.6557749E-01  0.3298395E-02  0.1442954E-02  0.1615761E-04 -0.4246403E-01
6356000.  0.2253683E-01  0.6873294E-01  0.3298051E-02  0.2943807E-02  0.2282358E-04 -0.4247358E-01
6356000.  0.2253683E-01  0.4957391E-01  0.3298051E-02 -0.5867463E-02  0.2282358E-04 -0.4737733E-01
6355000.  0.2252886E-01  0.5188445E-01  0.3298894E-02 -0.4866152E-02  0.3026126E-04 -0.4739346E-01
6354000.  0.2252054E-01  0.5419170E-01  0.3299579E-02 -0.3863570E-02  0.3770141E-04 -0.4740888E-01
6353000.  0.2251185E-01  0.5649565E-01  0.3300106E-02 -0.2859763E-02  0.4514393E-04 -0.4742359E-01
6352000.  0.2250280E-01  0.5879623E-01  0.3300476E-02 -0.1854779E-02  0.5258870E-04 -0.4743760E-01
6351000.  0.2249339E-01  0.6109342E-01  0.3300688E-02 -0.8486655E-03  0.6003562E-04 -0.4745091E-01
6350000.  0.2248362E-01  0.6338717E-01  0.3300743E-02  0.1585307E-03  0.6748457E-04 -0.4746351E-01
6349000.  0.2247350E-01  0.6567743E-01  0.3300639E-02  0.1166762E-02  0.7493544E-04 -0.4747540E-01
6348000.  0.2246301E-01  0.6796417E-01  0.3300376E-02  0.2175980E-02  0.8238813E-04 -0.4748659E-01
6347000.  0.2245216E-01  0.7024735E-01  0.3299956E-02  0.3186138E-02  0.8984252E-04 -0.4749707E-01
6346600.  0.2244772E-01  0.7115962E-01  0.3299743E-02  0.3590454E-02  0.9282472E-04 -0.4750106E-01
6346600.  0.2244772E-01  0.5404989E-01  0.3299743E-02 -0.3820232E-02  0.9282472E-04 -0.5532826E-01
6318800.  0.2211163E-01  0.9973227E-01  0.3268470E-02  0.1821209E-01  0.3349076E-03 -0.5555402E-01
6291000.  0.2158000E-01  0.1435970E+00  0.3140755E-02  0.4027915E-01  0.5769826E-03 -0.5532306E-01
6291000.  0.2158000E-01  0.1462550E+00  0.3140755E-02  0.4259230E-01  0.5769826E-03 -0.5532306E-01
6263000.  0.2084327E-01  0.1885716E+00  0.2903792E-02  0.6507037E-01  0.8186841E-03 -0.5458802E-01
6235000.  0.1992665E-01  0.2280515E+00  0.2570800E-02  0.8618245E-01  0.1056095E-02 -0.5337027E-01
6207000.  0.1884336E-01  0.2643791E+00  0.2149205E-02  0.1052885E+00  0.1287094E-02 -0.5167127E-01
6179000.  0.1760777E-01  0.2973216E+00  0.1649130E-02  0.1218045E+00  0.1509580E-02 -0.4949733E-01
6151000.  0.1623514E-01  0.3267246E+00  0.1083114E-02  0.1352177E+00  0.1721488E-02 -0.4685993E-01
6151000.  0.1623514E-01  0.2631738E+00  0.1083114E-02  0.1166208E+00  0.1721488E-02 -0.4775815E-01
6128500.  0.1528507E-01  0.2744955E+00  0.6598901E-03  0.1227410E+00  0.1887181E-02 -0.4604057E-01
6106000.  0.1429894E-01  0.2836116E+00  0.2184251E-03  0.1269406E+00  0.2046445E-02 -0.4411975E-01
6083500.  0.1328430E-01  0.2906677E+00 -0.2344078E-03  0.1291738E+00  0.2198583E-02 -0.4200643E-01
6061000.  0.1224814E-01  0.2958245E+00 -0.6916297E-03  0.1294267E+00  0.2342934E-02 -0.3971224E-01
6038500.  0.1119687E-01  0.2992576E+00 -0.1146273E-02  0.1277194E+00  0.2478882E-02 -0.3724905E-01
6016000.  0.1013625E-01  0.3011483E+00 -0.1591496E-02  0.1241032E+00  0.2605850E-02 -0.3462922E-01
5993500.  0.9071402E-02  0.3016822E+00 -0.2020690E-02  0.1186576E+00  0.2723308E-02 -0.3186576E-01
5971000.  0.8006784E-02  0.3010497E+00 -0.2427578E-02  0.1114910E+00  0.2830772E-02 -0.2897171E-01
5971000.  0.8006784E-02  0.2693028E+00 -0.2427578E-02  0.9798186E-01  0.2830772E-02 -0.3001986E-01
5937667.  0.6622261E-02  0.2598005E+00 -0.2899362E-02  0.8211933E-01  0.2977067E-02 -0.2587688E-01
5904333.  0.5289251E-02  0.2496824E+00 -0.3284922E-02  0.6512947E-01  0.3101309E-02 -0.2159520E-01
5871000.  0.4009809E-02  0.2394058E+00 -0.3580036E-02  0.4764888E-01  0.3202870E-02 -0.1721457E-01
5837667.  0.2783767E-02  0.2293209E+00 -0.3783643E-02  0.3023634E-01  0.3281334E-02 -0.1277201E-01
5804333.  0.1609372E-02  0.2196841E+00 -0.3897386E-02  0.1336864E-01  0.3336470E-02 -0.8301990E-02
5771000.  0.4838780E-03  0.2106639E+00 -0.3925178E-02 -0.2560120E-02  0.3368217E-02 -0.3837036E-02
5771000.  0.4838780E-03  0.2106607E+00 -0.3925178E-02 -0.2560195E-02  0.3368217E-02 -0.3837036E-02
5701000. -0.1828758E-02  0.2105367E+00 -0.3724668E-02 -0.3346266E-01  0.3358852E-02  0.5531612E-02
5701000. -0.1828758E-02  0.1685892E+00 -0.3724668E-02 -0.2686030E-01  0.3358852E-02  0.6047073E-02
5667333. -0.2675570E-02  0.1546708E+00 -0.3560166E-02 -0.3546736E-01  0.3315936E-02  0.1015177E-01
5633667. -0.3488414E-02  0.1540164E+00 -0.3346880E-02 -0.4539101E-01  0.3251778E-02  0.1412359E-01
5600000. -0.4302127E-02  0.1538345E+00 -0.3082640E-02 -0.5437791E-01  0.3166786E-02  0.1802766E-01
5600000. -0.4302127E-02  0.1538345E+00 -0.3082640E-02 -0.5437791E-01  0.3166786E-02  0.1802766E-01
5563518. -0.5183447E-02  0.1540522E+00 -0.2746245E-02 -0.6289025E-01  0.3051705E-02  0.2214537E-01
5527037. -0.6067057E-02  0.1546207E+00 -0.2365087E-02 -0.6999514E-01  0.2913437E-02  0.2612314E-01
5490556. -0.6954566E-02  0.1553844E+00 -0.1947545E-02 -0.7558220E-01  0.2752848E-02  0.2993842E-01
5454074. -0.7846588E-02  0.1561615E+00 -0.1502546E-02 -0.7957175E-01  0.2570921E-02  0.3357031E-01
5417593. -0.8742701E-02  0.1567910E+00 -0.1039364E-02 -0.8193506E-01  0.2368779E-02  0.3699787E-01
5381111. -0.9641520E-02  0.1570624E+00 -0.5673179E-03 -0.8266462E-01  0.2147631E-02  0.4020378E-01
5344630. -0.1054036E-01  0.1567760E+00 -0.9571836E-04 -0.8179295E-01  0.1908806E-02  0.4317140E-01
5308148. -0.1143554E-01  0.1557419E+00  0.3664840E-03 -0.7939065E-01  0.1653701E-02  0.4588537E-01
5271667. -0.1232212E-01  0.1537471E+00  0.8107293E-03 -0.7554312E-01  0.1383816E-02  0.4833432E-01
5235185. -0.1319413E-01  0.1506190E+00  0.1229118E-02 -0.7037935E-01  0.1100688E-02  0.5050614E-01
5198704. -0.1404456E-01  0.1461911E+00  0.1614508E-02 -0.6404592E-01  0.8059487E-03  0.5239151E-01
5162222. -0.1486555E-01  0.1403015E+00  0.1960655E-02 -0.5669873E-01  0.5012372E-03  0.5398522E-01
5125741. -0.1564833E-01  0.1328411E+00  0.2262275E-02 -0.4852896E-01  0.1882625E-03  0.5527964E-01
5089259. -0.1638368E-01  0.1237108E+00  0.2515216E-02 -0.3972606E-01 -0.1312690E-03  0.5627216E-01
5052778. -0.1706178E-01  0.1128456E+00  0.2716402E-02 -0.3048837E-01 -0.4556087E-03  0.5696181E-01
5016296. -0.1767264E-01  0.1002191E+00  0.2863947E-02 -0.2102328E-01 -0.7830348E-03  0.5734712E-01
4979815. -0.1820615E-01  0.8583578E-01  0.2957117E-02 -0.1153094E-01 -0.1111793E-02  0.5743100E-01
4943333. -0.1865237E-01  0.6973790E-01  0.2996329E-02 -0.2209633E-02 -0.1440186E-02  0.5721656E-01
4906852. -0.1900167E-01  0.5200250E-01  0.2983115E-02  0.6749835E-02 -0.1766495E-02  0.5670738E-01
4870370. -0.1924500E-01  0.3274616E-01  0.2920051E-02  0.1517288E-01 -0.2089074E-02  0.5591193E-01
4833889. -0.1937405E-01  0.1211410E-01  0.2810688E-02  0.2289587E-01 -0.2406283E-02  0.5483601E-01
4797407. -0.1938143E-01 -0.9717280E-02  0.2659449E-02  0.2977576E-01 -0.2716555E-02  0.5348811E-01
4760926. -0.1926089E-01 -0.3252679E-01  0.2471534E-02  0.3568870E-01 -0.3018354E-02  0.5188071E-01
4724444. -0.1900746E-01 -0.5609307E-01  0.2252768E-02  0.4053386E-01 -0.3310231E-02  0.5002165E-01
4687963. -0.1861755E-01 -0.8015154E-01  0.2009514E-02  0.4423308E-01 -0.3590765E-02  0.4792409E-01
4651482. -0.1808914E-01 -0.1044195E+00  0.1748494E-02  0.4673244E-01 -0.3858638E-02  0.4560134E-01
4615000. -0.1742181E-01 -0.1286222E+00  0.1476661E-02  0.4800463E-01 -0.4112598E-02  0.4306454E-01
4578518. -0.1661682E-01 -0.1524457E+00  0.1201074E-02  0.4804445E-01 -0.4351457E-02  0.4032904E-01
4542037. -0.1567725E-01 -0.1755896E+00  0.9287525E-03  0.4687268E-01 -0.4574109E-02  0.3740859E-01
4505556. -0.1460778E-01 -0.1977638E+00  0.6665066E-03  0.4453408E-01 -0.4779539E-02  0.3431617E-01
4469074. -0.1341487E-01 -0.2186462E+00  0.4208408E-03  0.4109195E-01 -0.4966814E-02  0.3106840E-01
4432593. -0.1210675E-01 -0.2379713E+00  0.1978459E-03  0.3663410E-01 -0.5135073E-02  0.2767823E-01
4396111. -0.1069302E-01 -0.2554719E+00  0.3036190E-05  0.3126403E-01 -0.5283550E-02  0.2415979E-01
4359630. -0.9185031E-02 -0.2708693E+00 -0.1586865E-03  0.2510074E-01 -0.5411546E-02  0.2052877E-01
4323148. -0.7595317E-02 -0.2839700E+00 -0.2831680E-03  0.1827854E-01 -0.5518461E-02  0.1679752E-01
4286667. -0.5937709E-02 -0.2945635E+00 -0.3670357E-03  0.1094102E-01 -0.5603753E-02  0.1298002E-01
4250185. -0.4227013E-02 -0.3024741E+00 -0.4077734E-03  0.3239731E-02 -0.5666973E-02  0.9089266E-02
4213704. -0.2479002E-02 -0.3075948E+00 -0.4037444E-03 -0.4668290E-02 -0.5707730E-02  0.5137246E-02
4177222. -0.7099030E-03 -0.3098073E+00 -0.3542182E-03 -0.1262435E-01 -0.5725711E-02  0.1135573E-02
4140741.  0.1063363E-02 -0.3090664E+00 -0.2593780E-03 -0.2046994E-01 -0.5720662E-02 -0.2904740E-02
4104259.  0.2823992E-02 -0.3053734E+00 -0.1202913E-03 -0.2805193E-01 -0.5692389E-02 -0.6974101E-02
4067778.  0.4554919E-02 -0.2987155E+00  0.6108916E-04 -0.3521929E-01 -0.5640754E-02 -0.1106368E-01
4031296.  0.6239507E-02 -0.2891925E+00  0.2819991E-03 -0.4183457E-01 -0.5565661E-02 -0.1516516E-01
3994815.  0.7861575E-02 -0.2769095E+00  0.5388929E-03 -0.4776889E-01 -0.5467068E-02 -0.1927164E-01
3958333.  0.9405695E-02 -0.2619811E+00  0.8275378E-03 -0.5290357E-01 -0.5344954E-02 -0.2337862E-01
3921852.  0.1085724E-01 -0.2446265E+00  0.1143049E-02 -0.5714030E-01 -0.5199340E-02 -0.2747999E-01
3885370.  0.1220298E-01 -0.2250440E+00  0.1480049E-02 -0.6039248E-01 -0.5030257E-02 -0.3157377E-01
3848889.  0.1343073E-01 -0.2034778E+00  0.1832671E-02 -0.6259056E-01 -0.4837763E-02 -0.3565820E-01
3812407.  0.1453006E-01 -0.1802261E+00  0.2194757E-02 -0.6368762E-01 -0.4621908E-02 -0.3973173E-01
3775926.  0.1549204E-01 -0.1555680E+00  0.2559874E-02 -0.6364848E-01 -0.4382757E-02 -0.4379717E-01
3739444.  0.1630962E-01 -0.1298390E+00  0.2921491E-02 -0.6246169E-01 -0.4120338E-02 -0.4785623E-01
3702963.  0.1697764E-01 -0.1033898E+00  0.3273031E-02 -0.6013440E-01 -0.3834697E-02 -0.5191196E-01
3666482.  0.1749291E-01 -0.7654861E-01  0.3608021E-02 -0.5668627E-01 -0.3525820E-02 -0.5597343E-01
3630000.  0.1785429E-01 -0.4969659E-01  0.3920167E-02 -0.5216119E-01 -0.3193649E-02 -0.6004558E-01
3630000.  0.1785429E-01 -0.4969659E-01  0.3920167E-02 -0.5216119E-01 -0.3193649E-02 -0.6004558E-01
3592500.  0.1806635E-01 -0.2245170E-01  0.4210880E-02 -0.4644522E-01 -0.2827845E-02 -0.6425501E-01
3555000.  0.1812008E-01  0.4038164E-02  0.4464960E-02 -0.3972861E-01 -0.2437162E-02 -0.6850073E-01
3517500.  0.1802109E-01  0.2937587E-01  0.4676790E-02 -0.3210591E-01 -0.2021353E-02 -0.7279520E-01
3480000.  0.1777725E-01  0.5319608E-01  0.4841341E-02 -0.2368237E-01 -0.1580076E-02 -0.7715786E-01
3480000.  0.1777725E-01 -0.1163517E+00  0.3487692E-03  0.3190216E-01 -0.1580076E-02 -0.1341692E+00
3409422.  0.1868019E-01 -0.4696503E-01 -0.2267081E-04  0.3495023E-01 -0.4411467E-04 -0.1422365E+00
3338844.  0.1882947E-01  0.1928005E-01 -0.4209232E-03  0.3673646E-01  0.1551556E-02 -0.1449596E+00
3268266.  0.1827325E-01  0.8006431E-01 -0.8318865E-03  0.3724650E-01  0.3148491E-02 -0.1425109E+00
3197688.  0.1708233E-01  0.1336192E+00 -0.1241551E-02  0.3651021E-01  0.4691269E-02 -0.1352575E+00
3127109.  0.1534408E-01  0.1787101E+00 -0.1636455E-02  0.3459479E-01  0.6129458E-02 -0.1237232E+00
3056531.  0.1315681E-01  0.2146056E+00 -0.2004043E-02  0.3159784E-01  0.7419058E-02 -0.1085503E+00
2985953.  0.1062428E-01  0.2410357E+00 -0.2332988E-02  0.2764037E-01  0.8523723E-02 -0.9046028E-01
2915375.  0.7850913E-02  0.2581372E+00 -0.2613403E-02  0.2285993E-01  0.9415347E-02 -0.7021750E-01
2844797.  0.4937653E-02  0.2664007E+00 -0.2836974E-02  0.1740264E-01  0.1007437E-01 -0.4859559E-01
2774219.  0.1978310E-02  0.2666086E+00 -0.2997025E-02  0.1141667E-01  0.1048973E-01 -0.2634773E-01
2703641. -0.9433347E-03  0.2597823E+00 -0.3088505E-02  0.5046463E-02  0.1065844E-01 -0.4181182E-02
2633062. -0.3755939E-02  0.2471294E+00 -0.3107909E-02 -0.1574972E-02  0.1058504E-01  0.1726375E-01
2562484. -0.6402214E-02  0.2299940E+00 -0.3053111E-02 -0.8332250E-02  0.1028069E-01  0.3742823E-01
2491906. -0.8840465E-02  0.2098207E+00 -0.2923144E-02 -0.1513251E-01  0.9762234E-02  0.5584747E-01
2421328. -0.1104538E-01  0.1881261E+00 -0.2717912E-02 -0.2191306E-01  0.9051138E-02  0.7215518E-01
2350750. -0.1300879E-01  0.1664863E+00 -0.2437806E-02 -0.2864980E-01  0.8172355E-02  0.8608506E-01
2280172. -0.1474028E-01  0.1465359E+00 -0.2083236E-02 -0.3536427E-01  0.7153254E-02  0.9746724E-01
2209594. -0.1626802E-01  0.1299967E+00 -0.1654072E-02 -0.4213582E-01  0.6022591E-02  0.1062192E+00
2139016. -0.1763994E-01  0.1187337E+00 -0.1148912E-02 -0.4911698E-01  0.4809610E-02  0.1123325E+00
2068438. -0.1892591E-01  0.1148563E+00 -0.5641620E-03 -0.5655544E-01  0.3543327E-02  0.1158533E+00
1997859. -0.2022120E-01  0.1208800E+00  0.1071918E-03 -0.6482573E-01  0.2252042E-02  0.1168560E+00
1927281. -0.2165232E-01  0.1399855E+00  0.8771965E-03 -0.7447688E-01  0.9632887E-03  0.1154075E+00
1856703. -0.2338652E-01  0.1764241E+00  0.1765304E-02 -0.8630675E-01 -0.2959245E-03  0.1115162E+00
1786125. -0.2564686E-01  0.2361535E+00  0.2801677E-02 -0.1014761E+00 -0.1498023E-02  0.1050599E+00
1715547. -0.2873629E-01  0.3278552E+00  0.4032147E-02 -0.1216924E+00 -0.2612876E-02  0.9567685E-01
1644969. -0.3307625E-01  0.4645831E+00  0.5525784E-02 -0.1495039E+00 -0.3604265E-02  0.8259515E-01
1574391. -0.3926888E-01  0.6664881E+00  0.7386667E-02 -0.1887885E+00 -0.4423963E-02  0.6436060E-01
1503812. -0.4819911E-01  0.9654353E+00  0.9772840E-02 -0.2455792E+00 -0.5001871E-02  0.3837995E-01
1433234. -0.6120392E-01  0.1412982E+01  0.1292715E-01 -0.3294816E+00 -0.5229456E-02  0.1446652E-03
1362656. -0.8036258E-01  0.2094641E+01  0.1722970E-01 -0.4562048E+00 -0.4931719E-02 -0.5814049E-01
1292078. -0.1090020E+00  0.3155987E+01  0.2328820E-01 -0.6521581E+00 -0.3818428E-02 -0.1500282E+00
1221500. -0.1526067E+00  0.4852114E+01  0.3209945E-01 -0.9631402E+00 -0.1397581E-02 -0.2994228E+00
1221500. -0.1526067E+00 -0.1286424E+02 -0.1004728E+00  0.2719154E+00 -0.1397581E-02 -0.2333130E+00
1183328. -0.7111197E-01 -0.1425147E+02 -0.9999069E-01 -0.4339912E+00 -0.1820084E-03 -0.1742794E+00
1145156.  0.1705066E-01 -0.1507858E+02 -0.9530798E-01 -0.1122022E+01  0.7113450E-03 -0.1255184E+00
1106984.  0.1083548E+00 -0.1529464E+02 -0.8667496E-01 -0.1745315E+01  0.1339918E-02 -0.8568072E-01
1068812.  0.1990779E+00 -0.1488537E+02 -0.7460305E-01 -0.2264025E+01  0.1753471E-02 -0.5355245E-01
1030641.  0.2855205E+00 -0.1387330E+02 -0.5981535E-01 -0.2647841E+01  0.1994871E-02 -0.2804637E-01
 992469.  0.3642298E+00 -0.1231539E+02 -0.4318235E-01 -0.2877668E+01  0.2100850E-02 -0.8196295E-02
 954297.  0.4321803E+00 -0.1029871E+02 -0.2565470E-01 -0.2946271E+01  0.2102705E-02  0.6843644E-02
 916125.  0.4869450E+00 -0.7934068E+01 -0.8190703E-02 -0.2858094E+01  0.2026935E-02  0.1783282E-01
 877953.  0.5268139E+00 -0.5348526E+01  0.8310396E-02 -0.2628158E+01  0.1895802E-02  0.2542529E-01
 839781.  0.5508654E+00 -0.2676881E+01  0.2306674E-01 -0.2280273E+01  0.1727888E-02  0.3020210E-01
 801609.  0.5589879E+00 -0.5319217E-01  0.3545956E-01 -0.1844643E+01  0.1538478E-02  0.3268035E-01
 763438.  0.5518500E+00  0.2397412E+01  0.4506360E-01 -0.1355283E+01  0.1339971E-02  0.3331023E-01
 725266.  0.5308237E+00  0.4566264E+01  0.5166219E-01 -0.8470966E+00  0.1142208E-02  0.3249464E-01
 687094.  0.4978694E+00  0.6366683E+01  0.5524358E-01 -0.3534167E+00  0.9527330E-03  0.3059906E-01
 648922.  0.4553888E+00  0.7738523E+01  0.5598496E-01  0.9647031E-01  0.7770820E-03  0.2792863E-01
 610750.  0.4060583E+00  0.8650384E+01  0.5422217E-01  0.4791427E+00  0.6190325E-03  0.2476770E-01
 572578.  0.3526553E+00  0.9099933E+01  0.5041054E-01  0.7783049E+00  0.4807805E-03  0.2135657E-01
 534406.  0.2978875E+00  0.9112277E+01  0.4507995E-01  0.9854058E+00  0.3632061E-03  0.1789605E-01
 496234.  0.2442381E+00  0.8736583E+01  0.3878827E-01  0.1099600E+01  0.2660894E-03  0.1455276E-01
 458062.  0.1938354E+00  0.8041213E+01  0.3207681E-01  0.1127093E+01  0.1883147E-03  0.1145820E-01
 419891.  0.1483564E+00  0.7107826E+01  0.2543168E-01  0.1079946E+01  0.1281012E-03  0.8703901E-02
 381719.  0.1089619E+00  0.6024705E+01  0.1925242E-01  0.9745089E+00  0.8321342E-04  0.6348877E-02
 343547.  0.7628390E-01  0.4880216E+01  0.1383293E-01  0.8295736E+00  0.5117287E-04  0.4417043E-02
 305375.  0.5043985E-01  0.3756326E+01  0.9351572E-02  0.6645398E+00  0.2944266E-04  0.2904453E-02
 267203.  0.3108964E-01  0.2722945E+01  0.5873445E-02  0.4975214E+00  0.1558800E-04  0.1781488E-02
 229031.  0.1752176E-01  0.1833510E+01  0.3362784E-02  0.3438471E+00  0.7411968E-05  0.9996938E-03
 190859.  0.8762086E-02  0.1121852E+01  0.1703566E-02  0.2148067E+00  0.3048112E-05  0.4981009E-03
 152688.  0.3696532E-02  0.6008146E+00  0.7261852E-03  0.1169244E+00  0.1017684E-05  0.2095038E-03
 114516.  0.1196636E-02  0.2623923E+00  0.2369486E-03  0.5169044E-01  0.2449945E-06  0.6764902E-04
  76344.  0.2402463E-03  0.7967480E-01  0.4783781E-04  0.1582938E-01  0.3258890E-07  0.1355449E-04
  38172.  0.1516229E-04  0.1010591E-01  0.3029100E-05  0.2017823E-02  0.1024371E-08  0.8538607E-06
      0.  0.0000000E+00  0.0000000E+00  0.0000000E+00  0.0000000E+00  0.0000000E+00  0.0000000E+00
