       0       11 S       10        534.25458          6.51540          5.27026        323.14731      185    7
6371000.  0.2544440E+00 -0.1187857E+01 -0.1900830E-01 -0.2734523E+00 -0.1800225E-01 -0.2637948E+00
6370000.  0.2546297E+00 -0.1178800E+01 -0.1896531E-01 -0.2742806E+00 -0.1796091E-01 -0.2629625E+00
6369000.  0.2548140E+00 -0.1169725E+01 -0.1892219E-01 -0.2751048E+00 -0.1791970E-01 -0.2621295E+00
6368000.  0.2549969E+00 -0.1160632E+01 -0.1887895E-01 -0.2759248E+00 -0.1787862E-01 -0.2612957E+00
6368000.  0.2549969E+00 -0.1160632E+01 -0.1887895E-01 -0.2759248E+00 -0.1787862E-01 -0.2612957E+00
6367000.  0.2551784E+00 -0.1151522E+01 -0.1883558E-01 -0.2767407E+00 -0.1783768E-01 -0.2604612E+00
6366000.  0.2553584E+00 -0.1142393E+01 -0.1879207E-01 -0.2775524E+00 -0.1779686E-01 -0.2596259E+00
6365000.  0.2555370E+00 -0.1133247E+01 -0.1874845E-01 -0.2783599E+00 -0.1775617E-01 -0.2587898E+00
6364000.  0.2557141E+00 -0.1124084E+01 -0.1870469E-01 -0.2791633E+00 -0.1771562E-01 -0.2579530E+00
6363000.  0.2558899E+00 -0.1114902E+01 -0.1866081E-01 -0.2799625E+00 -0.1767519E-01 -0.2571154E+00
6362000.  0.2560641E+00 -0.1105704E+01 -0.1861680E-01 -0.2807575E+00 -0.1763490E-01 -0.2562770E+00
6361000.  0.2562370E+00 -0.1096488E+01 -0.1857267E-01 -0.2815483E+00 -0.1759474E-01 -0.2554378E+00
6360000.  0.2564084E+00 -0.1087255E+01 -0.1852842E-01 -0.2823348E+00 -0.1755472E-01 -0.2545979E+00
6359000.  0.2565783E+00 -0.1078004E+01 -0.1848404E-01 -0.2831172E+00 -0.1751482E-01 -0.2537572E+00
6358000.  0.2567468E+00 -0.1068736E+01 -0.1843954E-01 -0.2838953E+00 -0.1747506E-01 -0.2529157E+00
6357000.  0.2569138E+00 -0.1059452E+01 -0.1839492E-01 -0.2846692E+00 -0.1743542E-01 -0.2520734E+00
6356000.  0.2570794E+00 -0.1050150E+01 -0.1835018E-01 -0.2854388E+00 -0.1739592E-01 -0.2512304E+00
6356000.  0.2570794E+00 -0.9435155E+00 -0.1835018E-01 -0.2817287E+00 -0.1739592E-01 -0.3071679E+00
6355000.  0.2572269E+00 -0.9366063E+00 -0.1830594E-01 -0.2819365E+00 -0.1734778E-01 -0.3062422E+00
6354000.  0.2573734E+00 -0.9296904E+00 -0.1826167E-01 -0.2821420E+00 -0.1729979E-01 -0.3053165E+00
6353000.  0.2575187E+00 -0.9227678E+00 -0.1821737E-01 -0.2823452E+00 -0.1725194E-01 -0.3043908E+00
6352000.  0.2576630E+00 -0.9158385E+00 -0.1817304E-01 -0.2825461E+00 -0.1720423E-01 -0.3034652E+00
6351000.  0.2578062E+00 -0.9089026E+00 -0.1812867E-01 -0.2827447E+00 -0.1715667E-01 -0.3025395E+00
6350000.  0.2579484E+00 -0.9019602E+00 -0.1808428E-01 -0.2829410E+00 -0.1710926E-01 -0.3016139E+00
6349000.  0.2580894E+00 -0.8950112E+00 -0.1803985E-01 -0.2831349E+00 -0.1706199E-01 -0.3006882E+00
6348000.  0.2582293E+00 -0.8880559E+00 -0.1799540E-01 -0.2833266E+00 -0.1701487E-01 -0.2997626E+00
6347000.  0.2583682E+00 -0.8810940E+00 -0.1795091E-01 -0.2835159E+00 -0.1696789E-01 -0.2988369E+00
6346600.  0.2584234E+00 -0.8783075E+00 -0.1793311E-01 -0.2835910E+00 -0.1694914E-01 -0.2984667E+00
6346600.  0.2584234E+00 -0.1085296E+01 -0.1793311E-01 -0.2815860E+00 -0.1694914E-01 -0.3885751E+00
6318800.  0.2628264E+00 -0.9322435E+00 -0.1671371E-01 -0.2771797E+00 -0.1531070E-01 -0.3624848E+00
6291000.  0.2665548E+00 -0.7762567E+00 -0.1551540E-01 -0.2719134E+00 -0.1378500E-01 -0.3368877E+00
6291000.  0.2665548E+00 -0.8146883E+00 -0.1551540E-01 -0.2712867E+00 -0.1378500E-01 -0.3368877E+00
6263000.  0.2697760E+00 -0.6507937E+00 -0.1433493E-01 -0.2657370E+00 -0.1235941E-01 -0.3119109E+00
6235000.  0.2722718E+00 -0.4846511E+00 -0.1318117E-01 -0.2591305E+00 -0.1104293E-01 -0.2872238E+00
6207000.  0.2740336E+00 -0.3169356E+00 -0.1205881E-01 -0.2514376E+00 -0.9834465E-02 -0.2627418E+00
6179000.  0.2750563E+00 -0.1483555E+00 -0.1097270E-01 -0.2426330E+00 -0.8733301E-02 -0.2383790E+00
6151000.  0.2753375E+00  0.2032739E-01 -0.9927768E-02 -0.2326964E+00 -0.7739098E-02 -0.2140540E+00
6151000.  0.2753375E+00 -0.1353987E+00 -0.9927768E-02 -0.2406057E+00 -0.7739098E-02 -0.2292872E+00
6128500.  0.2756374E+00 -0.3506153E-01 -0.9093289E-02 -0.2318835E+00 -0.6956173E-02 -0.2141355E+00
6106000.  0.2755888E+00  0.6196386E-01 -0.8290506E-02 -0.2226604E+00 -0.6226310E-02 -0.1992336E+00
6083500.  0.2752036E+00  0.1554559E+00 -0.7521137E-02 -0.2129663E+00 -0.5548667E-02 -0.1845599E+00
6061000.  0.2744949E+00  0.2452081E+00 -0.6786792E-02 -0.2028307E+00 -0.4922466E-02 -0.1700981E+00
6038500.  0.2734761E+00  0.3310300E+00 -0.6088980E-02 -0.1922815E+00 -0.4346998E-02 -0.1558251E+00
6016000.  0.2721615E+00  0.4127279E+00 -0.5429114E-02 -0.1813456E+00 -0.3821641E-02 -0.1417168E+00
5993500.  0.2705658E+00  0.4901202E+00 -0.4808514E-02 -0.1700492E+00 -0.3345844E-02 -0.1277543E+00
5971000.  0.2687047E+00  0.5630445E+00 -0.4228410E-02 -0.1584163E+00 -0.2919142E-02 -0.1139096E+00
5971000.  0.2687047E+00  0.4718028E+00 -0.4228410E-02 -0.1730466E+00 -0.2919142E-02 -0.1490853E+00
5937667.  0.2660273E+00  0.5500205E+00 -0.3354830E-02 -0.1609043E+00 -0.2179407E-02 -0.1338045E+00
5904333.  0.2629665E+00  0.6183854E+00 -0.2544428E-02 -0.1489093E+00 -0.1517779E-02 -0.1192207E+00
5871000.  0.2595727E+00  0.6774249E+00 -0.1796141E-02 -0.1371886E+00 -0.9306457E-03 -0.1053357E+00
5837667.  0.2558933E+00  0.7276951E+00 -0.1108230E-02 -0.1258451E+00 -0.4143328E-03 -0.9214734E-01
5804333.  0.2519723E+00  0.7697706E+00 -0.4784825E-03 -0.1149600E+00  0.3478920E-04 -0.7964421E-01
5771000.  0.2478516E+00  0.8042129E+00  0.9564532E-04 -0.1046002E+00  0.4202597E-03 -0.6781925E-01
5771000.  0.2478516E+00  0.8041989E+00  0.9564532E-04 -0.1046057E+00  0.4202597E-03 -0.6781925E-01
5701000.  0.2383626E+00  0.9164415E+00  0.1061719E-02 -0.7126013E-01  0.9645661E-03 -0.3147282E-01
5701000.  0.2383626E+00  0.7401215E+00  0.1061719E-02 -0.1124310E+00  0.9645661E-03 -0.9865866E-01
5667333.  0.2344912E+00  0.7355953E+00  0.1667396E-02 -0.1142752E+00  0.1444457E-02 -0.8377489E-01
5633667.  0.2304912E+00  0.7818176E+00  0.2245577E-02 -0.1035821E+00  0.1857454E-02 -0.7290243E-01
5600000.  0.2262468E+00  0.8228562E+00  0.2765170E-02 -0.9337227E-01  0.2215880E-02 -0.6284857E-01
5600000.  0.2262468E+00  0.8228562E+00  0.2765170E-02 -0.9337227E-01  0.2215880E-02 -0.6284857E-01
5563518.  0.2214208E+00  0.8618484E+00  0.3269549E-02 -0.8288704E-01  0.2546834E-02 -0.5289413E-01
5527037.  0.2163869E+00  0.8954903E+00  0.3715515E-02 -0.7297341E-01  0.2823317E-02 -0.4381666E-01
5490556.  0.2111753E+00  0.9239885E+00  0.4106335E-02 -0.6362643E-01  0.3050206E-02 -0.3556556E-01
5454074.  0.2058147E+00  0.9475285E+00  0.4445281E-02 -0.5484898E-01  0.3232136E-02 -0.2810147E-01
5417593.  0.2003327E+00  0.9664738E+00  0.4735510E-02 -0.4661050E-01  0.3373379E-02 -0.2134570E-01
5381111.  0.1947548E+00  0.9810007E+00  0.4980108E-02 -0.3890855E-01  0.3477878E-02 -0.1526124E-01
5344630.  0.1891060E+00  0.9913658E+00  0.5182106E-02 -0.3172898E-01  0.3549352E-02 -0.9800759E-02
5308148.  0.1834088E+00  0.9978746E+00  0.5344418E-02 -0.2504382E-01  0.3591179E-02 -0.4899736E-02
5271667.  0.1776852E+00  0.1000668E+01  0.5469874E-02 -0.1885628E-01  0.3606510E-02 -0.5409671E-03
5235185.  0.1719554E+00  0.1000055E+01  0.5561254E-02 -0.1313461E-01  0.3598291E-02  0.3336115E-02
5198704.  0.1662384E+00  0.9962772E+00  0.5621144E-02 -0.7858378E-02  0.3569137E-02  0.6774094E-02
5162222.  0.1605517E+00  0.9894587E+00  0.5652115E-02 -0.3030307E-02  0.3521533E-02  0.9786318E-02
5125741.  0.1549121E+00  0.9799237E+00  0.5656625E-02  0.1388935E-02  0.3457753E-02  0.1243277E-01
5089259.  0.1493342E+00  0.9678432E+00  0.5636965E-02  0.5411990E-02  0.3379800E-02  0.1473856E-01
5052778.  0.1438327E+00  0.9533857E+00  0.5595386E-02  0.9048922E-02  0.3289571E-02  0.1672718E-01
5016296.  0.1384199E+00  0.9368070E+00  0.5534006E-02  0.1233152E-01  0.3188754E-02  0.1844150E-01
4979815.  0.1331079E+00  0.9182438E+00  0.5454827E-02  0.1526754E-01  0.3078864E-02  0.1989941E-01
4943333.  0.1279074E+00  0.8978864E+00  0.5359780E-02  0.1787760E-01  0.2961297E-02  0.2112835E-01
4906852.  0.1228281E+00  0.8759363E+00  0.5250657E-02  0.2018704E-01  0.2837264E-02  0.2216181E-01
4870370.  0.1178788E+00  0.8524938E+00  0.5129163E-02  0.2219951E-01  0.2707854E-02  0.2300800E-01
4833889.  0.1130676E+00  0.8277606E+00  0.4996935E-02  0.2394226E-01  0.2574061E-02  0.2370002E-01
4797407.  0.1084013E+00  0.8018834E+00  0.4855442E-02  0.2543465E-01  0.2436682E-02  0.2425997E-01
4760926.  0.1038863E+00  0.7749428E+00  0.4706132E-02  0.2667689E-01  0.2296475E-02  0.2469281E-01
4724444.  0.9952811E-01  0.7471312E+00  0.4550342E-02  0.2770117E-01  0.2154064E-02  0.2503317E-01
4687963.  0.9533150E-01  0.7185417E+00  0.4389289E-02  0.2851623E-01  0.2009945E-02  0.2529133E-01
4651482.  0.9130063E-01  0.6892692E+00  0.4224155E-02  0.2913026E-01  0.1864559E-02  0.2547947E-01
4615000.  0.8743887E-01  0.6594545E+00  0.4056014E-02  0.2956720E-01  0.1718227E-02  0.2562280E-01
4578518.  0.8374922E-01  0.6291623E+00  0.3885871E-02  0.2983024E-01  0.1571188E-02  0.2572783E-01
4542037.  0.8023427E-01  0.5984952E+00  0.3714695E-02  0.2993281E-01  0.1423627E-02  0.2581043E-01
4505556.  0.7689572E-01  0.5675537E+00  0.3543344E-02  0.2989203E-01  0.1275604E-02  0.2589029E-01
4469074.  0.7373498E-01  0.5363771E+00  0.3372646E-02  0.2970413E-01  0.1127129E-02  0.2596852E-01
4432593.  0.7075324E-01  0.5050734E+00  0.3203407E-02  0.2938719E-01  0.9781630E-03  0.2606683E-01
4396111.  0.6795087E-01  0.4737056E+00  0.3036326E-02  0.2894752E-01  0.8285399E-03  0.2619715E-01
4359630.  0.6532830E-01  0.4423177E+00  0.2872136E-02  0.2838051E-01  0.6780786E-03  0.2636324E-01
4323148.  0.6288521E-01  0.4110028E+00  0.2711516E-02  0.2770062E-01  0.5265090E-03  0.2658558E-01
4286667.  0.6062116E-01  0.3798116E+00  0.2555122E-02  0.2690436E-01  0.3734890E-03  0.2687212E-01
4250185.  0.5853517E-01  0.3488044E+00  0.2403628E-02  0.2598848E-01  0.2186208E-03  0.2723219E-01
4213704.  0.5662605E-01  0.3180662E+00  0.2257710E-02  0.2495730E-01  0.6144198E-04  0.2768260E-01
4177222.  0.5489199E-01  0.2876551E+00  0.2118055E-02  0.2379774E-01 -0.9859395E-04  0.2822980E-01
4140741.  0.5333095E-01  0.2576651E+00  0.1985426E-02  0.2250417E-01 -0.2620654E-03  0.2888726E-01
4104259.  0.5194016E-01  0.2281949E+00  0.1860598E-02  0.2106857E-01 -0.4296664E-03  0.2967174E-01
4067778.  0.5071643E-01  0.1993474E+00  0.1744464E-02  0.1946503E-01 -0.6021219E-03  0.3058627E-01
4031296.  0.4965572E-01  0.1712701E+00  0.1638020E-02  0.1768079E-01 -0.7802410E-03  0.3165179E-01
3994815.  0.4875322E-01  0.1441255E+00  0.1542371E-02  0.1568957E-01 -0.9649239E-03  0.3288153E-01
3958333.  0.4800301E-01  0.1181103E+00  0.1458813E-02  0.1345102E-01 -0.1157137E-02  0.3428261E-01
3921852.  0.4739796E-01  0.9347893E-01  0.1388855E-02  0.1093328E-01 -0.1357913E-02  0.3587773E-01
3885370.  0.4692927E-01  0.7053163E-01  0.1334234E-02  0.8083517E-02 -0.1568413E-02  0.3767831E-01
3848889.  0.4658628E-01  0.4964784E-01  0.1297032E-02  0.4840062E-02 -0.1789837E-02  0.3969887E-01
3812407.  0.4635589E-01  0.3128781E-01  0.1279680E-02  0.1136385E-02 -0.2023523E-02  0.4196128E-01
3775926.  0.4622206E-01  0.1602889E-01  0.1285073E-02 -0.3120489E-02 -0.2270873E-02  0.4447618E-01
3739444.  0.4616508E-01  0.4575996E-02  0.1316667E-02 -0.8032698E-02 -0.2533403E-02  0.4726466E-01
3702963.  0.4616076E-01 -0.2206103E-02  0.1378548E-02 -0.1372307E-01 -0.2812728E-02  0.5034737E-01
3666482.  0.4617937E-01 -0.3231874E-02  0.1475614E-02 -0.2034959E-01 -0.3110568E-02  0.5373380E-01
3630000.  0.4618432E-01  0.2808050E-02  0.1613720E-02 -0.2808867E-01 -0.3428737E-02  0.5744904E-01
3630000.  0.4618432E-01  0.2808050E-02  0.1613720E-02 -0.2808867E-01 -0.3428737E-02  0.5744904E-01
3592500.  0.4612778E-01  0.1810597E-01  0.1805808E-02 -0.3743745E-01 -0.3778984E-02  0.6162129E-01
3555000.  0.4594890E-01  0.4478184E-01  0.2057761E-02 -0.4848212E-01 -0.4154882E-02  0.6616788E-01
3517500.  0.4557310E-01  0.8551446E-01  0.2380541E-02 -0.6156668E-01 -0.4558693E-02  0.7110802E-01
3480000.  0.4490815E-01  0.1436481E+00  0.2787354E-02 -0.7711254E-01 -0.4992750E-02  0.7644510E-01
3480000.  0.4490815E-01  0.7345649E+00  0.4398743E-02  0.7410047E-01 -0.4992750E-02 -0.6757466E-01
3409422.  0.3736372E-01  0.6295125E+00  0.3640787E-02  0.6298134E-01 -0.4273802E-02 -0.6207260E-01
3338844.  0.3091696E-01  0.5362884E+00  0.2998184E-02  0.5325482E-01 -0.3619814E-02 -0.5593011E-01
3268266.  0.2544063E-01  0.4541856E+00  0.2456190E-02  0.4479663E-01 -0.3035376E-02 -0.4957676E-01
3197688.  0.2081593E-01  0.3823955E+00  0.2001443E-02  0.3748301E-01 -0.2521028E-02 -0.4331833E-01
3127109.  0.1693332E-01  0.3200542E+00  0.1621924E-02  0.3119489E-01 -0.2074478E-02 -0.3736347E-01
3056531.  0.1369311E-01  0.2662815E+00  0.1306914E-02  0.2581925E-01 -0.1691574E-02 -0.3184593E-01
2985953.  0.1100518E-01  0.2202027E+00  0.1046897E-02  0.2124958E-01 -0.1366997E-02 -0.2684198E-01
2915375.  0.8789003E-02  0.1809734E+00  0.8334978E-03  0.1738715E-01 -0.1094839E-02 -0.2238492E-01
2844797.  0.6973198E-02  0.1477919E+00  0.6593904E-03  0.1414151E-01 -0.8690062E-03 -0.1847696E-01
2774219.  0.5494965E-02  0.1199086E+00  0.5182055E-03  0.1143035E-01 -0.6835063E-03 -0.1509857E-01
2703641.  0.4299496E-02  0.9663206E-01  0.4044410E-03  0.9179366E-02 -0.5326509E-03 -0.1221575E-01
2633062.  0.3339296E-02  0.7733145E-01  0.3133730E-03  0.7322113E-02 -0.4111801E-03 -0.9785600E-02
2562484.  0.2573551E-02  0.6143811E-01  0.2409751E-03  0.5799722E-02 -0.3143418E-03 -0.7760892E-02
2491906.  0.1967377E-02  0.4844284E-01  0.1838308E-03  0.4560139E-02 -0.2379121E-03 -0.6092998E-02
2421328.  0.1491220E-02  0.3789493E-01  0.1390650E-03  0.3557862E-02 -0.1782040E-03 -0.4734254E-02
2350750.  0.1120207E-02  0.2939848E-01  0.1042729E-03  0.2753396E-02 -0.1320453E-03 -0.3639570E-02
2280172.  0.8335704E-03  0.2260859E-01  0.7745685E-04  0.2112629E-02 -0.9674434E-04 -0.2767424E-02
2209594.  0.6140944E-03  0.1722741E-01  0.5696941E-04  0.1606348E-02 -0.7004714E-04 -0.2080394E-02
2139016.  0.4476248E-03  0.1299973E-01  0.4146216E-04  0.1209712E-02 -0.5009014E-04 -0.1545418E-02
2068438.  0.3226176E-03  0.9708693E-02  0.2983996E-04  0.9017565E-03 -0.3535191E-04 -0.1133778E-02
1997859.  0.2297373E-03  0.7171564E-02  0.2122046E-04  0.6649215E-03 -0.2460566E-04 -0.8209291E-03
1927281.  0.1615056E-03  0.5235796E-02  0.1489937E-04  0.4846210E-03 -0.1687512E-04 -0.5862168E-03
1856703.  0.1119817E-03  0.3775022E-02  0.1031909E-04  0.3488317E-03 -0.1139262E-04 -0.4124897E-03
1786125.  0.7649703E-04  0.2685649E-02  0.7042768E-05  0.2477356E-03 -0.7562911E-05 -0.2857255E-03
1715547.  0.5141947E-04  0.1883598E-02  0.4731692E-05  0.1733830E-03 -0.4930690E-05 -0.1946194E-03
1644969.  0.3395387E-04  0.1301402E-02  0.3126242E-05  0.1193971E-03 -0.3152657E-05 -0.1301886E-03
1574391.  0.2197235E-04  0.8856711E-03  0.2029994E-05  0.8070160E-04 -0.1973880E-05 -0.8540376E-04
1503812.  0.1387029E-04  0.5949989E-03  0.1296708E-05  0.5327108E-04 -0.1208058E-05 -0.5484793E-04
1433234.  0.8442902E-05  0.3984937E-03  0.8200606E-06  0.3388714E-04 -0.7213969E-06 -0.3441728E-04
1362656.  0.4771847E-05  0.2753244E-03  0.5261685E-06  0.1985229E-04 -0.4195021E-06 -0.2105681E-04
1292078.  0.2107219E-05  0.2165450E-03  0.3699794E-06  0.8567933E-05 -0.2370447E-06 -0.1254307E-04
1221500. -0.2970554E-06  0.2324326E-03  0.3382306E-06 -0.3310962E-05 -0.1295428E-06 -0.7311812E-05
1221500. -0.2970554E-06 -0.6413024E-06 -0.2619905E-09  0.1547991E-05 -0.1295428E-06 -0.7183126E-05
1183328. -0.2805199E-06 -0.4463760E-05 -0.6958319E-08  0.7472726E-06 -0.9239638E-07 -0.5300794E-05
1145156. -0.2476212E-06 -0.6246504E-05 -0.9820162E-08  0.2498426E-06 -0.6512433E-07 -0.3869213E-05
1106984. -0.2082578E-06 -0.6724950E-05 -0.1036717E-07 -0.3893226E-07 -0.4532562E-07 -0.2791624E-05
1068812. -0.1685821E-06 -0.6423282E-05 -0.9629866E-08 -0.1886979E-06 -0.3112335E-07 -0.1989338E-05
1030641. -0.1321126E-06 -0.5704336E-05 -0.8282277E-08 -0.2496664E-06 -0.2106514E-07 -0.1398974E-05
 992469. -0.1005717E-06 -0.4809821E-05 -0.6744093E-08 -0.2571615E-06 -0.1403818E-07 -0.9699236E-06
 954297. -0.7451670E-07 -0.3892626E-05 -0.5258721E-08 -0.2352885E-06 -0.9200632E-08 -0.6622638E-06
 916125. -0.5378957E-07 -0.3042085E-05 -0.3951195E-08 -0.1998789E-06 -0.5922560E-08 -0.4448043E-06
 877953. -0.3783723E-07 -0.2303534E-05 -0.2870545E-08 -0.1608081E-06 -0.3738836E-08 -0.2934685E-06
 839781. -0.2592881E-07 -0.1693117E-05 -0.2019957E-08 -0.1237621E-06 -0.2310799E-08 -0.1899066E-06
 801609. -0.1729582E-07 -0.1208784E-05 -0.1377571E-08 -0.9161097E-07 -0.1395554E-08 -0.1203213E-06
 763438. -0.1121650E-07 -0.8381510E-06 -0.9102406E-09 -0.6539694E-07 -0.8217367E-09 -0.7449027E-07
 725266. -0.7059614E-08 -0.5639509E-06 -0.5821231E-09 -0.4506730E-07 -0.4705399E-09 -0.4495629E-07
 687094. -0.4303012E-08 -0.3676803E-06 -0.3597103E-09 -0.2997554E-07 -0.2612463E-09 -0.2637836E-07
 648922. -0.2533204E-08 -0.2317882E-06 -0.2142571E-09 -0.1921932E-07 -0.1401448E-09 -0.1500002E-07
 610750. -0.1435769E-08 -0.1408955E-06 -0.1226397E-09 -0.1185082E-07 -0.7234160E-10 -0.8235303E-08
 572578. -0.7804495E-09 -0.8233551E-07 -0.6723649E-10 -0.6994647E-08 -0.3576013E-10 -0.4344556E-08
 534406.  0.0000000E+00  0.0000000E+00  0.0000000E+00  0.0000000E+00  0.0000000E+00  0.0000000E+00
 496234.  0.0000000E+00  0.0000000E+00  0.0000000E+00  0.0000000E+00  0.0000000E+00  0.0000000E+00
 458062.  0.0000000E+00  0.0000000E+00  0.0000000E+00  0.0000000E+00  0.0000000E+00  0.0000000E+00
 419891.  0.0000000E+00  0.0000000E+00  0.0000000E+00  0.0000000E+00  0.0000000E+00  0.0000000E+00
 381719.  0.0000000E+00  0.0000000E+00  0.0000000E+00  0.0000000E+00  0.0000000E+00  0.0000000E+00
 343547.  0.0000000E+00  0.0000000E+00  0.0000000E+00  0.0000000E+00  0.0000000E+00  0.0000000E+00
 305375.  0.0000000E+00  0.0000000E+00  0.0000000E+00  0.0000000E+00  0.0000000E+00  0.0000000E+00
 267203.  0.0000000E+00  0.0000000E+00  0.0000000E+00  0.0000000E+00  0.0000000E+00  0.0000000E+00
 229031.  0.0000000E+00  0.0000000E+00  0.0000000E+00  0.0000000E+00  0.0000000E+00  0.0000000E+00
 190859.  0.0000000E+00  0.0000000E+00  0.0000000E+00  0.0000000E+00  0.0000000E+00  0.0000000E+00
 152688.  0.0000000E+00  0.0000000E+00  0.0000000E+00  0.0000000E+00  0.0000000E+00  0.0000000E+00
 114516.  0.0000000E+00  0.0000000E+00  0.0000000E+00  0.0000000E+00  0.0000000E+00  0.0000000E+00
  76344.  0.0000000E+00  0.0000000E+00  0.0000000E+00  0.0000000E+00  0.0000000E+00  0.0000000E+00
  38172.  0.0000000E+00  0.0000000E+00  0.0000000E+00  0.0000000E+00  0.0000000E+00  0.0000000E+00
      0.  0.0000000E+00  0.0000000E+00  0.0000000E+00  0.0000000E+00  0.0000000E+00  0.0000000E+00
