       0        9 S        8        630.25403          6.68572          6.25913        333.55679      185    7
6371000.  0.2526667E+00 -0.1047189E+01 -0.2394255E-01 -0.2766092E+00 -0.2207661E-01 -0.2557041E+00
6370000.  0.2528305E+00 -0.1040748E+01 -0.2389907E-01 -0.2774128E+00 -0.2203653E-01 -0.2549947E+00
6369000.  0.2529934E+00 -0.1034294E+01 -0.2385547E-01 -0.2782134E+00 -0.2199657E-01 -0.2542846E+00
6368000.  0.2531552E+00 -0.1027828E+01 -0.2381174E-01 -0.2790109E+00 -0.2195671E-01 -0.2535738E+00
6368000.  0.2531552E+00 -0.1027828E+01 -0.2381174E-01 -0.2790109E+00 -0.2195671E-01 -0.2535738E+00
6367000.  0.2533160E+00 -0.1021350E+01 -0.2376788E-01 -0.2798054E+00 -0.2191696E-01 -0.2528623E+00
6366000.  0.2534758E+00 -0.1014860E+01 -0.2372390E-01 -0.2805968E+00 -0.2187733E-01 -0.2521501E+00
6365000.  0.2536346E+00 -0.1008359E+01 -0.2367979E-01 -0.2813851E+00 -0.2183781E-01 -0.2514371E+00
6364000.  0.2537924E+00 -0.1001846E+01 -0.2363557E-01 -0.2821704E+00 -0.2179840E-01 -0.2507235E+00
6363000.  0.2539491E+00 -0.9953209E+00 -0.2359121E-01 -0.2829526E+00 -0.2175910E-01 -0.2500091E+00
6362000.  0.2541048E+00 -0.9887842E+00 -0.2354674E-01 -0.2837317E+00 -0.2171991E-01 -0.2492940E+00
6361000.  0.2542595E+00 -0.9822358E+00 -0.2350214E-01 -0.2845077E+00 -0.2168084E-01 -0.2485782E+00
6360000.  0.2544132E+00 -0.9756759E+00 -0.2345743E-01 -0.2852806E+00 -0.2164188E-01 -0.2478617E+00
6359000.  0.2545658E+00 -0.9691044E+00 -0.2341259E-01 -0.2860504E+00 -0.2160303E-01 -0.2471444E+00
6358000.  0.2547174E+00 -0.9625214E+00 -0.2336763E-01 -0.2868170E+00 -0.2156430E-01 -0.2464265E+00
6357000.  0.2548679E+00 -0.9559268E+00 -0.2332255E-01 -0.2875806E+00 -0.2152567E-01 -0.2457078E+00
6356000.  0.2550175E+00 -0.9493209E+00 -0.2327735E-01 -0.2883410E+00 -0.2148716E-01 -0.2449884E+00
6356000.  0.2550175E+00 -0.8486332E+00 -0.2327735E-01 -0.2846190E+00 -0.2148716E-01 -0.3004772E+00
6355000.  0.2551503E+00 -0.8437648E+00 -0.2323266E-01 -0.2848589E+00 -0.2144006E-01 -0.2996848E+00
6354000.  0.2552823E+00 -0.8388915E+00 -0.2318793E-01 -0.2850971E+00 -0.2139308E-01 -0.2988923E+00
6353000.  0.2554137E+00 -0.8340133E+00 -0.2314316E-01 -0.2853335E+00 -0.2134623E-01 -0.2980995E+00
6352000.  0.2555442E+00 -0.8291303E+00 -0.2309836E-01 -0.2855681E+00 -0.2129950E-01 -0.2973067E+00
6351000.  0.2556739E+00 -0.8242424E+00 -0.2305351E-01 -0.2858010E+00 -0.2125290E-01 -0.2965136E+00
6350000.  0.2558029E+00 -0.8193498E+00 -0.2300864E-01 -0.2860321E+00 -0.2120642E-01 -0.2957204E+00
6349000.  0.2559311E+00 -0.8144523E+00 -0.2296372E-01 -0.2862614E+00 -0.2116007E-01 -0.2949271E+00
6348000.  0.2560586E+00 -0.8095500E+00 -0.2291877E-01 -0.2864890E+00 -0.2111384E-01 -0.2941335E+00
6347000.  0.2561853E+00 -0.8046431E+00 -0.2287379E-01 -0.2867149E+00 -0.2106773E-01 -0.2933398E+00
6346600.  0.2562357E+00 -0.8026790E+00 -0.2285578E-01 -0.2868047E+00 -0.2104932E-01 -0.2930222E+00
6346600.  0.2562357E+00 -0.9794235E+00 -0.2285578E-01 -0.2846476E+00 -0.2104932E-01 -0.3823679E+00
6318800.  0.2602805E+00 -0.8740276E+00 -0.2161905E-01 -0.2820913E+00 -0.1943010E-01 -0.3598419E+00
6291000.  0.2638595E+00 -0.7659456E+00 -0.2039495E-01 -0.2788529E+00 -0.1790863E-01 -0.3375517E+00
6291000.  0.2638595E+00 -0.8031025E+00 -0.2039495E-01 -0.2784304E+00 -0.1790863E-01 -0.3375517E+00
6263000.  0.2671384E+00 -0.6886381E+00 -0.1917817E-01 -0.2751568E+00 -0.1647325E-01 -0.3156700E+00
6235000.  0.2699087E+00 -0.5716940E+00 -0.1797759E-01 -0.2710513E+00 -0.1513379E-01 -0.2938933E+00
6207000.  0.2721603E+00 -0.4526043E+00 -0.1679693E-01 -0.2660886E+00 -0.1388990E-01 -0.2721677E+00
6179000.  0.2738844E+00 -0.3317208E+00 -0.1564001E-01 -0.2602460E+00 -0.1274149E-01 -0.2504383E+00
6151000.  0.2750739E+00 -0.2094296E+00 -0.1451073E-01 -0.2535039E+00 -0.1168867E-01 -0.2286550E+00
6151000.  0.2750739E+00 -0.3196538E+00 -0.1451073E-01 -0.2593806E+00 -0.1168867E-01 -0.2438736E+00
6128500.  0.2760750E+00 -0.2476168E+00 -0.1360613E-01 -0.2528271E+00 -0.1085137E-01 -0.2303230E+00
6106000.  0.2768246E+00 -0.1772876E+00 -0.1272548E-01 -0.2458197E+00 -0.1006167E-01 -0.2169181E+00
6083500.  0.2773291E+00 -0.1087962E+00 -0.1187035E-01 -0.2383805E+00 -0.9319066E-02 -0.2036472E+00
6061000.  0.2775951E+00 -0.4226219E-01 -0.1104222E-01 -0.2305316E+00 -0.8623105E-02 -0.1905040E+00
6038500.  0.2776298E+00  0.2220394E-01 -0.1024251E-01 -0.2222945E+00 -0.7973353E-02 -0.1774754E+00
6016000.  0.2774406E+00  0.8448494E-01 -0.9472535E-02 -0.2136897E+00 -0.7369432E-02 -0.1645481E+00
5993500.  0.2770355E+00  0.1444723E+00 -0.8733571E-02 -0.2047380E+00 -0.6810997E-02 -0.1517140E+00
5971000.  0.2764228E+00  0.2020695E+00 -0.8026805E-02 -0.1954583E+00 -0.6297748E-02 -0.1389563E+00
5971000.  0.2764228E+00  0.1390568E+00 -0.8026805E-02 -0.2073615E+00 -0.6297748E-02 -0.1751424E+00
5937667.  0.2755229E+00  0.2038942E+00 -0.6968274E-02 -0.1972537E+00 -0.5418113E-02 -0.1611903E+00
5904333.  0.2743003E+00  0.2624737E+00 -0.5962837E-02 -0.1870753E+00 -0.4610183E-02 -0.1477254E+00
5871000.  0.2727869E+00  0.3150853E+00 -0.5010602E-02 -0.1769471E+00 -0.3871415E-02 -0.1347641E+00
5837667.  0.2710132E+00  0.3620367E+00 -0.4111002E-02 -0.1669705E+00 -0.3199111E-02 -0.1223196E+00
5804333.  0.2690079E+00  0.4036486E+00 -0.3262989E-02 -0.1572304E+00 -0.2590538E-02 -0.1103967E+00
5771000.  0.2667982E+00  0.4402310E+00 -0.2465179E-02 -0.1478000E+00 -0.2042976E-02 -0.9900534E-01
5771000.  0.2667982E+00  0.4401982E+00 -0.2465179E-02 -0.1478049E+00 -0.2042976E-02 -0.9900534E-01
5701000.  0.2613335E+00  0.5505167E+00 -0.1007885E-02 -0.1174214E+00 -0.1157621E-02 -0.6234615E-01
5701000.  0.2613335E+00  0.4238556E+00 -0.1007885E-02 -0.1547906E+00 -0.1157621E-02 -0.1360067E+00
5667333.  0.2590884E+00  0.4329280E+00 -0.1819017E-03 -0.1554813E+00 -0.4833385E-03 -0.1199693E+00
5633667.  0.2566912E+00  0.4768361E+00  0.6130933E-03 -0.1444871E+00  0.1178173E-03 -0.1079212E+00
5600000.  0.2540615E+00  0.5172207E+00  0.1347814E-02 -0.1338498E+00  0.6579041E-03 -0.9655474E-01
5600000.  0.2540615E+00  0.5172207E+00  0.1347814E-02 -0.1338498E+00  0.6579041E-03 -0.9655474E-01
5563518.  0.2509837E+00  0.5571552E+00  0.2082254E-02 -0.1227359E+00  0.1177447E-02 -0.8503284E-01
5527037.  0.2476880E+00  0.5933014E+00  0.2754226E-02 -0.1120385E+00  0.1633156E-02 -0.7425714E-01
5490556.  0.2441962E+00  0.6257201E+00  0.3366148E-02 -0.1017645E+00  0.2029222E-02 -0.6419910E-01
5454074.  0.2405291E+00  0.6544594E+00  0.3920513E-02 -0.9192901E-01  0.2369731E-02 -0.5484093E-01
5417593.  0.2367077E+00  0.6797218E+00  0.4419749E-02 -0.8251340E-01  0.2658484E-02 -0.4611718E-01
5381111.  0.2327513E+00  0.7015516E+00  0.4866308E-02 -0.7352772E-01  0.2899058E-02 -0.3800898E-01
5344630.  0.2286797E+00  0.7200667E+00  0.5262636E-02 -0.6496994E-01  0.3094893E-02 -0.3048324E-01
5308148.  0.2245109E+00  0.7354338E+00  0.5611145E-02 -0.5682320E-01  0.3249158E-02 -0.2348426E-01
5271667.  0.2202633E+00  0.7476766E+00  0.5914220E-02 -0.4910412E-01  0.3364859E-02 -0.1701179E-01
5235185.  0.2159540E+00  0.7569736E+00  0.6174277E-02 -0.4179092E-01  0.3444879E-02 -0.1101043E-01
5198704.  0.2115996E+00  0.7634483E+00  0.6393578E-02 -0.3487418E-01  0.3491782E-02 -0.5445427E-02
5162222.  0.2072161E+00  0.7671229E+00  0.6574465E-02 -0.2837037E-01  0.3508086E-02 -0.3168834E-03
5125741.  0.2028192E+00  0.7682052E+00  0.6719208E-02 -0.2224758E-01  0.3496121E-02  0.4436093E-02
5089259.  0.1984233E+00  0.7667702E+00  0.6829977E-02 -0.1650453E-01  0.3457966E-02  0.8831185E-02
5052778.  0.1940427E+00  0.7628942E+00  0.6908957E-02 -0.1114281E-01  0.3395639E-02  0.1288540E-01
5016296.  0.1896907E+00  0.7567419E+00  0.6958264E-02 -0.6137410E-02  0.3310958E-02  0.1664324E-01
4979815.  0.1853805E+00  0.7483708E+00  0.6979937E-02 -0.1492527E-02  0.3205580E-02  0.2011683E-01
4943333.  0.1811242E+00  0.7378948E+00  0.6976022E-02  0.2804170E-02  0.3081066E-02  0.2333304E-01
4906852.  0.1769337E+00  0.7254446E+00  0.6948448E-02  0.6771302E-02  0.2938777E-02  0.2632845E-01
4870370.  0.1728200E+00  0.7110601E+00  0.6899127E-02  0.1039988E-01  0.2779966E-02  0.2910533E-01
4833889.  0.1687939E+00  0.6948836E+00  0.6829949E-02  0.1371234E-01  0.2605793E-02  0.3170304E-01
4797407.  0.1648652E+00  0.6770113E+00  0.6742664E-02  0.1672099E-01  0.2417182E-02  0.3414626E-01
4760926.  0.1610438E+00  0.6574812E+00  0.6639068E-02  0.1941223E-01  0.2215041E-02  0.3643513E-01
4724444.  0.1573385E+00  0.6364452E+00  0.6520888E-02  0.2181749E-01  0.2000113E-02  0.3861639E-01
4687963.  0.1537578E+00  0.6139651E+00  0.6389756E-02  0.2393517E-01  0.1772980E-02  0.4069996E-01
4651482.  0.1503099E+00  0.5901113E+00  0.6247335E-02  0.2576333E-01  0.1534172E-02  0.4270007E-01
4615000.  0.1470021E+00  0.5650043E+00  0.6095212E-02  0.2732353E-01  0.1284048E-02  0.4465307E-01
4578518.  0.1438416E+00  0.5386978E+00  0.5934945E-02  0.2860634E-01  0.1022862E-02  0.4656551E-01
4542037.  0.1408349E+00  0.5112886E+00  0.5768121E-02  0.2961838E-01  0.7507985E-03  0.4846067E-01
4505556.  0.1379882E+00  0.4828776E+00  0.5596236E-02  0.3037228E-01  0.4678487E-03  0.5036947E-01
4469074.  0.1353067E+00  0.4535155E+00  0.5420825E-02  0.3084747E-01  0.1739313E-03  0.5229112E-01
4432593.  0.1327959E+00  0.4233256E+00  0.5243460E-02  0.3105909E-01 -0.1311058E-03  0.5426250E-01
4396111.  0.1304601E+00  0.3923955E+00  0.5065634E-02  0.3100298E-01 -0.4476381E-03  0.5630365E-01
4359630.  0.1283034E+00  0.3608060E+00  0.4888964E-02  0.3065643E-01 -0.7760529E-03  0.5841983E-01
4323148.  0.1263291E+00  0.3286908E+00  0.4715075E-02  0.3002980E-01 -0.1116904E-02  0.6064923E-01
4286667.  0.1245400E+00  0.2961557E+00  0.4545628E-02  0.2910186E-01 -0.1470872E-02  0.6300604E-01
4250185.  0.1229380E+00  0.2633277E+00  0.4382408E-02  0.2785188E-01 -0.1838746E-02  0.6550797E-01
4213704.  0.1215245E+00  0.2303663E+00  0.4227281E-02  0.2627302E-01 -0.2221437E-02  0.6818842E-01
4177222.  0.1202998E+00  0.1974248E+00  0.4082226E-02  0.2432607E-01 -0.2620027E-02  0.7105974E-01
4140741.  0.1192631E+00  0.1647031E+00  0.3949440E-02  0.2198617E-01 -0.3035654E-02  0.7414953E-01
4104259.  0.1184127E+00  0.1324203E+00  0.3831233E-02  0.1922411E-01 -0.3469705E-02  0.7749315E-01
4067778.  0.1177453E+00  0.1008313E+00  0.3730212E-02  0.1597606E-01 -0.3923619E-02  0.8109535E-01
4031296.  0.1172561E+00  0.7024199E-01  0.3649264E-02  0.1220512E-01 -0.4399023E-02  0.8500202E-01
3994815.  0.1169383E+00  0.4100313E-01  0.3591550E-02  0.7848116E-02 -0.4897730E-02  0.8924132E-01
3958333.  0.1167831E+00  0.1353850E-01  0.3560682E-02  0.2814676E-02 -0.5421702E-02  0.9382712E-01
3921852.  0.1167790E+00 -0.1166077E-01  0.3560735E-02 -0.2965809E-02 -0.5973036E-02  0.9881071E-01
3885370.  0.1169112E+00 -0.3400643E-01  0.3596286E-02 -0.9604908E-02 -0.6554122E-02  0.1042162E+00
3848889.  0.1171616E+00 -0.5279288E-01  0.3672614E-02 -0.1722873E-01 -0.7167421E-02  0.1100756E+00
3812407.  0.1175075E+00 -0.6720503E-01  0.3795721E-02 -0.2596849E-01 -0.7815716E-02  0.1164394E+00
3775926.  0.1179210E+00 -0.7623663E-01  0.3972490E-02 -0.3600485E-01 -0.8501928E-02  0.1233306E+00
3739444.  0.1183681E+00 -0.7871816E-01  0.4210900E-02 -0.4752912E-01 -0.9229246E-02  0.1307996E+00
3702963.  0.1188074E+00 -0.7326245E-01  0.4520071E-02 -0.6076554E-01 -0.1000110E-01  0.1388970E+00
3666482.  0.1191888E+00 -0.5816250E-01  0.4910614E-02 -0.7599920E-01 -0.1082116E-01  0.1476470E+00
3630000.  0.1194514E+00 -0.3145289E-01  0.5394834E-02 -0.9353607E-01 -0.1169338E-01  0.1571167E+00
3630000.  0.1194514E+00 -0.3145289E-01  0.5394834E-02 -0.9353607E-01 -0.1169338E-01  0.1571167E+00
3592500.  0.1195207E+00  0.1064165E-01  0.6005188E-02 -0.1143640E+00 -0.1264873E-01  0.1676349E+00
3555000.  0.1192911E+00  0.7065218E-01  0.6747629E-02 -0.1385028E+00 -0.1366846E-01  0.1790033E+00
3517500.  0.1186467E+00  0.1522648E+00  0.7643240E-02 -0.1665110E+00 -0.1475779E-01  0.1912934E+00
3480000.  0.1174475E+00  0.2599762E+00  0.8716712E-02 -0.1990586E+00 -0.1592227E-01  0.2045479E+00
3480000.  0.1174475E+00  0.1522029E+01  0.1406266E-01  0.1890794E+00 -0.1592227E-01 -0.1721045E+00
3409422.  0.1015152E+00  0.1356312E+01  0.1209224E-01  0.1669876E+00 -0.1406285E-01 -0.1631633E+00
3338844.  0.8735280E-01  0.1202558E+01  0.1035562E-01  0.1468607E+00 -0.1231493E-01 -0.1521277E+00
3268266.  0.7482638E-01  0.1060965E+01  0.8831430E-02  0.1286191E+00 -0.1069692E-01 -0.1398343E+00
3197688.  0.6380137E-01  0.9314649E+00  0.7499326E-02  0.1121657E+00 -0.9218969E-02 -0.1269382E+00
3127109.  0.5414503E-01  0.8137841E+00  0.6340050E-02  0.9739635E-01 -0.7884808E-02 -0.1139438E+00
3056531.  0.4572894E-01  0.7074952E+00  0.5335579E-02  0.8420180E-01 -0.6693360E-02 -0.1012303E+00
2985953.  0.3842970E-01  0.6120517E+00  0.4469077E-02  0.7246868E-01 -0.5639882E-02 -0.8907328E-01
2915375.  0.3213055E-01  0.5268314E+00  0.3724985E-02  0.6208319E-01 -0.4717085E-02 -0.7766315E-01
2844797.  0.2672195E-01  0.4511603E+00  0.3088996E-02  0.5293372E-01 -0.3915962E-02 -0.6712173E-01
2774219.  0.2210196E-01  0.3843365E+00  0.2548023E-02  0.4491143E-01 -0.3226472E-02 -0.5751657E-01
2703641.  0.1817654E-01  0.3256478E+00  0.2090165E-02  0.3791104E-01 -0.2638071E-02 -0.4887244E-01
2633062.  0.1485943E-01  0.2743869E+00  0.1704657E-02  0.3183235E-01 -0.2140125E-02 -0.4118099E-01
2562484.  0.1207229E-01  0.2298640E+00  0.1381826E-02  0.2658112E-01 -0.1722255E-02 -0.3441014E-01
2491906.  0.9744146E-02  0.1914120E+00  0.1113000E-02  0.2206814E-01 -0.1374517E-02 -0.2851002E-01
2421328.  0.7811291E-02  0.1583965E+00  0.8904649E-03  0.1821052E-01 -0.1087598E-02 -0.2341891E-01
2350750.  0.6216851E-02  0.1302186E+00  0.7073903E-03  0.1493181E-01 -0.8529132E-03 -0.1906802E-01
2280172.  0.4910372E-02  0.1063188E+00  0.5577591E-03  0.1216146E-01 -0.6626596E-03 -0.1538522E-01
2209594.  0.3847372E-02  0.8617848E-01  0.4363023E-03  0.9835039E-02 -0.5098403E-03 -0.1229766E-01
2139016.  0.2988883E-02  0.6932096E-01  0.3384312E-03  0.7894045E-02 -0.3882575E-03 -0.9734178E-02
2068438.  0.2300984E-02  0.5531137E-01  0.2601741E-03  0.6285664E-02 -0.2924860E-03 -0.7626767E-02
1997859.  0.1754339E-02  0.4375573E-01  0.1981126E-03  0.4962486E-02 -0.2178290E-03 -0.5911855E-02
1927281.  0.1323773E-02  0.3430046E-01  0.1493278E-03  0.3882218E-02 -0.1602688E-03 -0.4531033E-02
1856703.  0.9877917E-03  0.2662994E-01  0.1113402E-03  0.3007325E-02 -0.1164018E-03 -0.3431361E-02
1786125.  0.7282027E-03  0.2046531E-01  0.8206182E-04  0.2304705E-02 -0.8338021E-04 -0.2565650E-02
1715547.  0.5297057E-03  0.1556271E-01  0.5974886E-04  0.1745263E-02 -0.5884729E-04 -0.1892375E-02
1644969.  0.3795154E-03  0.1171182E-01  0.4295955E-04  0.1303502E-02 -0.4087590E-04 -0.1375479E-02
1574391.  0.2669935E-03  0.8735391E-02  0.3051710E-04  0.9569651E-03 -0.2790932E-04 -0.9840804E-03
1503812.  0.1832755E-03  0.6490738E-02  0.2147985E-04  0.6854942E-03 -0.1870601E-04 -0.6920682E-03
1433234.  0.1208649E-03  0.4875746E-02  0.1512203E-04  0.4700863E-03 -0.1228947E-04 -0.4777022E-03
1362656.  0.7310398E-04  0.3844429E-02  0.1093090E-04  0.2907258E-03 -0.7901578E-05 -0.3231545E-03
1292078.  0.3337366E-04  0.3445543E-02  0.8639708E-05  0.1220042E-03 -0.4961902E-05 -0.2141431E-03
1221500. -0.6398411E-05  0.3915943E-02  0.8334447E-05 -0.7677996E-04 -0.3029858E-05 -0.1396776E-03
1221500. -0.6398411E-05 -0.9670881E-05 -0.2626098E-07  0.3323534E-04 -0.3029858E-05 -0.1369058E-03
1183328. -0.6147724E-05 -0.6903837E-04 -0.1786296E-06  0.1849708E-04 -0.2300460E-05 -0.1075752E-03
1145156. -0.5622195E-05 -0.1027677E-03 -0.2570464E-06  0.8341351E-05 -0.1729719E-05 -0.8378657E-04
1106984. -0.4952842E-05 -0.1181180E-03 -0.2854661E-06  0.1639529E-05 -0.1287157E-05 -0.6464998E-04
1068812. -0.4232010E-05 -0.1207841E-03 -0.2817688E-06 -0.2513525E-05 -0.9472831E-06 -0.4938847E-04
1030641. -0.3521975E-05 -0.1151551E-03 -0.2589947E-06 -0.4833882E-05 -0.6889495E-06 -0.3732953E-04
 992469. -0.2862001E-05 -0.1045405E-03 -0.2263803E-06 -0.5879298E-05 -0.4947346E-06 -0.2789402E-04
 954297. -0.2274303E-05 -0.9137059E-04 -0.1902288E-06 -0.6076028E-05 -0.3504443E-06 -0.2058888E-04
 916125. -0.1768712E-05 -0.7736992E-04 -0.1546217E-06 -0.5742962E-05 -0.2446000E-06 -0.1499688E-04
 877953. -0.1346465E-05 -0.6370527E-04 -0.1219982E-06 -0.5112654E-05 -0.1680169E-06 -0.1076822E-04
 839781. -0.1003159E-05 -0.5111201E-04 -0.9361908E-07 -0.4348586E-05 -0.1134244E-06 -0.7612494E-05
 801609. -0.7310052E-06 -0.4000063E-04 -0.6993214E-07 -0.3561022E-05 -0.7513278E-07 -0.5291037E-05
 763438. -0.5205139E-06 -0.3054390E-04 -0.5085356E-07 -0.2819237E-05 -0.4874602E-07 -0.3609858E-05
 725266. -0.3616747E-06 -0.2274767E-04 -0.3597788E-07 -0.2162432E-05 -0.3091123E-07 -0.2413006E-05
 687094. -0.2448105E-06 -0.1650869E-04 -0.2473495E-07 -0.1608134E-05 -0.1911209E-07 -0.1576927E-05
 648922. -0.1610734E-06 -0.1165811E-04 -0.1649629E-07 -0.1159150E-05 -0.1148883E-07 -0.1004958E-05
 610750. -0.1027375E-06 -0.7994980E-05 -0.1064710E-07 -0.8088730E-06 -0.6691966E-08 -0.6226825E-06
 572578. -0.6331434E-07 -0.5310573E-05 -0.6629994E-08 -0.5453335E-06 -0.3761780E-08 -0.3737777E-06
 534406. -0.3754569E-07 -0.3405176E-05 -0.3967676E-08 -0.3541741E-06 -0.2030873E-08 -0.2164270E-06
 496234. -0.2131517E-07 -0.2098721E-05 -0.2270682E-08 -0.2207156E-06 -0.1046743E-08 -0.1202447E-06
 458062. -0.1151092E-07 -0.1236579E-05 -0.1234957E-08 -0.1312985E-06 -0.5112838E-09 -0.6368411E-07
 419891. -0.5865420E-08 -0.6916881E-06 -0.6332056E-09 -0.7405511E-07 -0.2344862E-09 -0.3188766E-07
 381719. -0.2790432E-08 -0.3639583E-06 -0.3028911E-09 -0.3924863E-07 -0.9976758E-10 -0.1493501E-07
 343547. -0.1222355E-08 -0.1779910E-06 -0.1333130E-09 -0.1931416E-07 -0.3876508E-10 -0.6452109E-08
 305375. -0.4838351E-09 -0.7957711E-07 -0.5298104E-10 -0.8681767E-08 -0.1346473E-10 -0.2522723E-08
 267203. -0.1685632E-09 -0.3178323E-07 -0.1851861E-10 -0.3481367E-08 -0.4057668E-11 -0.8691721E-09
 229031.  0.0000000E+00  0.0000000E+00  0.0000000E+00  0.0000000E+00  0.0000000E+00  0.0000000E+00
 190859.  0.0000000E+00  0.0000000E+00  0.0000000E+00  0.0000000E+00  0.0000000E+00  0.0000000E+00
 152688.  0.0000000E+00  0.0000000E+00  0.0000000E+00  0.0000000E+00  0.0000000E+00  0.0000000E+00
 114516.  0.0000000E+00  0.0000000E+00  0.0000000E+00  0.0000000E+00  0.0000000E+00  0.0000000E+00
  76344.  0.0000000E+00  0.0000000E+00  0.0000000E+00  0.0000000E+00  0.0000000E+00  0.0000000E+00
  38172.  0.0000000E+00  0.0000000E+00  0.0000000E+00  0.0000000E+00  0.0000000E+00  0.0000000E+00
      0.  0.0000000E+00  0.0000000E+00  0.0000000E+00  0.0000000E+00  0.0000000E+00  0.0000000E+00
