      15        1 S      614        187.68581        142.18860         16.64451        711.83710      185    7
6371000.  0.7117976E-01 -0.5545951E-01  0.6553376E-03 -0.7052442E-01 -0.2945877E-10 -0.1342284E+00
6370000.  0.7118727E-01 -0.4026198E-01  0.6663737E-03 -0.7009579E-01  0.2106982E-04 -0.1342429E+00
6369000.  0.7119240E-01 -0.2505842E-01  0.6773415E-03 -0.6965386E-01  0.4214161E-04 -0.1342530E+00
6368000.  0.7119514E-01 -0.9849326E-02  0.6882389E-03 -0.6919866E-01  0.6321463E-04 -0.1342586E+00
6368000.  0.7119514E-01 -0.9849326E-02  0.6882389E-03 -0.6919866E-01  0.6321463E-04 -0.1342586E+00
6367000.  0.7119549E-01  0.5364785E-02  0.6990639E-03 -0.6873024E-01  0.8428816E-04 -0.1342597E+00
6366000.  0.7119346E-01  0.2058341E-01  0.7098142E-03 -0.6824864E-01  0.1053615E-03 -0.1342563E+00
6365000.  0.7118903E-01  0.3580602E-01  0.7204880E-03 -0.6775392E-01  0.1264340E-03 -0.1342484E+00
6364000.  0.7118221E-01  0.5103213E-01  0.7310830E-03 -0.6724611E-01  0.1475049E-03 -0.1342360E+00
6363000.  0.7117300E-01  0.6626122E-01  0.7415974E-03 -0.6672526E-01  0.1685735E-03 -0.1342192E+00
6362000.  0.7116141E-01  0.8149277E-01  0.7520289E-03 -0.6619143E-01  0.1896391E-03 -0.1341978E+00
6361000.  0.7114743E-01  0.9672627E-01  0.7623757E-03 -0.6564467E-01  0.2107009E-03 -0.1341719E+00
6360000.  0.7113105E-01  0.1119612E+00  0.7726356E-03 -0.6508503E-01  0.2317584E-03 -0.1341416E+00
6359000.  0.7111228E-01  0.1271971E+00  0.7828066E-03 -0.6451257E-01  0.2528108E-03 -0.1341067E+00
6358000.  0.7109112E-01  0.1424334E+00  0.7928869E-03 -0.6392734E-01  0.2738573E-03 -0.1340674E+00
6357000.  0.7106756E-01  0.1576696E+00  0.8028742E-03 -0.6332941E-01  0.2948973E-03 -0.1340235E+00
6356000.  0.7104162E-01  0.1729052E+00  0.8127667E-03 -0.6271882E-01  0.3159301E-03 -0.1339752E+00
6356000.  0.7104162E-01  0.1004565E+00  0.8127667E-03 -0.6576154E-01  0.3159301E-03 -0.1494330E+00
6355000.  0.7102498E-01  0.1115301E+00  0.8230558E-03 -0.6534061E-01  0.3393826E-03 -0.1493987E+00
6354000.  0.7100661E-01  0.1226045E+00  0.8332781E-03 -0.6491115E-01  0.3628295E-03 -0.1493607E+00
6353000.  0.7098649E-01  0.1336792E+00  0.8434324E-03 -0.6447320E-01  0.3862701E-03 -0.1493191E+00
6352000.  0.7096464E-01  0.1447541E+00  0.8535173E-03 -0.6402675E-01  0.4097039E-03 -0.1492738E+00
6351000.  0.7094105E-01  0.1558289E+00  0.8635314E-03 -0.6357187E-01  0.4331303E-03 -0.1492249E+00
6350000.  0.7091573E-01  0.1669033E+00  0.8734735E-03 -0.6310857E-01  0.4565487E-03 -0.1491723E+00
6349000.  0.7088866E-01  0.1779770E+00  0.8833422E-03 -0.6263689E-01  0.4799586E-03 -0.1491161E+00
6348000.  0.7085986E-01  0.1890498E+00  0.8931362E-03 -0.6215685E-01  0.5033594E-03 -0.1490563E+00
6347000.  0.7082931E-01  0.2001214E+00  0.9028541E-03 -0.6166850E-01  0.5267506E-03 -0.1489928E+00
6346600.  0.7081661E-01  0.2045497E+00  0.9067197E-03 -0.6147083E-01  0.5361041E-03 -0.1489664E+00
6346600.  0.7081661E-01  0.9970181E-01  0.9067197E-03 -0.6429964E-01  0.5361041E-03 -0.1736591E+00
6318800.  0.6989531E-01  0.3230261E+00  0.1159874E-02 -0.5090912E-01  0.1289536E-02 -0.1712776E+00
6291000.  0.6799579E-01  0.5475482E+00  0.1344285E-02 -0.3290612E-01  0.2027391E-02 -0.1665177E+00
6291000.  0.6799579E-01  0.5547123E+00  0.1344285E-02 -0.3160293E-01  0.2027391E-02 -0.1665177E+00
6263000.  0.6505669E-01  0.7821599E+00  0.1434282E-02 -0.8775109E-02  0.2744101E-02 -0.1592330E+00
6235000.  0.6112888E-01  0.1004067E+01  0.1417201E-02  0.1692536E-01  0.3423512E-02 -0.1495541E+00
6207000.  0.5624433E-01  0.1216960E+01  0.1283162E-02  0.4422554E-01  0.4055267E-02 -0.1375625E+00
6179000.  0.5045031E-01  0.1417364E+01  0.1028146E-02  0.7174214E-01  0.4629447E-02 -0.1233764E+00
6151000.  0.4380930E-01  0.1601829E+01  0.6543414E-03  0.9804415E-01  0.5136736E-02 -0.1071517E+00
6151000.  0.4380930E-01  0.1283591E+01  0.6543414E-03  0.8055167E-01  0.5136736E-02 -0.1095754E+00
6128500.  0.3912884E-01  0.1365095E+01  0.3419090E-03  0.9611224E-01  0.5504126E-02 -0.9834626E-01
6106000.  0.3418134E-01  0.1434780E+01 -0.2234497E-04  0.1098242E+00  0.5830481E-02 -0.8635234E-01
6083500.  0.2900892E-01  0.1492442E+01 -0.4311359E-03  0.1212691E+00  0.6113268E-02 -0.7369058E-01
6061000.  0.2365428E-01  0.1537973E+01 -0.8758073E-03  0.1300900E+00  0.6350309E-02 -0.6046167E-01
6038500.  0.1816026E-01  0.1571378E+01 -0.1346567E-02  0.1360023E+00  0.6539778E-02 -0.4676785E-01
6016000.  0.1256957E-01  0.1592740E+01 -0.1832754E-02  0.1387985E+00  0.6680217E-02 -0.3271294E-01
5993500.  0.6924467E-02  0.1602229E+01 -0.2323114E-02  0.1383509E+00  0.6770536E-02 -0.1840176E-01
5971000.  0.1266434E-02  0.1600114E+01 -0.2806088E-02  0.1346158E+00  0.6810015E-02 -0.3938625E-02
5971000.  0.1266434E-02  0.1447209E+01 -0.2806088E-02  0.1193069E+00  0.6810015E-02 -0.4104412E-02
5937667. -0.6154815E-02  0.1386827E+01 -0.3392329E-02  0.1040483E+00  0.6778382E-02  0.1613188E-01
5904333. -0.1321876E-01  0.1311028E+01 -0.3888014E-02  0.8486483E-01  0.6642108E-02  0.3585224E-01
5871000. -0.1985171E-01  0.1222600E+01 -0.4275430E-02  0.6284910E-01  0.6404540E-02  0.5481712E-01
5837667. -0.2599466E-01  0.1124147E+01 -0.4542622E-02  0.3908528E-01  0.6070183E-02  0.7281911E-01
5804333. -0.3160176E-01  0.1018082E+01 -0.4683170E-02  0.1460074E-01  0.5644541E-02  0.8967996E-01
5771000. -0.3663868E-01  0.9066043E+00 -0.4695790E-02 -0.9669151E-02  0.5134015E-02  0.1052493E+00
5771000. -0.3663868E-01  0.9066197E+00 -0.4695790E-02 -0.9667685E-02  0.5134015E-02  0.1052493E+00
5701000. -0.4554220E-01  0.7079791E+00 -0.4296198E-02 -0.6273426E-01  0.3826984E-02  0.1316532E+00
5701000. -0.4554220E-01  0.5896086E+00 -0.4296198E-02 -0.3985519E-01  0.3826984E-02  0.1444899E+00
5667333. -0.4829223E-01  0.4600635E+00 -0.4055008E-02 -0.5248587E-01  0.3038942E-02  0.1535004E+00
5633667. -0.5046961E-01  0.3657976E+00 -0.3727778E-02 -0.7200037E-01  0.2206722E-02  0.1612748E+00
5600000. -0.5214973E-01  0.2694950E+00 -0.3297766E-02 -0.9032058E-01  0.1337279E-02  0.1675089E+00
5600000. -0.5214973E-01  0.2694950E+00 -0.3297766E-02 -0.9032058E-01  0.1337279E-02  0.1675089E+00
5563518. -0.5339096E-01  0.1639155E+00 -0.2728150E-02 -0.1082506E+00  0.3630359E-03  0.1724426E+00
5527037. -0.5402667E-01  0.5819818E-01 -0.2062880E-02 -0.1236488E+00 -0.6338845E-03  0.1754330E+00
5490556. -0.5405923E-01 -0.4657863E-01 -0.1317854E-02 -0.1360329E+00 -0.1642306E-02  0.1764583E+00
5454074. -0.5349703E-01 -0.1493639E+00 -0.5114983E-03 -0.1450094E+00 -0.2651001E-02  0.1755196E+00
5417593. -0.5235432E-01 -0.2491893E+00  0.3358669E-03 -0.1503306E+00 -0.3648689E-02  0.1726279E+00
5381111. -0.5065065E-01 -0.3451233E+00  0.1202839E-02 -0.1518310E+00 -0.4624347E-02  0.1678238E+00
5344630. -0.4841093E-01 -0.4363110E+00  0.2067324E-02 -0.1494772E+00 -0.5567127E-02  0.1611643E+00
5308148. -0.4566431E-01 -0.5220242E+00  0.2907531E-02 -0.1433650E+00 -0.6466646E-02  0.1527186E+00
5271667. -0.4244450E-01 -0.6014943E+00  0.3702337E-02 -0.1336678E+00 -0.7312896E-02  0.1425848E+00
5235185. -0.3878879E-01 -0.6741607E+00  0.4432091E-02 -0.1206974E+00 -0.8096549E-02  0.1308649E+00
5198704. -0.3473776E-01 -0.7395071E+00  0.5079103E-02 -0.1048435E+00 -0.8808810E-02  0.1176794E+00
5162222. -0.3033480E-01 -0.7969754E+00  0.5628132E-02 -0.8655208E-01 -0.9441722E-02  0.1031669E+00
5125741. -0.2562607E-01 -0.8463056E+00  0.6066716E-02 -0.6636572E-01 -0.9988053E-02  0.8746882E-01
5089259. -0.2065881E-01 -0.8871704E+00  0.6385626E-02 -0.4484541E-01 -0.1044148E-01  0.7074040E-01
5052778. -0.1548263E-01 -0.9193029E+00  0.6578881E-02 -0.2258101E-01 -0.1079655E-01  0.5314734E-01
5016296. -0.1014739E-01 -0.9426628E+00  0.6643958E-02 -0.1739357E-03 -0.1104881E-01  0.3485681E-01
4979815. -0.4703995E-02 -0.9571159E+00  0.6581720E-02  0.2179122E-01 -0.1119475E-01  0.1604527E-01
4943333.  0.7968330E-03 -0.9626926E+00  0.6396303E-02  0.4275827E-01 -0.1123191E-01 -0.3110087E-02
4906852.  0.6304406E-02 -0.9595360E+00  0.6094921E-02  0.6221636E-01 -0.1115882E-01 -0.2242898E-01
4870370.  0.1176911E-01 -0.9476937E+00  0.5687532E-02  0.7971016E-01 -0.1097507E-01 -0.4173319E-01
4833889.  0.1714168E-01 -0.9274648E+00  0.5186529E-02  0.9486154E-01 -0.1068125E-01 -0.6084240E-01
4797407.  0.2237527E-01 -0.8991389E+00  0.4606183E-02  0.1073725E+00 -0.1027898E-01 -0.7958275E-01
4760926.  0.2742384E-01 -0.8629520E+00  0.3962344E-02  0.1170163E+00 -0.9770870E-02 -0.9778497E-01
4724444.  0.3224403E-01 -0.8194053E+00  0.3271752E-02  0.1236839E+00 -0.9160459E-02 -0.1152813E+00
4687963.  0.3679462E-01 -0.7688967E+00  0.2551630E-02  0.1273372E+00 -0.8452276E-02 -0.1319155E+00
4651482.  0.4103711E-01 -0.7118821E+00  0.1819123E-02  0.1280275E+00 -0.7651663E-02 -0.1475399E+00
4615000.  0.4493602E-01 -0.6489490E+00  0.1090772E-02  0.1259099E+00 -0.6764797E-02 -0.1620112E+00
4578518.  0.4845883E-01 -0.5806136E+00  0.3821047E-03  0.1211935E+00 -0.5798668E-02 -0.1752035E+00
4542037.  0.5157624E-01 -0.5074914E+00 -0.2927753E-03  0.1141715E+00 -0.4760974E-02 -0.1869972E+00
4505556.  0.5426280E-01 -0.4302279E+00 -0.9216933E-03  0.1052006E+00 -0.3660019E-02 -0.1972832E+00
4469074.  0.5649656E-01 -0.3494283E+00 -0.1494559E-02  0.9465633E-01 -0.2504653E-02 -0.2059765E+00
4432593.  0.5825916E-01 -0.2657971E+00 -0.2003573E-02  0.8297977E-01 -0.1304310E-02 -0.2129902E+00
4396111.  0.5953640E-01 -0.1800056E+00 -0.2443557E-02  0.7061313E-01 -0.6874323E-04 -0.2182592E+00
4359630.  0.6031782E-01 -0.9274107E-01 -0.2811773E-02  0.5799260E-01  0.1191858E-02 -0.2217383E+00
4323148.  0.6059700E-01 -0.4700487E-02 -0.3108090E-02  0.4556958E-01  0.2467179E-02 -0.2233827E+00
4286667.  0.6037149E-01  0.8342072E-01 -0.3334810E-02  0.3375161E-01  0.3746577E-02 -0.2231729E+00
4250185.  0.5964280E-01  0.1709299E+00 -0.3496495E-02  0.2291293E-01  0.5019486E-02 -0.2211031E+00
4213704.  0.5841637E-01  0.2571652E+00 -0.3599740E-02  0.1339184E-01  0.6275180E-02 -0.2171745E+00
4177222.  0.5670138E-01  0.3414453E+00 -0.3652885E-02  0.5452918E-02  0.7503148E-02 -0.2114127E+00
4140741.  0.5451098E-01  0.4231341E+00 -0.3665619E-02 -0.6918515E-03  0.8692920E-02 -0.2038510E+00
4104259.  0.5186153E-01  0.5016515E+00 -0.3648662E-02 -0.4901219E-02  0.9834366E-02 -0.1945323E+00
4067778.  0.4877326E-01  0.5763315E+00 -0.3613292E-02 -0.7118804E-02  0.1091756E-01 -0.1835277E+00
4031296.  0.4526942E-01  0.6466942E+00 -0.3570934E-02 -0.7348400E-02  0.1193310E-01 -0.1709026E+00
3994815.  0.4137633E-01  0.7122239E+00 -0.3532774E-02 -0.5674250E-02  0.1287187E-01 -0.1567428E+00
3958333.  0.3712311E-01  0.7723648E+00 -0.3509281E-02 -0.2256607E-02  0.1372544E-01 -0.1411504E+00
3921852.  0.3254184E-01  0.8267914E+00 -0.3509854E-02  0.2690289E-02  0.1448583E-01 -0.1242262E+00
3885370.  0.2766617E-01  0.8750721E+00 -0.3542478E-02  0.8886170E-02  0.1514580E-01 -0.1060881E+00
3848889.  0.2253269E-01  0.9168472E+00 -0.3613377E-02  0.1600133E-01  0.1569872E-01 -0.8686262E-01
3812407.  0.1717888E-01  0.9519308E+00 -0.3726799E-02  0.2367382E-01  0.1613875E-01 -0.6667803E-01
3775926.  0.1164432E-01  0.9799888E+00 -0.3884797E-02  0.3150384E-01  0.1646078E-01 -0.4567676E-01
3739444.  0.5969365E-02  0.1000911E+01 -0.4087113E-02  0.3908287E-01  0.1666057E-01 -0.2400135E-01
3702963.  0.1952798E-03  0.1014638E+01 -0.4331123E-02  0.4599890E-01  0.1673466E-01 -0.1800970E-02
3666482. -0.5636264E-02  0.1020974E+01 -0.4611848E-02  0.5184092E-01  0.1668048E-01  0.2077178E-01
3630000. -0.1148340E-01  0.1020049E+01 -0.4922048E-02  0.5622923E-01  0.1649635E-01  0.4356185E-01
3630000. -0.1148340E-01  0.1020049E+01 -0.4922048E-02  0.5622923E-01  0.1649635E-01  0.4356185E-01
3592500. -0.1746598E-01  0.1011480E+01 -0.5261756E-02  0.5885134E-01  0.1617081E-01  0.6705067E-01
3555000. -0.2337567E-01  0.9953231E+00 -0.5610441E-02  0.5922844E-01  0.1570723E-01  0.9043374E-01
3517500. -0.2916864E-01  0.9718541E+00 -0.5954055E-02  0.5708805E-01  0.1510676E-01  0.1135384E+00
3480000. -0.3480231E-01  0.9412290E+00 -0.6277134E-02  0.5222238E-01  0.1437152E-01  0.1361995E+00
3480000. -0.3480231E-01  0.1634903E+01 -0.4052790E-02 -0.5622359E-01  0.1437152E-01  0.2478099E+00
3409422. -0.5123401E-01  0.1313633E+01 -0.3240622E-02 -0.8964479E-01  0.1092802E-01  0.3700083E+00
3338844. -0.6356829E-01  0.9007124E+00 -0.2087970E-02 -0.1172985E+00  0.6275702E-02  0.4646395E+00
3268266. -0.7097944E-01  0.4307434E+00 -0.6709882E-03 -0.1370539E+00  0.7620828E-03  0.5245306E+00
3197688. -0.7303260E-01 -0.6073142E-01  0.9135202E-03 -0.1473304E+00 -0.5200787E-02  0.5452455E+00
3127109. -0.6968110E-01 -0.5395091E+00  0.2554664E-02 -0.1471685E+00 -0.1116769E-01  0.5252228E+00
3056531. -0.6124115E-01 -0.9745879E+00  0.4134453E-02 -0.1362613E+00 -0.1669164E-01  0.4657270E+00
2985953. -0.4834724E-01 -0.1339686E+01  0.5535186E-02 -0.1149524E+00 -0.2135460E-01  0.3706278E+00
2915375. -0.3189407E-01 -0.1614271E+01  0.6646411E-02 -0.8420300E-01 -0.2479417E-01  0.2460439E+00
2844797. -0.1296865E-01 -0.1784216E+01  0.7371469E-02 -0.4552940E-01 -0.2672612E-01  0.9988215E-01
2774219.  0.7222238E-02 -0.1842045E+01  0.7633199E-02 -0.9205695E-03 -0.2696124E-01 -0.5869514E-01
2703641.  0.2742561E-01 -0.1786849E+01  0.7378645E-02  0.4725982E-01 -0.2541617E-01 -0.2198413E+00
2633062.  0.4641333E-01 -0.1623883E+01  0.6582573E-02  0.9638967E-01 -0.2211769E-01 -0.3736044E+00
2562484.  0.6304587E-01 -0.1363907E+01  0.5249720E-02  0.1437054E+00 -0.1720104E-01 -0.5104724E+00
2491906.  0.7633030E-01 -0.1022326E+01  0.3415623E-02  0.1864235E+00 -0.1090180E-01 -0.6218920E+00
2421328.  0.8546524E-01 -0.6181927E+00  0.1146228E-02  0.2218608E+00 -0.3543061E-02 -0.7006923E+00
2350750.  0.8987561E-01 -0.1731127E+00 -0.1463887E-02  0.2475479E+00  0.4481978E-02 -0.7414373E+00
2280172.  0.8923447E-01  0.2899005E+00 -0.4294435E-02  0.2613294E+00  0.1273071E-01 -0.7406770E+00
2209594.  0.8347248E-01  0.7475453E+00 -0.7203417E-02  0.2614540E+00  0.2073402E-01 -0.6970900E+00
2139016.  0.7277505E-01  0.1177303E+01 -0.1003202E-01  0.2466490E+00  0.2802018E-01 -0.6115251E+00
2068438.  0.5756802E-01  0.1558435E+01 -0.1261024E-01  0.2161722E+00  0.3413863E-01 -0.4869344E+00
1997859.  0.3849298E-01  0.1872812E+01 -0.1476297E-01  0.1698477E+00  0.3868253E-01 -0.3282146E+00
1927281.  0.1637527E-01  0.2105647E+01 -0.1631635E-01  0.1080889E+00  0.4130881E-01 -0.1419677E+00
1856703. -0.7817780E-02  0.2246010E+01 -0.1710438E-01  0.3188387E-01  0.4175566E-01  0.6382801E-01
1786125. -0.3302065E-01  0.2287205E+01 -0.1697507E-01 -0.5722238E-01  0.3985557E-01  0.2801809E+00
1715547. -0.5811781E-01  0.2226907E+01 -0.1579648E-01 -0.1571652E+00  0.3554438E-01  0.4974981E+00
1644969. -0.8199228E-01  0.2067154E+01 -0.1346215E-01 -0.2654247E+00  0.2886554E-01  0.7060105E+00
1574391. -0.1035729E+00  0.1814139E+01 -0.9895726E-02 -0.3790906E+00  0.1996974E-01  0.8962014E+00
1503812. -0.1218787E+00  0.1477845E+01 -0.5054841E-02 -0.4949428E+00  0.9109616E-02  0.1059214E+01
1433234. -0.1360575E+00  0.1071546E+01  0.1065659E-02 -0.6095334E+00 -0.3368920E-02  0.1187214E+01
1362656. -0.1454199E+00  0.6111394E+00  0.8432122E-02 -0.7192827E+00 -0.1704090E-01  0.1273722E+01
1292078. -0.1494636E+00  0.1144184E+00  0.1697079E-01 -0.8205537E+00 -0.3141809E-01  0.1313860E+01
1221500. -0.1478905E+00 -0.3997454E+00  0.2656765E-01 -0.9097295E+00 -0.4596791E-01  0.1304528E+01
1221500. -0.1478905E+00 -0.6577430E+00 -0.2317214E-02  0.7592692E+00 -0.4596791E-01  0.1368595E+01
1183328. -0.1428909E+00 -0.1005456E+01 -0.4645145E-02 -0.1701100E-01 -0.5410093E-01  0.1344083E+01
1145156. -0.1359301E+00 -0.1309214E+01 -0.1792178E-02 -0.9533071E+00 -0.6204825E-01  0.1306624E+01
1106984. -0.1273251E+00 -0.1551778E+01  0.6877484E-02 -0.1938862E+01 -0.6973277E-01  0.1256403E+01
1068812. -0.1174814E+00 -0.1721270E+01  0.2129677E-01 -0.2852189E+01 -0.7707892E-01  0.1193736E+01
1030641. -0.1068553E+00 -0.1812883E+01  0.4067471E-01 -0.3575786E+01 -0.8401319E-01  0.1119060E+01
 992469. -0.9590718E-01 -0.1829960E+01  0.6356639E-01 -0.4010667E+01 -0.9046559E-01  0.1032925E+01
 954297. -0.8505286E-01 -0.1784198E+01  0.8801950E-01 -0.4088785E+01 -0.9636924E-01  0.9360061E+00
 916125. -0.7461382E-01 -0.1695186E+01  0.1117912E+00 -0.3782254E+01 -0.1016618E+00  0.8290784E+00
 877953. -0.6477422E-01 -0.1588860E+01  0.1326052E+00 -0.3108073E+01 -0.1062859E+00  0.7130241E+00
 839781. -0.5554876E-01 -0.1495438E+01  0.1484209E+00 -0.2127543E+01 -0.1101897E+00  0.5888194E+00
 801609. -0.4676514E-01 -0.1446628E+01  0.1576863E+00 -0.9410122E+00 -0.1133276E+00  0.4575267E+00
 763438. -0.3806441E-01 -0.1472571E+01  0.1595428E+00  0.3222605E+00 -0.1156604E+00  0.3202913E+00
 725266. -0.2891887E-01 -0.1598721E+01  0.1539603E+00  0.1517545E+01 -0.1171561E+00  0.1783147E+00
 687094. -0.1867039E-01 -0.1842943E+01  0.1417840E+00  0.2500014E+01 -0.1177902E+00  0.3286510E-01
 648922. -0.6582567E-02 -0.2213073E+01  0.1246871E+00  0.3140712E+01 -0.1175456E+00 -0.1147477E+00
 610750.  0.8093775E-02 -0.2705349E+01  0.1050309E+00  0.3341117E+01 -0.1164135E+00 -0.2631840E+00
 572578.  0.2604839E-01 -0.3303658E+01  0.8564571E-01  0.3044817E+01 -0.1143929E+00 -0.4110868E+00
 534406.  0.4783808E-01 -0.3979877E+01  0.6955376E-01  0.2245046E+01 -0.1114912E+00 -0.5570976E+00
 496234.  0.7381836E-01 -0.4695260E+01  0.5966136E-01  0.9872344E+00 -0.1077237E+00 -0.6998702E+00
 458062.  0.1040865E+00 -0.5402833E+01  0.5845191E-01 -0.6337867E+00 -0.1031137E+00 -0.8380849E+00
 419891.  0.1384405E+00 -0.6050512E+01  0.6771079E-01 -0.2481633E+01 -0.9769267E-01 -0.9704614E+00
 381719.  0.1763632E+00 -0.6584983E+01  0.8831280E-01 -0.4390844E+01 -0.9149887E-01 -0.1095784E+01
 343547.  0.2170211E+00 -0.6955570E+01  0.1200906E+00 -0.6182013E+01 -0.8457824E-01 -0.1212895E+01
 305375.  0.2592967E+00 -0.7118410E+01  0.1618038E+00 -0.7679221E+01 -0.7698324E-01 -0.1320719E+01
 267203.  0.3018388E+00 -0.7039962E+01  0.2112110E+00 -0.8726930E+01 -0.6877251E-01 -0.1418272E+01
 229031.  0.3431340E+00 -0.6700076E+01  0.2652394E+00 -0.9205591E+01 -0.6001030E-01 -0.1504668E+01
 190859.  0.3815935E+00 -0.6093969E+01  0.3202387E+00 -0.9043552E+01 -0.5076586E-01 -0.1579123E+01
 152688.  0.4156480E+00 -0.5233251E+01  0.3722923E+00 -0.8224982E+01 -0.4111305E-01 -0.1640965E+01
 114516.  0.4438486E+00 -0.4145518E+01  0.4175671E+00 -0.6792089E+01 -0.3112864E-01 -0.1689646E+01
  76344.  0.4649542E+00 -0.2873056E+01  0.4526463E+00 -0.4842043E+01 -0.2089309E-01 -0.1724734E+01
  38172.  0.4780157E+00 -0.1470240E+01  0.4748419E+00 -0.2518744E+01 -0.1048882E-01 -0.1745935E+01
      0.  0.4824201E+00  0.0000000E+00  0.4823874E+00  0.0000000E+00  0.0000000E+00 -0.1752947E+01
