       5       32 S      348        122.90570         10.02148          6.32980        239.54420      185    7
6371000. -0.1600796E-01  0.1140162E+01  0.2716783E-02  0.1872474E-01 -0.9727076E-03  0.6228662E-01
6370000. -0.1618619E-01  0.1130718E+01  0.2713580E-02  0.2209419E-01 -0.9824574E-03  0.6194598E-01
6369000. -0.1636289E-01  0.1120804E+01  0.2709848E-02  0.2545703E-01 -0.9921538E-03  0.6160489E-01
6368000. -0.1653801E-01  0.1110420E+01  0.2705588E-02  0.2881251E-01 -0.1001797E-02  0.6126335E-01
6368000. -0.1653801E-01  0.1110420E+01  0.2705588E-02  0.2881251E-01 -0.1001797E-02  0.6126335E-01
6367000. -0.1671145E-01  0.1099568E+01  0.2700803E-02  0.3215989E-01 -0.1011386E-02  0.6092139E-01
6366000. -0.1688316E-01  0.1088250E+01  0.2695493E-02  0.3549843E-01 -0.1020921E-02  0.6057903E-01
6365000. -0.1705305E-01  0.1076467E+01  0.2689660E-02  0.3882739E-01 -0.1030403E-02  0.6023628E-01
6364000. -0.1722106E-01  0.1064221E+01  0.2683305E-02  0.4214602E-01 -0.1039831E-02  0.5989317E-01
6363000. -0.1738711E-01  0.1051513E+01  0.2676430E-02  0.4545360E-01 -0.1049205E-02  0.5954972E-01
6362000. -0.1755113E-01  0.1038347E+01  0.2669037E-02  0.4874940E-01 -0.1058525E-02  0.5920593E-01
6361000. -0.1771305E-01  0.1024724E+01  0.2661127E-02  0.5203267E-01 -0.1067791E-02  0.5886185E-01
6360000. -0.1787279E-01  0.1010646E+01  0.2652703E-02  0.5530270E-01 -0.1077003E-02  0.5851748E-01
6359000. -0.1803029E-01  0.9961151E+00  0.2643767E-02  0.5855877E-01 -0.1086161E-02  0.5817284E-01
6358000. -0.1818547E-01  0.9811346E+00  0.2634321E-02  0.6180013E-01 -0.1095264E-02  0.5782797E-01
6357000. -0.1833827E-01  0.9657067E+00  0.2624368E-02  0.6502610E-01 -0.1104314E-02  0.5748287E-01
6356000. -0.1848861E-01  0.9498340E+00  0.2613909E-02  0.6823594E-01 -0.1113310E-02  0.5713757E-01
6356000. -0.1848861E-01  0.8652521E+00  0.2613909E-02  0.4957179E-01 -0.1113310E-02  0.6116047E-01
6355000. -0.1862355E-01  0.8541791E+00  0.2605984E-02  0.5140600E-01 -0.1122875E-02  0.6072530E-01
6354000. -0.1875674E-01  0.8428568E+00  0.2597772E-02  0.5323198E-01 -0.1132373E-02  0.6029052E-01
6353000. -0.1888813E-01  0.8312864E+00  0.2589274E-02  0.5504949E-01 -0.1141802E-02  0.5985616E-01
6352000. -0.1901769E-01  0.8194694E+00  0.2580491E-02  0.5685827E-01 -0.1151163E-02  0.5942222E-01
6351000. -0.1914537E-01  0.8074071E+00  0.2571425E-02  0.5865808E-01 -0.1160456E-02  0.5898871E-01
6350000. -0.1927114E-01  0.7951011E+00  0.2562077E-02  0.6044867E-01 -0.1169681E-02  0.5855564E-01
6349000. -0.1939495E-01  0.7825528E+00  0.2552449E-02  0.6222979E-01 -0.1178838E-02  0.5812302E-01
6348000. -0.1951678E-01  0.7697638E+00  0.2542543E-02  0.6400121E-01 -0.1187927E-02  0.5769087E-01
6347000. -0.1963659E-01  0.7567356E+00  0.2532359E-02  0.6576267E-01 -0.1196948E-02  0.5725918E-01
6346600. -0.1968393E-01  0.7514578E+00  0.2528208E-02  0.6646442E-01 -0.1200538E-02  0.5708664E-01
6346600. -0.1968393E-01  0.9735229E+00  0.2528208E-02  0.5211644E-01 -0.1200538E-02  0.6395014E-01
6318800. -0.2325913E-01  0.6453089E+00  0.2238967E-02  0.7950578E-01 -0.1452648E-02  0.5172227E-01
6291000. -0.2516117E-01  0.2112944E+00  0.1844093E-02  0.1002191E+00 -0.1652902E-02  0.4016967E-01
6291000. -0.2516117E-01  0.2286079E+00  0.1844093E-02  0.1027334E+00 -0.1652902E-02  0.4016967E-01
6263000. -0.2502701E-01 -0.2994062E+00  0.1359691E-02  0.1160936E+00 -0.1805390E-02  0.2931431E-01
6235000. -0.2247781E-01 -0.8624493E+00  0.8383923E-03  0.1194205E+00 -0.1911335E-02  0.1898191E-01
6207000. -0.1746758E-01 -0.1410876E+01  0.3249998E-03  0.1125424E+00 -0.1972948E-02  0.9135295E-02
6179000. -0.1017203E-01 -0.1894187E+01 -0.1369100E-03  0.9618656E-01 -0.1992331E-02 -0.2338818E-03
6151000. -0.9824114E-03 -0.2265547E+01 -0.5088452E-03  0.7192409E-01 -0.1971631E-02 -0.9097367E-02
6151000. -0.9824114E-03 -0.1870593E+01 -0.5088452E-03  0.6326942E-01 -0.1971631E-02 -0.9043015E-02
6128500.  0.5877927E-02 -0.2001281E+01 -0.6976344E-03  0.4334615E-01 -0.1933417E-02 -0.1249985E-01
6106000.  0.1305581E-01 -0.2049660E+01 -0.8135483E-03  0.2218070E-01 -0.1884032E-02 -0.1537028E-01
6083500.  0.2025481E-01 -0.2013149E+01 -0.8541206E-03  0.8584618E-03 -0.1825541E-02 -0.1765733E-01
6061000.  0.2717653E-01 -0.1893211E+01 -0.8206638E-03 -0.1957413E-01 -0.1759993E-02 -0.1936787E-01
6038500.  0.3353470E-01 -0.1695197E+01 -0.7180477E-03 -0.3815652E-01 -0.1689409E-02 -0.2051114E-01
6016000.  0.3906826E-01 -0.1427956E+01 -0.5543212E-03 -0.5405506E-01 -0.1615773E-02 -0.2109817E-01
5993500.  0.4355286E-01 -0.1103337E+01 -0.3402049E-03 -0.6659485E-01 -0.1541027E-02 -0.2114139E-01
5971000.  0.4681040E-01 -0.7355734E+00 -0.8848756E-04 -0.7528270E-01 -0.1467073E-02 -0.2065154E-01
5971000.  0.4681040E-01 -0.6717699E+00 -0.8848756E-04 -0.7250187E-01 -0.1467073E-02 -0.2677942E-01
5937667.  0.4886160E-01 -0.1118641E+00  0.3040413E-03 -0.7619919E-01 -0.1329919E-02 -0.2551137E-01
5904333.  0.4801505E-01  0.4287351E+00  0.6957787E-03 -0.7240629E-01 -0.1201340E-02 -0.2354263E-01
5871000.  0.4447678E-01  0.9114366E+00  0.1051198E-02 -0.6259342E-01 -0.1084366E-02 -0.2111401E-01
5837667.  0.3862923E-01  0.1307565E+01  0.1343245E-02 -0.4847566E-01 -0.9808510E-03 -0.1842718E-01
5804333.  0.3097733E-01  0.1598898E+01  0.1553990E-02 -0.3179533E-01 -0.8917236E-03 -0.1563448E-01
5771000.  0.2209561E-01  0.1777163E+01  0.1674305E-02 -0.1416021E-01 -0.8172567E-03 -0.1283608E-01
5771000.  0.2209561E-01  0.1777275E+01  0.1674305E-02 -0.1416048E-01 -0.8172567E-03 -0.1283608E-01
5701000.  0.1682565E-02  0.1855199E+01  0.1619238E-02  0.2410355E-01 -0.7171314E-03 -0.5125486E-02
5701000.  0.1682565E-02  0.1621368E+01  0.1619238E-02  0.1904148E-01 -0.7171314E-03 -0.5599740E-02
5667333. -0.6420583E-02  0.1454728E+01  0.1499948E-02  0.2578614E-01 -0.6865985E-03 -0.6127764E-02
5633667. -0.1376587E-01  0.1323723E+01  0.1347511E-02  0.3186127E-01 -0.6520636E-03 -0.6881262E-02
5600000. -0.2032412E-01  0.1151036E+01  0.1165145E-02  0.3693046E-01 -0.6144146E-03 -0.7336994E-02
5600000. -0.2032412E-01  0.1151036E+01  0.1165145E-02  0.3693046E-01 -0.6144146E-03 -0.7336994E-02
5563518. -0.2628605E-01  0.9254710E+00  0.9414427E-03  0.4093839E-01 -0.5714728E-03 -0.7630612E-02
5527037. -0.3086620E-01  0.6702781E+00  0.6993908E-03  0.4333282E-01 -0.5273233E-03 -0.7767614E-02
5490556. -0.3392668E-01  0.3965451E+00  0.4482910E-03  0.4410365E-01 -0.4827351E-03 -0.7789235E-02
5454074. -0.3539334E-01  0.1154032E+00  0.1972752E-03  0.4331824E-01 -0.4382872E-03 -0.7722483E-02
5417593. -0.3525466E-01 -0.1624412E+00 -0.4508862E-04  0.4111130E-01 -0.3944153E-03 -0.7591450E-02
5381111. -0.3355804E-01 -0.4271972E+00 -0.2711861E-03  0.3766921E-01 -0.3514500E-03 -0.7406624E-02
5344630. -0.3040380E-01 -0.6702705E+00 -0.4745601E-03  0.3321629E-01 -0.3096797E-03 -0.7176131E-02
5308148. -0.2593686E-01 -0.8846021E+00 -0.6501304E-03  0.2799843E-01 -0.2693365E-03 -0.6908328E-02
5271667. -0.2033872E-01 -0.1064648E+01 -0.7942378E-03  0.2227129E-01 -0.2306361E-03 -0.6603005E-02
5235185. -0.1381690E-01 -0.1206688E+01 -0.9046977E-03  0.1628581E-01 -0.1937781E-03 -0.6265440E-02
5198704. -0.6596074E-02 -0.1308637E+01 -0.9807086E-03  0.1027760E-01 -0.1589369E-03 -0.5899245E-02
5162222.  0.1092162E-02 -0.1369917E+01 -0.1022765E-02  0.4459170E-02 -0.1262699E-03 -0.5506297E-02
5125741.  0.9016856E-02 -0.1391587E+01 -0.1032494E-02 -0.9855968E-03 -0.9592004E-04 -0.5090985E-02
5089259.  0.1695748E-01 -0.1375860E+01 -0.1012475E-02 -0.5909601E-02 -0.6799964E-04 -0.4658480E-02
5052778.  0.2470830E-01 -0.1325998E+01 -0.9660275E-03 -0.1020050E-01 -0.4259149E-04 -0.4214516E-02
5016296.  0.3208589E-01 -0.1246174E+01 -0.8970136E-03 -0.1378143E-01 -0.1974924E-04 -0.3762976E-02
4979815.  0.3893145E-01 -0.1141050E+01 -0.8096313E-03 -0.1661294E-01  0.5041511E-06 -0.3311852E-02
4943333.  0.4511479E-01 -0.1015680E+01 -0.7082070E-03 -0.1868562E-01  0.1819045E-04 -0.2866585E-02
4906852.  0.5053458E-01 -0.8752779E+00 -0.5970541E-03 -0.2001759E-01  0.3334843E-04 -0.2430254E-02
4870370.  0.5511963E-01 -0.7249098E+00 -0.4802837E-03 -0.2065564E-01  0.4606205E-04 -0.2013827E-02
4833889.  0.5882681E-01 -0.5694870E+00 -0.3617119E-03 -0.2065885E-01  0.5644828E-04 -0.1617130E-02
4797407.  0.6164049E-01 -0.4135129E+00 -0.2447606E-03 -0.2010295E-01  0.6462460E-04 -0.1243687E-02
4760926.  0.6356908E-01 -0.2609935E+00 -0.1323776E-03 -0.1907891E-01  0.7075970E-04 -0.9044456E-03
4724444.  0.6464268E-01 -0.1153982E+00 -0.2699843E-04 -0.1767016E-01  0.7503185E-04 -0.5924036E-03
4687963.  0.6490940E-01  0.2039858E-01  0.6943194E-04 -0.1597022E-01  0.7760827E-04 -0.3137034E-03
4651482.  0.6443208E-01  0.1441625E+00  0.1555145E-03 -0.1406962E-01  0.7869622E-04 -0.7178991E-04
4615000.  0.6328449E-01  0.2542717E+00  0.2303253E-03 -0.1204555E-01  0.7848610E-04  0.1398559E-03
4578518.  0.6154818E-01  0.3496608E+00  0.2933838E-03 -0.9977288E-02  0.7716343E-04  0.3160964E-03
4542037.  0.5930917E-01  0.4298314E+00  0.3446292E-03 -0.7929256E-02  0.7492965E-04  0.4594724E-03
4505556.  0.5665480E-01  0.4947666E+00  0.3843271E-03 -0.5952884E-02  0.7194999E-04  0.5762351E-03
4469074.  0.5367139E-01  0.5448309E+00  0.4130423E-03 -0.4099831E-02  0.6839632E-04  0.6599852E-03
4432593.  0.5044219E-01  0.5807955E+00  0.4315707E-03 -0.2398982E-02  0.6443643E-04  0.7197029E-03
4396111.  0.4704497E-01  0.6036652E+00  0.4408527E-03 -0.8743826E-03  0.6019460E-04  0.7578191E-03
4359630.  0.4355159E-01  0.6146368E+00  0.4419630E-03  0.4535353E-03  0.5580663E-04  0.7713935E-03
4323148.  0.4002601E-01  0.6151128E+00  0.4360351E-03  0.1583874E-02  0.5138986E-04  0.7688112E-03
4286667.  0.3652449E-01  0.6065106E+00  0.4242065E-03  0.2514435E-02  0.4703294E-04  0.7502386E-03
4250185.  0.3309463E-01  0.5902977E+00  0.4076127E-03  0.3249982E-02  0.4282778E-04  0.7164761E-03
4213704.  0.2977594E-01  0.5679485E+00  0.3873309E-03  0.3804876E-02  0.3884641E-04  0.6724203E-03
4177222.  0.2659944E-01  0.5408310E+00  0.3643630E-03  0.4190203E-02  0.3514982E-04  0.6167912E-03
4140741.  0.2358876E-01  0.5102756E+00  0.3396333E-03  0.4423922E-02  0.3180194E-04  0.5513296E-03
4104259.  0.2075987E-01  0.4774927E+00  0.3139489E-03  0.4526242E-02  0.2884869E-04  0.4786018E-03
4067778.  0.1812261E-01  0.4435430E+00  0.2880204E-03  0.4512448E-02  0.2634378E-04  0.3945446E-03
4031296.  0.1568063E-01  0.4094121E+00  0.2624506E-03  0.4404332E-02  0.2434771E-04  0.3010933E-03
3994815.  0.1343268E-01  0.3759200E+00  0.2377246E-03  0.4220629E-02  0.2291685E-04  0.1963558E-03
3958333.  0.1137299E-01  0.3437451E+00  0.2142300E-03  0.3976946E-02  0.2213082E-04  0.7533414E-04
3921852.  0.9492360E-02  0.3134798E+00  0.1922568E-03  0.3692445E-02  0.2208898E-04 -0.6424420E-04
3885370.  0.7778463E-02  0.2855550E+00  0.1719913E-03  0.3382759E-02  0.2291511E-04 -0.2291824E-03
3848889.  0.6217017E-02  0.2602936E+00  0.1535350E-03  0.3063532E-02  0.2477803E-04 -0.4278047E-03
3812407.  0.4792021E-02  0.2379038E+00  0.1368909E-03  0.2752529E-02  0.2789740E-04 -0.6700560E-03
3775926.  0.3486888E-02  0.2184386E+00  0.1219632E-03  0.2467450E-02  0.3256312E-04 -0.9706691E-03
3739444.  0.2284979E-02  0.2018095E+00  0.1085408E-03  0.2230900E-02  0.3915939E-04 -0.1347659E-02
3702963.  0.1170840E-02  0.1877211E+00  0.9626623E-04  0.2072217E-02  0.4818692E-04 -0.1824405E-02
3666482.  0.1314453E-03  0.1755759E+00  0.8458713E-04  0.2030703E-02  0.6030128E-04 -0.2431514E-02
3630000. -0.8417616E-03  0.1643836E+00  0.7267889E-04  0.2163521E-02  0.7635533E-04 -0.3207515E-02
3630000. -0.8417616E-03  0.1643836E+00  0.7267889E-04  0.2163521E-02  0.7635533E-04 -0.3207515E-02
3592500. -0.1774237E-02  0.1521450E+00  0.5891121E-04  0.2569520E-02  0.9812365E-04 -0.4232454E-02
3555000. -0.2625947E-02  0.1363540E+00  0.4163615E-04  0.3382569E-02  0.1267603E-03 -0.5553578E-02
3517500. -0.3363805E-02  0.1125303E+00  0.1790049E-04  0.4806044E-02  0.1642420E-03 -0.7252905E-02
3480000. -0.3921247E-02  0.7358638E-01 -0.1673318E-04  0.7148176E-02  0.2130752E-03 -0.9428331E-02
3480000. -0.3921247E-02 -0.1580604E+00 -0.1616227E-03 -0.6880120E-02  0.2130752E-03  0.3147047E-02
3409422. -0.2478108E-02 -0.1053972E+00 -0.9975859E-04 -0.4443116E-02  0.1672973E-03  0.4611827E-02
3338844. -0.1528506E-02 -0.6832089E-01 -0.6025140E-04 -0.2801192E-02  0.1178376E-03  0.4145457E-02
3268266. -0.9206317E-03 -0.4311105E-01 -0.3561260E-04 -0.1725068E-02  0.7735899E-04  0.3136404E-02
3197688. -0.5416424E-03 -0.2650649E-01 -0.2059961E-04 -0.1038082E-02  0.4819420E-04  0.2156653E-02
3127109. -0.3113191E-03 -0.1589006E-01 -0.1165950E-04 -0.6105128E-03  0.2877167E-04  0.1389560E-02
3056531. -0.1748110E-03 -0.9291541E-02 -0.6456223E-05 -0.3509267E-03  0.1655409E-04  0.8516498E-03
2985953. -0.9588156E-04 -0.5300491E-02 -0.3496324E-05 -0.1971268E-03  0.9211349E-05  0.5006632E-03
2915375. -0.5135555E-04 -0.2949932E-02 -0.1850965E-05 -0.1081882E-03  0.4967585E-05  0.2837040E-03
2844797. -0.2685070E-04 -0.1601421E-02 -0.9574454E-06 -0.5799148E-04  0.2599686E-05  0.1554230E-03
2774219. -0.1369680E-04 -0.8477378E-03 -0.4836074E-06 -0.3034553E-04  0.1321105E-05  0.8246547E-04
2703641. -0.6812500E-05 -0.4374044E-03 -0.2383550E-06 -0.1549229E-04  0.6520644E-06  0.4241982E-04
2633062. -0.3301352E-05 -0.2198419E-03 -0.1145378E-06 -0.7711114E-05  0.3125519E-06  0.2116358E-04
2562484. -0.1557433E-05 -0.1075566E-03 -0.5361323E-07 -0.3738980E-05  0.1454342E-06  0.1024111E-04
2491906. -0.7145397E-06 -0.5117804E-04 -0.2441940E-07 -0.1764446E-05  0.6565052E-07  0.4805055E-05
2421328. -0.3184609E-06 -0.2366000E-04 -0.1081010E-07 -0.8094981E-06  0.2872503E-07  0.2184629E-05
2350750. -0.1377051E-06 -0.1061524E-04 -0.4645029E-08 -0.3606200E-06  0.1216931E-07  0.9616349E-06
2280172. -0.5768893E-07 -0.4615919E-05 -0.1934543E-08 -0.1557821E-06  0.4985375E-08  0.4093724E-06
2209594. -0.2337729E-07 -0.1942480E-05 -0.7796427E-09 -0.6515608E-07  0.1972002E-08  0.1683155E-06
2139016. -0.9147125E-08 -0.7897667E-06 -0.3034982E-09 -0.2634020E-07  0.7518828E-09  0.6673390E-07
2068438. -0.3449078E-08 -0.3096491E-06 -0.1138906E-09 -0.1027258E-07  0.2757900E-09  0.2546816E-07
1997859. -0.1250490E-08 -0.1168281E-06 -0.4110656E-10 -0.3856570E-08  0.9710168E-10  0.9336198E-08
1927281. -0.4348623E-09 -0.4231694E-07 -0.1423482E-10 -0.1390448E-08  0.3273583E-10  0.3279815E-08
1856703. -0.1446449E-09 -0.1467602E-07 -0.4716152E-11 -0.4801398E-09  0.1053752E-10  0.1101193E-08
1786125. -0.4587503E-10 -0.4858765E-08 -0.1490231E-11 -0.1583170E-09  0.3228420E-11  0.3522825E-09
1715547. -0.1382425E-10 -0.1530360E-08 -0.4475177E-12 -0.4967688E-10  0.9380216E-12  0.1070120E-09
1644969. -0.3942570E-11 -0.4568046E-09 -0.1272060E-12 -0.1477704E-10  0.2574059E-12  0.3074657E-10
1574391. -0.1059817E-11 -0.1285907E-09 -0.3405406E-13 -0.4150940E-11  0.6636737E-13  0.8322982E-11
1503812.  0.0000000E+00  0.0000000E+00  0.0000000E+00  0.0000000E+00  0.0000000E+00  0.0000000E+00
1433234.  0.0000000E+00  0.0000000E+00  0.0000000E+00  0.0000000E+00  0.0000000E+00  0.0000000E+00
1362656.  0.0000000E+00  0.0000000E+00  0.0000000E+00  0.0000000E+00  0.0000000E+00  0.0000000E+00
1292078.  0.0000000E+00  0.0000000E+00  0.0000000E+00  0.0000000E+00  0.0000000E+00  0.0000000E+00
1221500.  0.0000000E+00  0.0000000E+00  0.0000000E+00  0.0000000E+00  0.0000000E+00  0.0000000E+00
1221500.  0.0000000E+00  0.0000000E+00  0.0000000E+00  0.0000000E+00  0.0000000E+00  0.0000000E+00
1183328.  0.0000000E+00  0.0000000E+00  0.0000000E+00  0.0000000E+00  0.0000000E+00  0.0000000E+00
1145156.  0.0000000E+00  0.0000000E+00  0.0000000E+00  0.0000000E+00  0.0000000E+00  0.0000000E+00
1106984.  0.0000000E+00  0.0000000E+00  0.0000000E+00  0.0000000E+00  0.0000000E+00  0.0000000E+00
1068812.  0.0000000E+00  0.0000000E+00  0.0000000E+00  0.0000000E+00  0.0000000E+00  0.0000000E+00
1030641.  0.0000000E+00  0.0000000E+00  0.0000000E+00  0.0000000E+00  0.0000000E+00  0.0000000E+00
 992469.  0.0000000E+00  0.0000000E+00  0.0000000E+00  0.0000000E+00  0.0000000E+00  0.0000000E+00
 954297.  0.0000000E+00  0.0000000E+00  0.0000000E+00  0.0000000E+00  0.0000000E+00  0.0000000E+00
 916125.  0.0000000E+00  0.0000000E+00  0.0000000E+00  0.0000000E+00  0.0000000E+00  0.0000000E+00
 877953.  0.0000000E+00  0.0000000E+00  0.0000000E+00  0.0000000E+00  0.0000000E+00  0.0000000E+00
 839781.  0.0000000E+00  0.0000000E+00  0.0000000E+00  0.0000000E+00  0.0000000E+00  0.0000000E+00
 801609.  0.0000000E+00  0.0000000E+00  0.0000000E+00  0.0000000E+00  0.0000000E+00  0.0000000E+00
 763438.  0.0000000E+00  0.0000000E+00  0.0000000E+00  0.0000000E+00  0.0000000E+00  0.0000000E+00
 725266.  0.0000000E+00  0.0000000E+00  0.0000000E+00  0.0000000E+00  0.0000000E+00  0.0000000E+00
 687094.  0.0000000E+00  0.0000000E+00  0.0000000E+00  0.0000000E+00  0.0000000E+00  0.0000000E+00
 648922.  0.0000000E+00  0.0000000E+00  0.0000000E+00  0.0000000E+00  0.0000000E+00  0.0000000E+00
 610750.  0.0000000E+00  0.0000000E+00  0.0000000E+00  0.0000000E+00  0.0000000E+00  0.0000000E+00
 572578.  0.0000000E+00  0.0000000E+00  0.0000000E+00  0.0000000E+00  0.0000000E+00  0.0000000E+00
 534406.  0.0000000E+00  0.0000000E+00  0.0000000E+00  0.0000000E+00  0.0000000E+00  0.0000000E+00
 496234.  0.0000000E+00  0.0000000E+00  0.0000000E+00  0.0000000E+00  0.0000000E+00  0.0000000E+00
 458062.  0.0000000E+00  0.0000000E+00  0.0000000E+00  0.0000000E+00  0.0000000E+00  0.0000000E+00
 419891.  0.0000000E+00  0.0000000E+00  0.0000000E+00  0.0000000E+00  0.0000000E+00  0.0000000E+00
 381719.  0.0000000E+00  0.0000000E+00  0.0000000E+00  0.0000000E+00  0.0000000E+00  0.0000000E+00
 343547.  0.0000000E+00  0.0000000E+00  0.0000000E+00  0.0000000E+00  0.0000000E+00  0.0000000E+00
 305375.  0.0000000E+00  0.0000000E+00  0.0000000E+00  0.0000000E+00  0.0000000E+00  0.0000000E+00
 267203.  0.0000000E+00  0.0000000E+00  0.0000000E+00  0.0000000E+00  0.0000000E+00  0.0000000E+00
 229031.  0.0000000E+00  0.0000000E+00  0.0000000E+00  0.0000000E+00  0.0000000E+00  0.0000000E+00
 190859.  0.0000000E+00  0.0000000E+00  0.0000000E+00  0.0000000E+00  0.0000000E+00  0.0000000E+00
 152688.  0.0000000E+00  0.0000000E+00  0.0000000E+00  0.0000000E+00  0.0000000E+00  0.0000000E+00
 114516.  0.0000000E+00  0.0000000E+00  0.0000000E+00  0.0000000E+00  0.0000000E+00  0.0000000E+00
  76344.  0.0000000E+00  0.0000000E+00  0.0000000E+00  0.0000000E+00  0.0000000E+00  0.0000000E+00
  38172.  0.0000000E+00  0.0000000E+00  0.0000000E+00  0.0000000E+00  0.0000000E+00  0.0000000E+00
      0.  0.0000000E+00  0.0000000E+00  0.0000000E+00  0.0000000E+00  0.0000000E+00  0.0000000E+00
