       1       30 S      126        185.43089          7.07792          5.63624        156.10561      185    7
6371000.  0.1004789E+00  0.5797905E+00  0.1801658E-02 -0.9867727E-01 -0.4670667E-02 -0.4468908E-01
6370000.  0.1003858E+00  0.6073272E+00  0.1817098E-02 -0.9805436E-01 -0.4663684E-02 -0.4428462E-01
6369000.  0.1002883E+00  0.6347909E+00  0.1832439E-02 -0.9741797E-01 -0.4656765E-02 -0.4387706E-01
6368000.  0.1001865E+00  0.6621792E+00  0.1847679E-02 -0.9676810E-01 -0.4649910E-02 -0.4346638E-01
6368000.  0.1001865E+00  0.6621792E+00  0.1847679E-02 -0.9676810E-01 -0.4649910E-02 -0.4346638E-01
6367000.  0.1000804E+00  0.6894902E+00  0.1862816E-02 -0.9610481E-01 -0.4643120E-02 -0.4305258E-01
6366000.  0.9997004E-01  0.7167215E+00  0.1877848E-02 -0.9542817E-01 -0.4636395E-02 -0.4263565E-01
6365000.  0.9985542E-01  0.7438712E+00  0.1892772E-02 -0.9473822E-01 -0.4629736E-02 -0.4221556E-01
6364000.  0.9973653E-01  0.7709370E+00  0.1907588E-02 -0.9403500E-01 -0.4623143E-02 -0.4179233E-01
6363000.  0.9961341E-01  0.7979169E+00  0.1922291E-02 -0.9331858E-01 -0.4616617E-02 -0.4136591E-01
6362000.  0.9948605E-01  0.8248088E+00  0.1936882E-02 -0.9258903E-01 -0.4610158E-02 -0.4093632E-01
6361000.  0.9935448E-01  0.8516104E+00  0.1951357E-02 -0.9184637E-01 -0.4603766E-02 -0.4050353E-01
6360000.  0.9921872E-01  0.8783198E+00  0.1965714E-02 -0.9109069E-01 -0.4597443E-02 -0.4006754E-01
6359000.  0.9907877E-01  0.9049348E+00  0.1979951E-02 -0.9032203E-01 -0.4591188E-02 -0.3962833E-01
6358000.  0.9893464E-01  0.9314534E+00  0.1994067E-02 -0.8954046E-01 -0.4585003E-02 -0.3918589E-01
6357000.  0.9878637E-01  0.9578734E+00  0.2008059E-02 -0.8874604E-01 -0.4578887E-02 -0.3874020E-01
6356000.  0.9863395E-01  0.9841928E+00  0.2021926E-02 -0.8793882E-01 -0.4572841E-02 -0.3829126E-01
6356000.  0.9863395E-01  0.7899370E+00  0.2021926E-02 -0.9146730E-01 -0.4572841E-02 -0.5975287E-01
6355000.  0.9850838E-01  0.8100806E+00  0.2036256E-02 -0.9113138E-01 -0.4563490E-02 -0.5939668E-01
6354000.  0.9837965E-01  0.8301831E+00  0.2050534E-02 -0.9078862E-01 -0.4554195E-02 -0.5903948E-01
6353000.  0.9824777E-01  0.8502433E+00  0.2064757E-02 -0.9043904E-01 -0.4544957E-02 -0.5868125E-01
6352000.  0.9811274E-01  0.8702603E+00  0.2078924E-02 -0.9008266E-01 -0.4535774E-02 -0.5832198E-01
6351000.  0.9797458E-01  0.8902329E+00  0.2093035E-02 -0.8971950E-01 -0.4526648E-02 -0.5796168E-01
6350000.  0.9783328E-01  0.9101602E+00  0.2107089E-02 -0.8934956E-01 -0.4517579E-02 -0.5760032E-01
6349000.  0.9768886E-01  0.9300410E+00  0.2121084E-02 -0.8897287E-01 -0.4508566E-02 -0.5723791E-01
6348000.  0.9754132E-01  0.9498745E+00  0.2135019E-02 -0.8858946E-01 -0.4499611E-02 -0.5687443E-01
6347000.  0.9739067E-01  0.9696595E+00  0.2148894E-02 -0.8819932E-01 -0.4490712E-02 -0.5650989E-01
6346600.  0.9732955E-01  0.9775597E+00  0.2154426E-02 -0.8804139E-01 -0.4487169E-02 -0.5636377E-01
6346600.  0.9732955E-01  0.9433676E+00  0.2154426E-02 -0.9047771E-01 -0.4487169E-02 -0.9030116E-01
6318800.  0.9220737E-01  0.1402533E+01  0.2541423E-02 -0.8637701E-01 -0.4111168E-02 -0.8211836E-01
6291000.  0.8511537E-01  0.1843983E+01  0.2903753E-02 -0.7919288E-01 -0.3769872E-02 -0.7437991E-01
6291000.  0.8511537E-01  0.1891403E+01  0.2903753E-02 -0.7904013E-01 -0.3769872E-02 -0.7437991E-01
6263000.  0.7586579E-01  0.2310504E+01  0.3226617E-02 -0.6737293E-01 -0.3460626E-02 -0.6638508E-01
6235000.  0.6488170E-01  0.2678377E+01  0.3491698E-02 -0.5280603E-01 -0.3186109E-02 -0.5856099E-01
6207000.  0.5241824E-01  0.2981590E+01  0.3687128E-02 -0.3575342E-01 -0.2945761E-02 -0.5082149E-01
6179000.  0.3878638E-01  0.3208235E+01  0.3803051E-02 -0.1671445E-01 -0.2739388E-02 -0.4308750E-01
6151000.  0.2434529E-01  0.3348357E+01  0.3831970E-02  0.3739145E-02 -0.2567128E-02 -0.3528662E-01
6151000.  0.2434529E-01  0.2986008E+01  0.3831970E-02  0.6781931E-03 -0.2567128E-02 -0.3663354E-01
6128500.  0.1374619E-01  0.3010277E+01  0.3811524E-02  0.1086121E-01 -0.2442537E-02 -0.3395634E-01
6106000.  0.3127930E-02  0.2997018E+01  0.3755642E-02  0.2071760E-01 -0.2327047E-02 -0.3148077E-01
6083500. -0.7379079E-02  0.2947532E+01  0.3665769E-02  0.3008523E-01 -0.2219939E-02 -0.2920920E-01
6061000. -0.1764994E-01  0.2863615E+01  0.3543892E-02  0.3881948E-01 -0.2120492E-02 -0.2714297E-01
6038500. -0.2756692E-01  0.2747536E+01  0.3392474E-02  0.4679478E-01 -0.2027978E-02 -0.2528280E-01
6016000. -0.3702107E-01  0.2601968E+01  0.3214390E-02  0.5390532E-01 -0.1941669E-02 -0.2362910E-01
5993500. -0.4591343E-01  0.2429905E+01  0.3012849E-02  0.6006512E-01 -0.1860836E-02 -0.2218164E-01
5971000. -0.5415617E-01  0.2234634E+01  0.2791334E-02  0.6520820E-01 -0.1784749E-02 -0.2094163E-01
5971000. -0.5415617E-01  0.2113710E+01  0.2791334E-02  0.6471843E-01 -0.1784749E-02 -0.1385213E-01
5937667. -0.6435118E-01  0.1782216E+01  0.2446763E-02  0.6655510E-01 -0.1713102E-02 -0.1361413E-01
5904333. -0.7280511E-01  0.1450151E+01  0.2099133E-02  0.6595976E-01 -0.1641533E-02 -0.1381021E-01
5871000. -0.7954488E-01  0.1128727E+01  0.1759992E-02  0.6338977E-01 -0.1567944E-02 -0.1437793E-01
5837667. -0.8465037E-01  0.8267025E+00  0.1438487E-02  0.5929044E-01 -0.1490524E-02 -0.1526720E-01
5804333. -0.8824110E-01  0.5505726E+00  0.1141513E-02  0.5407438E-01 -0.1407683E-02 -0.1644538E-01
5771000. -0.9046493E-01  0.3048253E+00  0.8739467E-03  0.4810943E-01 -0.1317965E-02 -0.1789582E-01
5771000. -0.9046493E-01  0.3048801E+00  0.8739467E-03  0.4811115E-01 -0.1317965E-02 -0.1789582E-01
5701000. -0.9138645E-01 -0.1122795E+00  0.4424855E-03  0.3004644E-01 -0.1073673E-02 -0.2699225E-01
5701000. -0.9138645E-01 -0.6272783E-01  0.4424855E-03  0.4530221E-01 -0.1073673E-02 -0.1233702E-02
5667333. -0.9062985E-01 -0.2209898E+00  0.2081872E-03  0.4249757E-01 -0.1053758E-02 -0.5896733E-02
5633667. -0.8906626E-01 -0.3680953E+00  0.1772173E-05  0.3532400E-01 -0.1015367E-02 -0.8395987E-02
5600000. -0.8679079E-01 -0.4884815E+00 -0.1673973E-03  0.2891862E-01 -0.9662212E-03 -0.1010134E-01
5600000. -0.8679079E-01 -0.4884815E+00 -0.1673973E-03  0.2891862E-01 -0.9662212E-03 -0.1010134E-01
5563518. -0.8368403E-01 -0.5922266E+00 -0.3150631E-03  0.2279125E-01 -0.9048572E-03 -0.1122300E-01
5527037. -0.8005593E-01 -0.6711007E+00 -0.4299011E-03  0.1744399E-01 -0.8387707E-03 -0.1177797E-01
5490556. -0.7604049E-01 -0.7279804E+00 -0.5162127E-03  0.1281868E-01 -0.7707858E-03 -0.1190596E-01
5454074. -0.7175569E-01 -0.7656003E+00 -0.5779828E-03  0.8861351E-02 -0.7030306E-03 -0.1171446E-01
5417593. -0.6730426E-01 -0.7866486E+00 -0.6188424E-03  0.5505316E-02 -0.6370453E-03 -0.1130231E-01
5381111. -0.6277387E-01 -0.7935212E+00 -0.6420785E-03  0.2697094E-02 -0.5738883E-03 -0.1073528E-01
5344630. -0.5823939E-01 -0.7884908E+00 -0.6506714E-03  0.3809517E-03 -0.5142931E-03 -0.1006793E-01
5308148. -0.5376257E-01 -0.7736621E+00 -0.6472674E-03 -0.1501442E-02 -0.4586841E-03 -0.9348148E-02
5271667. -0.4939447E-01 -0.7508557E+00 -0.6342228E-03 -0.2994222E-02 -0.4072905E-03 -0.8600243E-02
5235185. -0.4517550E-01 -0.7218093E+00 -0.6136192E-03 -0.4150189E-02 -0.3601883E-03 -0.7853329E-02
5198704. -0.4113718E-01 -0.6880217E+00 -0.5872480E-03 -0.5015185E-02 -0.3173128E-03 -0.7125928E-02
5162222. -0.3730276E-01 -0.6507609E+00 -0.5566741E-03 -0.5624418E-02 -0.2785328E-03 -0.6424260E-02
5125741. -0.3368881E-01 -0.6112364E+00 -0.5232386E-03 -0.6021746E-02 -0.2436621E-03 -0.5762561E-02
5089259. -0.3030523E-01 -0.5704069E+00 -0.4880527E-03 -0.6240218E-02 -0.2124554E-03 -0.5144222E-02
5052778. -0.2715730E-01 -0.5290959E+00 -0.4520604E-03 -0.6308897E-02 -0.1846643E-03 -0.4570452E-02
5016296. -0.2424544E-01 -0.4880239E+00 -0.4160275E-03 -0.6258545E-02 -0.1600206E-03 -0.4044797E-02
4979815. -0.2156683E-01 -0.4477391E+00 -0.3805704E-03 -0.6111617E-02 -0.1382543E-03 -0.3565197E-02
4943333. -0.1911545E-01 -0.4087027E+00 -0.3461779E-03 -0.5890067E-02 -0.1191055E-03 -0.3130452E-02
4906852. -0.1688318E-01 -0.3712792E+00 -0.3132188E-03 -0.5613995E-02 -0.1023182E-03 -0.2739982E-02
4870370. -0.1485994E-01 -0.3357101E+00 -0.2819631E-03 -0.5297165E-02 -0.8765131E-04 -0.2389177E-02
4833889. -0.1303460E-01 -0.3022010E+00 -0.2526026E-03 -0.4954719E-02 -0.7488313E-04 -0.2076752E-02
4797407. -0.1139491E-01 -0.2708671E+00 -0.2252460E-03 -0.4598422E-02 -0.6379931E-04 -0.1800017E-02
4760926. -0.9928326E-02 -0.2417572E+00 -0.1999528E-03 -0.4235723E-02 -0.5420976E-04 -0.1554497E-02
4724444. -0.8621937E-02 -0.2149028E+00 -0.1767309E-03 -0.3876078E-02 -0.4593926E-04 -0.1338892E-02
4687963. -0.7462961E-02 -0.1902720E+00 -0.1555465E-03 -0.3524938E-02 -0.3882581E-04 -0.1149813E-02
4651482. -0.6438797E-02 -0.1678052E+00 -0.1363389E-03 -0.3186376E-02 -0.3272675E-04 -0.9842446E-03
4615000. -0.5537224E-02 -0.1474291E+00 -0.1190225E-03 -0.2864728E-02 -0.2751231E-04 -0.8403917E-03
4578518. -0.4746593E-02 -0.1290382E+00 -0.1034951E-03 -0.2561752E-02 -0.2306634E-04 -0.7153929E-03
4542037. -0.4055864E-02 -0.1125236E+00 -0.8964561E-04 -0.2279147E-02 -0.1928741E-04 -0.6071928E-03
4505556. -0.3454608E-02 -0.9776575E-01 -0.7735247E-04 -0.2018166E-02 -0.1608360E-04 -0.5141551E-03
4469074. -0.2933130E-02 -0.8463249E-01 -0.6649270E-04 -0.1778374E-02 -0.1337489E-04 -0.4339335E-03
4432593. -0.2482506E-02 -0.7300194E-01 -0.5694486E-04 -0.1560051E-02 -0.1109190E-04 -0.3652924E-03
4396111. -0.2094473E-02 -0.6274498E-01 -0.4858660E-04 -0.1362608E-02 -0.9172112E-05 -0.3067735E-03
4359630. -0.1761555E-02 -0.5373536E-01 -0.4130238E-04 -0.1184840E-02 -0.7562390E-05 -0.2568155E-03
4323148. -0.1476925E-02 -0.4585639E-01 -0.3498114E-04 -0.1026044E-02 -0.6216333E-05 -0.2145101E-03
4286667. -0.1234458E-02 -0.3899248E-01 -0.2951811E-04 -0.8848954E-03 -0.5093275E-05 -0.1787539E-03
4250185. -0.1028644E-02 -0.3303552E-01 -0.2481599E-04 -0.7600388E-03 -0.4158547E-05 -0.1485937E-03
4213704. -0.8545846E-03 -0.2788660E-01 -0.2078494E-04 -0.6503242E-03 -0.3382137E-05 -0.1233445E-03
4177222. -0.7079195E-03 -0.2345093E-01 -0.1734221E-04 -0.5542854E-03 -0.2738090E-05 -0.1022385E-03
4140741. -0.5848188E-03 -0.1964390E-01 -0.1441335E-04 -0.4706779E-03 -0.2204468E-05 -0.8470438E-04
4104259. -0.4819025E-03 -0.1638733E-01 -0.1193038E-04 -0.3983079E-03 -0.1762058E-05 -0.7028944E-04
4067778. -0.3962337E-03 -0.1360950E-01 -0.9832882E-05 -0.3358694E-03 -0.1394571E-05 -0.5847056E-04
4031296. -0.3252505E-03 -0.1124721E-01 -0.8066922E-05 -0.2823235E-03 -0.1088039E-05 -0.4895211E-04
3994815. -0.2667446E-03 -0.9242916E-02 -0.6584627E-05 -0.2366287E-03 -0.8301290E-06 -0.4143796E-04
3958333. -0.2188144E-03 -0.7544898E-02 -0.5343982E-05 -0.1977550E-03 -0.6102046E-06 -0.3564928E-04
3921852. -0.1798396E-03 -0.6108338E-02 -0.4308445E-05 -0.1648617E-03 -0.4188314E-06 -0.3144511E-04
3885370. -0.1484387E-03 -0.4892849E-02 -0.3446156E-05 -0.1370949E-03 -0.2473431E-06 -0.2868134E-04
3848889. -0.1234503E-03 -0.3863531E-02 -0.2730121E-05 -0.1136630E-03 -0.8777769E-07 -0.2727592E-04
3812407. -0.1038949E-03 -0.2990378E-02 -0.2137559E-05 -0.9383844E-04  0.6760047E-07 -0.2721651E-04
3775926. -0.8895443E-04 -0.2247975E-02 -0.1650036E-05 -0.7685227E-04  0.2264903E-06 -0.2851024E-04
3739444. -0.7793988E-04 -0.1616130E-02 -0.1253486E-05 -0.6192592E-04  0.3968354E-06 -0.3123359E-04
3702963. -0.7026328E-04 -0.1080260E-02 -0.9385579E-06 -0.4818561E-04  0.5871465E-06 -0.3550660E-04
3666482. -0.6540091E-04 -0.6325779E-03 -0.7014479E-06 -0.3454703E-04  0.8066822E-06 -0.4146892E-04
3630000. -0.6284873E-04 -0.2744627E-03 -0.5452835E-06 -0.1964978E-04  0.1065649E-05 -0.4930778E-04
3630000. -0.6284873E-04 -0.2744627E-03 -0.5452835E-06 -0.1964978E-04  0.1065649E-05 -0.4930778E-04
3592500. -0.6205843E-04 -0.1453445E-04 -0.4821400E-06 -0.1045133E-05  0.1384753E-05 -0.5949186E-04
3555000. -0.6239497E-04  0.1003135E-03 -0.5450509E-06  0.2375415E-04  0.1770466E-05 -0.7195207E-04
3517500. -0.6282733E-04  0.3600054E-05 -0.7820478E-06  0.5895328E-04  0.2236189E-05 -0.8664743E-04
3480000. -0.6180321E-04 -0.4187410E-03 -0.1271554E-05  0.1108182E-03  0.2794105E-05 -0.1031657E-03
3480000. -0.6180321E-04 -0.2864493E-02 -0.2309425E-05 -0.1088798E-03  0.2794105E-05  0.9503620E-04
3409422. -0.3668417E-04 -0.1754373E-02 -0.1359275E-05 -0.6599437E-04  0.1865360E-05  0.7221719E-04
3338844. -0.2141976E-04 -0.1056306E-02 -0.7875803E-06 -0.3936353E-04  0.1189354E-05  0.5044098E-04
3268266. -0.1230060E-04 -0.6252131E-03 -0.4490939E-06 -0.2310100E-04  0.7304905E-06  0.3324983E-04
3197688. -0.6945293E-05 -0.3637248E-03 -0.2519298E-06 -0.1333533E-04  0.4344228E-06  0.2096547E-04
3127109. -0.3854339E-05 -0.2079309E-03 -0.1389754E-06 -0.7569509E-05  0.2509592E-06  0.1274222E-04
3056531. -0.2101491E-05 -0.1167712E-03 -0.7535506E-07 -0.4223366E-05  0.1411173E-06  0.7499343E-05
2985953. -0.1125138E-05 -0.6439401E-04 -0.4013887E-07 -0.2315108E-05  0.7733772E-07  0.4286354E-05
2915375. -0.5912075E-06 -0.3485312E-04 -0.2099105E-07 -0.1246157E-05  0.4133826E-07  0.2383521E-05
2844797. -0.3046870E-06 -0.1850472E-04 -0.1077031E-07 -0.6582649E-06  0.2155794E-07  0.1290865E-05
2774219. -0.1539000E-06 -0.9631442E-05 -0.5417822E-08 -0.3410047E-06  0.1096903E-07  0.6812668E-06
2703641. -0.7612894E-07 -0.4910823E-05 -0.2669733E-08 -0.1731098E-06  0.5444261E-08  0.3504333E-06
2633062. -0.3684701E-07 -0.2450845E-05 -0.1287544E-08 -0.8604292E-07  0.2634681E-08  0.1756656E-06
2562484. -0.1743346E-07 -0.1196170E-05 -0.6071362E-09 -0.4183561E-07  0.1242442E-08  0.8578427E-07
2491906. -0.8054249E-08 -0.5703540E-06 -0.2796163E-09 -0.1987757E-07  0.5704721E-09  0.4078574E-07
2421328. -0.3629235E-08 -0.2653922E-06 -0.1256239E-09 -0.9218783E-08  0.2547919E-09  0.1886451E-07
2350750. -0.1592909E-08 -0.1203616E-06 -0.5498506E-10 -0.4168087E-08  0.1105703E-09  0.8479986E-08
2280172. -0.6800444E-09 -0.5313063E-07 -0.2341234E-10 -0.1834681E-08  0.4656053E-10  0.3700521E-08
2209594. -0.2819762E-09 -0.2279060E-07 -0.9681411E-11 -0.7851112E-09  0.1899381E-10  0.1565780E-08
2139016. -0.1134409E-09 -0.9476566E-08 -0.3878461E-11 -0.3263252E-09  0.7485398E-11  0.6421302E-09
2068438.  0.0000000E+00  0.0000000E+00  0.0000000E+00  0.0000000E+00  0.0000000E+00  0.0000000E+00
1997859.  0.0000000E+00  0.0000000E+00  0.0000000E+00  0.0000000E+00  0.0000000E+00  0.0000000E+00
1927281.  0.0000000E+00  0.0000000E+00  0.0000000E+00  0.0000000E+00  0.0000000E+00  0.0000000E+00
1856703.  0.0000000E+00  0.0000000E+00  0.0000000E+00  0.0000000E+00  0.0000000E+00  0.0000000E+00
1786125.  0.0000000E+00  0.0000000E+00  0.0000000E+00  0.0000000E+00  0.0000000E+00  0.0000000E+00
1715547.  0.0000000E+00  0.0000000E+00  0.0000000E+00  0.0000000E+00  0.0000000E+00  0.0000000E+00
1644969.  0.0000000E+00  0.0000000E+00  0.0000000E+00  0.0000000E+00  0.0000000E+00  0.0000000E+00
1574391.  0.0000000E+00  0.0000000E+00  0.0000000E+00  0.0000000E+00  0.0000000E+00  0.0000000E+00
1503812.  0.0000000E+00  0.0000000E+00  0.0000000E+00  0.0000000E+00  0.0000000E+00  0.0000000E+00
1433234.  0.0000000E+00  0.0000000E+00  0.0000000E+00  0.0000000E+00  0.0000000E+00  0.0000000E+00
1362656.  0.0000000E+00  0.0000000E+00  0.0000000E+00  0.0000000E+00  0.0000000E+00  0.0000000E+00
1292078.  0.0000000E+00  0.0000000E+00  0.0000000E+00  0.0000000E+00  0.0000000E+00  0.0000000E+00
1221500.  0.0000000E+00  0.0000000E+00  0.0000000E+00  0.0000000E+00  0.0000000E+00  0.0000000E+00
1221500.  0.0000000E+00  0.0000000E+00  0.0000000E+00  0.0000000E+00  0.0000000E+00  0.0000000E+00
1183328.  0.0000000E+00  0.0000000E+00  0.0000000E+00  0.0000000E+00  0.0000000E+00  0.0000000E+00
1145156.  0.0000000E+00  0.0000000E+00  0.0000000E+00  0.0000000E+00  0.0000000E+00  0.0000000E+00
1106984.  0.0000000E+00  0.0000000E+00  0.0000000E+00  0.0000000E+00  0.0000000E+00  0.0000000E+00
1068812.  0.0000000E+00  0.0000000E+00  0.0000000E+00  0.0000000E+00  0.0000000E+00  0.0000000E+00
1030641.  0.0000000E+00  0.0000000E+00  0.0000000E+00  0.0000000E+00  0.0000000E+00  0.0000000E+00
 992469.  0.0000000E+00  0.0000000E+00  0.0000000E+00  0.0000000E+00  0.0000000E+00  0.0000000E+00
 954297.  0.0000000E+00  0.0000000E+00  0.0000000E+00  0.0000000E+00  0.0000000E+00  0.0000000E+00
 916125.  0.0000000E+00  0.0000000E+00  0.0000000E+00  0.0000000E+00  0.0000000E+00  0.0000000E+00
 877953.  0.0000000E+00  0.0000000E+00  0.0000000E+00  0.0000000E+00  0.0000000E+00  0.0000000E+00
 839781.  0.0000000E+00  0.0000000E+00  0.0000000E+00  0.0000000E+00  0.0000000E+00  0.0000000E+00
 801609.  0.0000000E+00  0.0000000E+00  0.0000000E+00  0.0000000E+00  0.0000000E+00  0.0000000E+00
 763438.  0.0000000E+00  0.0000000E+00  0.0000000E+00  0.0000000E+00  0.0000000E+00  0.0000000E+00
 725266.  0.0000000E+00  0.0000000E+00  0.0000000E+00  0.0000000E+00  0.0000000E+00  0.0000000E+00
 687094.  0.0000000E+00  0.0000000E+00  0.0000000E+00  0.0000000E+00  0.0000000E+00  0.0000000E+00
 648922.  0.0000000E+00  0.0000000E+00  0.0000000E+00  0.0000000E+00  0.0000000E+00  0.0000000E+00
 610750.  0.0000000E+00  0.0000000E+00  0.0000000E+00  0.0000000E+00  0.0000000E+00  0.0000000E+00
 572578.  0.0000000E+00  0.0000000E+00  0.0000000E+00  0.0000000E+00  0.0000000E+00  0.0000000E+00
 534406.  0.0000000E+00  0.0000000E+00  0.0000000E+00  0.0000000E+00  0.0000000E+00  0.0000000E+00
 496234.  0.0000000E+00  0.0000000E+00  0.0000000E+00  0.0000000E+00  0.0000000E+00  0.0000000E+00
 458062.  0.0000000E+00  0.0000000E+00  0.0000000E+00  0.0000000E+00  0.0000000E+00  0.0000000E+00
 419891.  0.0000000E+00  0.0000000E+00  0.0000000E+00  0.0000000E+00  0.0000000E+00  0.0000000E+00
 381719.  0.0000000E+00  0.0000000E+00  0.0000000E+00  0.0000000E+00  0.0000000E+00  0.0000000E+00
 343547.  0.0000000E+00  0.0000000E+00  0.0000000E+00  0.0000000E+00  0.0000000E+00  0.0000000E+00
 305375.  0.0000000E+00  0.0000000E+00  0.0000000E+00  0.0000000E+00  0.0000000E+00  0.0000000E+00
 267203.  0.0000000E+00  0.0000000E+00  0.0000000E+00  0.0000000E+00  0.0000000E+00  0.0000000E+00
 229031.  0.0000000E+00  0.0000000E+00  0.0000000E+00  0.0000000E+00  0.0000000E+00  0.0000000E+00
 190859.  0.0000000E+00  0.0000000E+00  0.0000000E+00  0.0000000E+00  0.0000000E+00  0.0000000E+00
 152688.  0.0000000E+00  0.0000000E+00  0.0000000E+00  0.0000000E+00  0.0000000E+00  0.0000000E+00
 114516.  0.0000000E+00  0.0000000E+00  0.0000000E+00  0.0000000E+00  0.0000000E+00  0.0000000E+00
  76344.  0.0000000E+00  0.0000000E+00  0.0000000E+00  0.0000000E+00  0.0000000E+00  0.0000000E+00
  38172.  0.0000000E+00  0.0000000E+00  0.0000000E+00  0.0000000E+00  0.0000000E+00  0.0000000E+00
      0.  0.0000000E+00  0.0000000E+00  0.0000000E+00  0.0000000E+00  0.0000000E+00  0.0000000E+00
