      17       16 S      661         97.09284         24.98713         20.37483         85.31348      185    7
6371000.  0.1258050E-04  0.2119659E-03  0.2075712E-05 -0.1050479E-04  0.0000000E+00  0.0000000E+00
6370000.  0.1254643E-04  0.2220468E-03  0.2076951E-05 -0.5283792E-05  0.0000000E+00  0.0000000E+00
6369000.  0.1251080E-04  0.2319482E-03  0.2077371E-05 -0.5558422E-07  0.0000000E+00  0.0000000E+00
6368000.  0.1247363E-04  0.2416686E-03  0.2076969E-05  0.5177742E-05  0.0000000E+00  0.0000000E+00
6368000.  0.1247363E-04  0.2416686E-03  0.2076969E-05  0.5177742E-05  0.0000000E+00  0.0000000E+00
6367000.  0.1243495E-04  0.2512065E-03  0.2075745E-05  0.1041409E-04  0.0000000E+00  0.0000000E+00
6366000.  0.1239478E-04  0.2605607E-03  0.2073699E-05  0.1565136E-04  0.0000000E+00  0.0000000E+00
6365000.  0.1235316E-04  0.2697299E-03  0.2070832E-05  0.2088744E-04  0.0000000E+00  0.0000000E+00
6364000.  0.1231012E-04  0.2787131E-03  0.2067143E-05  0.2612025E-04  0.0000000E+00  0.0000000E+00
6363000.  0.1226568E-04  0.2875090E-03  0.2062632E-05  0.3134767E-04  0.0000000E+00  0.0000000E+00
6362000.  0.1221987E-04  0.2961167E-03  0.2057302E-05  0.3656761E-04  0.0000000E+00  0.0000000E+00
6361000.  0.1217273E-04  0.3045355E-03  0.2051153E-05  0.4177796E-04  0.0000000E+00  0.0000000E+00
6360000.  0.1212428E-04  0.3127644E-03  0.2044188E-05  0.4697663E-04  0.0000000E+00  0.0000000E+00
6359000.  0.1207456E-04  0.3208027E-03  0.2036407E-05  0.5216154E-04  0.0000000E+00  0.0000000E+00
6358000.  0.1202358E-04  0.3286498E-03  0.2027814E-05  0.5733059E-04  0.0000000E+00  0.0000000E+00
6357000.  0.1197139E-04  0.3363052E-03  0.2018411E-05  0.6248169E-04  0.0000000E+00  0.0000000E+00
6356000.  0.1191802E-04  0.3437683E-03  0.2008200E-05  0.6761278E-04  0.0000000E+00  0.0000000E+00
6356000.  0.1191802E-04  0.2701118E-03  0.2008200E-05  0.3687321E-04  0.0000000E+00  0.0000000E+00
6355000.  0.1187517E-04  0.2758011E-03  0.2002148E-05  0.4024939E-04  0.0000000E+00  0.0000000E+00
6354000.  0.1183145E-04  0.2813705E-03  0.1995566E-05  0.4361806E-04  0.0000000E+00  0.0000000E+00
6353000.  0.1178685E-04  0.2868197E-03  0.1988456E-05  0.4697831E-04  0.0000000E+00  0.0000000E+00
6352000.  0.1174141E-04  0.2921484E-03  0.1980819E-05  0.5032925E-04  0.0000000E+00  0.0000000E+00
6351000.  0.1169515E-04  0.2973564E-03  0.1972656E-05  0.5366997E-04  0.0000000E+00  0.0000000E+00
6350000.  0.1164807E-04  0.3024434E-03  0.1963971E-05  0.5699958E-04  0.0000000E+00  0.0000000E+00
6349000.  0.1160021E-04  0.3074093E-03  0.1954764E-05  0.6031719E-04  0.0000000E+00  0.0000000E+00
6348000.  0.1155158E-04  0.3122539E-03  0.1945037E-05  0.6362189E-04  0.0000000E+00  0.0000000E+00
6347000.  0.1150219E-04  0.3169771E-03  0.1934792E-05  0.6691282E-04  0.0000000E+00  0.0000000E+00
6346600.  0.1148223E-04  0.3188323E-03  0.1930550E-05  0.6822513E-04  0.0000000E+00  0.0000000E+00
6346600.  0.1148223E-04  0.2910752E-03  0.1930550E-05  0.4294674E-04  0.0000000E+00  0.0000000E+00
6318800.  0.1004999E-04  0.3537519E-03  0.1596551E-05  0.1083677E-03  0.0000000E+00  0.0000000E+00
6291000.  0.8491586E-05  0.3504383E-03  0.1007511E-05  0.1582703E-03  0.0000000E+00  0.0000000E+00
6291000.  0.8491586E-05  0.3567834E-03  0.1007511E-05  0.1637018E-03  0.0000000E+00  0.0000000E+00
6263000.  0.7040588E-05  0.2964504E-03  0.2182380E-06  0.1906948E-03  0.0000000E+00  0.0000000E+00
6235000.  0.5927152E-05  0.2080841E-03 -0.6243098E-06  0.1875791E-03  0.0000000E+00  0.0000000E+00
6207000.  0.5207405E-05  0.1225178E-03 -0.1386691E-05  0.1546904E-03  0.0000000E+00  0.0000000E+00
6179000.  0.4802364E-05  0.6939233E-04 -0.1947831E-05  0.9724084E-04  0.0000000E+00  0.0000000E+00
6151000.  0.4516216E-05  0.7132442E-04 -0.2218824E-05  0.2445069E-04  0.0000000E+00  0.0000000E+00
6151000.  0.4516216E-05  0.7178936E-05 -0.2218824E-05  0.2066737E-04  0.0000000E+00  0.0000000E+00
6128500.  0.4441459E-05  0.4142433E-04 -0.2194538E-05 -0.3415286E-04  0.0000000E+00  0.0000000E+00
6106000.  0.4180789E-05  0.1118519E-03 -0.1982426E-05 -0.8488545E-04  0.0000000E+00  0.0000000E+00
6083500.  0.3615466E-05  0.2126471E-03 -0.1605177E-05 -0.1269796E-03  0.0000000E+00  0.0000000E+00
6061000.  0.2654223E-05  0.3342033E-03 -0.1100025E-05 -0.1568078E-03  0.0000000E+00  0.0000000E+00
6038500.  0.1244995E-05  0.4641160E-03 -0.5149228E-06 -0.1719711E-03  0.0000000E+00  0.0000000E+00
6016000. -0.6173354E-06  0.5884241E-03  0.9616068E-07 -0.1714768E-03  0.0000000E+00  0.0000000E+00
5993500. -0.2887859E-05  0.6929928E-03  0.6783109E-06 -0.1557797E-03  0.0000000E+00  0.0000000E+00
5971000. -0.5473496E-05  0.7648980E-03  0.1180667E-05 -0.1266950E-03  0.0000000E+00  0.0000000E+00
5971000. -0.5473496E-05  0.7032162E-03  0.1180667E-05 -0.1119552E-03  0.0000000E+00  0.0000000E+00
5937667. -0.9194805E-05  0.7037707E-03  0.1620218E-05 -0.5451107E-04  0.0000000E+00  0.0000000E+00
5904333. -0.1267436E-04  0.6110741E-03  0.1745101E-05  0.6401396E-05  0.0000000E+00  0.0000000E+00
5871000. -0.1544258E-04  0.4346984E-03  0.1565864E-05  0.6017002E-04  0.0000000E+00  0.0000000E+00
5837667. -0.1711588E-04  0.1971079E-03  0.1141808E-05  0.9896432E-04  0.0000000E+00  0.0000000E+00
5804333. -0.1745142E-04 -0.7121674E-04  0.5641208E-06  0.1184783E-03  0.0000000E+00  0.0000000E+00
5771000. -0.1637504E-04 -0.3371396E-03 -0.6285610E-07  0.1179650E-03  0.0000000E+00  0.0000000E+00
5771000. -0.1637504E-04 -0.3371433E-03 -0.6285610E-07  0.1179617E-03  0.0000000E+00  0.0000000E+00
5701000. -0.9907342E-05 -0.8026676E-03 -0.1145625E-05  0.6795459E-04  0.0000000E+00  0.0000000E+00
5701000. -0.9907342E-05 -0.6789777E-03 -0.1145625E-05  0.5580228E-04  0.0000000E+00  0.0000000E+00
5667333. -0.6162119E-05 -0.7349919E-03 -0.1344117E-05  0.2015472E-04  0.0000000E+00  0.0000000E+00
5633667. -0.2169903E-05 -0.7690213E-03 -0.1361890E-05 -0.1348873E-04  0.0000000E+00  0.0000000E+00
5600000.  0.1844604E-05 -0.7391506E-03 -0.1203957E-05 -0.4568177E-04  0.0000000E+00  0.0000000E+00
5600000.  0.1844604E-05 -0.7391506E-03 -0.1203957E-05 -0.4568177E-04  0.0000000E+00  0.0000000E+00
5563518.  0.5823435E-05 -0.6397875E-03 -0.8554669E-06 -0.7469462E-04  0.0000000E+00  0.0000000E+00
5527037.  0.9063176E-05 -0.4838152E-03 -0.3671044E-06 -0.9402082E-04  0.0000000E+00  0.0000000E+00
5490556.  0.1129278E-04 -0.2905807E-03  0.1981223E-06 -0.1012673E-03  0.0000000E+00  0.0000000E+00
5454074.  0.1236385E-04 -0.8317579E-04  0.7678867E-06 -0.9559865E-04  0.0000000E+00  0.0000000E+00
5417593.  0.1226440E-04  0.1143301E-03  0.1269726E-05 -0.7780850E-04  0.0000000E+00  0.0000000E+00
5381111.  0.1111576E-04  0.2799004E-03  0.1640039E-05 -0.5013651E-04  0.0000000E+00  0.0000000E+00
5344630.  0.9153887E-05  0.3959494E-03  0.1831477E-05 -0.1597386E-04  0.0000000E+00  0.0000000E+00
5308148.  0.6697489E-05  0.4513592E-03  0.1818375E-05  0.2059138E-04  0.0000000E+00  0.0000000E+00
5271667.  0.4107928E-05  0.4425446E-03  0.1599284E-05  0.5526983E-04  0.0000000E+00  0.0000000E+00
5235185.  0.1744338E-05  0.3737404E-03  0.1196634E-05  0.8408967E-04  0.0000000E+00  0.0000000E+00
5198704. -0.7897709E-07  0.2562632E-03  0.6536476E-06  0.1038367E-03  0.0000000E+00  0.0000000E+00
5162222. -0.1129551E-05  0.1070125E-03  0.2891499E-07  0.1123885E-03  0.0000000E+00  0.0000000E+00
5125741. -0.1282889E-05 -0.5354159E-04 -0.6105013E-06  0.1089530E-03  0.0000000E+00  0.0000000E+00
5089259. -0.5359192E-06 -0.2039015E-03 -0.1196938E-05  0.9407834E-04  0.0000000E+00  0.0000000E+00
5052778.  0.9941516E-06 -0.3239683E-03 -0.1669459E-05  0.6956525E-04  0.0000000E+00  0.0000000E+00
5016296.  0.3084817E-05 -0.3973736E-03 -0.1980566E-05  0.3823357E-04  0.0000000E+00  0.0000000E+00
4979815.  0.5434769E-05 -0.4132837E-03 -0.2100943E-05  0.3566312E-05  0.0000000E+00  0.0000000E+00
4943333.  0.7699769E-05 -0.3675878E-03 -0.2022215E-05 -0.3068219E-04  0.0000000E+00  0.0000000E+00
4906852.  0.9532187E-05 -0.2633019E-03 -0.1757286E-05 -0.6090216E-04  0.0000000E+00  0.0000000E+00
4870370.  0.1062160E-04 -0.1102071E-03 -0.1338368E-05 -0.8401042E-04  0.0000000E+00  0.0000000E+00
4833889.  0.1073034E-04  0.7626021E-04 -0.8130909E-06 -0.9776519E-04  0.0000000E+00  0.0000000E+00
4797407.  0.9721364E-05  0.2767195E-03 -0.2389248E-06 -0.1009745E-03  0.0000000E+00  0.0000000E+00
4760926.  0.7575320E-05  0.4698409E-03  0.3229826E-06 -0.9357544E-04  0.0000000E+00  0.0000000E+00
4724444.  0.4394516E-05  0.6347877E-03  0.8144564E-06 -0.7663180E-04  0.0000000E+00  0.0000000E+00
4687963.  0.3946302E-06  0.7532230E-03  0.1186184E-05 -0.5215984E-04  0.0000000E+00  0.0000000E+00
4651482. -0.4115882E-05  0.8112973E-03  0.1402641E-05 -0.2290299E-04  0.0000000E+00  0.0000000E+00
4615000. -0.8765900E-05  0.8011297E-03  0.1445386E-05  0.7969239E-05  0.0000000E+00  0.0000000E+00
4578518. -0.1315765E-04  0.7214613E-03  0.1314518E-05  0.3720257E-04  0.0000000E+00  0.0000000E+00
4542037. -0.1690597E-04  0.5779293E-03  0.1028248E-05  0.6178371E-04  0.0000000E+00  0.0000000E+00
4505556. -0.1967668E-04  0.3824469E-03  0.6206016E-06  0.7924223E-04  0.0000000E+00  0.0000000E+00
4469074. -0.2121884E-04  0.1519867E-03  0.1376557E-06  0.8786790E-04  0.0000000E+00  0.0000000E+00
4432593. -0.2138958E-04 -0.9294895E-04 -0.3672655E-06  0.8687138E-04  0.0000000E+00  0.0000000E+00
4396111. -0.2016860E-04 -0.3304272E-03 -0.8391283E-06  0.7642376E-04  0.0000000E+00  0.0000000E+00
4359630. -0.1766070E-04 -0.5390557E-03 -0.1226484E-05  0.5761279E-04  0.0000000E+00  0.0000000E+00
4323148. -0.1408624E-04 -0.7001116E-03 -0.1486521E-05  0.3232042E-04  0.0000000E+00  0.0000000E+00
4286667. -0.9761571E-05 -0.7991544E-03 -0.1588943E-05  0.3010732E-05  0.0000000E+00  0.0000000E+00
4250185. -0.5069653E-05 -0.8274006E-03 -0.1518672E-05 -0.2751585E-04  0.0000000E+00  0.0000000E+00
4213704. -0.4259163E-06 -0.7825310E-03 -0.1276982E-05 -0.5639523E-04  0.0000000E+00  0.0000000E+00
4177222.  0.3760131E-05 -0.6687334E-03 -0.8810638E-06 -0.8096646E-04  0.0000000E+00  0.0000000E+00
4140741.  0.7120608E-05 -0.4964246E-03 -0.3622221E-06 -0.9901324E-04  0.0000000E+00  0.0000000E+00
4104259.  0.9363132E-05 -0.2811821E-03  0.2373624E-06 -0.1089582E-03  0.0000000E+00  0.0000000E+00
4067778.  0.1029555E-04 -0.4229910E-04  0.8684954E-06 -0.1099676E-03  0.0000000E+00  0.0000000E+00
4031296.  0.9843202E-05  0.1988578E-03  0.1479634E-05 -0.1020351E-03  0.0000000E+00  0.0000000E+00
3994815.  0.8054970E-05  0.4208198E-03  0.2021404E-05 -0.8593348E-04  0.0000000E+00  0.0000000E+00
3958333.  0.5098332E-05  0.6038775E-03  0.2450933E-05 -0.6312367E-04  0.0000000E+00  0.0000000E+00
3921852.  0.1244962E-05  0.7317088E-03  0.2735357E-05 -0.3562791E-04  0.0000000E+00  0.0000000E+00
3885370. -0.3153672E-05  0.7928234E-03  0.2854513E-05 -0.5810648E-05  0.0000000E+00  0.0000000E+00
3848889. -0.7695852E-05  0.7814353E-03  0.2802278E-05  0.2381515E-04  0.0000000E+00  0.0000000E+00
3812407. -0.1196482E-04  0.6979365E-03  0.2586799E-05  0.5081627E-04  0.0000000E+00  0.0000000E+00
3775926. -0.1556316E-04  0.5488028E-03  0.2229477E-05  0.7303232E-04  0.0000000E+00  0.0000000E+00
3739444. -0.1814706E-04  0.3459881E-03  0.1762841E-05  0.8875283E-04  0.0000000E+00  0.0000000E+00
3702963. -0.1945420E-04  0.1059211E-03  0.1227660E-05  0.9683927E-04  0.0000000E+00  0.0000000E+00
3666482. -0.1932621E-04 -0.1518340E-03  0.6693952E-06  0.9678774E-04  0.0000000E+00  0.0000000E+00
3630000. -0.1772163E-04 -0.4062722E-03  0.1344697E-06  0.8876290E-04  0.0000000E+00  0.0000000E+00
3630000. -0.1772163E-04 -0.4062722E-03  0.1344697E-06  0.8876290E-04  0.0000000E+00  0.0000000E+00
3592500. -0.1461766E-04 -0.6423314E-03 -0.3450945E-06  0.7302228E-04  0.0000000E+00  0.0000000E+00
3555000. -0.1025125E-04 -0.8320530E-03 -0.7130139E-06  0.5110863E-04  0.0000000E+00  0.0000000E+00
3517500. -0.4947280E-05 -0.9584388E-03 -0.9383103E-06  0.2490185E-04  0.0000000E+00  0.0000000E+00
3480000.  0.8831472E-06 -0.1009328E-02 -0.1001936E-05 -0.3451110E-05  0.0000000E+00  0.0000000E+00
3480000.  0.8831472E-06 -0.8627235E-03  0.9255338E-06 -0.9407328E-07  0.0000000E+00  0.0000000E+00
3409422.  0.9862974E-05 -0.7334200E-03  0.8311258E-06  0.1686734E-04  0.0000000E+00  0.0000000E+00
3338844.  0.1668748E-04 -0.4839444E-03  0.5632652E-06  0.3076309E-04  0.0000000E+00  0.0000000E+00
3268266.  0.2038298E-04 -0.1795653E-03  0.1690977E-06  0.3940333E-04  0.0000000E+00  0.0000000E+00
3197688.  0.2069444E-04  0.1175971E-03 -0.2865642E-06  0.4180255E-04  0.0000000E+00  0.0000000E+00
3127109.  0.1798282E-04  0.3598298E-03 -0.7345654E-06  0.3813358E-04  0.0000000E+00  0.0000000E+00
3056531.  0.1303019E-04  0.5192935E-03 -0.1112978E-05  0.2947808E-04  0.0000000E+00  0.0000000E+00
2985953.  0.6813354E-05  0.5883267E-03 -0.1375275E-05  0.1746828E-04  0.0000000E+00  0.0000000E+00
2915375.  0.2971977E-06  0.5759549E-03 -0.1494310E-05  0.3910613E-05  0.0000000E+00  0.0000000E+00
2844797. -0.5721026E-05  0.5024225E-03 -0.1462357E-05 -0.9541872E-05  0.0000000E+00  0.0000000E+00
2774219. -0.1070307E-04  0.3933049E-03 -0.1288020E-05 -0.2162555E-04  0.0000000E+00  0.0000000E+00
2703641. -0.1439965E-04  0.2744760E-03 -0.9910825E-06 -0.3159934E-04  0.0000000E+00  0.0000000E+00
2633062. -0.1683296E-04  0.1686318E-03 -0.5964058E-06 -0.3928754E-04  0.0000000E+00  0.0000000E+00
2562484. -0.1825058E-04  0.9368753E-04 -0.1277635E-06 -0.4505824E-04  0.0000000E+00  0.0000000E+00
2491906. -0.1907260E-04  0.6303775E-04  0.3979720E-06 -0.4977944E-04  0.0000000E+00  0.0000000E+00
2421328. -0.1985088E-04  0.8756341E-04  0.9761900E-06 -0.5479952E-04  0.0000000E+00  0.0000000E+00
2350750. -0.2126026E-04  0.1793659E-03  0.1620110E-05 -0.6201011E-04  0.0000000E+00  0.0000000E+00
2280172. -0.2414241E-04  0.3576741E-03  0.2367852E-05 -0.7407270E-04  0.0000000E+00  0.0000000E+00
2209594. -0.2963245E-04  0.6582178E-03  0.3293499E-05 -0.9493876E-04  0.0000000E+00  0.0000000E+00
2139016. -0.3942179E-04  0.1149167E-02  0.4526556E-05 -0.1309035E-03  0.0000000E+00  0.0000000E+00
2068438. -0.5626176E-04  0.1960240E-02  0.6288083E-05 -0.1926678E-03  0.0000000E+00  0.0000000E+00
1997859. -0.8492349E-04  0.3339212E-02  0.8959454E-05 -0.2993961E-03  0.0000000E+00  0.0000000E+00
1927281. -0.1340608E-03  0.5766077E-02  0.1321583E-04 -0.4868679E-03  0.0000000E+00  0.0000000E+00
1856703. -0.2199499E-03  0.1019337E-01  0.2029255E-04 -0.8243778E-03  0.0000000E+00  0.0000000E+00
1786125. -0.3742352E-03  0.1856812E-01  0.3253099E-04 -0.1450932E-02  0.0000000E+00  0.0000000E+00
1715547. -0.6605728E-03  0.3500828E-01  0.5453657E-04 -0.2655701E-02  0.0000000E+00  0.0000000E+00
1644969. -0.1211748E-02  0.6855522E-01  0.9572651E-04 -0.5063832E-02  0.0000000E+00  0.0000000E+00
1574391. -0.2315807E-02  0.1398807E+00  0.1761638E-03 -0.1008389E-01  0.0000000E+00  0.0000000E+00
1503812. -0.4624708E-02  0.2983700E+00  0.3405115E-03 -0.2103470E-01  0.0000000E+00  0.0000000E+00
1433234. -0.9683295E-02  0.6677329E+00  0.6929842E-03 -0.4612216E-01  0.0000000E+00  0.0000000E+00
1362656. -0.2134070E-01  0.1574381E+01  0.1489555E-02 -0.1067343E+00  0.0000000E+00  0.0000000E+00
1292078. -0.4972684E-01  0.3929778E+01  0.3394971E-02 -0.2619136E+00  0.0000000E+00  0.0000000E+00
1221500. -0.1231552E+00  0.1044304E+02  0.8244400E-02 -0.6852834E+00  0.0000000E+00  0.0000000E+00
1221500. -0.1231552E+00 -0.1109645E+02 -0.8754428E-02  0.5966820E+00  0.0000000E+00  0.0000000E+00
1183328. -0.4085226E-01 -0.1590944E+02 -0.1119378E-01  0.2066118E+00  0.0000000E+00  0.0000000E+00
1145156.  0.6117502E-01 -0.1759113E+02 -0.1121954E-01 -0.1894864E+00  0.0000000E+00  0.0000000E+00
1106984.  0.1634603E+00 -0.1605232E+02 -0.9114561E-02 -0.4912108E+00  0.0000000E+00  0.0000000E+00
1068812.  0.2484349E+00 -0.1197683E+02 -0.5635673E-02 -0.6431961E+00  0.0000000E+00  0.0000000E+00
1030641.  0.3042048E+00 -0.6514996E+01 -0.1718769E-02 -0.6404693E+00  0.0000000E+00  0.0000000E+00
 992469.  0.3262376E+00 -0.9119843E+00  0.1798369E-02 -0.5179009E+00  0.0000000E+00  0.0000000E+00
 954297.  0.3169240E+00  0.3808722E+01  0.4358596E-02 -0.3308965E+00  0.0000000E+00  0.0000000E+00
 916125.  0.2836145E+00  0.7034163E+01  0.5747543E-02 -0.1354129E+00  0.0000000E+00  0.0000000E+00
 877953.  0.2359712E+00  0.8600447E+01  0.6049377E-02  0.2662597E-01  0.0000000E+00  0.0000000E+00
 839781.  0.1834781E+00  0.8709929E+01  0.5539524E-02  0.1336779E+00  0.0000000E+00  0.0000000E+00
 801609.  0.1336743E+00  0.7782104E+01  0.4562563E-02  0.1835118E+00  0.0000000E+00  0.0000000E+00
 763438.  0.9133483E-01  0.6296393E+01  0.3432994E-02  0.1871898E+00  0.0000000E+00  0.0000000E+00
 725266.  0.5849580E-01  0.4670576E+01  0.2377669E-02  0.1616705E+00  0.0000000E+00  0.0000000E+00
 687094.  0.3505737E-01  0.3194820E+01  0.1520646E-02  0.1234755E+00  0.0000000E+00  0.0000000E+00
 648922.  0.1960475E-01  0.2019135E+01  0.8983320E-03  0.8493581E-01  0.0000000E+00  0.0000000E+00
 610750.  0.1018841E-01  0.1178176E+01  0.4892686E-03  0.5302906E-01  0.0000000E+00  0.0000000E+00
 572578.  0.4893979E-02  0.6328629E+00  0.2447193E-03  0.3010882E-01  0.0000000E+00  0.0000000E+00
 534406.  0.2157653E-02  0.3113779E+00  0.1117471E-03  0.1551575E-01  0.0000000E+00  0.0000000E+00
 496234.  0.8652916E-03  0.1393151E+00  0.4620732E-04  0.7218992E-02  0.0000000E+00  0.0000000E+00
 458062.  0.3120381E-03  0.5612478E-01  0.1711484E-04  0.3006932E-02  0.0000000E+00  0.0000000E+00
 419891.  0.9969846E-04  0.2009319E-01  0.5597708E-05  0.1107739E-02  0.0000000E+00  0.0000000E+00
 381719.  0.2767994E-04  0.6281098E-02  0.1586186E-05  0.3548908E-03  0.0000000E+00  0.0000000E+00
 343547.  0.6508129E-05  0.1674398E-02  0.3796270E-06  0.9662212E-04  0.0000000E+00  0.0000000E+00
 305375.  0.1251104E-05  0.3684835E-03  0.7410759E-07  0.2165056E-04  0.0000000E+00  0.0000000E+00
 267203.  0.1871405E-06  0.6393719E-04  0.1123176E-07  0.3814646E-05  0.0000000E+00  0.0000000E+00
 229031.  0.2025267E-07  0.8174708E-05  0.1229100E-08  0.4940262E-06  0.0000000E+00  0.0000000E+00
 190859.  0.1416288E-08  0.6931639E-06  0.8674651E-10  0.4233564E-07  0.0000000E+00  0.0000000E+00
 152688.  0.5295884E-10  0.3266644E-07  0.3267478E-11  0.2011904E-08  0.0000000E+00  0.0000000E+00
 114516.  0.0000000E+00  0.0000000E+00  0.0000000E+00  0.0000000E+00  0.0000000E+00  0.0000000E+00
  76344.  0.0000000E+00  0.0000000E+00  0.0000000E+00  0.0000000E+00  0.0000000E+00  0.0000000E+00
  38172.  0.0000000E+00  0.0000000E+00  0.0000000E+00  0.0000000E+00  0.0000000E+00  0.0000000E+00
      0.  0.0000000E+00  0.0000000E+00  0.0000000E+00  0.0000000E+00  0.0000000E+00  0.0000000E+00
