       6       16 S      376        170.89349         14.19639          8.51718        291.37271      185    7
6371000.  0.7914579E-01  0.2693666E+00  0.3100836E-02 -0.7604495E-01 -0.1256799E-02 -0.1278849E+00
6370000.  0.7910182E-01  0.2909490E+00  0.3112594E-02 -0.7377073E-01 -0.1236718E-02 -0.1279922E+00
6369000.  0.7905446E-01  0.3124590E+00  0.3123994E-02 -0.7148000E-01 -0.1216620E-02 -0.1280950E+00
6368000.  0.7900373E-01  0.3338951E+00  0.3135032E-02 -0.6917302E-01 -0.1196506E-02 -0.1281932E+00
6368000.  0.7900373E-01  0.3338951E+00  0.3135032E-02 -0.6917302E-01 -0.1196506E-02 -0.1281932E+00
6367000.  0.7894965E-01  0.3552561E+00  0.3145708E-02 -0.6685010E-01 -0.1176377E-02 -0.1282870E+00
6366000.  0.7889221E-01  0.3765405E+00  0.3156017E-02 -0.6451149E-01 -0.1156234E-02 -0.1283763E+00
6365000.  0.7883144E-01  0.3977472E+00  0.3165958E-02 -0.6215748E-01 -0.1136077E-02 -0.1284610E+00
6364000.  0.7876735E-01  0.4188748E+00  0.3175529E-02 -0.5978835E-01 -0.1115908E-02 -0.1285412E+00
6363000.  0.7869995E-01  0.4399220E+00  0.3184727E-02 -0.5740439E-01 -0.1095726E-02 -0.1286168E+00
6362000.  0.7862926E-01  0.4608876E+00  0.3193549E-02 -0.5500588E-01 -0.1075532E-02 -0.1286880E+00
6361000.  0.7855528E-01  0.4817701E+00  0.3201993E-02 -0.5259311E-01 -0.1055328E-02 -0.1287545E+00
6360000.  0.7847802E-01  0.5025685E+00  0.3210058E-02 -0.5016638E-01 -0.1035113E-02 -0.1288166E+00
6359000.  0.7839751E-01  0.5232815E+00  0.3217741E-02 -0.4772596E-01 -0.1014890E-02 -0.1288741E+00
6358000.  0.7831376E-01  0.5439077E+00  0.3225040E-02 -0.4527218E-01 -0.9946572E-03 -0.1289270E+00
6357000.  0.7822677E-01  0.5644460E+00  0.3231952E-02 -0.4280531E-01 -0.9744168E-03 -0.1289753E+00
6356000.  0.7813657E-01  0.5848953E+00  0.3238477E-02 -0.4032565E-01 -0.9541692E-03 -0.1290192E+00
6356000.  0.7813657E-01  0.4452213E+00  0.3238477E-02 -0.5410039E-01 -0.9541692E-03 -0.1460208E+00
6355000.  0.7806549E-01  0.4604161E+00  0.3246845E-02 -0.5252434E-01 -0.9312420E-03 -0.1461170E+00
6354000.  0.7799204E-01  0.4755577E+00  0.3254965E-02 -0.5093941E-01 -0.9082999E-03 -0.1462101E+00
6353000.  0.7791621E-01  0.4906453E+00  0.3262835E-02 -0.4934574E-01 -0.8853435E-03 -0.1462999E+00
6352000.  0.7783802E-01  0.5056784E+00  0.3270455E-02 -0.4774345E-01 -0.8623733E-03 -0.1463867E+00
6351000.  0.7775747E-01  0.5206561E+00  0.3277823E-02 -0.4613266E-01 -0.8393896E-03 -0.1464702E+00
6350000.  0.7767458E-01  0.5355779E+00  0.3284937E-02 -0.4451350E-01 -0.8163932E-03 -0.1465505E+00
6349000.  0.7758934E-01  0.5504430E+00  0.3291796E-02 -0.4288610E-01 -0.7933843E-03 -0.1466277E+00
6348000.  0.7750178E-01  0.5652508E+00  0.3298399E-02 -0.4125058E-01 -0.7703636E-03 -0.1467017E+00
6347000.  0.7741190E-01  0.5800006E+00  0.3304745E-02 -0.3960707E-01 -0.7473315E-03 -0.1467725E+00
6346600.  0.7737530E-01  0.5858841E+00  0.3307211E-02 -0.3894746E-01 -0.7381156E-03 -0.1467999E+00
6346600.  0.7737530E-01  0.5014225E+00  0.3307211E-02 -0.5044920E-01 -0.7381156E-03 -0.1737795E+00
6318800.  0.7452781E-01  0.7983371E+00  0.3451333E-02 -0.1489076E-01  0.2571567E-04 -0.1760338E+00
6291000.  0.7046156E-01  0.1058608E+01  0.3432123E-02  0.2412641E-01  0.7956153E-03 -0.1765539E+00
6291000.  0.7046156E-01  0.1080308E+01  0.3432123E-02  0.2752784E-01  0.7956153E-03 -0.1765539E+00
6263000.  0.6521672E-01  0.1298028E+01  0.3217333E-02  0.7030889E-01  0.1568889E-02 -0.1750323E+00
6235000.  0.5913017E-01  0.1462602E+01  0.2814900E-02  0.1125570E+00  0.2331414E-02 -0.1716656E+00
6207000.  0.5244329E-01  0.1570924E+01  0.2231923E-02  0.1521140E+00  0.3075146E-02 -0.1664880E+00
6179000.  0.4540508E-01  0.1622657E+01  0.1484821E-02  0.1869147E+00  0.3792256E-02 -0.1595644E+00
6151000.  0.3825990E-01  0.1620228E+01  0.5986968E-03  0.2150890E+00  0.4475269E-02 -0.1509891E+00
6151000.  0.3825990E-01  0.1312753E+01  0.5986968E-03  0.1840288E+00  0.4475269E-02 -0.1531059E+00
6128500.  0.3372025E-01  0.1254392E+01 -0.7458396E-04  0.1965456E+00  0.5007383E-02 -0.1481344E+00
6106000.  0.2942416E-01  0.1175463E+01 -0.7843651E-03  0.2046585E+00  0.5520890E-02 -0.1425765E+00
6083500.  0.2543722E-01  0.1080004E+01 -0.1514737E-02  0.2081869E+00  0.6013810E-02 -0.1364855E+00
6061000.  0.2181029E-01  0.9723041E+00 -0.2249376E-02  0.2070763E+00  0.6484359E-02 -0.1299166E+00
6038500.  0.1857882E-01  0.8567816E+00 -0.2971990E-02  0.2013992E+00  0.6930947E-02 -0.1229253E+00
6016000.  0.1576263E-01  0.7378385E+00 -0.3666756E-02  0.1913470E+00  0.7352181E-02 -0.1155679E+00
5993500.  0.1336621E-01  0.6197538E+00 -0.4318720E-02  0.1772189E+00  0.7746869E-02 -0.1079017E+00
5971000.  0.1137927E-01  0.5065853E+00 -0.4914166E-02  0.1594138E+00  0.8114022E-02 -0.9998392E-01
5971000.  0.1137927E-01  0.4119199E+00 -0.4914166E-02  0.1399365E+00  0.8114022E-02 -0.1014736E+00
5937667.  0.9630485E-02  0.2617172E+00 -0.5560071E-02  0.1066495E+00  0.8614209E-02 -0.8971006E-01
5904333.  0.8583692E-02  0.1441583E+00 -0.6028497E-02  0.7240120E-01  0.9052687E-02 -0.7790491E-01
5871000.  0.8061243E-02  0.6144705E-01 -0.6319050E-02  0.3892229E-01  0.9429603E-02 -0.6620524E-01
5837667.  0.7880361E-02  0.1338417E-01 -0.6439595E-02  0.7620532E-02  0.9745877E-02 -0.5474549E-01
5804333.  0.7864572E-02 -0.2153638E-02 -0.6404475E-02 -0.2043117E-01  0.1000310E-01 -0.4364848E-01
5771000.  0.7852583E-02  0.1123417E-01 -0.6232793E-02 -0.4448497E-01  0.1020345E-01 -0.3302671E-01
5771000.  0.7852583E-02  0.1114692E-01 -0.6232793E-02 -0.4448403E-01  0.1020345E-01 -0.3302671E-01
5701000.  0.6966387E-02  0.1665160E+00 -0.5503712E-02 -0.8585133E-01  0.1044890E-01 -0.1206992E-01
5701000.  0.6966387E-02  0.6109464E-01 -0.5503712E-02 -0.7074562E-01  0.1044890E-01 -0.1403349E-01
5667333.  0.6542376E-02  0.1053797E+00 -0.5119754E-02 -0.7467400E-01  0.1049670E-01 -0.4276327E-02
5633667.  0.5789595E-02  0.1830555E+00 -0.4710484E-02 -0.8029546E-01  0.1049584E-01  0.4486016E-02
5600000.  0.4602705E-02  0.2662093E+00 -0.4276081E-02 -0.8361661E-01  0.1045038E-01  0.1260872E-01
5600000.  0.4602705E-02  0.2662093E+00 -0.4276081E-02 -0.8361661E-01  0.1045038E-01  0.1260872E-01
5563518.  0.2814302E-02  0.3584933E+00 -0.3793302E-02 -0.8455320E-01  0.1035479E-01  0.2064393E-01
5527037.  0.4998126E-03  0.4493185E+00 -0.3312744E-02 -0.8287457E-01  0.1021546E-01  0.2788996E-01
5490556. -0.2321185E-02  0.5347649E+00 -0.2848805E-02 -0.7878745E-01  0.1003688E-01  0.3435439E-01
5454074. -0.5607220E-02  0.6111555E+00 -0.2414536E-02 -0.7255843E-01  0.9823491E-02  0.4004960E-01
5417593. -0.9297201E-02  0.6753966E+00 -0.2021292E-02 -0.6452040E-01  0.9579658E-02  0.4499258E-01
5381111. -0.1331348E-01  0.7246578E+00 -0.1678401E-02 -0.5502987E-01  0.9309610E-02  0.4920696E-01
5344630. -0.1756341E-01  0.7567458E+00 -0.1393105E-02 -0.4447316E-01  0.9017462E-02  0.5271930E-01
5308148. -0.2194430E-01  0.7701370E+00 -0.1170351E-02 -0.3324907E-01  0.8707133E-02  0.5555980E-01
5271667. -0.2634542E-01  0.7637366E+00 -0.1012860E-02 -0.2174440E-01  0.8382381E-02  0.5776591E-01
5235185. -0.3065256E-01  0.7372857E+00 -0.9211323E-03 -0.1034048E-01  0.8046720E-02  0.5937289E-01
5198704. -0.3475136E-01  0.6910887E+00 -0.8935679E-03  0.6104812E-03  0.7703490E-02  0.6042099E-01
5162222. -0.3853081E-01  0.6259056E+00 -0.9266637E-03  0.1079670E-01  0.7355733E-02  0.6095718E-01
5125741. -0.4188613E-01  0.5432753E+00 -0.1015216E-02  0.1993825E-01  0.7006292E-02  0.6101960E-01
5089259. -0.4472280E-01  0.4450621E+00 -0.1152578E-02  0.2781004E-01  0.6657728E-02  0.6065544E-01
5052778. -0.4695775E-01  0.3335599E+00 -0.1330945E-02  0.3423684E-01  0.6312368E-02  0.5991163E-01
5016296. -0.4852263E-01  0.2114723E+00 -0.1541672E-02  0.3909431E-01  0.5972248E-02  0.5882879E-01
4979815. -0.4936488E-01  0.8166791E-01 -0.1775537E-02  0.4231371E-01  0.5639194E-02  0.5745441E-01
4943333. -0.4944905E-01 -0.5279168E-01 -0.2023100E-02  0.4387675E-01  0.5314734E-02  0.5583050E-01
4906852. -0.4875750E-01 -0.1887528E+00 -0.2274922E-02  0.4381299E-01  0.5000209E-02  0.5399492E-01
4870370. -0.4729044E-01 -0.3231349E+00 -0.2521901E-02  0.4219883E-01  0.4696682E-02  0.5199235E-01
4833889. -0.4506576E-01 -0.4528989E+00 -0.2755454E-02  0.3914793E-01  0.4405031E-02  0.4985482E-01
4797407. -0.4211798E-01 -0.5752140E+00 -0.2967773E-02  0.3480728E-01  0.4125922E-02  0.4761554E-01
4760926. -0.3849754E-01 -0.6874630E+00 -0.3151956E-02  0.2935395E-01  0.3859842E-02  0.4531113E-01
4724444. -0.3426861E-01 -0.7873536E+00 -0.3302190E-02  0.2298136E-01  0.3607086E-02  0.4296310E-01
4687963. -0.2950800E-01 -0.8729079E+00 -0.3413793E-02  0.1589868E-01  0.3367843E-02  0.4059871E-01
4651482. -0.2430248E-01 -0.9425234E+00 -0.3483325E-02  0.8322621E-02  0.3142128E-02  0.3824060E-01
4615000. -0.1874669E-01 -0.9950278E+00 -0.3508575E-02  0.4676432E-03  0.2929857E-02  0.3590402E-01
4578518. -0.1294128E-01 -0.1029610E+01 -0.3488554E-02 -0.7454161E-02  0.2730862E-02  0.3360583E-01
4542037. -0.6990317E-02 -0.1045899E+01 -0.3423466E-02 -0.1524201E-01  0.2544895E-02  0.3135753E-01
4505556. -0.9984206E-03 -0.1043939E+01 -0.3314607E-02 -0.2271261E-01  0.2371639E-02  0.2916680E-01
4469074.  0.4930928E-02 -0.1024091E+01 -0.3164281E-02 -0.2969791E-01  0.2210744E-02  0.2703974E-01
4432593.  0.1069707E-01 -0.9871486E+00 -0.2975699E-02 -0.3605430E-01  0.2061842E-02  0.2497950E-01
4396111.  0.1620538E-01 -0.9341807E+00 -0.2752804E-02 -0.4166269E-01  0.1924542E-02  0.2298582E-01
4359630.  0.2136745E-01 -0.8665156E+00 -0.2500179E-02 -0.4642636E-01  0.1798481E-02  0.2105471E-01
4323148.  0.2610394E-01 -0.7857743E+00 -0.2222856E-02 -0.5027777E-01  0.1683300E-02  0.1918339E-01
4286667.  0.3034472E-01 -0.6937194E+00 -0.1926207E-02 -0.5317355E-01  0.1578688E-02  0.1736302E-01
4250185.  0.3403061E-01 -0.5922585E+00 -0.1615755E-02 -0.5509499E-01  0.1484377E-02  0.1558274E-01
4213704.  0.3711333E-01 -0.4834182E+00 -0.1297091E-02 -0.5604731E-01  0.1400168E-02  0.1383318E-01
4177222.  0.3955659E-01 -0.3692282E+00 -0.9756818E-03 -0.5605689E-01  0.1325930E-02  0.1209637E-01
4140741.  0.4133555E-01 -0.2517490E+00 -0.6568224E-03 -0.5516864E-01  0.1261642E-02  0.1035642E-01
4104259.  0.4243720E-01 -0.1329792E+00 -0.3454692E-03 -0.5344361E-01  0.1207360E-02  0.8596807E-02
4067778.  0.4285969E-01 -0.1485111E-01 -0.4621976E-04 -0.5095749E-01  0.1163285E-02  0.6787341E-02
4031296.  0.4261193E-01  0.1008348E+00  0.2368197E-03 -0.4779359E-01  0.1129760E-02  0.4908310E-02
3994815.  0.4171277E-01  0.2124040E+00  0.5000106E-03 -0.4404347E-01  0.1107262E-02  0.2929646E-02
3958333.  0.4019018E-01  0.3183373E+00  0.7402878E-03 -0.3980405E-01  0.1096479E-02  0.8106160E-03
3921852.  0.3808036E-01  0.4173202E+00  0.9551075E-03 -0.3516965E-01  0.1098308E-02 -0.1481944E-02
3885370.  0.3542638E-01  0.5082000E+00  0.1142490E-02 -0.3023462E-01  0.1113878E-02 -0.3998058E-02
3848889.  0.3227767E-01  0.5900057E+00  0.1300966E-02 -0.2508909E-01  0.1144628E-02 -0.6793460E-02
3812407.  0.2868820E-01  0.6619962E+00  0.1429568E-02 -0.1981215E-01  0.1192327E-02 -0.9929075E-02
3775926.  0.2471629E-01  0.7235340E+00  0.1527754E-02 -0.1447742E-01  0.1259143E-02 -0.1348537E-01
3739444.  0.2042286E-01  0.7741980E+00  0.1595371E-02 -0.9143334E-02  0.1347740E-02 -0.1755203E-01
3702963.  0.1587127E-01  0.8136978E+00  0.1632553E-02 -0.3853622E-02  0.1461332E-02 -0.2223666E-01
3666482.  0.1112612E-01  0.8417784E+00  0.1639650E-02  0.1360836E-02  0.1603836E-02 -0.2767439E-01
3630000.  0.6252948E-02  0.8583536E+00  0.1617130E-02  0.6491315E-02  0.1780005E-02 -0.3402248E-01
3630000.  0.6252948E-02  0.8583536E+00  0.1617130E-02  0.6491315E-02  0.1780005E-02 -0.3402248E-01
3592500.  0.1180238E-02  0.8632361E+00  0.1563598E-02  0.1168690E-01  0.2002230E-02 -0.4170095E-01
3555000. -0.3884591E-02  0.8556488E+00  0.1479640E-02  0.1683855E-01  0.2273702E-02 -0.5080293E-01
3517500. -0.8867586E-02  0.8353741E+00  0.1365335E-02  0.2201141E-01  0.2603694E-02 -0.6164365E-01
3480000. -0.1369278E-01  0.8019301E+00  0.1220291E-02  0.2730207E-01  0.3003543E-02 -0.7461084E-01
3480000. -0.1369278E-01 -0.3076521E-01 -0.1850678E-02 -0.2164739E-01  0.3003543E-02 -0.3069830E-01
3409422. -0.1309517E-01 -0.7447653E-01 -0.1611171E-02 -0.2144030E-01  0.3167066E-02 -0.9540063E-03
3338844. -0.1209802E-01 -0.1032218E+00 -0.1378559E-02 -0.2044381E-01  0.3065661E-02  0.1767152E-01
3268266. -0.1085542E-01 -0.1191867E+00 -0.1160255E-02 -0.1889450E-01  0.2805672E-02  0.2811721E-01
3197688. -0.9495304E-02 -0.1248636E+00 -0.9611964E-03 -0.1700165E-01  0.2464074E-02  0.3275678E-01
3127109. -0.8117621E-02 -0.1227615E+00 -0.7841793E-03 -0.1494094E-01  0.2094382E-02  0.3346179E-01
3056531. -0.6795511E-02 -0.1151969E+00 -0.6302628E-03 -0.1285175E-01  0.1731869E-02  0.3166847E-01
2985953. -0.5578032E-02 -0.1041766E+00 -0.4991538E-03 -0.1083780E-01  0.1397978E-02  0.2844519E-01
2915375. -0.4494028E-02 -0.9134129E-01 -0.3895951E-03 -0.8970578E-02  0.1104061E-02  0.2455720E-01
2844797. -0.3556257E-02 -0.7795675E-01 -0.2996945E-03 -0.7294057E-02  0.8543892E-03  0.2052726E-01
2774219. -0.2765425E-02 -0.6493902E-01 -0.2272023E-03 -0.5829704E-02  0.6485304E-03  0.1668989E-01
2703641. -0.2113830E-02 -0.5289789E-01 -0.1697314E-03 -0.4581627E-02  0.4831704E-03  0.1323836E-01
2633062. -0.1588461E-02 -0.4219065E-01 -0.1249222E-03 -0.3541474E-02  0.3534486E-03  0.1026405E-01
2562484. -0.1173508E-02 -0.3297825E-01 -0.9055862E-04 -0.2692651E-02  0.2539099E-03  0.7788730E-02
2491906. -0.8522041E-03 -0.2527646E-01 -0.6463649E-04 -0.2013639E-02  0.1791210E-03  0.5789282E-02
2421328. -0.6082007E-03 -0.1900285E-01 -0.4540441E-04 -0.1480860E-02  0.1240643E-03  0.4216832E-02
2350750. -0.4264269E-03 -0.1401450E-01 -0.3137400E-04 -0.1070676E-02  0.8434094E-04  0.3010401E-02
2280172. -0.2935881E-03 -0.1013811E-01 -0.2131252E-04 -0.7607554E-03  0.5624993E-04  0.2106266E-02
2209594. -0.1983726E-03 -0.7191977E-02 -0.1422315E-04 -0.5309552E-03  0.3678250E-04  0.1443912E-02
2139016. -0.1314552E-03 -0.5001219E-02 -0.9317784E-05 -0.3637738E-03  0.2356586E-04  0.9694305E-03
2068438. -0.8536455E-04 -0.3407201E-02 -0.5986857E-05 -0.2444842E-03  0.1478008E-04  0.6370546E-03
1997859. -0.5427152E-04 -0.2272499E-02 -0.3768883E-05 -0.1610439E-03  0.9065356E-05  0.4094313E-03
1927281. -0.3374411E-04 -0.1482592E-02 -0.2322007E-05 -0.1038690E-03  0.5431409E-05  0.2571125E-03
1856703. -0.2049341E-04 -0.9451513E-03 -0.1398260E-05 -0.6552072E-04  0.3174548E-05  0.1575830E-03
1786125. -0.1213951E-04 -0.5880562E-03 -0.8217779E-06 -0.4036913E-04  0.1807324E-05  0.9413739E-04
1715547. -0.7002258E-05 -0.3565971E-03 -0.4706060E-06 -0.2425641E-04  0.1000522E-05  0.5472785E-04
1644969. -0.3925114E-05 -0.2104487E-03 -0.2621457E-06 -0.1418687E-04  0.5375364E-06  0.3090717E-04
1574391. -0.2132231E-05 -0.1207375E-03 -0.1418229E-06 -0.8054652E-05  0.2796699E-06  0.1691916E-04
1503812. -0.1116432E-05 -0.6742870E-04 -0.7454202E-07 -0.4414202E-05  0.1406001E-06  0.8953605E-05
1433234. -0.5537405E-06 -0.3717809E-04 -0.3845726E-07 -0.2290660E-05  0.6819973E-07  0.4563765E-05
1362656. -0.2383005E-06 -0.2181215E-04 -0.2066809E-07 -0.1017617E-05  0.3197342E-07  0.2228172E-05
1292078. -0.2896893E-07 -0.1788922E-04 -0.1469646E-07 -0.7046167E-07  0.1464884E-07  0.1038824E-05
1221500.  0.2112989E-06 -0.2887632E-04 -0.2024143E-07  0.1207500E-05  0.6584995E-08  0.5029398E-06
1221500.  0.2112989E-06 -0.2350178E-05 -0.2021946E-08 -0.1112621E-05  0.6584995E-08  0.4114043E-06
1183328.  0.2064198E-06  0.3288399E-05  0.2607265E-08 -0.4874996E-06  0.4458137E-08  0.3016265E-06
1145156.  0.1784103E-06  0.5644190E-05  0.4356508E-08 -0.1323611E-06  0.2929101E-08  0.2123975E-06
1106984.  0.1425756E-06  0.6086721E-05  0.4537512E-08  0.4946287E-07  0.1870355E-08  0.1443985E-06
1068812.  0.1074451E-06  0.5530223E-05  0.3972901E-08  0.1258160E-06  0.1161433E-08  0.9505667E-07
1030641.  0.7713015E-07  0.4553549E-05  0.3147687E-08  0.1426037E-06  0.7013928E-09  0.6068722E-07
 992469.  0.5302837E-07  0.3497238E-05  0.2322970E-08  0.1294970E-06  0.4117295E-09  0.3759817E-07
 954297.  0.3501725E-07  0.2540118E-05  0.1618971E-08  0.1045604E-06  0.2347308E-09  0.2260219E-07
 916125.  0.2223773E-07  0.1757230E-05  0.1073081E-08  0.7790258E-07  0.1298034E-09  0.1317585E-07
 877953.  0.1358308E-07  0.1162061E-05  0.6788101E-09  0.5445914E-07  0.6950917E-10  0.7439550E-08
 839781.  0.7974507E-08  0.7357405E-06  0.4103848E-09  0.3601383E-07  0.3597104E-10  0.4062132E-08
 801609.  0.4493617E-08  0.4460451E-06  0.2371079E-09  0.2261777E-07  0.1794518E-10  0.2140433E-08
 763438.  0.2425402E-08  0.2586979E-06  0.1307755E-09  0.1350820E-07  0.8605065E-11  0.1085612E-08
 725266.  0.1250447E-08  0.1432717E-06  0.6871004E-10  0.7669239E-08  0.3952227E-11  0.5283130E-09
 687094.  0.6136906E-09  0.7556408E-07  0.3428804E-10  0.4132156E-08  0.1731491E-11  0.2457766E-09
 648922.  0.2854874E-09  0.3781859E-07  0.1618829E-10  0.2106777E-08  0.7200260E-12  0.1088022E-09
 610750.  0.1252318E-09  0.1787932E-07  0.7195329E-11  0.1012318E-08  0.2825406E-12  0.4558607E-10
 572578.  0.5147140E-10  0.7939143E-08  0.2992376E-11  0.4559887E-09  0.1038844E-12  0.1795880E-10
 534406.  0.1966736E-10  0.3287665E-08  0.1155514E-11  0.1912342E-09  0.3548421E-13  0.6599347E-11
 496234.  0.6919231E-11  0.1258465E-08  0.4103809E-12  0.7402744E-10  0.1114229E-13  0.2239952E-11
 458062.  0.2214382E-11  0.4403423E-09  0.1324494E-12  0.2616164E-10  0.3174663E-14  0.6937344E-12
 419891.  0.6348736E-12  0.1388606E-09  0.3826119E-13  0.8323062E-11  0.8073312E-15  0.1930468E-12
 381719.  0.1598581E-12  0.3874292E-10  0.9698756E-14  0.2340349E-11  0.1793830E-15  0.4731311E-13
 343547.  0.3443939E-13  0.9334152E-11  0.2101876E-14  0.5677230E-12  0.3386374E-16  0.9948654E-14
 305375.  0.6126960E-14  0.1878785E-11  0.3758806E-15  0.1149565E-12  0.5229250E-17  0.1732080E-14
 267203.  0.8564072E-15  0.3016001E-12  0.5277556E-16  0.1854942E-13  0.6262954E-18  0.2375419E-15
 229031.  0.8744970E-16  0.3607151E-13  0.5408737E-17  0.2227810E-14  0.5382255E-19  0.2383093E-16
 190859.  0.0000000E+00  0.0000000E+00  0.0000000E+00  0.0000000E+00  0.0000000E+00  0.0000000E+00
 152688.  0.0000000E+00  0.0000000E+00  0.0000000E+00  0.0000000E+00  0.0000000E+00  0.0000000E+00
 114516.  0.0000000E+00  0.0000000E+00  0.0000000E+00  0.0000000E+00  0.0000000E+00  0.0000000E+00
  76344.  0.0000000E+00  0.0000000E+00  0.0000000E+00  0.0000000E+00  0.0000000E+00  0.0000000E+00
  38172.  0.0000000E+00  0.0000000E+00  0.0000000E+00  0.0000000E+00  0.0000000E+00  0.0000000E+00
      0.  0.0000000E+00  0.0000000E+00  0.0000000E+00  0.0000000E+00  0.0000000E+00  0.0000000E+00
