       4       38 S      307        119.31140          8.71455          6.34057        236.28860      185    7
6371000. -0.1510679E-01 -0.1544765E+01 -0.2672540E-02  0.1243425E-01  0.1728029E-02 -0.3890527E-01
6370000. -0.1486363E-01 -0.1553495E+01 -0.2674245E-02  0.9290216E-02  0.1734113E-02 -0.3861478E-01
6369000. -0.1461914E-01 -0.1561606E+01 -0.2675456E-02  0.6141319E-02  0.1740151E-02 -0.3832725E-01
6368000. -0.1437344E-01 -0.1569097E+01 -0.2676173E-02  0.2988259E-02  0.1746145E-02 -0.3804273E-01
6368000. -0.1437344E-01 -0.1569097E+01 -0.2676173E-02  0.2988259E-02  0.1746145E-02 -0.3804273E-01
6367000. -0.1412660E-01 -0.1575966E+01 -0.2676394E-02 -0.1682651E-03  0.1752094E-02 -0.3776123E-01
6366000. -0.1387874E-01 -0.1582212E+01 -0.2676120E-02 -0.3327550E-02  0.1757999E-02 -0.3748277E-01
6365000. -0.1362994E-01 -0.1587834E+01 -0.2675350E-02 -0.6488895E-02  0.1763861E-02 -0.3720738E-01
6364000. -0.1338031E-01 -0.1592831E+01 -0.2674083E-02 -0.9651594E-02  0.1769680E-02 -0.3693508E-01
6363000. -0.1312995E-01 -0.1597202E+01 -0.2672320E-02 -0.1281495E-01  0.1775456E-02 -0.3666591E-01
6362000. -0.1287895E-01 -0.1600947E+01 -0.2670060E-02 -0.1597824E-01  0.1781190E-02 -0.3639987E-01
6361000. -0.1262741E-01 -0.1604065E+01 -0.2667304E-02 -0.1914079E-01  0.1786883E-02 -0.3613701E-01
6360000. -0.1237543E-01 -0.1606556E+01 -0.2664051E-02 -0.2230187E-01  0.1792534E-02 -0.3587734E-01
6359000. -0.1212311E-01 -0.1608419E+01 -0.2660303E-02 -0.2546079E-01  0.1798146E-02 -0.3562088E-01
6358000. -0.1187054E-01 -0.1609655E+01 -0.2656059E-02 -0.2861683E-01  0.1803717E-02 -0.3536766E-01
6357000. -0.1161783E-01 -0.1610263E+01 -0.2651320E-02 -0.3176931E-01  0.1809248E-02 -0.3511772E-01
6356000. -0.1136508E-01 -0.1610245E+01 -0.2646086E-02 -0.3491751E-01  0.1814741E-02 -0.3487106E-01
6356000. -0.1136508E-01 -0.1392780E+01 -0.2646086E-02 -0.1761166E-01  0.1814741E-02 -0.3239815E-01
6355000. -0.1114638E-01 -0.1393760E+01 -0.2643191E-02 -0.1927413E-01  0.1819795E-02 -0.3200340E-01
6354000. -0.1092756E-01 -0.1394412E+01 -0.2640035E-02 -0.2093542E-01  0.1824788E-02 -0.3161123E-01
6353000. -0.1070866E-01 -0.1394736E+01 -0.2636619E-02 -0.2259532E-01  0.1829719E-02 -0.3122166E-01
6352000. -0.1048974E-01 -0.1394733E+01 -0.2632942E-02 -0.2425359E-01  0.1834589E-02 -0.3083470E-01
6351000. -0.1027084E-01 -0.1394402E+01 -0.2629005E-02 -0.2591002E-01  0.1839399E-02 -0.3045036E-01
6350000. -0.1005202E-01 -0.1393744E+01 -0.2624809E-02 -0.2756439E-01  0.1844148E-02 -0.3006863E-01
6349000. -0.9833333E-02 -0.1392758E+01 -0.2620352E-02 -0.2921646E-01  0.1848838E-02 -0.2968954E-01
6348000. -0.9614822E-02 -0.1391445E+01 -0.2615637E-02 -0.3086602E-01  0.1853469E-02 -0.2931308E-01
6347000. -0.9396544E-02 -0.1389806E+01 -0.2610663E-02 -0.3251284E-01  0.1858040E-02 -0.2893926E-01
6346600. -0.9309310E-02 -0.1389059E+01 -0.2608601E-02 -0.3317076E-01  0.1859853E-02 -0.2879048E-01
6346600. -0.9309310E-02 -0.1580876E+01 -0.2608601E-02 -0.2020981E-01  0.1859853E-02 -0.2554446E-01
6318800. -0.2545666E-02 -0.1494437E+01 -0.2468960E-02 -0.4355342E-01  0.1946218E-02 -0.1430129E-01
6291000.  0.3521630E-02 -0.1263305E+01 -0.2231886E-02 -0.6458007E-01  0.1986763E-02 -0.4503976E-02
6291000.  0.3521630E-02 -0.1304337E+01 -0.2231886E-02 -0.6659430E-01  0.1986763E-02 -0.4503976E-02
6263000.  0.8463880E-02 -0.9232302E+00 -0.1896154E-02 -0.8531752E-01  0.1988144E-02  0.3685582E-02
6235000.  0.1147201E-01 -0.4301891E+00 -0.1490664E-02 -0.9811557E-01  0.1955890E-02  0.1083525E-01
6207000.  0.1214100E-01  0.1336506E+00 -0.1044023E-02 -0.1039104E+00  0.1894156E-02  0.1712977E-01
6179000.  0.1026485E-01  0.7194619E+00 -0.5883233E-03 -0.1022084E+00  0.1806340E-02  0.2272815E-01
6151000.  0.5861790E-02  0.1274765E+01 -0.1564307E-03 -0.9315468E-01  0.1695214E-02  0.2775510E-01
6151000.  0.5861790E-02  0.1007849E+01 -0.1564307E-03 -0.8263201E-01  0.1695214E-02  0.2743079E-01
6128500.  0.1747328E-02  0.1313303E+01  0.1172380E-03 -0.7191586E-01  0.1595613E-02  0.2889035E-01
6106000. -0.3343366E-02  0.1558635E+01  0.3488402E-03 -0.5891735E-01  0.1491734E-02  0.2985799E-01
6083500. -0.9177871E-02  0.1733040E+01  0.5314990E-03 -0.4431622E-01  0.1385267E-02  0.3035954E-01
6061000. -0.1549191E-01  0.1829333E+01  0.6608175E-03 -0.2883150E-01  0.1277817E-02  0.3041891E-01
6038500. -0.2200255E-01  0.1844137E+01  0.7349583E-03 -0.1318781E-01  0.1170906E-02  0.3005777E-01
6016000. -0.2842165E-01  0.1777873E+01  0.7546030E-03  0.1918044E-02  0.1065985E-02  0.2929525E-01
5993500. -0.3446902E-01  0.1634583E+01  0.7228013E-03  0.1584624E-01  0.9644396E-03  0.2814793E-01
5971000. -0.3988472E-01  0.1421626E+01  0.6447263E-03  0.2803787E-01  0.8676079E-03  0.2662772E-01
5971000. -0.3988472E-01  0.1321240E+01  0.6447263E-03  0.2971314E-01  0.8676079E-03  0.3184896E-01
5937667. -0.4572410E-01  0.8987968E+00  0.4565325E-03  0.4129456E-01  0.7093929E-03  0.2854336E-01
5904333. -0.4920177E-01  0.4256741E+00  0.2222069E-03  0.4739155E-01  0.5696684E-03  0.2481164E-01
5871000. -0.5016287E-01 -0.5664714E-01 -0.3066310E-04  0.4850167E-01  0.4501824E-03  0.2083671E-01
5837667. -0.4865541E-01 -0.5126368E+00 -0.2780436E-03  0.4544861E-01  0.3517909E-03  0.1676997E-01
5804333. -0.4489337E-01 -0.9144904E+00 -0.5007015E-03  0.3921928E-01  0.2746675E-03  0.1272026E-01
5771000. -0.3921482E-01 -0.1242741E+01 -0.6846797E-03  0.3083166E-01  0.2185439E-03  0.8749224E-02
5771000. -0.3921482E-01 -0.1242806E+01 -0.6846797E-03  0.3083204E-01  0.2185439E-03  0.8749224E-02
5701000. -0.2261741E-01 -0.1711103E+01 -0.8998725E-03  0.7354362E-02  0.1811101E-03 -0.2233905E-02
5701000. -0.2261741E-01 -0.1480973E+01 -0.8998725E-03  0.1089545E-01  0.1811101E-03  0.4141130E-02
5667333. -0.1475910E-01 -0.1501041E+01 -0.9455655E-03  0.6520676E-02  0.1639001E-03  0.2660695E-02
5633667. -0.6669957E-02 -0.1560685E+01 -0.9687052E-03  0.2193927E-02  0.1514399E-03  0.2075529E-02
5600000.  0.1651587E-02 -0.1581009E+01 -0.9688769E-03 -0.2076800E-02  0.1419709E-03  0.1526198E-02
5600000.  0.1651587E-02 -0.1581009E+01 -0.9688769E-03 -0.2076800E-02  0.1419709E-03  0.1526198E-02
5563518.  0.1066678E-01 -0.1560727E+01 -0.9446691E-03 -0.6300861E-02  0.1346367E-03  0.1054610E-02
5527037.  0.1944900E-01 -0.1500488E+01 -0.8977256E-03 -0.9999042E-02  0.1296755E-03  0.6964281E-03
5490556.  0.2778375E-01 -0.1405342E+01 -0.8313430E-03 -0.1307859E-01  0.1264611E-03  0.4423803E-03
5454074.  0.3548760E-01 -0.1281075E+01 -0.7492290E-03 -0.1548683E-01  0.1244362E-03  0.2790408E-03
5417593.  0.4241152E-01 -0.1134077E+01 -0.6553054E-03 -0.1720416E-01  0.1231091E-03  0.1965691E-03
5381111.  0.4844402E-01 -0.9707173E+00 -0.5534892E-03 -0.1824768E-01  0.1220636E-03  0.1776494E-03
5344630.  0.5350917E-01 -0.7972851E+00 -0.4475371E-03 -0.1865783E-01  0.1209811E-03  0.2079901E-03
5308148.  0.5756681E-01 -0.6197101E+00 -0.3409130E-03 -0.1849328E-01  0.1196021E-03  0.2786144E-03
5271667.  0.6060853E-01 -0.4433232E+00 -0.2366885E-03 -0.1783439E-01  0.1177540E-03  0.3694832E-03
5235185.  0.6265508E-01 -0.2728116E+00 -0.1374591E-03 -0.1676124E-01  0.1153401E-03  0.4758326E-03
5198704.  0.6375162E-01 -0.1121114E+00 -0.4535792E-04 -0.1536131E-01  0.1122888E-03  0.5895101E-03
5162222.  0.6396367E-01  0.3567515E-01  0.3802251E-04 -0.1372873E-01  0.1086090E-03  0.6943604E-03
5125741.  0.6337217E-01  0.1682306E+00  0.1115691E-03 -0.1193993E-01  0.1043441E-03  0.7940870E-03
5089259.  0.6206912E-01  0.2839972E+00  0.1746156E-03 -0.1007368E-01  0.9953952E-04  0.8810873E-03
5052778.  0.6015348E-01  0.3821277E+00  0.2269262E-03 -0.8200787E-02  0.9429057E-04  0.9495234E-03
5016296.  0.5772691E-01  0.4624458E+00  0.2686215E-03 -0.6374134E-02  0.8869189E-04  0.1003232E-02
4979815.  0.5489086E-01  0.5252712E+00  0.3001126E-03 -0.4644599E-02  0.8283890E-04  0.1037717E-02
4943333.  0.5174322E-01  0.5714228E+00  0.3220674E-03 -0.3047609E-02  0.7684356E-04  0.1053809E-02
4906852.  0.4837640E-01  0.6020687E+00  0.3353122E-03 -0.1606440E-02  0.7079506E-04  0.1056143E-02
4870370.  0.4487513E-01  0.6186041E+00  0.3408054E-03 -0.3423989E-03  0.6478473E-04  0.1040420E-02
4833889.  0.4131580E-01  0.6226656E+00  0.3395812E-03  0.7398851E-03  0.5890224E-04  0.1012748E-02
4797407.  0.3776479E-01  0.6159461E+00  0.3326779E-03  0.1640801E-02  0.5320337E-04  0.9757746E-03
4760926.  0.3427919E-01  0.6001425E+00  0.3211386E-03  0.2360567E-02  0.4775259E-04  0.9266517E-03
4724444.  0.3090580E-01  0.5769988E+00  0.3059601E-03  0.2914308E-02  0.4259877E-04  0.8728425E-03
4687963.  0.2768221E-01  0.5481097E+00  0.2880577E-03  0.3313993E-02  0.3776623E-04  0.8141854E-03
4651482.  0.2463690E-01  0.5149740E+00  0.2682755E-03  0.3573971E-02  0.3328344E-04  0.7512961E-03
4615000.  0.2179004E-01  0.4789791E+00  0.2473551E-03  0.3714376E-02  0.2916138E-04  0.6884599E-03
4578518.  0.1915463E-01  0.4413109E+00  0.2259356E-03  0.3750982E-02  0.2540056E-04  0.6250410E-03
4542037.  0.1673720E-01  0.4030258E+00  0.2045617E-03  0.3701861E-02  0.2200164E-04  0.5626079E-03
4505556.  0.1453861E-01  0.3650078E+00  0.1836692E-03  0.3585382E-02  0.1895063E-04  0.5034700E-03
4469074.  0.1255521E-01  0.3279517E+00  0.1636047E-03  0.3414865E-02  0.1623320E-04  0.4460873E-03
4432593.  0.1077985E-01  0.2924464E+00  0.1446336E-03  0.3206205E-02  0.1383428E-04  0.3925800E-03
4396111.  0.9202276E-02  0.2589092E+00  0.1269349E-03  0.2971977E-02  0.1172914E-04  0.3432748E-03
4359630.  0.7810432E-02  0.2276334E+00  0.1106288E-03  0.2721634E-02  0.9897251E-05  0.2972070E-03
4323148.  0.6590644E-02  0.1988251E+00  0.9577647E-04  0.2465541E-02  0.8316948E-05  0.2554766E-03
4286667.  0.5528543E-02  0.1725770E+00  0.8239054E-04  0.2210537E-02  0.6964203E-05  0.2175976E-03
4250185.  0.4609320E-02  0.1489111E+00  0.7044838E-04  0.1962067E-02  0.5818638E-05  0.1831079E-03
4213704.  0.3818297E-02  0.1277969E+00  0.5989819E-04  0.1725062E-02  0.4860422E-05  0.1521110E-03
4177222.  0.3141063E-02  0.1091431E+00  0.5066593E-04  0.1501992E-02  0.4071593E-05  0.1238037E-03
4140741.  0.2563877E-02  0.9283742E-01  0.4266629E-04  0.1294939E-02  0.3438384E-05  0.9772686E-04
4104259.  0.2073647E-02  0.7874139E-01  0.3580289E-04  0.1105106E-02  0.2948841E-05  0.7346115E-04
4067778.  0.1658186E-02  0.6670131E-01  0.2997795E-04  0.9322537E-03  0.2596043E-05  0.4981009E-04
4031296.  0.1306125E-02  0.5656892E-01  0.2509414E-04  0.7762928E-03  0.2378521E-05  0.2607272E-04
3994815.  0.1006986E-02  0.4819582E-01  0.2105685E-04  0.6364224E-03  0.2299893E-05  0.1041704E-05
3958333.  0.7510854E-03  0.4144237E-01  0.1777747E-04  0.5113501E-03  0.2372316E-05 -0.2696491E-04
3921852.  0.5295129E-03  0.3618923E-01  0.1517428E-04  0.4001054E-03  0.2617763E-05 -0.5974885E-04
3885370.  0.3339800E-03  0.3232893E-01  0.1317102E-04  0.3016327E-03  0.3070587E-05 -0.9988222E-04
3848889.  0.1567867E-03  0.2977190E-01  0.1169666E-04  0.2153671E-03  0.3781944E-05 -0.1506753E-03
3812407. -0.9317354E-05  0.2844161E-01  0.1068061E-04  0.1417153E-03  0.4824671E-05 -0.2164373E-03
3775926. -0.1711276E-03  0.2826001E-01  0.1004612E-04  0.8260395E-04  0.6300011E-05 -0.3028714E-03
3739444. -0.3349715E-03  0.2913119E-01  0.9698411E-05  0.4260644E-04  0.8346886E-05 -0.4174648E-03
3702963. -0.5064702E-03  0.3090151E-01  0.9505154E-05  0.3063940E-04  0.1115313E-04 -0.5699475E-03
3666482. -0.6900521E-03  0.3328951E-01  0.9264084E-05  0.6275890E-04  0.1496983E-04 -0.7727320E-03
3630000. -0.8879322E-03  0.3577917E-01  0.8651219E-05  0.1663376E-03  0.2012874E-04 -0.1041619E-02
3630000. -0.8879322E-03  0.3577917E-01  0.8651219E-05  0.1663376E-03  0.2012874E-04 -0.1041619E-02
3592500. -0.1104213E-02  0.3743751E-01  0.7073855E-05  0.3960244E-03  0.2728505E-04 -0.1406897E-02
3555000. -0.1323292E-02  0.3631910E-01  0.3585099E-05  0.8334552E-03  0.3691415E-04 -0.1886039E-02
3517500. -0.1519907E-02  0.2907588E-01 -0.3411110E-05  0.1617098E-02  0.4976057E-04 -0.2504102E-02
3480000. -0.1642265E-02  0.9812383E-02 -0.1657121E-04  0.2976233E-02  0.6670521E-04 -0.3280932E-02
3480000. -0.1642265E-02 -0.8852416E-01 -0.5253337E-04 -0.2909491E-02  0.6670521E-04  0.1985785E-02
3409422. -0.8928253E-03 -0.5010515E-01 -0.2811924E-04 -0.1615500E-02  0.4475154E-04  0.1844930E-02
3338844. -0.4736596E-03 -0.2762502E-01 -0.1470990E-04 -0.8756332E-03  0.2716897E-04  0.1315692E-02
3268266. -0.2452297E-03 -0.1484264E-01 -0.7519604E-05 -0.4633502E-03  0.1541224E-04  0.8276399E-03
3197688. -0.1238957E-03 -0.7773310E-02 -0.3755390E-05 -0.2393590E-03  0.8297728E-05  0.4809456E-03
3127109. -0.6106948E-04 -0.3968284E-02 -0.1831626E-05 -0.1206884E-03  0.4276279E-05  0.2635990E-03
3056531. -0.2935927E-04 -0.1974510E-02 -0.8720817E-06 -0.5937972E-04  0.2120172E-05  0.1377612E-03
2985953. -0.1376020E-04 -0.9573192E-03 -0.4051136E-06 -0.2849615E-04  0.1014329E-05  0.6907833E-04
2915375. -0.6283807E-05 -0.4520870E-03 -0.1834926E-06 -0.1333160E-04  0.4690978E-06  0.3335705E-04
2844797. -0.2794157E-05 -0.2078378E-03 -0.8097707E-07 -0.6076478E-05  0.2099159E-06  0.1554564E-04
2774219. -0.1208845E-05 -0.9295629E-04 -0.3478894E-07 -0.2696323E-05  0.9092786E-07  0.7000485E-05
2703641. -0.5083860E-06 -0.4041501E-04 -0.1453594E-07 -0.1163772E-05  0.3812441E-07  0.3047739E-05
2633062. -0.2076217E-06 -0.1706527E-04 -0.5900656E-08 -0.4881002E-06  0.1546660E-07  0.1282830E-05
2562484. -0.8224731E-07 -0.6991092E-05 -0.2324387E-08 -0.1987132E-06  0.6067304E-08  0.5218699E-06
2491906. -0.3156302E-07 -0.2775329E-05 -0.8873379E-09 -0.7842895E-07  0.2299338E-08  0.2050516E-06
2421328. -0.1171717E-07 -0.1066200E-05 -0.3277990E-09 -0.2996793E-07  0.8408431E-09  0.7774273E-07
2350750. -0.4201107E-08 -0.3957898E-06 -0.1169935E-09 -0.1106878E-07  0.2963010E-09  0.2840708E-07
2280172. -0.1452228E-08 -0.1417299E-06 -0.4026920E-10 -0.3945125E-08  0.1004519E-09  0.9989200E-08
2209594. -0.4830418E-09 -0.4886700E-07 -0.1334077E-10 -0.1354297E-08  0.3270301E-10  0.3374647E-08
2139016. -0.1542652E-09 -0.1618898E-07 -0.4244542E-11 -0.4468282E-09  0.1020257E-10  0.1093107E-08
2068438. -0.4718821E-10 -0.5141166E-08 -0.1293793E-11 -0.1413580E-09  0.3042940E-11  0.3387318E-09
1997859. -0.1378808E-10 -0.1561012E-08 -0.3767883E-12 -0.4276701E-10  0.8653072E-12  0.1001594E-09
1927281. -0.3836985E-11 -0.4518621E-09 -0.1045279E-12 -0.1233823E-10  0.2339100E-12  0.2817943E-10
1856703. -0.1013533E-11 -0.1242876E-09 -0.2752863E-13 -0.3383301E-11  0.5990132E-13  0.7519159E-11
1786125. -0.2533060E-12 -0.3234691E-10 -0.6853038E-14 -0.8790785E-12  0.1446785E-13  0.1897076E-11
1715547.  0.0000000E+00  0.0000000E+00  0.0000000E+00  0.0000000E+00  0.0000000E+00  0.0000000E+00
1644969.  0.0000000E+00  0.0000000E+00  0.0000000E+00  0.0000000E+00  0.0000000E+00  0.0000000E+00
1574391.  0.0000000E+00  0.0000000E+00  0.0000000E+00  0.0000000E+00  0.0000000E+00  0.0000000E+00
1503812.  0.0000000E+00  0.0000000E+00  0.0000000E+00  0.0000000E+00  0.0000000E+00  0.0000000E+00
1433234.  0.0000000E+00  0.0000000E+00  0.0000000E+00  0.0000000E+00  0.0000000E+00  0.0000000E+00
1362656.  0.0000000E+00  0.0000000E+00  0.0000000E+00  0.0000000E+00  0.0000000E+00  0.0000000E+00
1292078.  0.0000000E+00  0.0000000E+00  0.0000000E+00  0.0000000E+00  0.0000000E+00  0.0000000E+00
1221500.  0.0000000E+00  0.0000000E+00  0.0000000E+00  0.0000000E+00  0.0000000E+00  0.0000000E+00
1221500.  0.0000000E+00  0.0000000E+00  0.0000000E+00  0.0000000E+00  0.0000000E+00  0.0000000E+00
1183328.  0.0000000E+00  0.0000000E+00  0.0000000E+00  0.0000000E+00  0.0000000E+00  0.0000000E+00
1145156.  0.0000000E+00  0.0000000E+00  0.0000000E+00  0.0000000E+00  0.0000000E+00  0.0000000E+00
1106984.  0.0000000E+00  0.0000000E+00  0.0000000E+00  0.0000000E+00  0.0000000E+00  0.0000000E+00
1068812.  0.0000000E+00  0.0000000E+00  0.0000000E+00  0.0000000E+00  0.0000000E+00  0.0000000E+00
1030641.  0.0000000E+00  0.0000000E+00  0.0000000E+00  0.0000000E+00  0.0000000E+00  0.0000000E+00
 992469.  0.0000000E+00  0.0000000E+00  0.0000000E+00  0.0000000E+00  0.0000000E+00  0.0000000E+00
 954297.  0.0000000E+00  0.0000000E+00  0.0000000E+00  0.0000000E+00  0.0000000E+00  0.0000000E+00
 916125.  0.0000000E+00  0.0000000E+00  0.0000000E+00  0.0000000E+00  0.0000000E+00  0.0000000E+00
 877953.  0.0000000E+00  0.0000000E+00  0.0000000E+00  0.0000000E+00  0.0000000E+00  0.0000000E+00
 839781.  0.0000000E+00  0.0000000E+00  0.0000000E+00  0.0000000E+00  0.0000000E+00  0.0000000E+00
 801609.  0.0000000E+00  0.0000000E+00  0.0000000E+00  0.0000000E+00  0.0000000E+00  0.0000000E+00
 763438.  0.0000000E+00  0.0000000E+00  0.0000000E+00  0.0000000E+00  0.0000000E+00  0.0000000E+00
 725266.  0.0000000E+00  0.0000000E+00  0.0000000E+00  0.0000000E+00  0.0000000E+00  0.0000000E+00
 687094.  0.0000000E+00  0.0000000E+00  0.0000000E+00  0.0000000E+00  0.0000000E+00  0.0000000E+00
 648922.  0.0000000E+00  0.0000000E+00  0.0000000E+00  0.0000000E+00  0.0000000E+00  0.0000000E+00
 610750.  0.0000000E+00  0.0000000E+00  0.0000000E+00  0.0000000E+00  0.0000000E+00  0.0000000E+00
 572578.  0.0000000E+00  0.0000000E+00  0.0000000E+00  0.0000000E+00  0.0000000E+00  0.0000000E+00
 534406.  0.0000000E+00  0.0000000E+00  0.0000000E+00  0.0000000E+00  0.0000000E+00  0.0000000E+00
 496234.  0.0000000E+00  0.0000000E+00  0.0000000E+00  0.0000000E+00  0.0000000E+00  0.0000000E+00
 458062.  0.0000000E+00  0.0000000E+00  0.0000000E+00  0.0000000E+00  0.0000000E+00  0.0000000E+00
 419891.  0.0000000E+00  0.0000000E+00  0.0000000E+00  0.0000000E+00  0.0000000E+00  0.0000000E+00
 381719.  0.0000000E+00  0.0000000E+00  0.0000000E+00  0.0000000E+00  0.0000000E+00  0.0000000E+00
 343547.  0.0000000E+00  0.0000000E+00  0.0000000E+00  0.0000000E+00  0.0000000E+00  0.0000000E+00
 305375.  0.0000000E+00  0.0000000E+00  0.0000000E+00  0.0000000E+00  0.0000000E+00  0.0000000E+00
 267203.  0.0000000E+00  0.0000000E+00  0.0000000E+00  0.0000000E+00  0.0000000E+00  0.0000000E+00
 229031.  0.0000000E+00  0.0000000E+00  0.0000000E+00  0.0000000E+00  0.0000000E+00  0.0000000E+00
 190859.  0.0000000E+00  0.0000000E+00  0.0000000E+00  0.0000000E+00  0.0000000E+00  0.0000000E+00
 152688.  0.0000000E+00  0.0000000E+00  0.0000000E+00  0.0000000E+00  0.0000000E+00  0.0000000E+00
 114516.  0.0000000E+00  0.0000000E+00  0.0000000E+00  0.0000000E+00  0.0000000E+00  0.0000000E+00
  76344.  0.0000000E+00  0.0000000E+00  0.0000000E+00  0.0000000E+00  0.0000000E+00  0.0000000E+00
  38172.  0.0000000E+00  0.0000000E+00  0.0000000E+00  0.0000000E+00  0.0000000E+00  0.0000000E+00
      0.  0.0000000E+00  0.0000000E+00  0.0000000E+00  0.0000000E+00  0.0000000E+00  0.0000000E+00
