       5       25 S      341        142.76550         10.99573          6.57254        261.06110      185    7
6371000. -0.2365640E-01  0.8589309E+00  0.3288870E-02  0.2694527E-01 -0.9068954E-03  0.6818971E-01
6370000. -0.2379044E-01  0.8489728E+00  0.3284390E-02  0.3013735E-01 -0.9175767E-03  0.6791050E-01
6369000. -0.2392289E-01  0.8387402E+00  0.3279409E-02  0.3332235E-01 -0.9282140E-03  0.6763006E-01
6368000. -0.2405372E-01  0.8282341E+00  0.3273929E-02  0.3649974E-01 -0.9388072E-03  0.6734841E-01
6368000. -0.2405372E-01  0.8282341E+00  0.3273929E-02  0.3649974E-01 -0.9388072E-03  0.6734841E-01
6367000. -0.2418288E-01  0.8174555E+00  0.3267952E-02  0.3966898E-01 -0.9493561E-03  0.6706555E-01
6366000. -0.2431033E-01  0.8064053E+00  0.3261477E-02  0.4282952E-01 -0.9598605E-03  0.6678151E-01
6365000. -0.2443602E-01  0.7950847E+00  0.3254507E-02  0.4598084E-01 -0.9703203E-03  0.6649629E-01
6364000. -0.2455991E-01  0.7834949E+00  0.3247043E-02  0.4912241E-01 -0.9807352E-03  0.6620990E-01
6363000. -0.2468196E-01  0.7716370E+00  0.3239087E-02  0.5225369E-01 -0.9911050E-03  0.6592237E-01
6362000. -0.2480213E-01  0.7595123E+00  0.3230640E-02  0.5537416E-01 -0.1001430E-02  0.6563370E-01
6361000. -0.2492037E-01  0.7471220E+00  0.3221704E-02  0.5848329E-01 -0.1011709E-02  0.6534389E-01
6360000. -0.2503665E-01  0.7344677E+00  0.3212282E-02  0.6158054E-01 -0.1021942E-02  0.6505299E-01
6359000. -0.2515092E-01  0.7215506E+00  0.3202373E-02  0.6466541E-01 -0.1032130E-02  0.6476098E-01
6358000. -0.2526315E-01  0.7083722E+00  0.3191982E-02  0.6773736E-01 -0.1042272E-02  0.6446788E-01
6357000. -0.2537328E-01  0.6949341E+00  0.3181110E-02  0.7079589E-01 -0.1052368E-02  0.6417370E-01
6356000. -0.2548129E-01  0.6812377E+00  0.3169758E-02  0.7384046E-01 -0.1062418E-02  0.6387847E-01
6356000. -0.2548129E-01  0.6298431E+00  0.3169758E-02  0.5595399E-01 -0.1062418E-02  0.6942290E-01
6355000. -0.2557939E-01  0.6201379E+00  0.3160834E-02  0.5775812E-01 -0.1073286E-02  0.6906269E-01
6354000. -0.2567596E-01  0.6102828E+00  0.3151627E-02  0.5955480E-01 -0.1084098E-02  0.6870208E-01
6353000. -0.2577097E-01  0.6002787E+00  0.3142139E-02  0.6134385E-01 -0.1094853E-02  0.6834105E-01
6352000. -0.2586439E-01  0.5901265E+00  0.3132371E-02  0.6312505E-01 -0.1105552E-02  0.6797962E-01
6351000. -0.2595621E-01  0.5798268E+00  0.3122323E-02  0.6489824E-01 -0.1116194E-02  0.6761780E-01
6350000. -0.2604640E-01  0.5693806E+00  0.3111998E-02  0.6666321E-01 -0.1126779E-02  0.6725559E-01
6349000. -0.2613495E-01  0.5587888E+00  0.3101396E-02  0.6841978E-01 -0.1137307E-02  0.6689300E-01
6348000. -0.2622181E-01  0.5480521E+00  0.3090520E-02  0.7016777E-01 -0.1147778E-02  0.6653005E-01
6347000. -0.2630698E-01  0.5371717E+00  0.3079370E-02  0.7190699E-01 -0.1158192E-02  0.6616673E-01
6346600. -0.2634057E-01  0.5327795E+00  0.3074833E-02  0.7260018E-01 -0.1162342E-02  0.6602130E-01
6346600. -0.2634057E-01  0.7148662E+00  0.3074833E-02  0.5860798E-01 -0.1162342E-02  0.7520588E-01
6318800. -0.2891473E-01  0.4521282E+00  0.2753527E-02  0.8778946E-01 -0.1467768E-02  0.6480470E-01
6291000. -0.3018460E-01  0.1196529E+00  0.2317514E-02  0.1109178E+00 -0.1728066E-02  0.5452098E-01
6291000. -0.3018460E-01  0.1330072E+00  0.2317514E-02  0.1136964E+00 -0.1728066E-02  0.5452098E-01
6263000. -0.2990798E-01 -0.2662257E+00  0.1778020E-02  0.1303617E+00 -0.1945427E-02  0.4440818E-01
6235000. -0.2779896E-01 -0.6964203E+00  0.1185028E-02  0.1379203E+00 -0.2118539E-02  0.3438624E-01
6207000. -0.2378228E-01 -0.1129477E+01  0.5797019E-03  0.1359598E+00 -0.2247828E-02  0.2446895E-01
6179000. -0.1791030E-01 -0.1535756E+01  0.3592392E-05  0.1247185E+00 -0.2333812E-02  0.1468568E-01
6151000. -0.1036537E-01 -0.1886068E+01 -0.5042111E-03  0.1050729E+00 -0.2377182E-02  0.5087124E-02
6151000. -0.1036537E-01 -0.1545515E+01 -0.5042111E-03  0.9353355E-01 -0.2377182E-02  0.5660593E-02
6128500. -0.4611234E-02 -0.1705401E+01 -0.8036402E-03  0.7558086E-01 -0.2388938E-02  0.1068571E-02
6106000.  0.1621854E-02 -0.1815883E+01 -0.1035329E-02  0.5531090E-01 -0.2385249E-02 -0.3082676E-02
6083500.  0.8151242E-02 -0.1872652E+01 -0.1192599E-02  0.3358252E-01 -0.2367703E-02 -0.6777045E-02
6061000.  0.1478257E-01 -0.1873402E+01 -0.1271851E-02  0.1127513E-01 -0.2337934E-02 -0.1000259E-01
6038500.  0.2131695E-01 -0.1817880E+01 -0.1272580E-02 -0.1074401E-01 -0.2297614E-02 -0.1275117E-01
6016000.  0.2755817E-01 -0.1707829E+01 -0.1197275E-02 -0.3165168E-01 -0.2248436E-02 -0.1501816E-01
5993500.  0.3331953E-01 -0.1546877E+01 -0.1051214E-02 -0.5069643E-01 -0.2192105E-02 -0.1680257E-01
5971000.  0.3843025E-01 -0.1340378E+01 -0.8421640E-03 -0.6722234E-01 -0.2130323E-02 -0.1810526E-01
5971000.  0.3843025E-01 -0.1233781E+01 -0.8421640E-03 -0.6443302E-01 -0.2130323E-02 -0.2313611E-01
5937667.  0.4393554E-01 -0.8633507E+00 -0.4622433E-03 -0.7956785E-01 -0.2007100E-02 -0.2378894E-01
5904333.  0.4741169E-01 -0.4625587E+00 -0.2229134E-04 -0.8741735E-01 -0.1883112E-02 -0.2345578E-01
5871000.  0.4876811E-01 -0.5718567E-01  0.4406398E-03 -0.8847743E-01 -0.1763068E-02 -0.2231207E-01
5837667.  0.4804203E-01  0.3300040E+00  0.8932318E-03 -0.8363803E-01 -0.1650756E-02 -0.2052743E-01
5804333.  0.4537951E-01  0.6802369E+00  0.1307515E-02 -0.7402980E-01 -0.1549117E-02 -0.1825457E-01
5771000.  0.4101350E-01  0.9792194E+00  0.1661734E-02 -0.6089136E-01 -0.1460359E-02 -0.1562441E-01
5771000.  0.4101350E-01  0.9792836E+00  0.1661734E-02 -0.6089079E-01 -0.1460359E-02 -0.1562441E-01
5701000.  0.2738957E-01  0.1454865E+01  0.2146659E-02 -0.2555974E-01 -0.1336042E-02 -0.6657587E-02
5701000.  0.2738957E-01  0.1271378E+01  0.2146659E-02 -0.2611539E-01 -0.1336042E-02 -0.1437772E-01
5667333.  0.2054396E-01  0.1323970E+01  0.2254147E-02 -0.1494800E-01 -0.1263429E-02 -0.1333228E-01
5633667.  0.1334433E-01  0.1399642E+01  0.2305407E-02 -0.4356129E-02 -0.1193926E-02 -0.1297598E-01
5600000.  0.5839297E-02  0.1432475E+01  0.2299899E-02  0.6395701E-02 -0.1126525E-02 -0.1252872E-01
5600000.  0.5839297E-02  0.1432475E+01  0.2299899E-02  0.6395701E-02 -0.1126525E-02 -0.1252872E-01
5563518. -0.2350218E-02  0.1419622E+01  0.2230844E-02  0.1761898E-01 -0.1056177E-02 -0.1204173E-01
5527037. -0.1032577E-01  0.1358263E+01  0.2099700E-02  0.2801843E-01 -0.9885959E-03 -0.1156617E-01
5490556. -0.1781895E-01  0.1251824E+01  0.1912223E-02  0.3724141E-01 -0.9236636E-03 -0.1111864E-01
5454074. -0.2458493E-01  0.1105123E+01  0.1675988E-02  0.4500549E-01 -0.8611906E-03 -0.1070789E-01
5417593. -0.3040979E-01  0.9242604E+00  0.1399981E-02  0.5110863E-01 -0.8009488E-03 -0.1034033E-01
5381111. -0.3511750E-01  0.7160745E+00  0.1094087E-02  0.5542644E-01 -0.7426924E-03 -0.1001290E-01
5344630. -0.3857248E-01  0.4880184E+00  0.7687231E-03  0.5791036E-01 -0.6862096E-03 -0.9721042E-02
5308148. -0.4068309E-01  0.2477772E+00  0.4343347E-03  0.5858465E-01 -0.6313007E-03 -0.9461047E-02
5271667. -0.4140145E-01  0.3011310E-02  0.1010851E-03  0.5753501E-01 -0.5778261E-03 -0.9218731E-02
5235185. -0.4072297E-01 -0.2389242E+00 -0.2215541E-03  0.5490313E-01 -0.5256998E-03 -0.8989002E-02
5198704. -0.3868375E-01 -0.4711839E+00 -0.5250172E-03  0.5087408E-01 -0.4748720E-03 -0.8763338E-02
5162222. -0.3535714E-01 -0.6876006E+00 -0.8019287E-03  0.4566518E-01 -0.4253607E-03 -0.8527393E-02
5125741. -0.3084952E-01 -0.8829246E+00 -0.1046199E-02  0.3951712E-01 -0.3772357E-03 -0.8279083E-02
5089259. -0.2529424E-01 -0.1052829E+01 -0.1253177E-02  0.3267970E-01 -0.3305851E-03 -0.8010479E-02
5052778. -0.1884727E-01 -0.1193972E+01 -0.1419627E-02  0.2540540E-01 -0.2855484E-03 -0.7715387E-02
5016296. -0.1167971E-01 -0.1304158E+01 -0.1543762E-02  0.1793796E-01 -0.2422783E-03 -0.7392817E-02
4979815. -0.3973352E-02 -0.1382110E+01 -0.1625130E-02  0.1050572E-01 -0.2009408E-03 -0.7040507E-02
4943333.  0.4086508E-02 -0.1427599E+01 -0.1664542E-02  0.3315570E-02 -0.1617049E-03 -0.6658671E-02
4906852.  0.1231518E-01 -0.1441325E+01 -0.1663912E-02 -0.3452102E-02 -0.1247367E-03 -0.6249301E-02
4870370.  0.2053489E-01 -0.1424695E+01 -0.1626100E-02 -0.9648245E-02 -0.9018071E-04 -0.5816487E-02
4833889.  0.2857740E-01 -0.1379937E+01 -0.1554742E-02 -0.1515236E-01 -0.5816489E-04 -0.5362774E-02
4797407.  0.3628979E-01 -0.1309802E+01 -0.1454058E-02 -0.1987874E-01 -0.2879615E-04 -0.4893160E-02
4760926.  0.4353503E-01 -0.1217407E+01 -0.1328671E-02 -0.2377440E-01 -0.2137016E-05 -0.4417424E-02
4724444.  0.5019613E-01 -0.1106315E+01 -0.1183428E-02 -0.2681085E-01  0.2177954E-04 -0.3935433E-02
4687963.  0.5617611E-01 -0.9801847E+00 -0.1023258E-02 -0.2899238E-01  0.4293941E-04 -0.3456861E-02
4651482.  0.6139965E-01 -0.8427269E+00 -0.8529809E-03 -0.3034704E-01  0.6139139E-04 -0.2989921E-02
4615000.  0.6581270E-01 -0.6976601E+00 -0.6772108E-03 -0.3091858E-01  0.7720063E-04 -0.2534515E-02
4578518.  0.6938174E-01 -0.5485066E+00 -0.5002511E-03 -0.3077492E-01  0.9046269E-04 -0.2102044E-02
4542037.  0.7209290E-01 -0.3985879E+00 -0.3259857E-03 -0.2999214E-01  0.1013252E-03 -0.1696029E-02
4505556.  0.7395073E-01 -0.2509321E+00 -0.1578389E-03 -0.2865334E-01  0.1099319E-03 -0.1315750E-02
4469074.  0.7497602E-01 -0.1081964E+00  0.1291454E-05 -0.2685719E-01  0.1164744E-03 -0.9759956E-03
4432593.  0.7520364E-01  0.2731840E-01  0.1490331E-03 -0.2469156E-01  0.1211743E-03 -0.6711200E-03
4396111.  0.7468055E-01  0.1537248E+00  0.2835389E-03 -0.2224925E-01  0.1242315E-03 -0.4042572E-03
4359630.  0.7346342E-01  0.2695275E+00  0.4034977E-03 -0.1962611E-01  0.1259007E-03 -0.1863826E-03
4323148.  0.7161610E-01  0.3736739E+00  0.5081015E-03 -0.1689764E-01  0.1264427E-03 -0.9938171E-05
4286667.  0.6920765E-01  0.4654526E+00  0.5969680E-03 -0.1414347E-01  0.1261055E-03  0.1191783E-03
4250185.  0.6630985E-01  0.5445386E+00  0.6701627E-03 -0.1143279E-01  0.1251779E-03  0.1966408E-03
4213704.  0.6299565E-01  0.6109514E+00  0.7280821E-03 -0.8817607E-02  0.1239428E-03  0.2262994E-03
4177222.  0.5933677E-01  0.6649634E+00  0.7714311E-03 -0.6351019E-02  0.1226947E-03  0.1998897E-03
4140741.  0.5540293E-01  0.7071397E+00  0.8011689E-03 -0.4068241E-02  0.1217645E-03  0.1158668E-03
4104259.  0.5125953E-01  0.7382532E+00  0.8184165E-03 -0.1992604E-02  0.1214741E-03 -0.2522386E-04
4067778.  0.4696772E-01  0.7591844E+00  0.8244360E-03 -0.1491011E-03  0.1221944E-03 -0.2385276E-03
4031296.  0.4258249E-01  0.7710272E+00  0.8205704E-03  0.1460556E-02  0.1243429E-03 -0.5242830E-03
3994815.  0.3815293E-01  0.7748942E+00  0.8081532E-03  0.2837826E-02  0.1283556E-03 -0.8926780E-03
3958333.  0.3372129E-01  0.7719079E+00  0.7885089E-03  0.3987086E-02  0.1347622E-03 -0.1362672E-02
3921852.  0.2932363E-01  0.7632626E+00  0.7628824E-03  0.4931659E-02  0.1441751E-03 -0.1945524E-02
3885370.  0.2498897E-01  0.7500250E+00  0.7323751E-03  0.5695995E-02  0.1573061E-03 -0.2665990E-02
3848889.  0.2074102E-01  0.7331804E+00  0.6979321E-03  0.6313531E-02  0.1750258E-03 -0.3553347E-02
3812407.  0.1659760E-01  0.7135966E+00  0.6602595E-03  0.6832069E-02  0.1983822E-03 -0.4641418E-02
3775926.  0.1257282E-01  0.6918615E+00  0.6197785E-03  0.7304863E-02  0.2286566E-03 -0.5978688E-02
3739444.  0.8677635E-02  0.6683260E+00  0.5765548E-03  0.7803106E-02  0.2674371E-03 -0.7622630E-02
3702963.  0.4922448E-02  0.6429461E+00  0.5301956E-03  0.8416918E-02  0.3166766E-03 -0.9646073E-02
3666482.  0.1319233E-02  0.6150947E+00  0.4797320E-03  0.9258037E-02  0.3788088E-03 -0.1214309E-01
3630000. -0.2114731E-02  0.5835135E+00  0.4234547E-03  0.1047517E-01  0.4568682E-03 -0.1523004E-01
3630000. -0.2114731E-02  0.5835135E+00  0.4234547E-03  0.1047517E-01  0.4568682E-03 -0.1523004E-01
3592500. -0.5439111E-02  0.5447392E+00  0.3567183E-03  0.1232236E-01  0.5576883E-03 -0.1917225E-01
3555000. -0.8507307E-02  0.4956591E+00  0.2766667E-03  0.1505392E-01  0.6844826E-03 -0.2409322E-01
3517500. -0.1124223E-01  0.4302807E+00  0.1770240E-03  0.1905349E-01  0.8437304E-03 -0.3024670E-01
3480000. -0.1352324E-01  0.3396231E+00  0.4886063E-04  0.2484708E-01  0.1043584E-02 -0.3794973E-01
3480000. -0.1352324E-01 -0.3703470E+00 -0.7673515E-03 -0.2333950E-01  0.1043584E-02  0.5419084E-02
3409422. -0.9870312E-02 -0.2906154E+00 -0.5427340E-03 -0.1742354E-01  0.9207200E-03  0.1503174E-01
3338844. -0.7045592E-02 -0.2212888E+00 -0.3768215E-03 -0.1272215E-01  0.7382472E-03  0.1704917E-01
3268266. -0.4922914E-02 -0.1639605E+00 -0.2568926E-03 -0.9094669E-02  0.5559313E-03  0.1550077E-01
3197688. -0.3369137E-02 -0.1184453E+00 -0.1719871E-03 -0.6369661E-02  0.3995500E-03  0.1263391E-01
3127109. -0.2259376E-02 -0.8354362E-01 -0.1130786E-03 -0.4372775E-02  0.2765239E-03  0.9607994E-02
3056531. -0.1485065E-02 -0.5759259E-01 -0.7301015E-04 -0.2943383E-02  0.1852848E-03  0.6946846E-02
2985953. -0.9568229E-03 -0.3883064E-01 -0.4628430E-04 -0.1942889E-02  0.1206009E-03  0.4824029E-02
2915375. -0.6042739E-03 -0.2561693E-01 -0.2880227E-04 -0.1257666E-02  0.7641774E-04  0.3236632E-02
2844797. -0.3740131E-03 -0.1653949E-01 -0.1758815E-04 -0.7982753E-03  0.4720145E-04  0.2105901E-02
2774219. -0.2268173E-03 -0.1045155E-01 -0.1053502E-04 -0.4967235E-03  0.2844324E-04  0.1331829E-02
2703641. -0.1347227E-03 -0.6463306E-02 -0.6186661E-05 -0.3029053E-03  0.1672764E-04  0.8198699E-03
2633062. -0.7833763E-04 -0.3910489E-02 -0.3559808E-05 -0.1809413E-03  0.9601835E-05  0.4916757E-03
2562484. -0.4456755E-04 -0.2313916E-02 -0.2005674E-05 -0.1058234E-03  0.5378608E-05  0.2873550E-03
2491906. -0.2479037E-04 -0.1338368E-02 -0.1105655E-05 -0.6055557E-04  0.2939076E-05  0.1636724E-03
2421328. -0.1347146E-04 -0.7561955E-03 -0.5958363E-06 -0.3387874E-04  0.1565763E-05  0.9083244E-04
2350750. -0.7145201E-05 -0.4170475E-03 -0.3135865E-06 -0.1851508E-04  0.8126198E-06  0.4909108E-04
2280172. -0.3695113E-05 -0.2243018E-03 -0.1610028E-06 -0.9874567E-05  0.4104790E-06  0.2581993E-04
2209594. -0.1860977E-05 -0.1175214E-03 -0.8054192E-07 -0.5133539E-05  0.2015845E-06  0.1320394E-04
2139016. -0.9115395E-06 -0.5991181E-04 -0.3920366E-07 -0.2598190E-05  0.9612309E-07  0.6557906E-05
2068438. -0.4335914E-06 -0.2967707E-04 -0.1853880E-07 -0.1278382E-05  0.4443866E-07  0.3159133E-05
1997859. -0.1999496E-06 -0.1426133E-04 -0.8502327E-08 -0.6104986E-06  0.1988476E-07  0.1473810E-05
1927281. -0.8922444E-07 -0.6636979E-05 -0.3774602E-08 -0.2824665E-06  0.8595771E-08  0.6647036E-06
1856703. -0.3844519E-07 -0.2985248E-05 -0.1618613E-08 -0.1263633E-06  0.3581849E-08  0.2892307E-06
1786125. -0.1595711E-07 -0.1294814E-05 -0.6688100E-09 -0.5453203E-07  0.1435228E-08  0.1211401E-06
1715547. -0.6362752E-08 -0.5401790E-06 -0.2655621E-09 -0.2264299E-07  0.5514607E-09  0.4870980E-07
1644969. -0.2429862E-08 -0.2161262E-06 -0.1010168E-09 -0.9019710E-08  0.2025408E-09  0.1874666E-07
1574391. -0.8856182E-09 -0.8265638E-07 -0.3668294E-10 -0.3435384E-08  0.7085114E-10  0.6882079E-08
1503812. -0.3068197E-09 -0.3010296E-07 -0.1266635E-10 -0.1246228E-08  0.2350812E-10  0.2400399E-08
1433234. -0.1005337E-09 -0.1040046E-07 -0.4141638E-11 -0.4284946E-09  0.7363735E-11  0.7918466E-09
1362656. -0.3080490E-10 -0.3414454E-08 -0.1282959E-11 -0.1380334E-09  0.2166647E-11  0.2456842E-09
1292078. -0.7991126E-11 -0.1160311E-08 -0.4049462E-12 -0.3740838E-10  0.5970766E-12  0.7115763E-10
1221500.  0.1882569E-11 -0.8856748E-09 -0.2666738E-12  0.1120791E-10  0.1545803E-12  0.1955170E-10
1221500.  0.1882569E-11 -0.9322526E-11 -0.9438015E-14 -0.9868176E-11  0.1545803E-12  0.1873617E-10
1183328.  0.1609662E-11  0.7811358E-10  0.2168690E-13 -0.1871324E-11  0.7373755E-13  0.9280946E-11
1145156.  0.0000000E+00  0.0000000E+00  0.0000000E+00  0.0000000E+00  0.0000000E+00  0.0000000E+00
1106984.  0.0000000E+00  0.0000000E+00  0.0000000E+00  0.0000000E+00  0.0000000E+00  0.0000000E+00
1068812.  0.0000000E+00  0.0000000E+00  0.0000000E+00  0.0000000E+00  0.0000000E+00  0.0000000E+00
1030641.  0.0000000E+00  0.0000000E+00  0.0000000E+00  0.0000000E+00  0.0000000E+00  0.0000000E+00
 992469.  0.0000000E+00  0.0000000E+00  0.0000000E+00  0.0000000E+00  0.0000000E+00  0.0000000E+00
 954297.  0.0000000E+00  0.0000000E+00  0.0000000E+00  0.0000000E+00  0.0000000E+00  0.0000000E+00
 916125.  0.0000000E+00  0.0000000E+00  0.0000000E+00  0.0000000E+00  0.0000000E+00  0.0000000E+00
 877953.  0.0000000E+00  0.0000000E+00  0.0000000E+00  0.0000000E+00  0.0000000E+00  0.0000000E+00
 839781.  0.0000000E+00  0.0000000E+00  0.0000000E+00  0.0000000E+00  0.0000000E+00  0.0000000E+00
 801609.  0.0000000E+00  0.0000000E+00  0.0000000E+00  0.0000000E+00  0.0000000E+00  0.0000000E+00
 763438.  0.0000000E+00  0.0000000E+00  0.0000000E+00  0.0000000E+00  0.0000000E+00  0.0000000E+00
 725266.  0.0000000E+00  0.0000000E+00  0.0000000E+00  0.0000000E+00  0.0000000E+00  0.0000000E+00
 687094.  0.0000000E+00  0.0000000E+00  0.0000000E+00  0.0000000E+00  0.0000000E+00  0.0000000E+00
 648922.  0.0000000E+00  0.0000000E+00  0.0000000E+00  0.0000000E+00  0.0000000E+00  0.0000000E+00
 610750.  0.0000000E+00  0.0000000E+00  0.0000000E+00  0.0000000E+00  0.0000000E+00  0.0000000E+00
 572578.  0.0000000E+00  0.0000000E+00  0.0000000E+00  0.0000000E+00  0.0000000E+00  0.0000000E+00
 534406.  0.0000000E+00  0.0000000E+00  0.0000000E+00  0.0000000E+00  0.0000000E+00  0.0000000E+00
 496234.  0.0000000E+00  0.0000000E+00  0.0000000E+00  0.0000000E+00  0.0000000E+00  0.0000000E+00
 458062.  0.0000000E+00  0.0000000E+00  0.0000000E+00  0.0000000E+00  0.0000000E+00  0.0000000E+00
 419891.  0.0000000E+00  0.0000000E+00  0.0000000E+00  0.0000000E+00  0.0000000E+00  0.0000000E+00
 381719.  0.0000000E+00  0.0000000E+00  0.0000000E+00  0.0000000E+00  0.0000000E+00  0.0000000E+00
 343547.  0.0000000E+00  0.0000000E+00  0.0000000E+00  0.0000000E+00  0.0000000E+00  0.0000000E+00
 305375.  0.0000000E+00  0.0000000E+00  0.0000000E+00  0.0000000E+00  0.0000000E+00  0.0000000E+00
 267203.  0.0000000E+00  0.0000000E+00  0.0000000E+00  0.0000000E+00  0.0000000E+00  0.0000000E+00
 229031.  0.0000000E+00  0.0000000E+00  0.0000000E+00  0.0000000E+00  0.0000000E+00  0.0000000E+00
 190859.  0.0000000E+00  0.0000000E+00  0.0000000E+00  0.0000000E+00  0.0000000E+00  0.0000000E+00
 152688.  0.0000000E+00  0.0000000E+00  0.0000000E+00  0.0000000E+00  0.0000000E+00  0.0000000E+00
 114516.  0.0000000E+00  0.0000000E+00  0.0000000E+00  0.0000000E+00  0.0000000E+00  0.0000000E+00
  76344.  0.0000000E+00  0.0000000E+00  0.0000000E+00  0.0000000E+00  0.0000000E+00  0.0000000E+00
  38172.  0.0000000E+00  0.0000000E+00  0.0000000E+00  0.0000000E+00  0.0000000E+00  0.0000000E+00
      0.  0.0000000E+00  0.0000000E+00  0.0000000E+00  0.0000000E+00  0.0000000E+00  0.0000000E+00
