       0       28 S       27        274.91470          5.10910          3.59862        190.59770      185    7
6371000.  0.2255347E+00 -0.1910185E+01 -0.5425196E-02 -0.2309599E+00 -0.6835861E-02 -0.2270658E+00
6370000.  0.2258319E+00 -0.1876075E+01 -0.5388926E-02 -0.2311889E+00 -0.6800351E-02 -0.2253948E+00
6369000.  0.2261237E+00 -0.1841918E+01 -0.5352621E-02 -0.2314084E+00 -0.6765104E-02 -0.2237257E+00
6368000.  0.2264101E+00 -0.1807717E+01 -0.5316282E-02 -0.2316184E+00 -0.6730118E-02 -0.2220586E+00
6368000.  0.2264101E+00 -0.1807717E+01 -0.5316282E-02 -0.2316184E+00 -0.6730118E-02 -0.2220586E+00
6367000.  0.2266912E+00 -0.1773472E+01 -0.5279911E-02 -0.2318190E+00 -0.6695394E-02 -0.2203933E+00
6366000.  0.2269668E+00 -0.1739184E+01 -0.5243510E-02 -0.2320101E+00 -0.6660932E-02 -0.2187299E+00
6365000.  0.2272371E+00 -0.1704855E+01 -0.5207079E-02 -0.2321916E+00 -0.6626730E-02 -0.2170683E+00
6364000.  0.2275020E+00 -0.1670486E+01 -0.5170620E-02 -0.2323637E+00 -0.6592789E-02 -0.2154085E+00
6363000.  0.2277615E+00 -0.1636077E+01 -0.5134135E-02 -0.2325262E+00 -0.6559109E-02 -0.2137505E+00
6362000.  0.2280156E+00 -0.1601630E+01 -0.5097625E-02 -0.2326792E+00 -0.6525688E-02 -0.2120942E+00
6361000.  0.2282643E+00 -0.1567147E+01 -0.5061092E-02 -0.2328227E+00 -0.6492527E-02 -0.2104396E+00
6360000.  0.2285076E+00 -0.1532628E+01 -0.5024537E-02 -0.2329567E+00 -0.6459626E-02 -0.2087867E+00
6359000.  0.2287454E+00 -0.1498074E+01 -0.4987962E-02 -0.2330810E+00 -0.6426984E-02 -0.2071355E+00
6358000.  0.2289779E+00 -0.1463487E+01 -0.4951368E-02 -0.2331959E+00 -0.6394602E-02 -0.2054859E+00
6357000.  0.2292048E+00 -0.1428868E+01 -0.4914757E-02 -0.2333011E+00 -0.6362478E-02 -0.2038378E+00
6356000.  0.2294264E+00 -0.1394217E+01 -0.4878130E-02 -0.2333968E+00 -0.6330613E-02 -0.2021914E+00
6356000.  0.2294264E+00 -0.1298124E+01 -0.4878130E-02 -0.2339758E+00 -0.6330613E-02 -0.2521119E+00
6355000.  0.2296281E+00 -0.1271428E+01 -0.4841438E-02 -0.2335602E+00 -0.6291179E-02 -0.2503489E+00
6354000.  0.2298255E+00 -0.1244753E+01 -0.4804811E-02 -0.2331414E+00 -0.6252022E-02 -0.2485909E+00
6353000.  0.2300188E+00 -0.1218100E+01 -0.4768250E-02 -0.2327196E+00 -0.6213141E-02 -0.2468378E+00
6352000.  0.2302079E+00 -0.1191470E+01 -0.4731755E-02 -0.2322947E+00 -0.6174534E-02 -0.2450895E+00
6351000.  0.2303929E+00 -0.1164863E+01 -0.4695327E-02 -0.2318667E+00 -0.6136201E-02 -0.2433460E+00
6350000.  0.2305736E+00 -0.1138280E+01 -0.4658967E-02 -0.2314356E+00 -0.6098142E-02 -0.2416073E+00
6349000.  0.2307502E+00 -0.1111720E+01 -0.4622675E-02 -0.2310015E+00 -0.6060355E-02 -0.2398733E+00
6348000.  0.2309226E+00 -0.1085184E+01 -0.4586450E-02 -0.2305643E+00 -0.6022840E-02 -0.2381441E+00
6347000.  0.2310909E+00 -0.1058674E+01 -0.4550295E-02 -0.2301240E+00 -0.5985596E-02 -0.2364195E+00
6346600.  0.2311570E+00 -0.1048076E+01 -0.4535853E-02 -0.2299470E+00 -0.5970774E-02 -0.2357310E+00
6346600.  0.2311570E+00 -0.1427442E+01 -0.4535853E-02 -0.2321080E+00 -0.5970774E-02 -0.3163320E+00
6318800.  0.2360129E+00 -0.8042708E+00 -0.3569542E-02 -0.2109095E+00 -0.4691653E-02 -0.2708707E+00
6291000.  0.2382296E+00 -0.2180923E+00 -0.2694427E-02 -0.1902686E+00 -0.3599432E-02 -0.2305284E+00
6291000.  0.2382296E+00 -0.2440927E+00 -0.2694427E-02 -0.1880904E+00 -0.3599432E-02 -0.2305284E+00
6263000.  0.2380513E+00  0.3183577E+00 -0.1913024E-02 -0.1674883E+00 -0.2666971E-02 -0.1944420E+00
6235000.  0.2354941E+00  0.8379065E+00 -0.1222507E-02 -0.1466997E+00 -0.1885273E-02 -0.1618026E+00
6207000.  0.2307544E+00  0.1310886E+01 -0.6240893E-03 -0.1255496E+00 -0.1240705E-02 -0.1319278E+00
6179000.  0.2240457E+00  0.1733268E+01 -0.1197047E-03 -0.1038838E+00 -0.7225428E-03 -0.1041751E+00
6151000.  0.2155998E+00  0.2100664E+01  0.2880784E-03 -0.8156795E-01 -0.3228085E-03 -0.7793452E-01
6151000.  0.2155998E+00  0.1675466E+01  0.2880784E-03 -0.9907913E-01 -0.3228085E-03 -0.8986268E-01
6128500.  0.2093006E+00  0.1886736E+01  0.6131046E-03 -0.8504583E-01 -0.3072478E-04 -0.7577037E-01
6106000.  0.2023099E+00  0.2067168E+01  0.8891897E-03 -0.7136046E-01  0.2138383E-03 -0.6291915E-01
6083500.  0.1947357E+00  0.2217211E+01  0.1117529E-02 -0.5800299E-01  0.4149284E-03 -0.5112084E-01
6061000.  0.1866847E+00  0.2337290E+01  0.1299236E-02 -0.4494680E-01  0.5759497E-03 -0.4019846E-01
6038500.  0.1782620E+00  0.2427808E+01  0.1435314E-02 -0.3215608E-01  0.6996842E-03 -0.2997553E-01
6016000.  0.1695713E+00  0.2489084E+01  0.1526625E-02 -0.1958650E-01  0.7882935E-03 -0.2027828E-01
5993500.  0.1607155E+00  0.2521337E+01  0.1573860E-02 -0.7186397E-02  0.8433353E-03 -0.1093712E-01
5971000.  0.1517968E+00  0.2524689E+01  0.1577512E-02  0.5106838E-02  0.8657569E-03 -0.1775472E-02
5971000.  0.1517968E+00  0.2317291E+01  0.1577512E-02 -0.1311358E-01  0.8657569E-03 -0.2164696E-01
5937667.  0.1397726E+00  0.2273805E+01  0.1622944E-02 -0.4490046E-02  0.9569224E-03 -0.1344780E-01
5904333.  0.1280529E+00  0.2201734E+01  0.1626847E-02  0.2783972E-02  0.1008835E-02 -0.6602495E-02
5871000.  0.1167728E+00  0.2106781E+01  0.1595920E-02  0.8849220E-02  0.1027978E-02 -0.8849873E-03
5837667.  0.1060385E+00  0.1993893E+01  0.1536085E-02  0.1386141E-01  0.1019689E-02  0.3918100E-02
5804333.  0.9593210E-01  0.1867248E+01  0.1452420E-02  0.1798461E-01  0.9882124E-03  0.8012244E-02
5771000.  0.8651707E-01  0.1730242E+01  0.1349153E-02  0.2138370E-01  0.9367441E-03  0.1159257E-01
5771000.  0.8651707E-01  0.1730313E+01  0.1349153E-02  0.2137994E-01  0.9367441E-03  0.1159257E-01
5701000.  0.6882473E-01  0.1472933E+01  0.1032478E-02  0.3638506E-01  0.7437263E-03  0.2384124E-01
5701000.  0.6882473E-01  0.1252964E+01  0.1032478E-02  0.1272425E-01  0.7437263E-03  0.4442024E-02
5667333.  0.6263278E-01  0.1108232E+01  0.9824747E-03  0.7558006E-02  0.7119376E-03  0.7154735E-02
5633667.  0.5696948E-01  0.1040079E+01  0.9404338E-03  0.8807137E-02  0.6713138E-03  0.8087770E-02
5600000.  0.5165405E-01  0.9707515E+00  0.8910876E-03  0.9705448E-02  0.6269636E-03  0.8645586E-02
5600000.  0.5165405E-01  0.9707515E+00  0.8910876E-03  0.9705448E-02  0.6269636E-03  0.8645586E-02
5563518.  0.4630943E-01  0.8961724E+00  0.8337143E-03  0.1027328E-01  0.5766444E-03  0.8875169E-02
5527037.  0.4138777E-01  0.8232275E+00  0.7740489E-03  0.1051913E-01  0.5258556E-03  0.8824645E-02
5490556.  0.3687713E-01  0.7527209E+00  0.7137312E-03  0.1051099E-01  0.4759701E-03  0.8570613E-02
5454074.  0.3276170E-01  0.6852404E+00  0.6540562E-03  0.1030325E-01  0.4279790E-03  0.8171845E-02
5417593.  0.2902284E-01  0.6212935E+00  0.5960105E-03  0.9950243E-02  0.3825571E-03  0.7681131E-02
5381111.  0.2563930E-01  0.5611329E+00  0.5403083E-03  0.9489745E-02  0.3401198E-03  0.7133991E-02
5344630.  0.2258905E-01  0.5049382E+00  0.4874725E-03  0.8955159E-02  0.3009094E-03  0.6559016E-02
5308148.  0.1984891E-01  0.4527943E+00  0.4378349E-03  0.8375992E-02  0.2650101E-03  0.5980075E-02
5271667.  0.1739592E-01  0.4046571E+00  0.3915985E-03  0.7770718E-02  0.2324071E-03  0.5410088E-02
5235185.  0.1520714E-01  0.3604740E+00  0.3488544E-03  0.7158842E-02  0.2030094E-03  0.4862179E-02
5198704.  0.1326037E-01  0.3201195E+00  0.3095985E-03  0.6554272E-02  0.1766656E-03  0.4344433E-02
5162222.  0.1153413E-01  0.2834058E+00  0.2737651E-03  0.5964591E-02  0.1531932E-03  0.3859660E-02
5125741.  0.1000810E-01  0.2501722E+00  0.2412419E-03  0.5399766E-02  0.1323913E-03  0.3412428E-02
5089259.  0.8662882E-02  0.2202005E+00  0.2118689E-03  0.4864488E-02  0.1140404E-03  0.3003225E-02
5052778.  0.7480510E-02  0.1932708E+00  0.1854706E-03  0.4361577E-02  0.9792610E-04  0.2631398E-02
5016296.  0.6444102E-02  0.1691708E+00  0.1618508E-03  0.3894101E-02  0.8383395E-04  0.2296577E-02
4979815.  0.5538162E-02  0.1476732E+00  0.1408062E-03  0.3462260E-02  0.7155844E-04  0.1996617E-02
4943333.  0.4748362E-02  0.1285631E+00  0.1221317E-03  0.3066157E-02  0.6090556E-04  0.1729431E-02
4906852.  0.4061662E-02  0.1116348E+00  0.1056236E-03  0.2705510E-02  0.5169345E-04  0.1493043E-02
4870370.  0.3466133E-02  0.9668031E-01  0.9108353E-04  0.2378389E-02  0.4375387E-04  0.1284448E-02
4833889.  0.2951040E-02  0.8351554E-01  0.7832369E-04  0.2083632E-02  0.3693451E-04  0.1101501E-02
4797407.  0.2506623E-02  0.7196053E-01  0.6716267E-04  0.1819442E-02  0.3109471E-04  0.9417922E-03
4760926.  0.2124186E-02  0.6184519E-01  0.5743350E-04  0.1583283E-02  0.2610972E-04  0.8026175E-03
4724444.  0.1795897E-02  0.5301958E-01  0.4897994E-04  0.1373510E-02  0.2186722E-04  0.6820843E-03
4687963.  0.1514806E-02  0.4533987E-01  0.4165761E-04  0.1187842E-02  0.1826691E-04  0.5779869E-03
4651482.  0.1274726E-02  0.3867516E-01  0.3533492E-04  0.1024032E-02  0.1522051E-04  0.4883239E-03
4615000.  0.1070176E-02  0.3290879E-01  0.2989181E-04  0.8802395E-03  0.1264998E-04  0.4114760E-03
4578518.  0.8963352E-03  0.2793217E-01  0.2521985E-04  0.7543570E-03  0.1048691E-04  0.3457445E-03
4542037.  0.7489661E-03  0.2364938E-01  0.2122196E-04  0.6445684E-03  0.8671906E-05  0.2897101E-03
4505556.  0.6243417E-03  0.1997398E-01  0.1781053E-04  0.5492285E-03  0.7152903E-05  0.2421488E-03
4469074.  0.5192119E-03  0.1682712E-01  0.1490784E-04  0.4665878E-03  0.5884988E-05  0.2018146E-03
4432593.  0.4307542E-03  0.1414098E-01  0.1244537E-04  0.3952759E-03  0.4829647E-05  0.1677667E-03
4396111.  0.3565051E-03  0.1185388E-01  0.1036197E-04  0.3339414E-03  0.3953375E-05  0.1391141E-03
4359630.  0.2943436E-03  0.9911319E-02  0.8604405E-05  0.2812971E-03  0.3227759E-05  0.1150336E-03
4323148.  0.2424310E-03  0.8266185E-02  0.7125843E-05  0.2363095E-03  0.2628460E-05  0.9488739E-04
4286667.  0.1991901E-03  0.6876388E-02  0.5885434E-05  0.1979672E-03  0.2134723E-05  0.7807354E-04
4250185.  0.1632641E-03  0.5705238E-02  0.4847699E-05  0.1653756E-03  0.1728976E-05  0.6407323E-04
4213704.  0.1334954E-03  0.4721129E-02  0.3981949E-05  0.1377835E-03  0.1396367E-05  0.5246494E-04
4177222.  0.1088935E-03  0.3896059E-02  0.3261596E-05  0.1144744E-03  0.1124316E-05  0.4285916E-04
4140741.  0.8861891E-04  0.3206192E-02  0.2663921E-05  0.9485039E-04  0.9023171E-06  0.3493833E-04
4104259.  0.7195710E-04  0.2630802E-02  0.2169303E-05  0.7838869E-04  0.7214798E-06  0.2843744E-04
4067778.  0.5830628E-04  0.2151919E-02  0.1761082E-05  0.6460610E-04  0.5744058E-06  0.2311144E-04
4031296.  0.4715776E-04  0.1754347E-02  0.1425047E-05  0.5311235E-04  0.4549124E-06  0.1877480E-04
3994815.  0.3808501E-04  0.1424957E-02  0.1149121E-05  0.4355823E-04  0.3578145E-06  0.1526419E-04
3958333.  0.3073033E-04  0.1152480E-02  0.9231036E-06  0.3563166E-04  0.2788013E-06  0.1243702E-04
3921852.  0.2479593E-04  0.9274922E-03  0.7384294E-06  0.2908053E-04  0.2142812E-06  0.1018619E-04
3885370.  0.2003343E-04  0.7418732E-03  0.5878781E-06  0.2367604E-04  0.1612288E-06  0.8416645E-05
3848889.  0.1623771E-04  0.5888250E-03  0.4654726E-06  0.1922138E-04  0.1171186E-06  0.7052417E-05
3812407.  0.1323881E-04  0.4626614E-03  0.3662557E-06  0.1554903E-04  0.7980050E-07  0.6034966E-05
3775926.  0.1089699E-04  0.3586410E-03  0.2862040E-06  0.1250397E-04  0.4743808E-07  0.5314667E-05
3739444.  0.9096659E-05  0.2729438E-03  0.2221234E-06  0.9947954E-05  0.1843789E-07  0.4855201E-05
3702963.  0.7741917E-05  0.2025935E-03  0.1715949E-06  0.7748590E-05 -0.8610156E-08  0.4628776E-05
3666482.  0.6751387E-05  0.1454549E-03  0.1329699E-06  0.5766742E-05 -0.3497068E-07  0.4611742E-05
3630000.  0.6053214E-05  0.1003629E-03  0.1054205E-06  0.3852873E-05 -0.6179207E-07  0.4786634E-05
3630000.  0.6053214E-05  0.1003629E-03  0.1054205E-06  0.3852873E-05 -0.6179207E-07  0.4786634E-05
3592500.  0.5568478E-05  0.6653720E-04  0.8877348E-07  0.1764533E-05 -0.9093923E-07  0.5145518E-05
3555000.  0.5242037E-05  0.4700993E-04  0.8537687E-07 -0.6980656E-06 -0.1226691E-06  0.5658642E-05
3517500.  0.4979581E-05  0.4568648E-04  0.9839506E-07 -0.3881005E-05 -0.1577722E-06  0.6282165E-05
3480000.  0.4654573E-05  0.6983112E-04  0.1334305E-06 -0.8277069E-05 -0.1966904E-06  0.6938107E-05
3480000.  0.4654573E-05  0.2165836E-03  0.1749304E-06  0.8198449E-05 -0.1966904E-06 -0.7989038E-05
3409422.  0.2761761E-05  0.1317661E-03  0.1034241E-06  0.4966426E-05 -0.1238222E-06 -0.5311292E-05
3338844.  0.1617127E-05  0.7911251E-04  0.6036029E-07  0.2970143E-05 -0.7609260E-07 -0.3422900E-05
3268266.  0.9341011E-06  0.4686171E-04  0.3476007E-07  0.1753009E-05 -0.4572508E-07 -0.2146747E-05
3197688.  0.5320535E-06  0.2737590E-04  0.1974327E-07  0.1020688E-05 -0.2689755E-07 -0.1313581E-05
3127109.  0.2986924E-06  0.1576582E-04  0.1105486E-07  0.5860191E-06 -0.1549915E-07 -0.7854708E-06
3056531.  0.1651906E-06  0.8946849E-05  0.6099014E-08  0.3316169E-06 -0.8751933E-08 -0.4594700E-06
2985953.  0.8994795E-07  0.5000375E-05  0.3313470E-08  0.1848552E-06 -0.4843387E-08 -0.2630883E-06
2915375.  0.4819189E-07  0.2750851E-05  0.1771533E-08  0.1014472E-06 -0.2626689E-08 -0.1474990E-06
2844797.  0.2538869E-07  0.1488645E-05  0.9314505E-09  0.5477504E-07 -0.1395648E-08 -0.8097249E-07
2774219.  0.1314227E-07  0.7919091E-06  0.4812706E-09  0.2907723E-07 -0.7262407E-09 -0.4351871E-07
2703641.  0.6679056E-08  0.4137998E-06  0.2441654E-09  0.1516407E-07 -0.3699087E-09 -0.2289067E-07
2633062.  0.3329580E-08  0.2122130E-06  0.1215221E-09  0.7762496E-08 -0.1843022E-09 -0.1177783E-07
2562484.  0.1626622E-08  0.1067171E-06  0.5927780E-10  0.3896914E-08 -0.8975526E-10 -0.5924187E-08
2491906.  0.7779488E-09  0.5256997E-07  0.2830939E-10  0.1916617E-08 -0.4268588E-10 -0.2910808E-08
2421328.  0.3638286E-09  0.2533958E-07  0.1322095E-10  0.9225264E-09 -0.1980311E-10 -0.1395877E-08
2350750.  0.1662021E-09  0.1193548E-07  0.6029618E-11  0.4341000E-09 -0.8948992E-11 -0.6528423E-09
2280172.  0.7411202E-10  0.5482029E-08  0.2679838E-11  0.1995871E-09 -0.3927399E-11 -0.2979539E-09
2209594.  0.0000000E+00  0.0000000E+00  0.0000000E+00  0.0000000E+00  0.0000000E+00  0.0000000E+00
2139016.  0.0000000E+00  0.0000000E+00  0.0000000E+00  0.0000000E+00  0.0000000E+00  0.0000000E+00
2068438.  0.0000000E+00  0.0000000E+00  0.0000000E+00  0.0000000E+00  0.0000000E+00  0.0000000E+00
1997859.  0.0000000E+00  0.0000000E+00  0.0000000E+00  0.0000000E+00  0.0000000E+00  0.0000000E+00
1927281.  0.0000000E+00  0.0000000E+00  0.0000000E+00  0.0000000E+00  0.0000000E+00  0.0000000E+00
1856703.  0.0000000E+00  0.0000000E+00  0.0000000E+00  0.0000000E+00  0.0000000E+00  0.0000000E+00
1786125.  0.0000000E+00  0.0000000E+00  0.0000000E+00  0.0000000E+00  0.0000000E+00  0.0000000E+00
1715547.  0.0000000E+00  0.0000000E+00  0.0000000E+00  0.0000000E+00  0.0000000E+00  0.0000000E+00
1644969.  0.0000000E+00  0.0000000E+00  0.0000000E+00  0.0000000E+00  0.0000000E+00  0.0000000E+00
1574391.  0.0000000E+00  0.0000000E+00  0.0000000E+00  0.0000000E+00  0.0000000E+00  0.0000000E+00
1503812.  0.0000000E+00  0.0000000E+00  0.0000000E+00  0.0000000E+00  0.0000000E+00  0.0000000E+00
1433234.  0.0000000E+00  0.0000000E+00  0.0000000E+00  0.0000000E+00  0.0000000E+00  0.0000000E+00
1362656.  0.0000000E+00  0.0000000E+00  0.0000000E+00  0.0000000E+00  0.0000000E+00  0.0000000E+00
1292078.  0.0000000E+00  0.0000000E+00  0.0000000E+00  0.0000000E+00  0.0000000E+00  0.0000000E+00
1221500.  0.0000000E+00  0.0000000E+00  0.0000000E+00  0.0000000E+00  0.0000000E+00  0.0000000E+00
1221500.  0.0000000E+00  0.0000000E+00  0.0000000E+00  0.0000000E+00  0.0000000E+00  0.0000000E+00
1183328.  0.0000000E+00  0.0000000E+00  0.0000000E+00  0.0000000E+00  0.0000000E+00  0.0000000E+00
1145156.  0.0000000E+00  0.0000000E+00  0.0000000E+00  0.0000000E+00  0.0000000E+00  0.0000000E+00
1106984.  0.0000000E+00  0.0000000E+00  0.0000000E+00  0.0000000E+00  0.0000000E+00  0.0000000E+00
1068812.  0.0000000E+00  0.0000000E+00  0.0000000E+00  0.0000000E+00  0.0000000E+00  0.0000000E+00
1030641.  0.0000000E+00  0.0000000E+00  0.0000000E+00  0.0000000E+00  0.0000000E+00  0.0000000E+00
 992469.  0.0000000E+00  0.0000000E+00  0.0000000E+00  0.0000000E+00  0.0000000E+00  0.0000000E+00
 954297.  0.0000000E+00  0.0000000E+00  0.0000000E+00  0.0000000E+00  0.0000000E+00  0.0000000E+00
 916125.  0.0000000E+00  0.0000000E+00  0.0000000E+00  0.0000000E+00  0.0000000E+00  0.0000000E+00
 877953.  0.0000000E+00  0.0000000E+00  0.0000000E+00  0.0000000E+00  0.0000000E+00  0.0000000E+00
 839781.  0.0000000E+00  0.0000000E+00  0.0000000E+00  0.0000000E+00  0.0000000E+00  0.0000000E+00
 801609.  0.0000000E+00  0.0000000E+00  0.0000000E+00  0.0000000E+00  0.0000000E+00  0.0000000E+00
 763438.  0.0000000E+00  0.0000000E+00  0.0000000E+00  0.0000000E+00  0.0000000E+00  0.0000000E+00
 725266.  0.0000000E+00  0.0000000E+00  0.0000000E+00  0.0000000E+00  0.0000000E+00  0.0000000E+00
 687094.  0.0000000E+00  0.0000000E+00  0.0000000E+00  0.0000000E+00  0.0000000E+00  0.0000000E+00
 648922.  0.0000000E+00  0.0000000E+00  0.0000000E+00  0.0000000E+00  0.0000000E+00  0.0000000E+00
 610750.  0.0000000E+00  0.0000000E+00  0.0000000E+00  0.0000000E+00  0.0000000E+00  0.0000000E+00
 572578.  0.0000000E+00  0.0000000E+00  0.0000000E+00  0.0000000E+00  0.0000000E+00  0.0000000E+00
 534406.  0.0000000E+00  0.0000000E+00  0.0000000E+00  0.0000000E+00  0.0000000E+00  0.0000000E+00
 496234.  0.0000000E+00  0.0000000E+00  0.0000000E+00  0.0000000E+00  0.0000000E+00  0.0000000E+00
 458062.  0.0000000E+00  0.0000000E+00  0.0000000E+00  0.0000000E+00  0.0000000E+00  0.0000000E+00
 419891.  0.0000000E+00  0.0000000E+00  0.0000000E+00  0.0000000E+00  0.0000000E+00  0.0000000E+00
 381719.  0.0000000E+00  0.0000000E+00  0.0000000E+00  0.0000000E+00  0.0000000E+00  0.0000000E+00
 343547.  0.0000000E+00  0.0000000E+00  0.0000000E+00  0.0000000E+00  0.0000000E+00  0.0000000E+00
 305375.  0.0000000E+00  0.0000000E+00  0.0000000E+00  0.0000000E+00  0.0000000E+00  0.0000000E+00
 267203.  0.0000000E+00  0.0000000E+00  0.0000000E+00  0.0000000E+00  0.0000000E+00  0.0000000E+00
 229031.  0.0000000E+00  0.0000000E+00  0.0000000E+00  0.0000000E+00  0.0000000E+00  0.0000000E+00
 190859.  0.0000000E+00  0.0000000E+00  0.0000000E+00  0.0000000E+00  0.0000000E+00  0.0000000E+00
 152688.  0.0000000E+00  0.0000000E+00  0.0000000E+00  0.0000000E+00  0.0000000E+00  0.0000000E+00
 114516.  0.0000000E+00  0.0000000E+00  0.0000000E+00  0.0000000E+00  0.0000000E+00  0.0000000E+00
  76344.  0.0000000E+00  0.0000000E+00  0.0000000E+00  0.0000000E+00  0.0000000E+00  0.0000000E+00
  38172.  0.0000000E+00  0.0000000E+00  0.0000000E+00  0.0000000E+00  0.0000000E+00  0.0000000E+00
      0.  0.0000000E+00  0.0000000E+00  0.0000000E+00  0.0000000E+00  0.0000000E+00  0.0000000E+00
