       4       46 S      315        100.02550          8.60645          8.69132        423.12939      185    7
6371000. -0.1066277E-04 -0.1752208E-02 -0.2072339E-05  0.8590316E-05  0.1303279E-05 -0.4114661E-04
6370000. -0.1038705E-04 -0.1760789E-02 -0.2073419E-05  0.5162049E-05  0.1309710E-05 -0.4080242E-04
6369000. -0.1011007E-04 -0.1768382E-02 -0.2073959E-05  0.1729343E-05  0.1316088E-05 -0.4046196E-04
6368000. -0.9831972E-05 -0.1774986E-02 -0.2073961E-05 -0.1706721E-05  0.1322412E-05 -0.4012523E-04
6368000. -0.9831972E-05 -0.1774986E-02 -0.2073961E-05 -0.1706721E-05  0.1322412E-05 -0.4012523E-04
6367000. -0.9552914E-05 -0.1780599E-02 -0.2073424E-05 -0.5145062E-05  0.1328684E-05 -0.3979230E-04
6366000. -0.9273053E-05 -0.1785219E-02 -0.2072346E-05 -0.8584594E-05  0.1334904E-05 -0.3946318E-04
6365000. -0.8992545E-05 -0.1788846E-02 -0.2070728E-05 -0.1202424E-04  0.1341073E-05 -0.3913792E-04
6364000. -0.8711546E-05 -0.1791478E-02 -0.2068571E-05 -0.1546290E-04  0.1347190E-05 -0.3881656E-04
6363000. -0.8430212E-05 -0.1793116E-02 -0.2065874E-05 -0.1889951E-04  0.1353258E-05 -0.3849912E-04
6362000. -0.8148699E-05 -0.1793759E-02 -0.2062638E-05 -0.2233297E-04  0.1359276E-05 -0.3818566E-04
6361000. -0.7867163E-05 -0.1793408E-02 -0.2058864E-05 -0.2576221E-04  0.1365246E-05 -0.3787619E-04
6360000. -0.7585760E-05 -0.1792063E-02 -0.2054551E-05 -0.2918614E-04  0.1371167E-05 -0.3757077E-04
6359000. -0.7304646E-05 -0.1789726E-02 -0.2049702E-05 -0.3260368E-04  0.1377040E-05 -0.3726943E-04
6358000. -0.7023977E-05 -0.1786398E-02 -0.2044317E-05 -0.3601375E-04  0.1382867E-05 -0.3697221E-04
6357000. -0.6743907E-05 -0.1782080E-02 -0.2038397E-05 -0.3941528E-04  0.1388647E-05 -0.3667914E-04
6356000. -0.6464593E-05 -0.1776775E-02 -0.2031944E-05 -0.4280719E-04  0.1394381E-05 -0.3639027E-04
6356000. -0.6464593E-05 -0.1543574E-02 -0.2031944E-05 -0.2407697E-04  0.1394381E-05 -0.3498364E-04
6355000. -0.6222501E-05 -0.1541081E-02 -0.2028026E-05 -0.2584600E-04  0.1399837E-05 -0.3453192E-04
6354000. -0.5980840E-05 -0.1538077E-02 -0.2023831E-05 -0.2761152E-04  0.1405222E-05 -0.3408365E-04
6353000. -0.5739691E-05 -0.1534564E-02 -0.2019358E-05 -0.2937320E-04  0.1410537E-05 -0.3363886E-04
6352000. -0.5499132E-05 -0.1530542E-02 -0.2014610E-05 -0.3113071E-04  0.1415782E-05 -0.3319756E-04
6351000. -0.5259246E-05 -0.1526012E-02 -0.2009586E-05 -0.3288371E-04  0.1420958E-05 -0.3275975E-04
6350000. -0.5020110E-05 -0.1520975E-02 -0.2004287E-05 -0.3463186E-04  0.1426066E-05 -0.3232545E-04
6349000. -0.4781804E-05 -0.1515432E-02 -0.1998714E-05 -0.3637484E-04  0.1431106E-05 -0.3189466E-04
6348000. -0.4544408E-05 -0.1509386E-02 -0.1992868E-05 -0.3811232E-04  0.1436079E-05 -0.3146740E-04
6347000. -0.4308000E-05 -0.1502836E-02 -0.1986750E-05 -0.3984396E-04  0.1440985E-05 -0.3104367E-04
6346600. -0.4213732E-05 -0.1500076E-02 -0.1984227E-05 -0.4053491E-04  0.1442928E-05 -0.3087517E-04
6346600. -0.4213732E-05 -0.1730970E-02 -0.1984227E-05 -0.2663974E-04  0.1442928E-05 -0.2940590E-04
6318800.  0.2929953E-05 -0.1506842E-02 -0.1816479E-05 -0.4974348E-04  0.1543464E-05 -0.1703116E-04
6291000.  0.8638527E-05 -0.1078664E-02 -0.1556267E-05 -0.6863088E-04  0.1594381E-05 -0.6597110E-05
6291000.  0.8638527E-05 -0.1116193E-02 -0.1556267E-05 -0.7055328E-04  0.1594381E-05 -0.6597110E-05
6263000.  0.1223917E-04 -0.4984097E-03 -0.1212698E-05 -0.8447706E-04  0.1604121E-05  0.1929664E-05
6235000.  0.1286590E-04  0.2235980E-03 -0.8263208E-06 -0.8983910E-04  0.1579264E-05  0.9195436E-05
6207000.  0.1024882E-04  0.9624348E-03 -0.4365580E-06 -0.8600234E-04  0.1524752E-05  0.1546420E-04
6179000.  0.4517456E-05  0.1625568E-02 -0.8322456E-07 -0.7343035E-04  0.1444502E-05  0.2093508E-04
6151000. -0.3801352E-05  0.2126625E-02  0.1982816E-06 -0.5365290E-04  0.1341718E-05  0.2573281E-04
6151000. -0.3801352E-05  0.1751027E-02  0.1982816E-06 -0.4668951E-04  0.1341718E-05  0.2594313E-04
6128500. -0.1032762E-04  0.1924529E-02  0.3349283E-06 -0.3048551E-04  0.1249227E-05  0.2634912E-04
6106000. -0.1724575E-04  0.1971928E-02  0.4127912E-06 -0.1358604E-04  0.1156201E-05  0.2625165E-04
6083500. -0.2410461E-04  0.1891374E-02  0.4313709E-06  0.2908554E-05  0.1064360E-05  0.2568311E-04
6061000. -0.3046141E-04  0.1689340E-02  0.3939316E-06  0.1797805E-04  0.9753147E-06  0.2467272E-04
6038500. -0.3590990E-04  0.1379898E-02  0.3071108E-06  0.3074120E-04  0.8905819E-06  0.2324452E-04
6016000. -0.4010523E-04  0.9835117E-03  0.1803420E-06  0.4050235E-04  0.8116041E-06  0.2141595E-04
5993500. -0.4278390E-04  0.5255239E-03  0.2513981E-07  0.4678256E-04  0.7397753E-06  0.1919660E-04
5971000. -0.4377804E-04  0.3443244E-04 -0.1456973E-06  0.4933491E-04  0.6764766E-06  0.1658359E-04
5971000. -0.4377804E-04  0.2341355E-04 -0.1456973E-06  0.4902869E-04  0.6764766E-06  0.2231451E-04
5937667. -0.4208142E-04 -0.6621406E-03 -0.3988485E-06  0.4668179E-04  0.5686671E-06  0.1888505E-04
5904333. -0.3700915E-04 -0.1256688E-02 -0.6246337E-06  0.3887042E-04  0.4787535E-06  0.1551536E-04
5871000. -0.2917797E-04 -0.1710467E-02 -0.7994020E-06  0.2750763E-04  0.4058161E-06  0.1242797E-04
5837667. -0.1940375E-04 -0.1996855E-02 -0.9095817E-06  0.1447917E-04  0.3479487E-06  0.9773659E-05
5804333. -0.8584829E-05 -0.2110328E-02 -0.9508757E-06  0.1417602E-05  0.3026466E-06  0.7631963E-05
5771000.  0.2397196E-05 -0.2062426E-02 -0.9265669E-06 -0.1042465E-04  0.2671625E-06  0.6018802E-05
5771000.  0.2397196E-05 -0.2062557E-02 -0.9265669E-06 -0.1042443E-04  0.2671625E-06  0.6018802E-05
5701000.  0.2300634E-04 -0.1595031E-02 -0.6937902E-06 -0.3073860E-04  0.2150451E-06  0.3533555E-05
5701000.  0.2300634E-04 -0.1398342E-02 -0.6937902E-06 -0.2984972E-04  0.2150451E-06 -0.2951105E-05
5667333.  0.2933787E-04 -0.1012454E-02 -0.5329677E-06 -0.3061102E-04  0.2238037E-06 -0.3901664E-06
5633667.  0.3381398E-04 -0.6843924E-03 -0.3729899E-06 -0.2979006E-04  0.2206299E-06  0.1430601E-05
5600000.  0.3656366E-04 -0.3567708E-03 -0.2190767E-06 -0.2836459E-04  0.2098151E-06  0.2581100E-05
5600000.  0.3656366E-04 -0.3567708E-03 -0.2190767E-06 -0.2836459E-04  0.2098151E-06  0.2581100E-05
5563518.  0.3761556E-04 -0.1365702E-04 -0.6276132E-07 -0.2612267E-04  0.1927017E-06  0.3324101E-05
5527037.  0.3676475E-04  0.3061204E-03  0.7898910E-07 -0.2330488E-04  0.1724242E-06  0.3710137E-05
5490556.  0.3417158E-04  0.5936257E-03  0.2033474E-06 -0.2007686E-04  0.1506670E-06  0.3856648E-05
5454074.  0.3004052E-04  0.8423770E-03  0.3084694E-06 -0.1661402E-04  0.1285632E-06  0.3842353E-05
5417593.  0.2460601E-04  0.1048501E-02  0.3934911E-06 -0.1308438E-04  0.1068551E-06  0.3726451E-05
5381111.  0.1811721E-04  0.1210493E-02  0.4584891E-06 -0.9644074E-05  0.8601232E-07  0.3544655E-05
5344630.  0.1082613E-04  0.1329097E-02  0.5043695E-06 -0.6427874E-05  0.6633847E-07  0.3322121E-05
5308148.  0.2973761E-05  0.1407046E-02  0.5327391E-06 -0.3543421E-05  0.4800789E-07  0.3077657E-05
5271667. -0.5217908E-05  0.1448499E-02  0.5457428E-06 -0.1072617E-05  0.3111316E-07  0.2822408E-05
5235185. -0.1355564E-04  0.1458992E-02  0.5459208E-06  0.9292835E-06  0.1568984E-07  0.2564698E-05
5198704. -0.2187959E-04  0.1444856E-02  0.5360553E-06  0.2432533E-05  0.1734729E-08  0.2310955E-05
5162222. -0.3006828E-04  0.1412841E-02  0.5190292E-06  0.3429994E-05 -0.1079744E-07  0.2068135E-05
5125741. -0.3803942E-04  0.1370158E-02  0.4977348E-06  0.3925574E-05 -0.2196875E-07  0.1835810E-05
5089259. -0.4575291E-04  0.1323949E-02  0.4749917E-06  0.3940256E-05 -0.3184971E-07  0.1618342E-05
5052778. -0.5320829E-04  0.1281252E-02  0.4534754E-06  0.3501442E-05 -0.4053743E-07  0.1418835E-05
5016296. -0.6044614E-04  0.1249044E-02  0.4357161E-06  0.2632102E-05 -0.4812318E-07  0.1233146E-05
4979815. -0.6754556E-04  0.1234087E-02  0.4241004E-06  0.1359766E-05 -0.5469158E-07  0.1063902E-05
4943333. -0.7462499E-04  0.1243131E-02  0.4208869E-06 -0.3020332E-06 -0.6033212E-07  0.9073909E-06
4906852. -0.8184123E-04  0.1283117E-02  0.4283081E-06 -0.2355029E-05 -0.6508619E-07  0.7538836E-06
4870370. -0.8939239E-04  0.1361297E-02  0.4486174E-06 -0.4807456E-05 -0.6897606E-07  0.6043385E-06
4833889. -0.9751938E-04  0.1485765E-02  0.4842150E-06 -0.7705423E-05 -0.7197581E-07  0.4389534E-06
4797407. -0.1065139E-03  0.1665908E-02  0.5378478E-06 -0.1111826E-04 -0.7393559E-07  0.2396322E-06
4760926. -0.1167249E-03  0.1912770E-02  0.6126918E-06 -0.1513537E-04 -0.7463764E-07 -0.5670441E-08
4724444. -0.1285731E-03  0.2240225E-02  0.7126514E-06 -0.1991986E-04 -0.7368007E-07 -0.3484588E-06
4687963. -0.1425672E-03  0.2665642E-02  0.8426503E-06 -0.2566412E-04 -0.7038396E-07 -0.8297143E-06
4651482. -0.1593290E-03  0.3211121E-02  0.1008885E-05 -0.3262906E-04 -0.6379293E-07 -0.1514925E-05
4615000. -0.1796254E-03  0.3905460E-02  0.1219369E-05 -0.4118482E-04 -0.5242094E-07 -0.2519530E-05
4578518. -0.2044101E-03  0.4785737E-02  0.1484434E-05 -0.5177770E-04 -0.3408897E-07 -0.3971792E-05
4542037. -0.2348790E-03  0.5900322E-02  0.1817388E-05 -0.6501799E-04 -0.5686906E-08 -0.6081148E-05
4505556. -0.2725486E-03  0.7312832E-02  0.2235626E-05 -0.8171167E-04  0.3740180E-07 -0.9156653E-05
4469074. -0.3193522E-03  0.9105887E-02  0.2761635E-05 -0.1028482E-03  0.1017354E-06 -0.1358282E-04
4432593. -0.3777638E-03  0.1138859E-01  0.3424586E-05 -0.1298096E-03  0.1967480E-06 -0.1999890E-04
4396111. -0.4509838E-03  0.1430470E-01  0.4262713E-05 -0.1643479E-03  0.3362123E-06 -0.2927221E-04
4359630. -0.5431486E-03  0.1804232E-01  0.5325429E-05 -0.2086995E-03  0.5396928E-06 -0.4261001E-04
4323148. -0.6596513E-03  0.2285217E-01  0.6677415E-05 -0.2659460E-03  0.8354973E-06 -0.6188068E-04
4286667. -0.8075270E-03  0.2906437E-01  0.8403061E-05 -0.3399512E-03  0.1264539E-05 -0.8965721E-04
4250185. -0.9960076E-03  0.3711660E-01  0.1061227E-04 -0.4358050E-03  0.1885575E-05 -0.1296932E-03
4213704. -0.1237208E-02  0.4759134E-01  0.1344860E-04 -0.5602636E-03  0.2783679E-05 -0.1875226E-03
4177222. -0.1547117E-02  0.6125979E-01  0.1709927E-04 -0.7218099E-03  0.4081831E-05 -0.2709707E-03
4140741. -0.1946799E-02  0.7914664E-01  0.2180699E-04 -0.9316280E-03  0.5957505E-05 -0.3915702E-03
4104259. -0.2464159E-02  0.1026172E+00  0.2788804E-04 -0.1204032E-02  0.8668961E-05 -0.5661628E-03
4067778. -0.3136044E-02  0.1334671E+00  0.3574829E-04 -0.1556411E-02  0.1258924E-04 -0.8186317E-03
4031296. -0.4011258E-02  0.1740830E+00  0.4590813E-04 -0.2011240E-02  0.1826020E-04 -0.1184698E-02
3994815. -0.5154243E-02  0.2275957E+00  0.5902727E-04 -0.2594705E-02  0.2647020E-04 -0.1715645E-02
3958333. -0.6650052E-02  0.2980724E+00  0.7592444E-04 -0.3335832E-02  0.3836217E-04 -0.2485510E-02
3921852. -0.8610182E-02  0.3907773E+00  0.9759265E-04 -0.4266312E-02  0.5559696E-04 -0.3603546E-02
3885370. -0.1118039E-01  0.5123691E+00  0.1251938E-03 -0.5410796E-02  0.8059042E-04 -0.5226275E-02
3848889. -0.1454862E-01  0.6710342E+00  0.1599823E-03 -0.6775686E-02  0.1168399E-03 -0.7580549E-02
3812407. -0.1895459E-01  0.8765212E+00  0.2031523E-03 -0.8325922E-02  0.1694215E-03 -0.1099502E-01
3775926. -0.2469639E-01  0.1139437E+01  0.2554464E-03 -0.9929486E-02  0.2456590E-03 -0.1593584E-01
3739444. -0.3213279E-01  0.1469827E+01  0.3164034E-03 -0.1127801E-01  0.3560962E-03 -0.2307072E-01
3702963. -0.4166989E-01  0.1873536E+01  0.3829193E-03 -0.1172091E-01  0.5158274E-03 -0.3333635E-01
3666482. -0.5371860E-01  0.2344457E+01  0.4465090E-03 -0.9966665E-02  0.7462720E-03 -0.4801956E-01
3630000. -0.6858899E-01  0.2850117E+01  0.4883702E-03 -0.3591003E-02  0.1077513E-02 -0.6887320E-01
3630000. -0.6858899E-01  0.2850117E+01  0.4883702E-03 -0.3591003E-02  0.1077513E-02 -0.6887320E-01
3592500. -0.8679308E-01  0.3313004E+01  0.4684815E-03  0.1254326E-01  0.1566857E-02 -0.9912028E-01
3555000. -0.1070692E+00  0.3503131E+01  0.3046003E-03  0.4732087E-01  0.2267735E-02 -0.1412893E+00
3517500. -0.1266378E+00  0.2968284E+01 -0.1565641E-03  0.1171803E+00  0.3259959E-02 -0.1986386E+00
3480000. -0.1388695E+00  0.8047616E+00 -0.1200860E-02  0.2520365E+00  0.4640877E-02 -0.2735991E+00
3480000. -0.1388695E+00 -0.9192110E+01 -0.3658142E-02 -0.2474746E+00  0.4640877E-02  0.1717533E+00
3409422. -0.6573102E-01 -0.4524926E+01 -0.1705180E-02 -0.1196215E+00  0.2811056E-02  0.1458752E+00
3338844. -0.3021543E-01 -0.2159704E+01 -0.7730858E-03 -0.5617448E-01  0.1502028E-02  0.9110698E-01
3268266. -0.1348948E-01 -0.9998208E+00 -0.3408458E-03 -0.2562992E-01  0.7399189E-03  0.4949142E-01
3197688. -0.5848061E-02 -0.4490092E+00 -0.1460934E-03 -0.1136024E-01  0.3428127E-03  0.2463442E-01
3127109. -0.2461222E-02 -0.1955981E+00 -0.6084935E-04 -0.4890401E-02  0.1509475E-03  0.1149296E-01
3056531. -0.1005163E-02 -0.8263400E-01 -0.2461548E-04 -0.2043881E-02  0.6354224E-04  0.5084480E-02
2985953. -0.3981256E-03 -0.3384224E-01 -0.9664831E-05 -0.8288653E-03  0.2565956E-04  0.2146776E-02
2915375. -0.1528264E-03 -0.1342843E-01 -0.3680223E-05 -0.3259411E-03  0.9959356E-05  0.8682919E-03
2844797. -0.5680813E-04 -0.5158840E-02 -0.1357862E-05 -0.1241864E-03  0.3719092E-05  0.3371268E-03
2774219. -0.2042853E-04 -0.1917207E-02 -0.4849440E-06 -0.4580192E-04  0.1336611E-05  0.1257847E-03
2703641. -0.7099016E-05 -0.6885589E-03 -0.1674473E-06 -0.1633435E-04  0.4622307E-06  0.4511450E-04
2633062. -0.2380911E-05 -0.2387041E-03 -0.5582707E-07 -0.5625933E-05  0.1537249E-06  0.1555129E-04
2562484. -0.7696181E-06 -0.7977517E-04 -0.1794636E-07 -0.1868882E-05  0.4912295E-07  0.5149029E-05
2491906. -0.2393896E-06 -0.2566332E-04 -0.5553519E-08 -0.5978506E-06  0.1506455E-07  0.1635940E-05
2421328. -0.7152772E-07 -0.7933648E-05 -0.1651380E-08 -0.1838597E-06  0.4427132E-08  0.4981225E-06
2350750. -0.2048983E-07 -0.2352556E-05 -0.4709311E-09 -0.5425527E-07  0.1244607E-08  0.1451268E-06
2280172. -0.5615148E-08 -0.6677495E-06 -0.1285143E-09 -0.1533010E-07  0.3340538E-09  0.4038252E-07
2209594. -0.1468602E-08 -0.1810054E-06 -0.3347969E-10 -0.4137917E-08  0.8540525E-10  0.1070872E-07
2139016. -0.3656073E-09 -0.4673668E-07 -0.8303956E-11 -0.1064210E-08  0.2074508E-10  0.2699674E-08
2068438. -0.8638218E-10 -0.1146196E-07 -0.1955074E-11 -0.2600418E-09  0.4773457E-11  0.6452310E-09
1997859. -0.1931753E-10 -0.2659675E-08 -0.4352347E-12 -0.6021349E-10  0.1036386E-11  0.1458373E-09
1927281.  0.0000000E+00  0.0000000E+00  0.0000000E+00  0.0000000E+00  0.0000000E+00  0.0000000E+00
1856703.  0.0000000E+00  0.0000000E+00  0.0000000E+00  0.0000000E+00  0.0000000E+00  0.0000000E+00
1786125.  0.0000000E+00  0.0000000E+00  0.0000000E+00  0.0000000E+00  0.0000000E+00  0.0000000E+00
1715547.  0.0000000E+00  0.0000000E+00  0.0000000E+00  0.0000000E+00  0.0000000E+00  0.0000000E+00
1644969.  0.0000000E+00  0.0000000E+00  0.0000000E+00  0.0000000E+00  0.0000000E+00  0.0000000E+00
1574391.  0.0000000E+00  0.0000000E+00  0.0000000E+00  0.0000000E+00  0.0000000E+00  0.0000000E+00
1503812.  0.0000000E+00  0.0000000E+00  0.0000000E+00  0.0000000E+00  0.0000000E+00  0.0000000E+00
1433234.  0.0000000E+00  0.0000000E+00  0.0000000E+00  0.0000000E+00  0.0000000E+00  0.0000000E+00
1362656.  0.0000000E+00  0.0000000E+00  0.0000000E+00  0.0000000E+00  0.0000000E+00  0.0000000E+00
1292078.  0.0000000E+00  0.0000000E+00  0.0000000E+00  0.0000000E+00  0.0000000E+00  0.0000000E+00
1221500.  0.0000000E+00  0.0000000E+00  0.0000000E+00  0.0000000E+00  0.0000000E+00  0.0000000E+00
1221500.  0.0000000E+00  0.0000000E+00  0.0000000E+00  0.0000000E+00  0.0000000E+00  0.0000000E+00
1183328.  0.0000000E+00  0.0000000E+00  0.0000000E+00  0.0000000E+00  0.0000000E+00  0.0000000E+00
1145156.  0.0000000E+00  0.0000000E+00  0.0000000E+00  0.0000000E+00  0.0000000E+00  0.0000000E+00
1106984.  0.0000000E+00  0.0000000E+00  0.0000000E+00  0.0000000E+00  0.0000000E+00  0.0000000E+00
1068812.  0.0000000E+00  0.0000000E+00  0.0000000E+00  0.0000000E+00  0.0000000E+00  0.0000000E+00
1030641.  0.0000000E+00  0.0000000E+00  0.0000000E+00  0.0000000E+00  0.0000000E+00  0.0000000E+00
 992469.  0.0000000E+00  0.0000000E+00  0.0000000E+00  0.0000000E+00  0.0000000E+00  0.0000000E+00
 954297.  0.0000000E+00  0.0000000E+00  0.0000000E+00  0.0000000E+00  0.0000000E+00  0.0000000E+00
 916125.  0.0000000E+00  0.0000000E+00  0.0000000E+00  0.0000000E+00  0.0000000E+00  0.0000000E+00
 877953.  0.0000000E+00  0.0000000E+00  0.0000000E+00  0.0000000E+00  0.0000000E+00  0.0000000E+00
 839781.  0.0000000E+00  0.0000000E+00  0.0000000E+00  0.0000000E+00  0.0000000E+00  0.0000000E+00
 801609.  0.0000000E+00  0.0000000E+00  0.0000000E+00  0.0000000E+00  0.0000000E+00  0.0000000E+00
 763438.  0.0000000E+00  0.0000000E+00  0.0000000E+00  0.0000000E+00  0.0000000E+00  0.0000000E+00
 725266.  0.0000000E+00  0.0000000E+00  0.0000000E+00  0.0000000E+00  0.0000000E+00  0.0000000E+00
 687094.  0.0000000E+00  0.0000000E+00  0.0000000E+00  0.0000000E+00  0.0000000E+00  0.0000000E+00
 648922.  0.0000000E+00  0.0000000E+00  0.0000000E+00  0.0000000E+00  0.0000000E+00  0.0000000E+00
 610750.  0.0000000E+00  0.0000000E+00  0.0000000E+00  0.0000000E+00  0.0000000E+00  0.0000000E+00
 572578.  0.0000000E+00  0.0000000E+00  0.0000000E+00  0.0000000E+00  0.0000000E+00  0.0000000E+00
 534406.  0.0000000E+00  0.0000000E+00  0.0000000E+00  0.0000000E+00  0.0000000E+00  0.0000000E+00
 496234.  0.0000000E+00  0.0000000E+00  0.0000000E+00  0.0000000E+00  0.0000000E+00  0.0000000E+00
 458062.  0.0000000E+00  0.0000000E+00  0.0000000E+00  0.0000000E+00  0.0000000E+00  0.0000000E+00
 419891.  0.0000000E+00  0.0000000E+00  0.0000000E+00  0.0000000E+00  0.0000000E+00  0.0000000E+00
 381719.  0.0000000E+00  0.0000000E+00  0.0000000E+00  0.0000000E+00  0.0000000E+00  0.0000000E+00
 343547.  0.0000000E+00  0.0000000E+00  0.0000000E+00  0.0000000E+00  0.0000000E+00  0.0000000E+00
 305375.  0.0000000E+00  0.0000000E+00  0.0000000E+00  0.0000000E+00  0.0000000E+00  0.0000000E+00
 267203.  0.0000000E+00  0.0000000E+00  0.0000000E+00  0.0000000E+00  0.0000000E+00  0.0000000E+00
 229031.  0.0000000E+00  0.0000000E+00  0.0000000E+00  0.0000000E+00  0.0000000E+00  0.0000000E+00
 190859.  0.0000000E+00  0.0000000E+00  0.0000000E+00  0.0000000E+00  0.0000000E+00  0.0000000E+00
 152688.  0.0000000E+00  0.0000000E+00  0.0000000E+00  0.0000000E+00  0.0000000E+00  0.0000000E+00
 114516.  0.0000000E+00  0.0000000E+00  0.0000000E+00  0.0000000E+00  0.0000000E+00  0.0000000E+00
  76344.  0.0000000E+00  0.0000000E+00  0.0000000E+00  0.0000000E+00  0.0000000E+00  0.0000000E+00
  38172.  0.0000000E+00  0.0000000E+00  0.0000000E+00  0.0000000E+00  0.0000000E+00  0.0000000E+00
      0.  0.0000000E+00  0.0000000E+00  0.0000000E+00  0.0000000E+00  0.0000000E+00  0.0000000E+00
