       5       43 S      359        101.25650          9.08815          6.41387        237.16710      185    7
6371000. -0.4856666E-02  0.1391824E+01  0.1866913E-02  0.6723579E-02 -0.8928531E-03  0.4844407E-01
6370000. -0.5074763E-02  0.1387041E+01  0.1865609E-02  0.9893661E-02 -0.9004290E-03  0.4808864E-01
6369000. -0.5292048E-02  0.1381462E+01  0.1863807E-02  0.1306015E-01 -0.9079492E-03  0.4773447E-01
6368000. -0.5508394E-02  0.1375088E+01  0.1861509E-02  0.1622204E-01 -0.9154140E-03  0.4738159E-01
6368000. -0.5508394E-02  0.1375088E+01  0.1861509E-02  0.1622204E-01 -0.9154140E-03  0.4738159E-01
6367000. -0.5723677E-02  0.1367920E+01  0.1858715E-02  0.1937834E-01 -0.9228234E-03  0.4703002E-01
6366000. -0.5937773E-02  0.1359959E+01  0.1855426E-02  0.2252807E-01 -0.9301778E-03  0.4667981E-01
6365000. -0.6150558E-02  0.1351208E+01  0.1851643E-02  0.2567021E-01 -0.9374773E-03  0.4633097E-01
6364000. -0.6361906E-02  0.1341668E+01  0.1847368E-02  0.2880379E-01 -0.9447222E-03  0.4598354E-01
6363000. -0.6571696E-02  0.1331343E+01  0.1842602E-02  0.3192782E-01 -0.9519127E-03  0.4563754E-01
6362000. -0.6779804E-02  0.1320234E+01  0.1837346E-02  0.3504132E-01 -0.9590490E-03  0.4529301E-01
6361000. -0.6986107E-02  0.1308346E+01  0.1831602E-02  0.3814329E-01 -0.9661313E-03  0.4494998E-01
6360000. -0.7190482E-02  0.1295680E+01  0.1825372E-02  0.4123278E-01 -0.9731599E-03  0.4460847E-01
6359000. -0.7392809E-02  0.1282242E+01  0.1818659E-02  0.4430880E-01 -0.9801349E-03  0.4426852E-01
6358000. -0.7592967E-02  0.1268035E+01  0.1811464E-02  0.4737039E-01 -0.9870568E-03  0.4393017E-01
6357000. -0.7790834E-02  0.1253062E+01  0.1803789E-02  0.5041658E-01 -0.9939257E-03  0.4359343E-01
6356000. -0.7986291E-02  0.1237329E+01  0.1795638E-02  0.5344642E-01 -0.1000742E-02  0.4325834E-01
6356000. -0.7986291E-02  0.1106803E+01  0.1795638E-02  0.3614677E-01 -0.1000742E-02  0.4499606E-01
6355000. -0.8159192E-02  0.1096232E+01  0.1789835E-02  0.3778619E-01 -0.1007769E-02  0.4454562E-01
6354000. -0.8330402E-02  0.1085256E+01  0.1783776E-02  0.3941793E-01 -0.1014726E-02  0.4409709E-01
6353000. -0.8499857E-02  0.1073876E+01  0.1777462E-02  0.4104167E-01 -0.1021612E-02  0.4365047E-01
6352000. -0.8667494E-02  0.1062094E+01  0.1770893E-02  0.4265711E-01 -0.1028429E-02  0.4320579E-01
6351000. -0.8833251E-02  0.1049913E+01  0.1764071E-02  0.4426394E-01 -0.1035176E-02  0.4276304E-01
6350000. -0.8997065E-02  0.1037334E+01  0.1756998E-02  0.4586185E-01 -0.1041853E-02  0.4232224E-01
6349000. -0.9158873E-02  0.1024361E+01  0.1749674E-02  0.4745053E-01 -0.1048462E-02  0.4188341E-01
6348000. -0.9318614E-02  0.1010996E+01  0.1742102E-02  0.4902968E-01 -0.1055001E-02  0.4144653E-01
6347000. -0.9476228E-02  0.9972416E+00  0.1734283E-02  0.5059901E-01 -0.1061473E-02  0.4101164E-01
6346600. -0.9538663E-02  0.9916313E+00  0.1731087E-02  0.5122392E-01 -0.1064042E-02  0.4083824E-01
6346600. -0.9538663E-02  0.1231679E+01  0.1731087E-02  0.3825855E-01 -0.1064042E-02  0.4416423E-01
6318800. -0.1417245E-01  0.8632084E+00  0.1515201E-02  0.5981056E-01 -0.1229620E-02  0.3199072E-01
6291000. -0.1685091E-01  0.3434623E+00  0.1218383E-02  0.7501574E-01 -0.1345331E-02  0.2126448E-01
6291000. -0.1685091E-01  0.3641726E+00  0.1218383E-02  0.7689087E-01 -0.1345331E-02  0.2126448E-01
6263000. -0.1706827E-01 -0.2764907E+00  0.8595103E-03  0.8486358E-01 -0.1417778E-02  0.1188434E-01
6235000. -0.1438110E-01 -0.9438625E+00  0.4865383E-03  0.8325634E-01 -0.1451238E-02  0.3493161E-02
6207000. -0.8855746E-02 -0.1554108E+01  0.1413768E-03  0.7235278E-01 -0.1449707E-02 -0.4059691E-02
6179000. -0.9222360E-03 -0.2027301E+01 -0.1378481E-03  0.5357641E-01 -0.1416646E-02 -0.1086486E-01
6151000.  0.8665518E-02 -0.2297608E+01 -0.3215073E-03  0.2933336E-01 -0.1355264E-02 -0.1694625E-01
6151000.  0.8665518E-02 -0.1904451E+01 -0.3215073E-03  0.2467613E-01 -0.1355264E-02 -0.1742567E-01
6128500.  0.1543770E-01 -0.1910590E+01 -0.3775411E-03  0.7052497E-02 -0.1291310E-02 -0.1869978E-01
6106000.  0.2201887E-01 -0.1796906E+01 -0.3719979E-03 -0.1000010E-01 -0.1223820E-02 -0.1943255E-01
6083500.  0.2799709E-01 -0.1571030E+01 -0.3088968E-03 -0.2536948E-01 -0.1154657E-02 -0.1965224E-01
6061000.  0.3300034E-01 -0.1247763E+01 -0.1959163E-03 -0.3810534E-01 -0.1085583E-02 -0.1938693E-01
6038500.  0.3671984E-01 -0.8478907E+00 -0.4372688E-04 -0.4747104E-01 -0.1018264E-02 -0.1866186E-01
6016000.  0.3892851E-01 -0.3966281E+00  0.1348310E-03 -0.5297850E-01 -0.9542858E-03 -0.1749781E-01
5993500.  0.3949362E-01  0.7811031E-01  0.3256584E-03 -0.5440439E-01 -0.8951708E-03 -0.1590969E-01
5971000.  0.3838314E-01  0.5475286E+00  0.5143359E-03 -0.5178874E-01 -0.8424050E-03 -0.1390204E-01
5971000.  0.3838314E-01  0.5257758E+00  0.5143359E-03 -0.5053470E-01 -0.8424050E-03 -0.1892672E-01
5937667.  0.3405517E-01  0.1109269E+01  0.7584424E-03 -0.4186962E-01 -0.7489018E-03 -0.1678734E-01
5904333.  0.2701849E-01  0.1554140E+01  0.9449151E-03 -0.2887863E-01 -0.6668087E-03 -0.1460660E-01
5871000.  0.1808756E-01  0.1830408E+01  0.1056998E-02 -0.1379531E-01 -0.5957438E-03 -0.1260292E-01
5837667.  0.8173025E-02  0.1930579E+01  0.1089128E-02  0.1381962E-02 -0.5343669E-03 -0.1092146E-01
5804333. -0.1826279E-02  0.1865873E+01  0.1045148E-02  0.1507665E-01 -0.4807619E-03 -0.9639040E-02
5771000. -0.1110745E-01  0.1661190E+01  0.9358536E-03  0.2621389E-01 -0.4327708E-03 -0.8775203E-02
5771000. -0.1110745E-01  0.1661304E+01  0.9358536E-03  0.2621347E-01 -0.4327708E-03 -0.8775203E-02
5701000. -0.2580083E-01  0.9463308E+00  0.5513811E-03  0.4177137E-01 -0.3396115E-03 -0.8300833E-02
5701000. -0.2580083E-01  0.8386556E+00  0.5513811E-03  0.3919582E-01 -0.3396115E-03 -0.1028510E-02
5667333. -0.2913412E-01  0.4347992E+00  0.3465864E-03  0.3806055E-01 -0.3282952E-03 -0.3166288E-02
5633667. -0.3047170E-01  0.7403515E-01  0.1508152E-03  0.3587938E-01 -0.3076977E-03 -0.4498512E-02
5600000. -0.2994386E-01 -0.2697749E+00 -0.3081448E-04  0.3270463E-01 -0.2816144E-03 -0.5305101E-02
5600000. -0.2994386E-01 -0.2697749E+00 -0.3081448E-04  0.3270463E-01 -0.2816144E-03 -0.5305101E-02
5563518. -0.2740816E-01 -0.6090202E+00 -0.2059518E-03  0.2832391E-01 -0.2497872E-03 -0.5749006E-02
5527037. -0.2305872E-01 -0.9015060E+00 -0.3538486E-03  0.2324030E-01 -0.2163742E-03 -0.5877716E-02
5490556. -0.1719080E-01 -0.1138176E+01 -0.4713248E-03  0.1774763E-01 -0.1828965E-03 -0.5784521E-02
5454074. -0.1014137E-01 -0.1313513E+01 -0.5568714E-03  0.1213363E-01 -0.1504251E-03 -0.5535497E-02
5417593. -0.2269045E-02 -0.1425619E+01 -0.6105588E-03  0.6661606E-02 -0.1197019E-03 -0.5181362E-02
5381111.  0.6066448E-02 -0.1475639E+01 -0.6338659E-03  0.1556203E-02 -0.9121896E-04 -0.4757839E-02
5344630.  0.1451913E-01 -0.1467497E+01 -0.6294306E-03 -0.3001932E-02 -0.6529497E-04 -0.4291610E-02
5308148.  0.2277322E-01 -0.1407363E+01 -0.6007840E-03 -0.6882795E-02 -0.4211483E-04 -0.3802406E-02
5271667.  0.3055178E-01 -0.1302861E+01 -0.5520524E-03 -0.1000815E-01 -0.2175621E-04 -0.3308838E-02
5235185.  0.3762592E-01 -0.1162775E+01 -0.4876788E-03 -0.1234346E-01 -0.4211166E-05 -0.2820744E-02
5198704.  0.4381780E-01 -0.9963013E+00 -0.4121846E-03 -0.1389834E-01  0.1057571E-04 -0.2347943E-02
5162222.  0.4900268E-01 -0.8124896E+00 -0.3299080E-03 -0.1472134E-01  0.2273515E-04 -0.1903947E-02
5125741.  0.5310627E-01 -0.6200709E+00 -0.2448626E-03 -0.1487955E-01  0.3243219E-04 -0.1488148E-02
5089259.  0.5610245E-01 -0.4268887E+00 -0.1605940E-03 -0.1446635E-01  0.3984598E-04 -0.1107994E-02
5052778.  0.5800673E-01 -0.2397570E+00 -0.8007828E-04 -0.1358688E-01  0.4520137E-04 -0.7691652E-03
5016296.  0.5887055E-01 -0.6430427E-01 -0.5686397E-05 -0.1234453E-01  0.4872582E-04 -0.4684451E-03
4979815.  0.5877389E-01  0.9508774E-01  0.6081325E-04 -0.1084875E-01  0.5064832E-04 -0.2103321E-03
4943333.  0.5781820E-01  0.2353207E+00  0.1182626E-03 -0.9198057E-02  0.5121451E-04  0.6316036E-05
4906852.  0.5611928E-01  0.3544602E+00  0.1660221E-03 -0.7479080E-02  0.5064302E-04  0.1869014E-03
4870370.  0.5380078E-01  0.4516470E+00  0.2039440E-03 -0.5773571E-02  0.4915318E-04  0.3271809E-03
4833889.  0.5098863E-01  0.5269957E+00  0.2322827E-03 -0.4140629E-02  0.4695735E-04  0.4350653E-03
4797407.  0.4780556E-01  0.5813667E+00  0.2515926E-03 -0.2627512E-02  0.4422370E-04  0.5146080E-03
4760926.  0.4436800E-01  0.6162075E+00  0.2626835E-03 -0.1274719E-02  0.4112535E-04  0.5632854E-03
4724444.  0.4078211E-01  0.6334920E+00  0.2665267E-03 -0.9797335E-04  0.3780991E-04  0.5916509E-03
4687963.  0.3714245E-01  0.6353994E+00  0.2641666E-03  0.8903213E-03  0.3438723E-04  0.6005827E-03
4651482.  0.3353031E-01  0.6242878E+00  0.2566976E-03  0.1687372E-02  0.3096625E-04  0.5920720E-03
4615000.  0.3001317E-01  0.6025771E+00  0.2451870E-03  0.2303637E-02  0.2762584E-04  0.5730127E-03
4578518.  0.2664520E-01  0.5725625E+00  0.2306422E-03  0.2749240E-02  0.2442423E-04  0.5436728E-03
4542037.  0.2346767E-01  0.5364431E+00  0.2139951E-03  0.3041629E-02  0.2141337E-04  0.5073071E-03
4505556.  0.2050963E-01  0.4962089E+00  0.1960600E-03  0.3202233E-02  0.1861899E-04  0.4681566E-03
4469074.  0.1778953E-01  0.4535778E+00  0.1775415E-03  0.3248548E-02  0.1606054E-04  0.4250600E-03
4432593.  0.1531677E-01  0.4100772E+00  0.1590308E-03  0.3203472E-02  0.1375089E-04  0.3818960E-03
4396111.  0.1309253E-01  0.3669310E+00  0.1409906E-03  0.3086914E-02  0.1168448E-04  0.3399591E-03
4359630.  0.1111203E-01  0.3251135E+00  0.1237841E-03  0.2915394E-02  0.9856977E-05  0.2986602E-03
4323148.  0.9365227E-02  0.2853961E+00  0.1076723E-03  0.2707110E-02  0.8258320E-05  0.2602506E-03
4286667.  0.7838576E-02  0.2483054E+00  0.9282579E-04  0.2475598E-02  0.6871216E-05  0.2246879E-03
4250185.  0.6515884E-02  0.2141908E+00  0.7934352E-04  0.2232372E-02  0.5679990E-05  0.1919292E-03
4213704.  0.5379526E-02  0.1832542E+00  0.6726191E-04  0.1987942E-02  0.4666302E-05  0.1626997E-03
4177222.  0.4411048E-02  0.1555450E+00  0.5656644E-04  0.1749110E-02  0.3811152E-05  0.1364604E-03
4140741.  0.3592084E-02  0.1310275E+00  0.4720869E-04  0.1521698E-02  0.3097949E-05  0.1131830E-03
4104259.  0.2904626E-02  0.1095788E+00  0.3910947E-04  0.1309910E-02  0.2508975E-05  0.9296653E-04
4067778.  0.2331651E-02  0.9101489E-01  0.3217402E-04  0.1115566E-02  0.2029267E-05  0.7494925E-04
4031296.  0.1857193E-02  0.7512601E-01  0.2629718E-04  0.9402852E-03  0.1646373E-05  0.5913854E-04
3994815.  0.1466633E-02  0.6167479E-01  0.2136857E-04  0.7843443E-03  0.1348604E-05  0.4509519E-04
3958333.  0.1146697E-02  0.5041533E-01  0.1727927E-04  0.6469731E-03  0.1128049E-05  0.3208355E-04
3921852.  0.8855257E-03  0.4111332E-01  0.1392514E-04  0.5274244E-03  0.9799023E-06  0.1971260E-04
3885370.  0.6725590E-03  0.3353978E-01  0.1120774E-04  0.4242846E-03  0.9026325E-06  0.7173415E-05
3848889.  0.4985189E-03  0.2748621E-01  0.9037692E-05  0.3360403E-03  0.8998647E-06 -0.6469871E-05
3812407.  0.3552382E-03  0.2276490E-01  0.7333400E-05  0.2613686E-03  0.9809233E-06 -0.2232860E-04
3775926.  0.2355904E-03  0.1920652E-01  0.6020855E-05  0.1990703E-03  0.1162839E-05 -0.4199719E-04
3739444.  0.1333503E-03  0.1665950E-01  0.5031032E-05  0.1486290E-03  0.1473017E-05 -0.6751453E-04
3702963.  0.4314775E-04  0.1497815E-01  0.4295130E-05  0.1105972E-03  0.1952381E-05 -0.1016253E-03
3666482. -0.3952929E-04  0.1400169E-01  0.3736566E-05  0.8728394E-04  0.2660263E-05 -0.1480378E-03
3630000. -0.1181580E-03  0.1352164E-01  0.3257446E-05  0.8409237E-04  0.3680495E-05 -0.2116415E-03
3630000. -0.1181580E-03  0.1352164E-01  0.3257446E-05  0.8409237E-04  0.3680495E-05 -0.2116415E-03
3592500. -0.1968374E-03  0.1320294E-01  0.2697539E-05  0.1129487E-03  0.5176812E-05 -0.3015885E-03
3555000. -0.2727798E-03  0.1245932E-01  0.1823727E-05  0.1953948E-03  0.7296272E-05 -0.4249451E-03
3517500. -0.3405874E-03  0.1019776E-01  0.2196933E-06  0.3693191E-03  0.1026441E-04 -0.5916760E-03
3480000. -0.3860350E-03  0.4421466E-02 -0.2831377E-05  0.7015489E-03  0.1436602E-04 -0.8115441E-03
3480000. -0.3860350E-03 -0.2303009E-01 -0.1117993E-04 -0.6860710E-03  0.1436602E-04  0.4264642E-03
3409422. -0.1964656E-03 -0.1223556E-01 -0.5588822E-05 -0.3566150E-03  0.9394958E-05  0.4249540E-03
3338844. -0.9714307E-04 -0.6301856E-02 -0.2719315E-05 -0.1801538E-03  0.5398103E-05  0.2924000E-03
3268266. -0.4667548E-04 -0.3148537E-02 -0.1287749E-05 -0.8847140E-04  0.2856817E-05  0.1726035E-03
3197688. -0.2179343E-04 -0.1526537E-02 -0.5934062E-06 -0.4223752E-04  0.1422240E-05  0.9293532E-04
3127109. -0.9886782E-05 -0.7183300E-03 -0.2659983E-06 -0.1960092E-04  0.6733978E-06  0.4683016E-04
3056531. -0.4356707E-05 -0.3280537E-03 -0.1159391E-06 -0.8839587E-05  0.3051258E-06  0.2237175E-04
2985953. -0.1863980E-05 -0.1453665E-03 -0.4910861E-07 -0.3872432E-05  0.1327900E-06  0.1020475E-04
2915375. -0.7738461E-06 -0.6247540E-04 -0.2020075E-07 -0.1647007E-05  0.5562164E-07  0.4462986E-05
2844797. -0.3115236E-06 -0.2602782E-04 -0.8063316E-08 -0.6796315E-06  0.2244915E-07  0.1875870E-05
2774219. -0.1215022E-06 -0.1050372E-04 -0.3120307E-08 -0.2718735E-06  0.8734254E-08  0.7587273E-06
2703641. -0.4586788E-07 -0.4102525E-05 -0.1169402E-08 -0.1053329E-06  0.3275640E-08  0.2954607E-06
2633062. -0.1674059E-07 -0.1549235E-05 -0.4239313E-09 -0.3948097E-07  0.1183614E-08  0.1107704E-06
2562484. -0.5899708E-08 -0.5649962E-06 -0.1484674E-09 -0.1429933E-07  0.4117595E-09  0.3996416E-07
2491906. -0.2004753E-08 -0.1987242E-06 -0.5015616E-10 -0.4997338E-08  0.1377625E-09  0.1386378E-07
2421328. -0.6557940E-09 -0.6730981E-07 -0.1631791E-10 -0.1682601E-08  0.4426861E-10  0.4619205E-08
2350750. -0.2061461E-09 -0.2191760E-07 -0.5103435E-11 -0.5448663E-09  0.1364118E-10  0.1476095E-08
2280172. -0.6214717E-10 -0.6848106E-08 -0.1531239E-11 -0.1693658E-09  0.4023471E-11  0.4516360E-09
2209594. -0.1792863E-10 -0.2048757E-08 -0.4397798E-12 -0.5042592E-10  0.1133517E-11  0.1320485E-09
2139016. -0.4937253E-11 -0.5854981E-09 -0.1206042E-12 -0.1434614E-10  0.3042954E-12  0.3680999E-10
2068438. -0.1294346E-11 -0.1594149E-09 -0.3149406E-13 -0.3889674E-11  0.7763033E-13  0.9758124E-11
1997859. -0.3220491E-12 -0.4122864E-10 -0.7806960E-14 -0.1002082E-11  0.1876273E-13  0.2452871E-11
1927281. -0.7583842E-13 -0.1008915E-10 -0.1829839E-14 -0.2446475E-12  0.4279057E-14  0.5831255E-12
1856703.  0.0000000E+00  0.0000000E+00  0.0000000E+00  0.0000000E+00  0.0000000E+00  0.0000000E+00
1786125.  0.0000000E+00  0.0000000E+00  0.0000000E+00  0.0000000E+00  0.0000000E+00  0.0000000E+00
1715547.  0.0000000E+00  0.0000000E+00  0.0000000E+00  0.0000000E+00  0.0000000E+00  0.0000000E+00
1644969.  0.0000000E+00  0.0000000E+00  0.0000000E+00  0.0000000E+00  0.0000000E+00  0.0000000E+00
1574391.  0.0000000E+00  0.0000000E+00  0.0000000E+00  0.0000000E+00  0.0000000E+00  0.0000000E+00
1503812.  0.0000000E+00  0.0000000E+00  0.0000000E+00  0.0000000E+00  0.0000000E+00  0.0000000E+00
1433234.  0.0000000E+00  0.0000000E+00  0.0000000E+00  0.0000000E+00  0.0000000E+00  0.0000000E+00
1362656.  0.0000000E+00  0.0000000E+00  0.0000000E+00  0.0000000E+00  0.0000000E+00  0.0000000E+00
1292078.  0.0000000E+00  0.0000000E+00  0.0000000E+00  0.0000000E+00  0.0000000E+00  0.0000000E+00
1221500.  0.0000000E+00  0.0000000E+00  0.0000000E+00  0.0000000E+00  0.0000000E+00  0.0000000E+00
1221500.  0.0000000E+00  0.0000000E+00  0.0000000E+00  0.0000000E+00  0.0000000E+00  0.0000000E+00
1183328.  0.0000000E+00  0.0000000E+00  0.0000000E+00  0.0000000E+00  0.0000000E+00  0.0000000E+00
1145156.  0.0000000E+00  0.0000000E+00  0.0000000E+00  0.0000000E+00  0.0000000E+00  0.0000000E+00
1106984.  0.0000000E+00  0.0000000E+00  0.0000000E+00  0.0000000E+00  0.0000000E+00  0.0000000E+00
1068812.  0.0000000E+00  0.0000000E+00  0.0000000E+00  0.0000000E+00  0.0000000E+00  0.0000000E+00
1030641.  0.0000000E+00  0.0000000E+00  0.0000000E+00  0.0000000E+00  0.0000000E+00  0.0000000E+00
 992469.  0.0000000E+00  0.0000000E+00  0.0000000E+00  0.0000000E+00  0.0000000E+00  0.0000000E+00
 954297.  0.0000000E+00  0.0000000E+00  0.0000000E+00  0.0000000E+00  0.0000000E+00  0.0000000E+00
 916125.  0.0000000E+00  0.0000000E+00  0.0000000E+00  0.0000000E+00  0.0000000E+00  0.0000000E+00
 877953.  0.0000000E+00  0.0000000E+00  0.0000000E+00  0.0000000E+00  0.0000000E+00  0.0000000E+00
 839781.  0.0000000E+00  0.0000000E+00  0.0000000E+00  0.0000000E+00  0.0000000E+00  0.0000000E+00
 801609.  0.0000000E+00  0.0000000E+00  0.0000000E+00  0.0000000E+00  0.0000000E+00  0.0000000E+00
 763438.  0.0000000E+00  0.0000000E+00  0.0000000E+00  0.0000000E+00  0.0000000E+00  0.0000000E+00
 725266.  0.0000000E+00  0.0000000E+00  0.0000000E+00  0.0000000E+00  0.0000000E+00  0.0000000E+00
 687094.  0.0000000E+00  0.0000000E+00  0.0000000E+00  0.0000000E+00  0.0000000E+00  0.0000000E+00
 648922.  0.0000000E+00  0.0000000E+00  0.0000000E+00  0.0000000E+00  0.0000000E+00  0.0000000E+00
 610750.  0.0000000E+00  0.0000000E+00  0.0000000E+00  0.0000000E+00  0.0000000E+00  0.0000000E+00
 572578.  0.0000000E+00  0.0000000E+00  0.0000000E+00  0.0000000E+00  0.0000000E+00  0.0000000E+00
 534406.  0.0000000E+00  0.0000000E+00  0.0000000E+00  0.0000000E+00  0.0000000E+00  0.0000000E+00
 496234.  0.0000000E+00  0.0000000E+00  0.0000000E+00  0.0000000E+00  0.0000000E+00  0.0000000E+00
 458062.  0.0000000E+00  0.0000000E+00  0.0000000E+00  0.0000000E+00  0.0000000E+00  0.0000000E+00
 419891.  0.0000000E+00  0.0000000E+00  0.0000000E+00  0.0000000E+00  0.0000000E+00  0.0000000E+00
 381719.  0.0000000E+00  0.0000000E+00  0.0000000E+00  0.0000000E+00  0.0000000E+00  0.0000000E+00
 343547.  0.0000000E+00  0.0000000E+00  0.0000000E+00  0.0000000E+00  0.0000000E+00  0.0000000E+00
 305375.  0.0000000E+00  0.0000000E+00  0.0000000E+00  0.0000000E+00  0.0000000E+00  0.0000000E+00
 267203.  0.0000000E+00  0.0000000E+00  0.0000000E+00  0.0000000E+00  0.0000000E+00  0.0000000E+00
 229031.  0.0000000E+00  0.0000000E+00  0.0000000E+00  0.0000000E+00  0.0000000E+00  0.0000000E+00
 190859.  0.0000000E+00  0.0000000E+00  0.0000000E+00  0.0000000E+00  0.0000000E+00  0.0000000E+00
 152688.  0.0000000E+00  0.0000000E+00  0.0000000E+00  0.0000000E+00  0.0000000E+00  0.0000000E+00
 114516.  0.0000000E+00  0.0000000E+00  0.0000000E+00  0.0000000E+00  0.0000000E+00  0.0000000E+00
  76344.  0.0000000E+00  0.0000000E+00  0.0000000E+00  0.0000000E+00  0.0000000E+00  0.0000000E+00
  38172.  0.0000000E+00  0.0000000E+00  0.0000000E+00  0.0000000E+00  0.0000000E+00  0.0000000E+00
      0.  0.0000000E+00  0.0000000E+00  0.0000000E+00  0.0000000E+00  0.0000000E+00  0.0000000E+00
