      15        7 S      620        141.11189         37.82358         23.16375         86.99077      185    7
6371000.  0.5699052E-02  0.9072694E-02  0.6156938E-03 -0.5083357E-02 -0.2527648E-04 -0.1054487E-01
6370000.  0.5697458E-02  0.1123555E-01  0.6164329E-03 -0.4334645E-02 -0.2362079E-04 -0.1055180E-01
6369000.  0.5695525E-02  0.1339383E-01  0.6170545E-03 -0.3584100E-02 -0.2196406E-04 -0.1055812E-01
6368000.  0.5693253E-02  0.1554739E-01  0.6175580E-03 -0.2831868E-02 -0.2030639E-04 -0.1056383E-01
6368000.  0.5693253E-02  0.1554739E-01  0.6175580E-03 -0.2831868E-02 -0.2030639E-04 -0.1056383E-01
6367000.  0.5690644E-02  0.1769611E-01  0.6179434E-03 -0.2078090E-02 -0.1864787E-04 -0.1056893E-01
6366000.  0.5687698E-02  0.1983984E-01  0.6182103E-03 -0.1322913E-02 -0.1698860E-04 -0.1057342E-01
6365000.  0.5684416E-02  0.2197844E-01  0.6183586E-03 -0.5664804E-03 -0.1532867E-04 -0.1057730E-01
6364000.  0.5680799E-02  0.2411178E-01  0.6183880E-03  0.1910626E-03 -0.1366818E-04 -0.1058057E-01
6363000.  0.5676847E-02  0.2623973E-01  0.6182985E-03  0.9495709E-03 -0.1200722E-04 -0.1058323E-01
6362000.  0.5672562E-02  0.2836215E-01  0.6180899E-03  0.1708899E-02 -0.1034590E-04 -0.1058527E-01
6361000.  0.5667944E-02  0.3047891E-01  0.6177620E-03  0.2468900E-02 -0.8684300E-05 -0.1058670E-01
6360000.  0.5662994E-02  0.3258989E-01  0.6173149E-03  0.3229429E-02 -0.7022526E-05 -0.1058752E-01
6359000.  0.5657714E-02  0.3469494E-01  0.6167482E-03  0.3990340E-02 -0.5360672E-05 -0.1058773E-01
6358000.  0.5652103E-02  0.3679394E-01  0.6160622E-03  0.4751486E-02 -0.3698833E-05 -0.1058732E-01
6357000.  0.5646164E-02  0.3888678E-01  0.6152567E-03  0.5512720E-02 -0.2037106E-05 -0.1058630E-01
6356000.  0.5639896E-02  0.4097331E-01  0.6143316E-03  0.6273896E-02 -0.3755870E-06 -0.1058467E-01
6356000.  0.5639896E-02  0.2876014E-01  0.6143316E-03  0.1790039E-02 -0.3755870E-06 -0.1181184E-01
6355000.  0.5635262E-02  0.3028748E-01  0.6140108E-03  0.2298157E-02  0.1478549E-05 -0.1181347E-01
6354000.  0.5630388E-02  0.3181100E-01  0.6136101E-03  0.2806630E-02  0.3332901E-05 -0.1181461E-01
6353000.  0.5625276E-02  0.3333062E-01  0.6131297E-03  0.3315393E-02  0.5187394E-05 -0.1181526E-01
6352000.  0.5619925E-02  0.3484628E-01  0.6125693E-03  0.3824381E-02  0.7041950E-05 -0.1181542E-01
6351000.  0.5614337E-02  0.3635792E-01  0.6119292E-03  0.4333526E-02  0.8896493E-05 -0.1181509E-01
6350000.  0.5608512E-02  0.3786546E-01  0.6112090E-03  0.4842766E-02  0.1075095E-04 -0.1181427E-01
6349000.  0.5602451E-02  0.3936884E-01  0.6104089E-03  0.5352031E-02  0.1260523E-04 -0.1181296E-01
6348000.  0.5596153E-02  0.4086799E-01  0.6095288E-03  0.5861259E-02  0.1445927E-04 -0.1181116E-01
6347000.  0.5589622E-02  0.4236285E-01  0.6085689E-03  0.6370382E-02  0.1631300E-04 -0.1180888E-01
6346600.  0.5586943E-02  0.4295958E-01  0.6081625E-03  0.6573988E-02  0.1705438E-04 -0.1180783E-01
6346600.  0.5586943E-02  0.3078615E-01  0.6081625E-03  0.2814755E-02  0.1705438E-04 -0.1375591E-01
6318800.  0.5388093E-02  0.5998300E-01  0.5719416E-03  0.1373839E-01  0.7691413E-04 -0.1362821E-01
6291000.  0.5067218E-02  0.8660855E-01  0.4893028E-03  0.2395154E-01  0.1355305E-03 -0.1318600E-01
6291000.  0.5067218E-02  0.8796360E-01  0.4893028E-03  0.2496741E-01  0.1355305E-03 -0.1318600E-01
6263000.  0.4627029E-02  0.1117686E+00  0.3589425E-03  0.3401140E-01  0.1918912E-03 -0.1240956E-01
6235000.  0.4090151E-02  0.1319242E+00  0.1938910E-03  0.4064352E-01  0.2441573E-03 -0.1132545E-01
6207000.  0.3473005E-02  0.1482880E+00  0.6060146E-05  0.4430239E-01  0.2910190E-03 -0.9954218E-02
6179000.  0.2792232E-02  0.1608984E+00 -0.1906697E-03  0.4465943E-01  0.3312736E-03 -0.8324082E-02
6151000.  0.2063979E-02  0.1699329E+00 -0.3815352E-03  0.4164420E-01  0.3638584E-03 -0.6470390E-02
6151000.  0.2063979E-02  0.1348905E+00 -0.3815352E-03  0.3627184E-01  0.3638584E-03 -0.6584580E-02
6128500.  0.1585704E-02  0.1357436E+00 -0.5020741E-03  0.3174812E-01  0.3848156E-03 -0.5270998E-02
6106000.  0.1106606E-02  0.1353991E+00 -0.6042060E-03  0.2588901E-01  0.4010095E-03 -0.3890013E-02
6083500.  0.6304755E-03  0.1341016E+00 -0.6836820E-03  0.1896709E-01  0.4122336E-03 -0.2459611E-02
6061000.  0.1602873E-03  0.1320668E+00 -0.7372920E-03  0.1129564E-01  0.4183457E-03 -0.9980763E-03
6038500. -0.3016829E-03  0.1294737E+00 -0.7629827E-03  0.3213951E-02  0.4192682E-03  0.4762763E-03
6016000. -0.7537125E-03  0.1264554E+00 -0.7599213E-03 -0.4928774E-02  0.4149880E-03  0.1945293E-02
5993500. -0.1194463E-02  0.1230966E+00 -0.7285029E-03 -0.1278895E-01  0.4055553E-03  0.3391212E-02
5971000. -0.1622813E-02  0.1194346E+00 -0.6703040E-03 -0.2004348E-01  0.3910824E-03  0.4796845E-02
5971000. -0.1622813E-02  0.1068735E+00 -0.6703040E-03 -0.1772339E-01  0.3910824E-03  0.5009285E-02
5937667. -0.2158477E-02  0.9790156E-01 -0.5563401E-03 -0.2543236E-01  0.3597757E-03  0.6929904E-02
5904333. -0.2647282E-02  0.8893061E-01 -0.4086934E-03 -0.3055990E-01  0.3188936E-03  0.8663379E-02
5871000. -0.3088736E-02  0.7976921E-01 -0.2412438E-03 -0.3300807E-01  0.2695015E-03  0.1017896E-01
5837667. -0.3481244E-02  0.7017987E-01 -0.6775389E-04 -0.3290705E-01  0.2128020E-03  0.1145346E-01
5804333. -0.3821966E-02  0.5993494E-01  0.9918254E-04 -0.3056396E-01  0.1500997E-03  0.1247082E-01
5771000. -0.4106962E-02  0.4885811E-01  0.2489060E-03 -0.2640800E-01  0.8277056E-04  0.1322186E-01
5771000. -0.4106962E-02  0.4885989E-01  0.2489060E-03 -0.2640698E-01  0.8277056E-04  0.1322186E-01
5701000. -0.4512111E-02  0.2365259E-01  0.4835327E-03 -0.1541625E-01 -0.6630546E-04  0.1371890E-01
5701000. -0.4512111E-02  0.2139612E-01  0.4835327E-03 -0.1101338E-01 -0.6630546E-04  0.1499070E-01
5667333. -0.4588081E-02  0.7547610E-02  0.5233846E-03 -0.4466936E-02 -0.1449943E-03  0.1475803E-01
5633667. -0.4591373E-02 -0.6498679E-02  0.5333519E-03  0.6137766E-03 -0.2219629E-03  0.1433931E-01
5600000. -0.4517974E-02 -0.2137271E-01  0.5172502E-03  0.5416141E-02 -0.2961343E-03  0.1369503E-01
5600000. -0.4517974E-02 -0.2137271E-01  0.5172502E-03  0.5416141E-02 -0.2961343E-03  0.1369503E-01
5563518. -0.4347957E-02 -0.3807805E-01  0.4727048E-03  0.1001455E-01 -0.3719872E-03  0.1275784E-01
5527037. -0.4081543E-02 -0.5496361E-01  0.4042580E-03  0.1372570E-01 -0.4418021E-03  0.1159039E-01
5490556. -0.3719130E-02 -0.7151865E-01  0.3175949E-03  0.1634970E-01 -0.5043276E-03  0.1021608E-01
5454074. -0.3264174E-02 -0.8719063E-01  0.2193354E-03  0.1776099E-01 -0.5584562E-03  0.8661588E-02
5417593. -0.2723317E-02 -0.1014359E+00  0.1165915E-03  0.1791638E-01 -0.6032338E-03  0.6955416E-02
5381111. -0.2106263E-02 -0.1137109E+00  0.1648652E-04  0.1685054E-01 -0.6378813E-03  0.5128384E-02
5344630. -0.1425767E-02 -0.1235271E+00 -0.7426309E-04  0.1467415E-01 -0.6617967E-03  0.3212598E-02
5308148. -0.6970608E-03 -0.1304797E+00 -0.1497820E-03  0.1156414E-01 -0.6745651E-03  0.1240353E-02
5271667.  0.6240822E-04 -0.1342341E+00 -0.2053511E-03  0.7748696E-02 -0.6759570E-03 -0.7554524E-03
5235185.  0.8337476E-03 -0.1345973E+00 -0.2376853E-03  0.3495237E-02 -0.6659295E-03 -0.2742788E-02
5198704.  0.1597235E-02 -0.1314943E+00 -0.2450925E-03 -0.9089350E-03 -0.6446216E-03 -0.4690471E-02
5162222.  0.2333099E-02 -0.1249628E+00 -0.2275419E-03 -0.5173997E-02 -0.6123441E-03 -0.6569109E-02
5125741.  0.3022187E-02 -0.1152072E+00 -0.1866334E-03 -0.9023610E-02 -0.5695758E-03 -0.8350521E-02
5089259.  0.3646904E-02 -0.1025324E+00 -0.1254646E-03 -0.1221209E-01 -0.5169447E-03 -0.1000947E-01
5052778.  0.4191638E-02 -0.8735729E-01 -0.4842961E-04 -0.1453640E-01 -0.4552216E-03 -0.1152300E-01
5016296.  0.4643567E-02 -0.7020520E-01  0.3907687E-04 -0.1584898E-01 -0.3852960E-03 -0.1287060E-01
4979815.  0.4992981E-02 -0.5165651E-01  0.1309762E-03 -0.1606238E-01 -0.3081724E-03 -0.1403523E-01
4943333.  0.5233685E-02 -0.3234081E-01  0.2208856E-03 -0.1515505E-01 -0.2249360E-03 -0.1500262E-01
4906852.  0.5363132E-02 -0.1290511E-01  0.3024781E-03 -0.1317076E-01 -0.1367559E-03 -0.1576124E-01
4870370.  0.5382448E-02  0.6023117E-02  0.3698611E-03 -0.1021361E-01 -0.4484507E-04 -0.1630375E-01
4833889.  0.5296262E-02  0.2385084E-01  0.4178940E-03 -0.6443539E-02  0.4953732E-04 -0.1662470E-01
4797407.  0.5112402E-02  0.4005570E-01  0.4424897E-03 -0.2064417E-02  0.1451201E-03 -0.1672214E-01
4760926.  0.4841482E-02  0.5419624E-01  0.4408276E-03  0.2685789E-02  0.2406221E-03 -0.1659779E-01
4724444.  0.4496302E-02  0.6594469E-01  0.4115111E-03  0.7550714E-02  0.3347861E-03 -0.1625468E-01
4687963.  0.4091258E-02  0.7508187E-01  0.3546388E-03  0.1226696E-01  0.4263720E-03 -0.1569960E-01
4651482.  0.3641634E-02  0.8151048E-01  0.2718003E-03  0.1657918E-01  0.5141938E-03 -0.1494162E-01
4615000.  0.3162885E-02  0.8526466E-01  0.1659832E-03  0.2025547E-01  0.5971215E-03 -0.1399141E-01
4578518.  0.2669994E-02  0.8648201E-01  0.4142601E-04  0.2309417E-01  0.6740895E-03 -0.1286245E-01
4542037.  0.2176835E-02  0.8541371E-01 -0.9659769E-04  0.2493840E-01  0.7441144E-03 -0.1156968E-01
4505556.  0.1695531E-02  0.8240302E-01 -0.2420719E-03  0.2568296E-01  0.8063060E-03 -0.1012935E-01
4469074.  0.1236085E-02  0.7784687E-01 -0.3885211E-03  0.2527355E-01  0.8598721E-03 -0.8559537E-02
4432593.  0.8060679E-03  0.7220858E-01 -0.5293226E-03  0.2371777E-01  0.9041218E-03 -0.6879072E-02
4396111.  0.4102830E-03  0.6596439E-01 -0.6580706E-03  0.2107661E-01  0.9384797E-03 -0.5107557E-02
4359630.  0.5089235E-04  0.5957824E-01 -0.7688377E-03  0.1746174E-01  0.9624810E-03 -0.3265492E-02
4323148. -0.2726354E-03  0.5350696E-01 -0.8564948E-03  0.1303392E-01  0.9757816E-03 -0.1373417E-02
4286667. -0.5632450E-03  0.4814316E-01 -0.9169272E-03  0.7988824E-02  0.9781544E-03  0.5478443E-03
4250185. -0.8259622E-03  0.4381096E-01 -0.9472320E-03  0.2549726E-02  0.9694908E-03  0.2477758E-02
4213704. -0.1067442E-02  0.4076056E-01 -0.9458346E-03 -0.3043075E-02  0.9498009E-03  0.4395895E-02
4177222. -0.1295488E-02  0.3913204E-01 -0.9125535E-03 -0.8545717E-02  0.9192069E-03  0.6282767E-02
4140741. -0.1518410E-02  0.3897316E-01 -0.8485931E-03 -0.1372082E-01  0.8779446E-03  0.8119312E-02
4104259. -0.1744536E-02  0.4023006E-01 -0.7564596E-03 -0.1835053E-01  0.8263518E-03  0.9887623E-02
4067778. -0.1981526E-02  0.4273565E-01 -0.6398487E-03 -0.2224199E-01  0.7648700E-03  0.1157114E-01
4031296. -0.2235895E-02  0.4625132E-01 -0.5034383E-03 -0.2524284E-01  0.6940266E-03  0.1315423E-01
3994815. -0.2512527E-02  0.5045300E-01 -0.3526738E-03 -0.2724174E-01  0.6144417E-03  0.1462292E-01
3958333. -0.2814266E-02  0.5495080E-01 -0.1934993E-03 -0.2817222E-01  0.5268006E-03  0.1596529E-01
3921852. -0.3141618E-02  0.5933033E-01 -0.3209985E-04 -0.2802233E-01  0.4318641E-03  0.1717024E-01
3885370. -0.3492663E-02  0.6314847E-01  0.1254202E-03 -0.2682497E-01  0.3304392E-03  0.1822932E-01
3848889. -0.3862907E-02  0.6596951E-01  0.2732596E-03 -0.2466006E-01  0.2233870E-03  0.1913565E-01
3812407. -0.4245494E-02  0.6739193E-01  0.4062258E-03 -0.2165233E-01  0.1115928E-03  0.1988387E-01
3775926. -0.4631334E-02  0.6705505E-01  0.5199165E-03 -0.1795751E-01 -0.4023694E-05  0.2047146E-01
3739444. -0.5009518E-02  0.6467325E-01  0.6109250E-03 -0.1376226E-01 -0.1225444E-03  0.2089696E-01
3702963. -0.5367696E-02  0.6004502E-01  0.6769641E-03 -0.9271951E-02 -0.2430342E-03  0.2116077E-01
3666482. -0.5692659E-02  0.5306332E-01  0.7169486E-03 -0.4697820E-02 -0.3645801E-03  0.2126640E-01
3630000. -0.5970890E-02  0.4372869E-01  0.7310154E-03 -0.2543616E-03 -0.4862889E-03  0.2121723E-01
3630000. -0.5970890E-02  0.4372869E-01  0.7310154E-03 -0.2543616E-03 -0.4862889E-03  0.2121723E-01
3592500. -0.6194277E-02  0.3179763E-01  0.7198723E-03  0.3964661E-02 -0.6106466E-03  0.2101245E-01
3555000. -0.6341018E-02  0.1773428E-01  0.6854261E-03  0.7632633E-02 -0.7333584E-03  0.2065933E-01
3517500. -0.6399525E-02  0.1883263E-02  0.6314371E-03  0.1057982E-01 -0.8535761E-03  0.2016669E-01
3480000. -0.6360556E-02 -0.1530470E-01  0.5625550E-03  0.1267446E-01 -0.9705118E-03  0.1954621E-01
3480000. -0.6360556E-02 -0.5509262E-01  0.1238768E-03 -0.1187376E-01 -0.9705118E-03  0.3994441E-01
3409422. -0.5374854E-02 -0.1204280E+00  0.2491906E-03 -0.1051248E-01 -0.1385343E-02  0.3403360E-01
3338844. -0.3756990E-02 -0.1683542E+00  0.3519452E-03 -0.7843225E-02 -0.1706436E-02  0.2323078E-01
3268266. -0.1723333E-02 -0.1951058E+00  0.4192785E-03 -0.4178485E-02 -0.1887349E-02  0.8998882E-02
3197688.  0.4836859E-03 -0.1997092E+00  0.4423202E-03  0.8170462E-04 -0.1899543E-02 -0.6929979E-02
3127109.  0.2624925E-02 -0.1836523E+00  0.4168900E-03  0.4498631E-02 -0.1734147E-02 -0.2277124E-01
3056531.  0.4488924E-02 -0.1503619E+00  0.3436686E-03  0.8640859E-02 -0.1401454E-02 -0.3688030E-01
2985953.  0.5910081E-02 -0.1045637E+00  0.2278850E-03  0.1212441E-01 -0.9284576E-03 -0.4790711E-01
2915375.  0.6779270E-02 -0.5162513E-01  0.7861470E-04  0.1464321E-01 -0.3549811E-03 -0.5489838E-01
2844797.  0.7047508E-02  0.3058181E-02 -0.9220641E-04  0.1598927E-01  0.2710469E-03 -0.5734839E-01
2774219.  0.6723296E-02  0.5458038E-01 -0.2709265E-03  0.1606139E-01  0.8985988E-03 -0.5519963E-01
2703641.  0.5864906E-02  0.9891543E-01 -0.4433627E-03  0.1486389E-01  0.1478315E-02 -0.4880066E-01
2633062.  0.4569090E-02  0.1331683E+00 -0.5959217E-03  0.1249599E-01  0.1966620E-02 -0.3883106E-01
2562484.  0.2957911E-02  0.1556819E+00 -0.7165500E-03  0.9134357E-02  0.2328844E-02 -0.2620645E-01
2491906.  0.1164868E-02  0.1660275E+00 -0.7954860E-03  0.5010941E-02  0.2541304E-02 -0.1197254E-01
2421328. -0.6780663E-03  0.1648863E+00 -0.8257273E-03  0.3879661E-03  0.2592134E-02  0.2798067E-02
2350750. -0.2451774E-02  0.1538612E+00 -0.8032238E-03 -0.4468014E-02  0.2481063E-02  0.1709875E-01
2280172. -0.4058915E-02  0.1352404E+00 -0.7267907E-03 -0.9310027E-02  0.2218249E-02  0.3006433E-01
2209594. -0.5430168E-02  0.1117536E+00 -0.5977669E-03 -0.1393304E-01  0.1822392E-02  0.4102428E-01
2139016. -0.6527815E-02  0.8634085E-01 -0.4194395E-03 -0.1819322E-01  0.1318398E-02  0.4953178E-01
2068438. -0.7346983E-02  0.6196543E-01 -0.1962722E-03 -0.2202469E-01  0.7348532E-03  0.5536844E-01
1997859. -0.7915149E-02  0.4148998E-01  0.6704760E-04 -0.2545464E-01  0.1015595E-03  0.5852595E-01
1927281. -0.8290748E-02  0.2764834E-01  0.3667096E-03 -0.2861937E-01 -0.5525473E-03  0.5916584E-01
1856703. -0.8562141E-02  0.2313261E-01  0.7011270E-03 -0.3178629E-01 -0.1201021E-02  0.5755933E-01
1786125. -0.8848352E-02  0.3084630E-01  0.1072546E-02 -0.3538796E-01 -0.1820648E-02  0.5400445E-01
1715547. -0.9303862E-02  0.5439514E-01  0.1489178E-02 -0.4008222E-01 -0.2391163E-02  0.4871329E-01
1644969. -0.1013075E-01  0.9895296E-01  0.1968235E-02 -0.4685871E-01 -0.2893456E-02  0.4164997E-01
1574391. -0.1160361E-01  0.1727630E+00  0.2540562E-02 -0.5723308E-01 -0.3305546E-02  0.3227829E-01
1503812. -0.1411689E-01  0.2897954E+00  0.3258262E-02 -0.7360351E-01 -0.3594879E-02  0.1913134E-01
1433234. -0.1827224E-01  0.4745827E+00  0.4207705E-02 -0.9991317E-01 -0.3704118E-02 -0.9706304E-03
1362656. -0.2504104E-01  0.7713984E+00  0.5532982E-02 -0.1429210E+00 -0.3524791E-02 -0.3442477E-01
1292078. -0.3607141E-01  0.1262303E+01  0.7479288E-02 -0.2146959E+00 -0.2846939E-02 -0.9384954E-01
1221500. -0.5428702E-01  0.2104186E+01  0.1047657E-01 -0.3377130E+00 -0.1259967E-02 -0.2043092E+00
1221500. -0.5428702E-01 -0.1128681E+02 -0.4450532E-01  0.5101856E-01 -0.1259967E-02 -0.1807918E+00
1183328.  0.1553747E-01 -0.1170175E+02 -0.4154098E-01 -0.1032974E+01 -0.3551676E-03 -0.1236136E+00
1145156.  0.8200222E-01 -0.1015763E+02 -0.3241610E-01 -0.1973393E+01  0.2472183E-03 -0.7941916E-01
1106984.  0.1335663E+00 -0.6775458E+01 -0.1852048E-01 -0.2602114E+01  0.6177492E-03 -0.4586338E-01
1068812.  0.1603692E+00 -0.1987004E+01 -0.2069886E-02 -0.2815393E+01  0.8141428E-03 -0.2099722E-01
1030641.  0.1558952E+00  0.3539382E+01  0.1433298E-01 -0.2589163E+01  0.8834712E-03 -0.3205380E-02
 992469.  0.1180618E+00  0.9013293E+01  0.2818282E-01 -0.1978101E+01  0.8639830E-03  0.8853253E-02
 954297.  0.4956264E-01  0.1365309E+02  0.3750089E-01 -0.1100094E+01  0.7865629E-03  0.1630562E-01
 916125. -0.4257232E-01  0.1681224E+02  0.4114125E-01 -0.1102072E+00  0.6758244E-03  0.2012568E-01
 877953. -0.1480987E+00  0.1807734E+02  0.3892218E-01  0.8299351E+00  0.5509183E-03  0.2116941E-01
 839781. -0.2551424E+00  0.1732286E+02  0.3157620E-01  0.1581153E+01  0.4261472E-03  0.2020046E-01
 801609. -0.3519648E+00  0.1471611E+02  0.2054521E-01  0.2048732E+01  0.3115028E-03  0.1789538E-01
 763438. -0.4286073E+00  0.1067386E+02  0.7673573E-02  0.2194130E+01  0.2131774E-03  0.1484510E-01
 725266. -0.4781670E+00  0.5781577E+01 -0.5135939E-02  0.2035163E+01  0.1341093E-03  0.1153881E-01
 687094. -0.4974979E+00  0.6922827E+00 -0.1623237E-01  0.1636044E+01  0.7466604E-04  0.8348863E-02
 648922. -0.4873092E+00 -0.3977499E+01 -0.2444714E-01  0.1090213E+01  0.3327393E-04  0.5548898E-02
 610750. -0.4516678E+00 -0.7735918E+01 -0.2920880E-01  0.5001749E+00  0.7103513E-05  0.3283385E-02
 572578. -0.3970581E+00 -0.1027498E+02 -0.3053890E-01 -0.4151011E-01 -0.7239374E-05  0.1602628E-02
 534406. -0.3311920E+00 -0.1149354E+02 -0.2894628E-01 -0.4666076E+00 -0.1321162E-04  0.4791495E-03
 496234. -0.2617927E+00 -0.1148398E+02 -0.2525483E-01 -0.7388584E+00 -0.1391856E-04 -0.1728369E-03
 458062. -0.1955522E+00 -0.1048901E+02 -0.2040713E-01 -0.8544031E+00 -0.1184323E-04 -0.4697297E-03
 419891. -0.1374114E+00 -0.8839759E+01 -0.1528511E-01 -0.8360072E+00 -0.8759362E-05 -0.5288663E-03
 381719. -0.9022705E-01 -0.6888232E+01 -0.1057801E-01 -0.7232670E+00 -0.5761621E-05 -0.4569007E-03
 343547. -0.5484146E-01 -0.4947704E+01 -0.6715863E-02 -0.5614128E+00 -0.3382687E-05 -0.3334697E-03
 305375. -0.3044640E-01 -0.3249975E+01 -0.3866039E-02 -0.3913919E+00 -0.1759842E-05 -0.2110942E-03
 267203. -0.1514470E-01 -0.1925439E+01 -0.1981743E-02 -0.2429249E+00 -0.7968805E-06 -0.1157323E-03
 229031. -0.6559080E-02 -0.1006177E+01 -0.8797912E-03 -0.1316832E+00 -0.3047487E-06 -0.5389955E-04
 190859. -0.2364884E-02 -0.4472808E+00 -0.3236421E-03 -0.6024437E-01 -0.9361916E-07 -0.2053164E-04
 152688. -0.6582289E-03 -0.1589617E+00 -0.9152196E-04 -0.2189009E-01 -0.2117390E-07 -0.5951122E-05
 114516. -0.1227001E-03 -0.4014781E-01 -0.1726687E-04 -0.5620401E-02 -0.2989381E-08 -0.1140593E-05
  76344. -0.1113215E-04 -0.5525175E-02 -0.1579804E-05 -0.7823357E-03 -0.1816762E-09 -0.1052390E-06
  38172. -0.1773930E-06 -0.1772541E-03 -0.2529996E-07 -0.2526616E-04 -0.1448038E-11 -0.1685933E-08
      0.  0.0000000E+00  0.0000000E+00  0.0000000E+00  0.0000000E+00  0.0000000E+00  0.0000000E+00
