      18        1 S      662        155.78191        171.30859         10.37134        134.10651      185    7
6371000. -0.4423238E-03 -0.3740531E-01 -0.4801694E-01 -0.4757461E-01  0.8739761E-11  0.8341192E-03
6370000. -0.4364427E-03 -0.3752899E-01 -0.4800564E-01 -0.9641673E-01 -0.1322768E-06  0.8514579E-03
6369000. -0.4305432E-03 -0.3764021E-01 -0.4798667E-01 -0.1452588E+00 -0.2672814E-06  0.8687663E-03
6368000. -0.4246273E-03 -0.3773896E-01 -0.4796003E-01 -0.1940931E+00 -0.4050004E-06  0.8860436E-03
6368000. -0.4246273E-03 -0.3773896E-01 -0.4796003E-01 -0.1940931E+00 -0.4050004E-06  0.8860436E-03
6367000. -0.4186968E-03 -0.3782523E-01 -0.4792574E-01 -0.2429118E+00 -0.5454287E-06  0.9032889E-03
6366000. -0.4127537E-03 -0.3789901E-01 -0.4788378E-01 -0.2917071E+00 -0.6885614E-06  0.9205014E-03
6365000. -0.4068001E-03 -0.3796031E-01 -0.4783417E-01 -0.3404712E+00 -0.8343931E-06  0.9376802E-03
6364000. -0.4008378E-03 -0.3800911E-01 -0.4777690E-01 -0.3891963E+00 -0.9829184E-06  0.9548244E-03
6363000. -0.3948688E-03 -0.3804542E-01 -0.4771199E-01 -0.4378746E+00 -0.1134132E-05  0.9719333E-03
6362000. -0.3888951E-03 -0.3806924E-01 -0.4763944E-01 -0.4864984E+00 -0.1288028E-05  0.9890060E-03
6361000. -0.3829187E-03 -0.3808059E-01 -0.4755927E-01 -0.5350599E+00 -0.1444601E-05  0.1006042E-02
6360000. -0.3769414E-03 -0.3807946E-01 -0.4747148E-01 -0.5835512E+00 -0.1603845E-05  0.1023039E-02
6359000. -0.3709653E-03 -0.3806587E-01 -0.4737609E-01 -0.6319647E+00 -0.1765754E-05  0.1039998E-02
6358000. -0.3649923E-03 -0.3803983E-01 -0.4727310E-01 -0.6802926E+00 -0.1930322E-05  0.1056917E-02
6357000. -0.3590244E-03 -0.3800135E-01 -0.4716253E-01 -0.7285271E+00 -0.2097542E-05  0.1073796E-02
6356000. -0.3530635E-03 -0.3795046E-01 -0.4704440E-01 -0.7766606E+00 -0.2267409E-05  0.1090634E-02
6356000. -0.3530635E-03 -0.3296009E-01 -0.4704440E-01 -0.4873413E+00 -0.2267409E-05  0.1167457E-02
6355000. -0.3478913E-03 -0.3294262E-01 -0.4696537E-01 -0.5196673E+00 -0.2452253E-05  0.1187830E-02
6354000. -0.3427225E-03 -0.3291714E-01 -0.4688127E-01 -0.5519477E+00 -0.2640293E-05  0.1208171E-02
6353000. -0.3375583E-03 -0.3288365E-01 -0.4679210E-01 -0.5841789E+00 -0.2831524E-05  0.1228479E-02
6352000. -0.3324000E-03 -0.3284216E-01 -0.4669789E-01 -0.6163576E+00 -0.3025939E-05  0.1248754E-02
6351000. -0.3272489E-03 -0.3279269E-01 -0.4659862E-01 -0.6484802E+00 -0.3223534E-05  0.1268994E-02
6350000. -0.3221061E-03 -0.3273523E-01 -0.4649432E-01 -0.6805433E+00 -0.3424303E-05  0.1289200E-02
6349000. -0.3169729E-03 -0.3266980E-01 -0.4638498E-01 -0.7125434E+00 -0.3628241E-05  0.1309369E-02
6348000. -0.3118507E-03 -0.3259642E-01 -0.4627063E-01 -0.7444772E+00 -0.3835341E-05  0.1329502E-02
6347000. -0.3067406E-03 -0.3251509E-01 -0.4615128E-01 -0.7763409E+00 -0.4045599E-05  0.1349598E-02
6346600. -0.3047003E-03 -0.3248034E-01 -0.4610214E-01 -0.7890661E+00 -0.4130585E-05  0.1357626E-02
6346600. -0.3047003E-03 -0.3727699E-01 -0.4610214E-01 -0.5476661E+00 -0.4130585E-05  0.1463871E-02
6318800. -0.1486303E-03 -0.3343029E-01 -0.4223077E-01 -0.1217540E+01 -0.1180155E-04  0.2047150E-02
6291000. -0.1992063E-04 -0.2480615E-01 -0.3558791E-01 -0.1811060E+01 -0.2194534E-04  0.2595537E-02
6291000. -0.1992063E-04 -0.2570335E-01 -0.3558791E-01 -0.1875450E+01 -0.2194534E-04  0.2595537E-02
6263000.  0.6481798E-04 -0.1219826E-01 -0.2620124E-01 -0.2372205E+01 -0.3446364E-04  0.3092780E-02
6235000.  0.8233422E-04  0.4684137E-02 -0.1496983E-01 -0.2710145E+01 -0.4905052E-04  0.3535563E-02
6207000.  0.2068763E-04  0.2357721E-01 -0.2646484E-02 -0.2866273E+01 -0.6544990E-04  0.3916441E-02
6179000. -0.1255258E-03  0.4288981E-01  0.9941530E-02 -0.2829868E+01 -0.8337494E-04  0.4228794E-02
6151000. -0.3544204E-03  0.6091518E-01  0.2194809E-01 -0.2603115E+01 -0.1025109E-03  0.4466510E-02
6151000. -0.3544204E-03  0.5275423E-01  0.2194809E-01 -0.2282891E+01 -0.1025109E-03  0.4486118E-02
6128500. -0.5586693E-03  0.6258326E-01  0.2951865E-01 -0.1990995E+01 -0.1184895E-03  0.4553659E-02
6106000. -0.7937867E-03  0.7015450E-01  0.3592426E-01 -0.1625507E+01 -0.1346099E-03  0.4566296E-02
6083500. -0.1050992E-02  0.7502768E-01  0.4093119E-01 -0.1201607E+01 -0.1506774E-03  0.4523742E-02
6061000. -0.1320137E-02  0.7687093E-01  0.4436276E-01 -0.7363246E+00 -0.1664978E-03  0.4426460E-02
6038500. -0.1590112E-02  0.7547363E-01  0.4610474E-01 -0.2478692E+00 -0.1818795E-03  0.4275612E-02
6016000. -0.1849291E-02  0.7075378E-01  0.4610821E-01  0.2451046E+00 -0.1966366E-03  0.4073065E-02
5993500. -0.2085987E-02  0.6275983E-01  0.4438988E-01  0.7242011E+00 -0.2105907E-03  0.3821392E-02
5971000. -0.2288912E-02  0.5166878E-01  0.4102995E-01  0.1171957E+01 -0.2235739E-03  0.3523744E-02
5971000. -0.2288912E-02  0.4969238E-01  0.4102995E-01  0.1047938E+01 -0.2235739E-03  0.3823382E-02
5937667. -0.2498849E-02  0.2988879E-01  0.3420724E-01  0.1537359E+01 -0.2422127E-03  0.3285956E-02
5904333. -0.2596051E-02  0.6860404E-02  0.2519624E-01  0.1881897E+01 -0.2578132E-03  0.2665267E-02
5871000. -0.2567841E-02 -0.1777737E-01  0.1478261E-01  0.2073295E+01 -0.2699950E-03  0.1982955E-02
5837667. -0.2410035E-02 -0.4241696E-01  0.3762952E-02  0.2114995E+01 -0.2784941E-03  0.1261222E-02
5804333. -0.2126594E-02 -0.6556440E-01 -0.7109961E-02  0.2019876E+01 -0.2831618E-03  0.5218750E-03
5771000. -0.1728843E-02 -0.8591919E-01 -0.1716906E-01  0.1807796E+01 -0.2839608E-03 -0.2143035E-03
5771000. -0.1728843E-02 -0.8592193E-01 -0.1716906E-01  0.1807736E+01 -0.2839608E-03 -0.2143035E-03
5701000. -0.5718275E-03 -0.1216803E+00 -0.3392623E-01  0.1176991E+01 -0.2728113E-03 -0.1800179E-02
5701000. -0.5718275E-03 -0.1040191E+00 -0.3392623E-01  0.9221593E+00 -0.2728113E-03 -0.1639001E-02
5667333. -0.2002170E-04 -0.1052191E+00 -0.3766568E-01  0.5126449E+00 -0.2629538E-03 -0.2067465E-02
5633667.  0.5440835E-03 -0.1080579E+00 -0.3945385E-01  0.1647857E+00 -0.2511029E-03 -0.2412526E-02
5600000.  0.1113259E-02 -0.1065295E+00 -0.3939098E-01 -0.1881350E+00 -0.2375138E-03 -0.2723429E-02
5600000.  0.1113259E-02 -0.1065295E+00 -0.3939098E-01 -0.1881350E+00 -0.2375138E-03 -0.2723429E-02
5563518.  0.1706784E-02 -0.9993003E-01 -0.3724558E-01 -0.5572941E+00 -0.2210707E-03 -0.3010787E-02
5527037.  0.2248332E-02 -0.8844258E-01 -0.3307138E-01 -0.8936770E+00 -0.2031377E-03 -0.3243427E-02
5490556.  0.2711225E-02 -0.7255780E-01 -0.2710686E-01 -0.1179930E+01 -0.1840356E-03 -0.3418875E-02
5454074.  0.3072229E-02 -0.5298774E-01 -0.1968192E-01 -0.1401593E+01 -0.1640947E-03 -0.3536112E-02
5417593.  0.3312741E-02 -0.3063874E-01 -0.1119908E-01 -0.1548059E+01 -0.1436507E-03 -0.3594849E-02
5381111.  0.3419775E-02 -0.6547760E-02 -0.2109618E-02 -0.1612615E+01 -0.1230341E-03 -0.3596546E-02
5344630.  0.3386560E-02  0.1815466E-01  0.7108101E-02 -0.1592943E+01 -0.1025663E-03 -0.3543435E-02
5308148.  0.3212904E-02  0.4231079E-01  0.1597638E-01 -0.1491152E+01 -0.8255294E-04 -0.3438255E-02
5271667.  0.2905234E-02  0.6478034E-01  0.2403969E-01 -0.1313210E+01 -0.6328140E-04 -0.3285212E-02
5235185.  0.2476261E-02  0.8450945E-01  0.3088914E-01 -0.1069051E+01 -0.4501346E-04 -0.3088212E-02
5198704.  0.1944423E-02  0.1005712E+00  0.3618111E-01 -0.7716469E+00 -0.2798939E-04 -0.2851761E-02
5162222.  0.1332966E-02  0.1122037E+00  0.3965368E-01 -0.4362732E+00 -0.1241958E-04 -0.2580922E-02
5125741.  0.6689375E-03  0.1188679E+00  0.4113766E-01 -0.8003919E-01  0.1511394E-05 -0.2280274E-02
5089259. -0.1823607E-04  0.1202482E+00  0.4056427E-01  0.2793414E+00  0.1364718E-04 -0.1954584E-02
5052778. -0.6979369E-03  0.1162749E+00  0.3796640E-01  0.6241828E+00  0.2385722E-04 -0.1608527E-02
5016296. -0.1339971E-02  0.1071369E+00  0.3347550E-01  0.9378334E+00  0.3203825E-04 -0.1246536E-02
4979815. -0.1915823E-02  0.9325374E-01  0.2731440E-01  0.1205270E+01  0.3811057E-04 -0.8727486E-03
4943333. -0.2400094E-02  0.7526966E-01  0.1978463E-01  0.1413951E+01  0.4201834E-04 -0.4911388E-03
4906852. -0.2771592E-02  0.5402125E-01  0.1125191E-01  0.1554315E+01  0.4372793E-04 -0.1055954E-03
4870370. -0.3014387E-02  0.3048808E-01  0.2126870E-02  0.1619989E+01  0.4322614E-04  0.2806804E-03
4833889. -0.3118478E-02  0.5764890E-02 -0.7153063E-02  0.1608385E+01  0.4051919E-04  0.6640126E-03
4797407. -0.3080317E-02 -0.1900453E-01 -0.1614712E-01  0.1520492E+01  0.3563352E-04  0.1041138E-02
4760926. -0.2902949E-02 -0.4266888E-01 -0.2442875E-01  0.1360674E+01  0.2861278E-04  0.1409247E-02
4724444. -0.2595876E-02 -0.6412854E-01 -0.3160775E-01  0.1136866E+01  0.1951849E-04  0.1764723E-02
4687963. -0.2174668E-02 -0.8238013E-01 -0.3734653E-01  0.8596778E+00  0.8432396E-05  0.2104540E-02
4651482. -0.1660229E-02 -0.9656391E-01 -0.4137570E-01  0.5420767E+00 -0.4547359E-05  0.2425564E-02
4615000. -0.1077855E-02 -0.1060075E+00 -0.4350556E-01  0.1988330E+00 -0.1930348E-04  0.2724278E-02
4578518. -0.4561412E-03 -0.1102456E+00 -0.4363392E-01 -0.1543104E+00 -0.3569843E-04  0.2997400E-02
4542037.  0.1743204E-03 -0.1090522E+00 -0.4175026E-01 -0.5012450E+00 -0.5357536E-04  0.3241467E-02
4505556.  0.7823949E-03 -0.1024496E+00 -0.3793532E-01 -0.8263239E+00 -0.7275831E-04  0.3452986E-02
4469074.  0.1337753E-02 -0.9069836E-01 -0.3235668E-01 -0.1114901E+01 -0.9305138E-04  0.3628434E-02
4432593.  0.1812224E-02 -0.7430565E-01 -0.2526138E-01 -0.1354154E+01 -0.1142375E-03  0.3764577E-02
4396111.  0.2181213E-02 -0.5398750E-01 -0.1696288E-01 -0.1533506E+01 -0.1360836E-03  0.3858211E-02
4359630.  0.2424724E-02 -0.3064664E-01 -0.7829020E-02 -0.1644936E+01 -0.1583358E-03  0.3906172E-02
4323148.  0.2528416E-02 -0.5335422E-02  0.1736706E-02 -0.1683721E+01 -0.1807271E-03  0.3906194E-02
4286667.  0.2484267E-02  0.2079204E-01  0.1131135E-01 -0.1648116E+01 -0.2029751E-03  0.3856015E-02
4250185.  0.2291044E-02  0.4652838E-01  0.2047223E-01 -0.1539655E+01 -0.2247885E-03  0.3753983E-02
4213704.  0.1954474E-02  0.7066353E-01  0.2881406E-01 -0.1363162E+01 -0.2458668E-03  0.3599405E-02
4177222.  0.1487062E-02  0.9203742E-01  0.3596794E-01 -0.1126154E+01 -0.2659090E-03  0.3391901E-02
4140741.  0.9077432E-03  0.1095903E+00  0.4161514E-01 -0.8388863E+00 -0.2846123E-03  0.3132147E-02
4104259.  0.2410428E-03  0.1224139E+00  0.4550264E-01 -0.5136812E+00 -0.3016827E-03  0.2821712E-02
4067778. -0.4837357E-03  0.1297791E+00  0.4745196E-01 -0.1643763E+00 -0.3168351E-03  0.2462874E-02
4031296. -0.1233839E-02  0.1311895E+00  0.4736753E-01  0.1941327E+00 -0.3298020E-03  0.2058851E-02
3994815. -0.1974282E-02  0.1263903E+00  0.4524021E-01  0.5466282E+00 -0.3403354E-03  0.1613817E-02
3958333. -0.2669425E-02  0.1153843E+00  0.4114740E-01  0.8781592E+00 -0.3482156E-03  0.1132961E-02
3921852. -0.3284360E-02  0.9844923E-01  0.3525005E-01  0.1174728E+01 -0.3532522E-03  0.6216827E-03
3885370. -0.3786566E-02  0.7611461E-01  0.2778479E-01  0.1423772E+01 -0.3552899E-03  0.8666896E-04
3848889. -0.4147206E-02  0.4915627E-01  0.1905569E-01  0.1614669E+01 -0.3542133E-03 -0.4649099E-03
3812407. -0.4342562E-02  0.1856327E-01  0.9419455E-02  0.1739383E+01 -0.3499471E-03 -0.1026026E-02
3775926. -0.4355087E-02 -0.1449334E-01 -0.7271817E-03  0.1792354E+01 -0.3424609E-03 -0.1588245E-02
3739444. -0.4174355E-02 -0.4871034E-01 -0.1096549E-01  0.1771167E+01 -0.3317704E-03 -0.2143923E-02
3702963. -0.3797678E-02 -0.8269866E-01 -0.2087073E-01  0.1676444E+01 -0.3179351E-03 -0.2685334E-02
3666482. -0.3230443E-02 -0.1150313E+00 -0.3003029E-01  0.1511554E+01 -0.3010612E-03 -0.3203926E-02
3630000. -0.2486123E-02 -0.1443176E+00 -0.3805999E-01  0.1283032E+01 -0.2812992E-03 -0.3692764E-02
3630000. -0.2486123E-02 -0.1443176E+00 -0.3805999E-01  0.1283032E+01 -0.2812992E-03 -0.3692764E-02
3592500. -0.1558920E-02 -0.1698544E+00 -0.4477856E-01  0.9911556E+00 -0.2581778E-03 -0.4156434E-02
3555000. -0.4981860E-03 -0.1894929E+00 -0.4963826E-01  0.6536320E+00 -0.2324602E-03 -0.4573843E-02
3517500.  0.6581137E-03 -0.2021682E+00 -0.5241138E-01  0.2846465E+00 -0.2044369E-03 -0.4938952E-02
3480000.  0.1866440E-02 -0.2070576E+00 -0.5295764E-01 -0.1003690E+00 -0.1744315E-03 -0.5246493E-02
3480000.  0.1866440E-02 -0.1978546E+00  0.3500604E-03  0.2769928E-02 -0.1744315E-03 -0.1123214E-01
3409422.  0.3902430E-02 -0.1662678E+00  0.2970451E-03  0.6733675E-02  0.3479723E-04 -0.2617310E-01
3338844.  0.5483753E-02 -0.1167164E+00  0.2031779E-03  0.1007462E-01  0.3942534E-03 -0.3809255E-01
3268266.  0.6445131E-02 -0.5546961E-01  0.7754940E-04  0.1241239E-01  0.8625932E-03 -0.4564672E-01
3197688.  0.6695232E-02  0.1051996E-01 -0.6710005E-04  0.1347325E-01  0.1386338E-02 -0.4800284E-01
3127109.  0.6220120E-02  0.7434501E-01 -0.2156975E-03  0.1311192E-01  0.1905907E-02 -0.4489535E-01
3056531.  0.5079203E-02  0.1297699E+00 -0.3523137E-03  0.1132082E-01  0.2361915E-02 -0.3662379E-01
2985953.  0.3394832E-02  0.1717335E+00 -0.4616973E-03  0.8227336E-02  0.2701214E-02 -0.2399776E-01
2915375.  0.1337291E-02  0.1966886E+00 -0.5306970E-03  0.4080558E-02  0.2882008E-02 -0.8239435E-02
2844797. -0.8931638E-03  0.2027886E+00 -0.5494938E-03 -0.7713482E-03  0.2877747E-02  0.9144263E-02
2774219. -0.3085433E-02  0.1899152E+00 -0.5125429E-03 -0.5910191E-02  0.2679486E-02  0.2650692E-01
2703641. -0.5036249E-02  0.1595733E+00 -0.4191676E-03 -0.1088106E-01  0.2296599E-02  0.4221198E-01
2633062. -0.6567051E-02  0.1146682E+00 -0.2737681E-03 -0.1522792E-01  0.1755869E-02  0.5477408E-01
2562484. -0.7537758E-02  0.5919742E-01 -0.8564904E-04 -0.1852801E-01  0.1099144E-02  0.6298112E-01
2491906. -0.7857010E-02 -0.2117222E-02  0.1315422E-03 -0.2042396E-01  0.3797028E-03  0.6599110E-01
2421328. -0.7487945E-02 -0.6422044E-01  0.3606880E-03 -0.2065107E-01 -0.3421946E-03  0.6339431E-01
2350750. -0.6449732E-02 -0.1221156E+00  0.5823516E-03 -0.1905826E-01 -0.1004290E-02  0.5524149E-01
2280172. -0.4814881E-02 -0.1712258E+00  0.7761192E-03 -0.1562198E-01 -0.1547417E-02  0.4203581E-01
2209594. -0.2702802E-02 -0.2077080E+00  0.9220554E-03 -0.1045230E-01 -0.1920310E-02  0.2469114E-01
2139016. -0.2702514E-03 -0.2286976E+00  0.1002177E-02 -0.3790905E-02 -0.2083791E-02  0.4461643E-02
2068438.  0.2300533E-02 -0.2324796E+00  0.1001867E-02  0.3998780E-02 -0.2014034E-02 -0.1715203E-01
1997859.  0.4815112E-02 -0.2185668E+00  0.9111319E-03  0.1244831E-01 -0.1704699E-02 -0.3851216E-01
1927281.  0.7080414E-02 -0.1877058E+00  0.7256551E-03  0.2100600E-01 -0.1167828E-02 -0.5795974E-01
1856703.  0.8918207E-02 -0.1417896E+00  0.4475596E-03  0.2906531E-01 -0.4333979E-03 -0.7393263E-01
1786125.  0.1017689E-01 -0.8370867E-01  0.8585894E-04  0.3599405E-01  0.4523408E-03 -0.8507244E-01
1715547.  0.1074144E-01 -0.1713762E-01 -0.3434328E-03  0.4116579E-01  0.1429656E-02 -0.9031751E-01
1644969.  0.1054073E-01  0.5371943E-01 -0.8175363E-03  0.4399044E-01  0.2429038E-02 -0.8897437E-01
1574391.  0.9551851E-02  0.1244104E+00 -0.1307466E-02  0.4394205E-01  0.3375563E-02 -0.8076439E-01
1503812.  0.7801195E-02  0.1905281E+00 -0.1778884E-02  0.4058253E-01  0.4193625E-02 -0.6584152E-01
1433234.  0.5362524E-02  0.2479890E+00 -0.2193149E-02  0.3357885E-01  0.4811656E-02 -0.4478302E-01
1362656.  0.2351710E-02  0.2933009E+00 -0.2508579E-02  0.2271233E-01  0.5166691E-02 -0.1854983E-01
1292078. -0.1080975E-02  0.3237837E+00 -0.2681696E-02  0.7876922E-02  0.5208241E-02  0.1157651E-01
1221500. -0.4760921E-02  0.3377514E+00 -0.2668415E-02 -0.1093304E-01  0.4901408E-02  0.4407961E-01
1221500. -0.4760921E-02  0.1381784E+01  0.1280531E+00  0.6927205E+00  0.4901408E-02  0.4614205E-01
1183328. -0.1299897E-01  0.1322565E+01  0.1112003E+00  0.4874856E+01  0.4621839E-02  0.4711993E-01
1145156. -0.2005868E-01  0.9892699E+00  0.7113410E-01  0.8311422E+01  0.4337488E-02  0.4773732E-01
1106984. -0.2436417E-01  0.4126196E+00  0.1450209E-01  0.1030528E+02  0.4050510E-02  0.4799944E-01
1068812. -0.2467517E-01 -0.3268891E+00 -0.4854741E-01  0.1040431E+02  0.3762967E-02  0.4793194E-01
1030641. -0.2036200E-01 -0.1108237E+01 -0.1061309E+00  0.8492609E+01  0.3476729E-02  0.4757318E-01
 992469. -0.1159958E-01 -0.1787168E+01 -0.1467790E+00  0.4822777E+01  0.3193397E-02  0.4696718E-01
 954297.  0.5586299E-03 -0.2218939E+01 -0.1615708E+00 -0.1624106E-01  0.2914333E-02  0.4615466E-01
 916125.  0.1425404E-01 -0.2283703E+01 -0.1459044E+00 -0.5192095E+01  0.2640679E-02  0.4516475E-01
 877953.  0.2704505E-01 -0.1910347E+01 -0.1005568E+00 -0.9767389E+01  0.2373453E-02  0.4400969E-01
 839781.  0.3625806E-01 -0.1095000E+01 -0.3183604E-01 -0.1286045E+02  0.2113653E-02  0.4268276E-01
 801609.  0.3942509E-01  0.8904412E-01  0.4923132E-01 -0.1380228E+02  0.1862373E-02  0.4116048E-01
 763438.  0.3474924E-01  0.1492219E+01  0.1285703E+00 -0.1226219E+02  0.1620892E-02  0.3940738E-01
 725266.  0.2152910E-01  0.2901329E+01  0.1913453E+00 -0.8321807E+01  0.1390696E-02  0.3738520E-01
 687094.  0.4768122E-03  0.4062480E+01  0.2244743E+00 -0.2482659E+01  0.1173501E-02  0.3506304E-01
 648922. -0.2612974E-01  0.4712607E+01  0.2190060E+00  0.4394376E+01  0.9711609E-03  0.3242608E-01
 610750. -0.5449786E-01  0.4615229E+01  0.1719320E+00  0.1121091E+02  0.7855445E-03  0.2948468E-01
 572578. -0.7958734E-01  0.3596053E+01  0.8713282E-01  0.1679554E+02  0.6183721E-03  0.2627869E-01
 534406. -0.9557831E-01  0.1573566E+01 -0.2472977E-01  0.2008647E+02  0.4710325E-03  0.2287878E-01
 496234. -0.9649631E-01 -0.1419798E+01 -0.1473981E+00  0.2030408E+02  0.3444094E-03  0.1938143E-01
 458062. -0.7692689E-01 -0.5229326E+01 -0.2611404E+00  0.1708653E+02  0.2387530E-03  0.1590030E-01
 419891. -0.3273842E-01 -0.9584243E+01 -0.3455156E+00  0.1056671E+02  0.1536037E-03  0.1255721E-01
 381719.  0.3828480E-01 -0.1411928E+02 -0.3823968E+00  0.1376471E+01  0.8778065E-04  0.9466635E-02
 343547.  0.1359633E+00 -0.1840796E+02 -0.3587780E+00 -0.9421878E+01  0.3946963E-04  0.6725990E-02
 305375.  0.2574886E+00 -0.2200651E+02 -0.2689848E+00 -0.2047125E+02  0.6350449E-05  0.4404099E-02
 267203.  0.3974602E+00 -0.2450163E+02 -0.1159097E+00 -0.3030203E+02 -0.1419962E-04  0.2532616E-02
 229031.  0.5482113E+00 -0.2555754E+02  0.8892058E-01 -0.3753597E+02 -0.2488248E-04  0.1106470E-02
 190859.  0.7003982E+00 -0.2495616E+02  0.3264892E+00 -0.4108142E+02 -0.2827348E-04  0.9053351E-04
 152688.  0.8437960E+00 -0.2262623E+02  0.5725036E+00 -0.4029350E+02 -0.2666178E-04 -0.5762340E-03
 114516.  0.9682400E+00 -0.1865629E+02  0.8004315E+00 -0.3507343E+02 -0.2189275E-04 -0.9786721E-03
  76344.  0.1064560E+01 -0.1329141E+02  0.9848458E+00 -0.2589304E+02 -0.1528694E-04 -0.1202928E-02
  38172.  0.1125480E+01 -0.6912509E+01  0.1104749E+01 -0.1374168E+02 -0.7639094E-05 -0.1360520E-02
      0.  0.1146188E+01  0.0000000E+00  0.1145916E+01  0.0000000E+00  0.0000000E+00 -0.1232216E-02
