      16        8 S      637        129.27130         36.43062          2.93531        229.52660      185    7
6371000. -0.2141591E-01  0.2443089E+00  0.8038029E-02  0.2945394E-01 -0.2323277E-03  0.4247634E-01
6370000. -0.2145349E-01  0.2345002E+00  0.8032489E-02  0.4112240E-01 -0.2389873E-03  0.4237924E-01
6369000. -0.2148952E-01  0.2245803E+00  0.8025119E-02  0.5278160E-01 -0.2456314E-03  0.4227936E-01
6368000. -0.2152398E-01  0.2145498E+00  0.8015921E-02  0.6442886E-01 -0.2522596E-03  0.4217669E-01
6368000. -0.2152398E-01  0.2145498E+00  0.8015921E-02  0.6442886E-01 -0.2522596E-03  0.4217669E-01
6367000. -0.2155686E-01  0.2044095E+00  0.8004894E-02  0.7606149E-01 -0.2588715E-03  0.4207125E-01
6366000. -0.2158814E-01  0.1941601E+00  0.7992044E-02  0.8767683E-01 -0.2654666E-03  0.4196304E-01
6365000. -0.2161781E-01  0.1838026E+00  0.7977372E-02  0.9927220E-01 -0.2720444E-03  0.4185208E-01
6364000. -0.2164584E-01  0.1733377E+00  0.7960881E-02  0.1108449E+00 -0.2786047E-03  0.4173836E-01
6363000. -0.2167222E-01  0.1627663E+00  0.7942577E-02  0.1223924E+00 -0.2851469E-03  0.4162189E-01
6362000. -0.2169693E-01  0.1520892E+00  0.7922461E-02  0.1339119E+00 -0.2916706E-03  0.4150269E-01
6361000. -0.2171996E-01  0.1413075E+00  0.7900541E-02  0.1454008E+00 -0.2981754E-03  0.4138075E-01
6360000. -0.2174128E-01  0.1304221E+00  0.7876819E-02  0.1568565E+00 -0.3046608E-03  0.4125610E-01
6359000. -0.2176089E-01  0.1194340E+00  0.7851302E-02  0.1682762E+00 -0.3111265E-03  0.4112872E-01
6358000. -0.2177877E-01  0.1083441E+00  0.7823994E-02  0.1796575E+00 -0.3175719E-03  0.4099864E-01
6357000. -0.2179490E-01  0.9715354E-01  0.7794905E-02  0.1909976E+00 -0.3239967E-03  0.4086586E-01
6356000. -0.2180926E-01  0.8586336E-01  0.7764038E-02  0.2022940E+00 -0.3304005E-03  0.4073039E-01
6356000. -0.2180926E-01  0.1089331E+00  0.7764038E-02  0.1338544E+00 -0.3304005E-03  0.4547584E-01
6355000. -0.2182573E-01  0.1008684E+00  0.7742439E-02  0.1413685E+00 -0.3375270E-03  0.4532936E-01
6354000. -0.2184093E-01  0.9273873E-01  0.7719661E-02  0.1488609E+00 -0.3446303E-03  0.4518073E-01
6353000. -0.2185484E-01  0.8454475E-01  0.7695709E-02  0.1563305E+00 -0.3517101E-03  0.4502997E-01
6352000. -0.2186746E-01  0.7628697E-01  0.7670586E-02  0.1637762E+00 -0.3587661E-03  0.4487707E-01
6351000. -0.2187878E-01  0.6796598E-01  0.7644297E-02  0.1711968E+00 -0.3657979E-03  0.4472204E-01
6350000. -0.2188880E-01  0.5958233E-01  0.7616845E-02  0.1785912E+00 -0.3728052E-03  0.4456489E-01
6349000. -0.2189749E-01  0.5113664E-01  0.7588235E-02  0.1859582E+00 -0.3797877E-03  0.4440562E-01
6348000. -0.2190484E-01  0.4262950E-01  0.7558471E-02  0.1932967E+00 -0.3867451E-03  0.4424426E-01
6347000. -0.2191086E-01  0.3406153E-01  0.7527557E-02  0.2006056E+00 -0.3936769E-03  0.4408079E-01
6346600. -0.2191290E-01  0.3061744E-01  0.7514869E-02  0.2035205E+00 -0.3964424E-03  0.4401482E-01
6346600. -0.2191290E-01  0.1290725E+00  0.7514869E-02  0.1470018E+00 -0.3964424E-03  0.5165552E-01
6318800. -0.2207275E-01 -0.6228847E-01  0.6543306E-02  0.2947294E+00 -0.6113495E-03  0.4663088E-01
6291000. -0.2132002E-01 -0.2873838E+00  0.4983468E-02  0.4145539E+00 -0.8015892E-03  0.4036767E-01
6291000. -0.2132002E-01 -0.2884559E+00  0.4983468E-02  0.4280847E+00 -0.8015892E-03  0.4036767E-01
6263000. -0.1949884E-01 -0.5426211E+00  0.2901227E-02  0.5116577E+00 -0.9630156E-03  0.3291425E-01
6235000. -0.1654386E-01 -0.8012278E+00  0.5597094E-03  0.5451378E+00 -0.1089457E-02  0.2447735E-01
6207000. -0.1247897E-01 -0.1044270E+01 -0.1812280E-02  0.5254381E+00 -0.1177016E-02  0.1525586E-01
6179000. -0.7417945E-02 -0.1251154E+01 -0.3983669E-02  0.4546177E+00 -0.1222746E-02  0.5484187E-02
6151000. -0.1563005E-02 -0.1402536E+01 -0.5743416E-02  0.3396565E+00 -0.1224807E-02 -0.4568991E-02
6151000. -0.1563005E-02 -0.1164419E+01 -0.5743416E-02  0.2979233E+00 -0.1224807E-02 -0.4482517E-02
6128500.  0.2631477E-02 -0.1204674E+01 -0.6613834E-02  0.1929284E+00 -0.1198147E-02 -0.1058294E-01
6106000.  0.6899653E-02 -0.1205839E+01 -0.7095163E-02  0.7863843E-01 -0.1150341E-02 -0.1644261E-01
6083500.  0.1110118E-01 -0.1166911E+01 -0.7165961E-02 -0.3847042E-01 -0.1082396E-02 -0.2197425E-01
6061000.  0.1509534E-01 -0.1088694E+01 -0.6827747E-02 -0.1519298E+00 -0.9956113E-03 -0.2709891E-01
6038500.  0.1874745E-01 -0.9737638E+00 -0.6104361E-02 -0.2556269E+00 -0.8915513E-03 -0.3174662E-01
6016000.  0.2193481E-01 -0.8263278E+00 -0.5040122E-02 -0.3441224E+00 -0.7720098E-03 -0.3585713E-01
5993500.  0.2455219E-01 -0.6520116E+00 -0.3696976E-02 -0.4129158E+00 -0.6389745E-03 -0.3938086E-01
5971000.  0.2651634E-01 -0.4575896E+00 -0.2150776E-02 -0.4586609E+00 -0.4945909E-03 -0.4227807E-01
5971000.  0.2651634E-01 -0.4210158E+00 -0.2150776E-02 -0.4115015E+00 -0.4945909E-03 -0.4574928E-01
5937667.  0.2796675E-01 -0.1336995E+00  0.4529438E-04 -0.4201301E+00 -0.2463128E-03 -0.4890430E-01
5904333.  0.2793664E-01  0.1415353E+00  0.2168524E-02 -0.3847354E+00  0.1454859E-04 -0.5056868E-01
5871000.  0.2653919E-01  0.3862551E+00  0.4008675E-02 -0.3135530E+00  0.2804012E-03 -0.5083297E-01
5837667.  0.2397275E-01  0.5864657E+00  0.5405434E-02 -0.2171127E+00  0.5442247E-03 -0.4981402E-01
5804333.  0.2049589E-01  0.7331502E+00  0.6256444E-02 -0.1068327E+00  0.7996521E-03 -0.4764323E-01
5771000.  0.1640151E-01  0.8222978E+00  0.6518673E-02  0.6176479E-02  0.1041003E-02 -0.4445936E-01
5771000.  0.1640151E-01  0.8223312E+00  0.6518673E-02  0.6175922E-02  0.1041003E-02 -0.4445936E-01
5701000.  0.6873200E-02  0.8726849E+00  0.5207757E-02  0.2249979E+00  0.1474840E-02 -0.3383676E-01
5701000.  0.6873200E-02  0.7402189E+00  0.5207757E-02  0.1774714E+00  0.1474840E-02 -0.3577407E-01
5667333.  0.3185320E-02  0.6595486E+00  0.4140719E-02  0.2258854E+00  0.1652219E-02 -0.3138789E-01
5633667. -0.1272503E-03  0.5925463E+00  0.2816307E-02  0.2743762E+00  0.1806114E-02 -0.2676176E-01
5600000. -0.3024913E-02  0.4999312E+00  0.1275757E-02  0.3051262E+00  0.1934037E-02 -0.2157276E-01
5600000. -0.3024913E-02  0.4999312E+00  0.1275757E-02  0.3051262E+00  0.1934037E-02 -0.2157276E-01
5563518. -0.5550299E-02  0.3794354E+00 -0.5147291E-03  0.3163114E+00  0.2040277E-02 -0.1545633E-01
5527037. -0.7349876E-02  0.2482336E+00 -0.2301823E-02  0.3040143E+00  0.2110285E-02 -0.8939706E-02
5490556. -0.8393226E-02  0.1170725E+00 -0.3953689E-02  0.2694112E+00  0.2142129E-02 -0.2147328E-02
5454074. -0.8710414E-02 -0.3761926E-02 -0.5349812E-02  0.2152631E+00  0.2134593E-02  0.4793478E-02
5417593. -0.8387475E-02 -0.1051295E+00 -0.6389541E-02  0.1457285E+00  0.2087200E-02  0.1175183E-01
5381111. -0.7557584E-02 -0.1797961E+00 -0.6999105E-02  0.6592950E-01  0.2000217E-02  0.1859958E-01
5344630. -0.6389035E-02 -0.2228103E+00 -0.7135996E-02 -0.1837027E-01  0.1874646E-02  0.2520932E-01
5308148. -0.5070969E-02 -0.2318488E+00 -0.6791481E-02 -0.1012273E+00  0.1712200E-02  0.3145785E-01
5271667. -0.3798091E-02 -0.2073355E+00 -0.5990456E-02 -0.1769067E+00  0.1515292E-02  0.3722887E-01
5235185. -0.2754900E-02 -0.1523308E+00 -0.4788961E-02 -0.2403129E+00  0.1286960E-02  0.4241367E-01
5198704. -0.2101521E-02 -0.7227698E-01 -0.3269741E-02 -0.2872903E+00  0.1030863E-02  0.4691365E-01
5162222. -0.1960960E-02  0.2542062E-01 -0.1535955E-02 -0.3148567E+00  0.7511586E-03  0.5064341E-01
5125741. -0.2409605E-02  0.1319759E+00  0.2960191E-03 -0.3214627E+00  0.4524862E-03  0.5353061E-01
5089259. -0.3471112E-02  0.2378545E+00  0.2105166E-02 -0.3069577E+00  0.1398220E-03  0.5551952E-01
5052778. -0.5113876E-02  0.3334413E+00  0.3773431E-02 -0.2726003E+00 -0.1815532E-03  0.5657118E-01
5016296. -0.7252942E-02  0.4097743E+00  0.5194049E-02 -0.2209711E+00 -0.5062207E-03  0.5666438E-01
4979815. -0.9755056E-02  0.4591148E+00  0.6277995E-02 -0.1557056E+00 -0.8286600E-03  0.5579729E-01
4943333. -0.1244786E-01  0.4755406E+00  0.6959713E-02 -0.8127480E-01 -0.1143428E-02  0.5398617E-01
4906852. -0.1513099E-01  0.4553446E+00  0.7200804E-02 -0.2663760E-02 -0.1445191E-02  0.5126515E-01
4870370. -0.1759013E-01  0.3972945E+00  0.6992057E-02  0.7498501E-01 -0.1728900E-02  0.4768796E-01
4833889. -0.1961109E-01  0.3027642E+00  0.6353459E-02  0.1466762E+00 -0.1989824E-02  0.4332163E-01
4797407. -0.2099505E-01  0.1756364E+00  0.5332271E-02  0.2079078E+00 -0.2223684E-02  0.3824851E-01
4760926. -0.2157204E-01  0.2212705E-01  0.3999673E-02  0.2549031E+00 -0.2426698E-02  0.3256670E-01
4724444. -0.2121340E-01 -0.1496692E+00  0.2445536E-02  0.2849007E+00 -0.2595680E-02  0.2637780E-01
4687963. -0.1984128E-01 -0.3301829E+00  0.7725902E-03  0.2962346E+00 -0.2728037E-02  0.1979615E-01
4651482. -0.1743533E-01 -0.5089948E+00 -0.9104188E-03  0.2884441E+00 -0.2821865E-02  0.1293984E-01
4615000. -0.1403553E-01 -0.6755354E+00 -0.2495680E-02  0.2623021E+00 -0.2875927E-02  0.5926059E-02
4578518. -0.9741807E-02 -0.8195832E+00 -0.3882915E-02  0.2196803E+00 -0.2889663E-02 -0.1124862E-02
4542037. -0.4709874E-02 -0.9320287E+00 -0.4985551E-02  0.1634672E+00 -0.2863196E-02 -0.8097166E-02
4505556.  0.8572502E-03 -0.1005422E+01 -0.5736033E-02  0.9734572E-01 -0.2797293E-02 -0.1488139E-01
4469074.  0.6719316E-02 -0.1034279E+01 -0.6089500E-02  0.2553419E-01 -0.2693325E-02 -0.2137434E-01
4432593.  0.1261136E-01 -0.1015681E+01 -0.6026260E-02 -0.4743466E-01 -0.2553245E-02 -0.2748087E-01
4396111.  0.1825974E-01 -0.9492693E+00 -0.5552692E-02 -0.1170386E+00 -0.2379502E-02 -0.3311756E-01
4359630.  0.2339552E-01 -0.8373027E+00 -0.4700525E-02 -0.1789988E+00 -0.2175005E-02 -0.3821270E-01
4323148.  0.2777109E-01 -0.6847179E+00 -0.3524510E-02 -0.2295703E+00 -0.1943034E-02 -0.4270224E-01
4286667.  0.3117312E-01 -0.4986733E+00 -0.2099006E-02 -0.2657129E+00 -0.1687214E-02 -0.4653751E-01
4250185.  0.3343538E-01 -0.2882517E+00 -0.5131717E-03 -0.2852804E+00 -0.1411389E-02 -0.4968098E-01
4213704.  0.3444784E-01 -0.6400232E-01  0.1134274E-02 -0.2871441E+00 -0.1119631E-02 -0.5210181E-01
4177222.  0.3416356E-01  0.1627357E+00  0.2741236E-02 -0.2711952E+00 -0.8161073E-03 -0.5378547E-01
4140741.  0.3260161E-01  0.3803550E+00  0.4207859E-02 -0.2383863E+00 -0.5050859E-03 -0.5472214E-01
4104259.  0.2984636E-01  0.5777076E+00  0.5442745E-02 -0.1906332E+00 -0.1908439E-03 -0.5490831E-01
4067778.  0.2604381E-01  0.7446007E+00  0.6367721E-02 -0.1306750E+00  0.1223354E-03 -0.5435568E-01
4031296.  0.2139352E-01  0.8725046E+00  0.6922507E-02 -0.6194578E-01  0.4302601E-03 -0.5307165E-01
3994815.  0.1613867E-01  0.9548989E+00  0.7067827E-02  0.1166187E-01  0.7287659E-03 -0.5107241E-01
3958333.  0.1055275E-01  0.9876193E+00  0.6787525E-02  0.8601322E-01  0.1013838E-02 -0.4838009E-01
3921852.  0.4925860E-02  0.9692492E+00  0.6089289E-02  0.1569616E+00  0.1281547E-02 -0.4501440E-01
3885370. -0.4519627E-03  0.9009939E+00  0.5003953E-02  0.2205814E+00  0.1528119E-02 -0.4099884E-01
3848889. -0.5304616E-02  0.7867402E+00  0.3583844E-02  0.2733659E+00  0.1749887E-02 -0.3635770E-01
3812407. -0.9386223E-02  0.6328889E+00  0.1899446E-02  0.3124546E+00  0.1943351E-02 -0.3111474E-01
3775926. -0.1249307E-01  0.4478795E+00  0.3579750E-04  0.3357041E+00  0.2105119E-02 -0.2529234E-01
3739444. -0.1447537E-01  0.2419094E+00 -0.1912491E-02  0.3418694E+00  0.2231945E-02 -0.1891316E-01
3702963. -0.1524516E-01  0.2633749E-01 -0.3846132E-02  0.3306243E+00  0.2320699E-02 -0.1199872E-01
3666482. -0.1478131E-01 -0.1869757E+00 -0.5666617E-02  0.3025178E+00  0.2368364E-02 -0.4564580E-02
3630000. -0.1313093E-01 -0.3861364E+00 -0.7281275E-02  0.2590323E+00  0.2372017E-02  0.3371105E-02
3630000. -0.1313093E-01 -0.3861364E+00 -0.7281275E-02  0.2590323E+00  0.2372017E-02  0.3371105E-02
3592500. -0.1031776E-01 -0.5643393E+00 -0.8640219E-02  0.2006452E+00  0.2326915E-02  0.1203931E-01
3555000. -0.6561421E-02 -0.7049603E+00 -0.9622177E-02  0.1315169E+00  0.2229291E-02  0.2121581E-01
3517500. -0.2110221E-02 -0.7991689E+00 -0.1017463E-01  0.5535491E-01  0.2076174E-02  0.3089506E-01
3480000.  0.2742629E-02 -0.8406001E+00 -0.1026790E-01 -0.2381900E-01  0.1864600E-02  0.4107973E-01
3480000.  0.2742629E-02 -0.2944487E+00  0.4285245E-03  0.4228999E-02  0.1864600E-02  0.3228417E-01
3409422.  0.5706902E-02 -0.2348064E+00  0.3488598E-03  0.1000816E-01  0.1670738E-02  0.3569552E-02
3338844.  0.7838488E-02 -0.1463943E+00  0.2113707E-03  0.1455211E-01  0.1761682E-02 -0.1872474E-01
3268266.  0.8897189E-02 -0.4356584E-01  0.3318549E-04  0.1727898E-01  0.2054653E-02 -0.3267602E-01
3197688.  0.8803710E-02  0.5933204E-01 -0.1635283E-03  0.1786640E-01  0.2451795E-02 -0.3749634E-01
3127109.  0.7628951E-02  0.1497855E+00 -0.3545517E-03  0.1626506E-01  0.2852814E-02 -0.3351688E-01
3056531.  0.5566281E-02  0.2183670E+00 -0.5165425E-03  0.1267814E-01  0.3166600E-02 -0.2203231E-01
2985953.  0.2893018E-02  0.2593990E+00 -0.6296089E-03  0.7514491E-02  0.3320598E-02 -0.5046540E-02
2915375. -0.7200977E-04  0.2710416E+00 -0.6792368E-03  0.1324977E-02  0.3266979E-02  0.1503204E-01
2844797. -0.3009356E-02  0.2549302E+00 -0.6574712E-03 -0.5269120E-02  0.2985389E-02  0.3570180E-01
2774219. -0.5633803E-02  0.2154720E+00 -0.5633036E-03 -0.1164610E-01  0.2482384E-02  0.5464839E-01
2703641. -0.7720270E-02  0.1589604E+00 -0.4023252E-03 -0.1724546E-01  0.1788064E-02  0.6996711E-01
2633062. -0.9119474E-02  0.9262561E-01 -0.1857629E-03 -0.2161654E-01  0.9506266E-03  0.8031134E-01
2562484. -0.9763193E-02  0.2374448E-01  0.7091697E-04 -0.2445000E-01  0.2977756E-04  0.8496133E-01
2491906. -0.9660567E-02 -0.4111475E-01  0.3496885E-03 -0.2559252E-01 -0.9103231E-03  0.8381974E-01
2421328. -0.8886899E-02 -0.9664657E-01  0.6316869E-03 -0.2504487E-01 -0.1807576E-02  0.7734232E-01
2350750. -0.7567588E-02 -0.1391500E+00  0.8988397E-03 -0.2294557E-01 -0.2607485E-02  0.6642371E-01
2280172. -0.5859503E-02 -0.1666488E+00  0.1135252E-02 -0.1954430E-01 -0.3267243E-02  0.5225527E-01
2209594. -0.3932070E-02 -0.1788262E+00  0.1328259E-02 -0.1516819E-01 -0.3758189E-02  0.3617379E-01
2139016. -0.1950000E-02 -0.1768041E+00  0.1469077E-02 -0.1018511E-01 -0.4066606E-02  0.1951829E-01
2068438. -0.5903167E-04 -0.1628263E+00  0.1553057E-02 -0.4967333E-02 -0.4193043E-02  0.3507267E-02
1997859.  0.1624419E-02 -0.1398743E+00  0.1579544E-02  0.1410951E-03 -0.4150439E-02 -0.1085376E-01
1927281.  0.3019301E-02 -0.1113034E+00  0.1551415E-02  0.4850468E-02 -0.3961411E-02 -0.2282959E-01
1856703.  0.4082203E-02 -0.8048874E-01  0.1474352E-02  0.8946890E-02 -0.3655097E-02 -0.3197924E-01
1786125.  0.4805975E-02 -0.5057064E-01  0.1355925E-02  0.1230523E-01 -0.3263928E-02 -0.3814507E-01
1715547.  0.5216109E-02 -0.2428265E-01  0.1204559E-02  0.1489741E-01 -0.2820670E-02 -0.4141536E-01
1644969.  0.5365883E-02 -0.3914062E-02  0.1028419E-02  0.1679956E-01 -0.2356024E-02 -0.4206344E-01
1574391.  0.5331947E-02  0.8569967E-02  0.8342097E-03  0.1820182E-01 -0.1896995E-02 -0.4046847E-01
1503812.  0.5212332E-02  0.1119587E-01  0.6257927E-03  0.1943259E-01 -0.1466245E-02 -0.3701529E-01
1433234.  0.5129863E-02  0.1311026E-02  0.4023940E-03  0.2101586E-01 -0.1082749E-02 -0.3196177E-01
1362656.  0.5246012E-02 -0.2570103E-01  0.1558019E-03  0.2379960E-01 -0.7641961E-03 -0.2523551E-01
1292078.  0.5795085E-02 -0.7895736E-01 -0.1345697E-03  0.2923720E-01 -0.5324738E-03 -0.1606967E-01
1221500.  0.7159674E-02 -0.1773635E+00 -0.5113669E-03  0.4000627E-01 -0.4249579E-03 -0.2258401E-02
1221500.  0.7159674E-02  0.8714776E+00  0.2834497E-02 -0.2255890E-01 -0.4249579E-03 -0.5360000E-02
1183328.  0.1619445E-02  0.9507421E+00  0.2751432E-02  0.5061025E-01 -0.3878116E-03 -0.6885053E-02
1145156. -0.3889391E-02  0.8589876E+00  0.2240407E-02  0.1176505E+00 -0.3440469E-03 -0.7611233E-02
1106984. -0.8340620E-02  0.6014356E+00  0.1382497E-02  0.1643915E+00 -0.2977497E-03 -0.7763471E-02
1068812. -0.1083902E-01  0.2158009E+00  0.3296623E-03  0.1817314E+00 -0.2518123E-03 -0.7516409E-02
1030641. -0.1079457E-01 -0.2355416E+00 -0.7311070E-03  0.1672197E+00 -0.2082117E-03 -0.7002797E-02
 992469. -0.8034023E-02 -0.6781915E+00 -0.1618506E-02  0.1250449E+00 -0.1682311E-03 -0.6321741E-02
 954297. -0.2829979E-02 -0.1040131E+01 -0.2192825E-02  0.6459203E-01 -0.1326432E-03 -0.5547062E-02
 916125.  0.4154713E-02 -0.1265087E+01 -0.2380293E-02 -0.1973763E-02 -0.1018338E-03 -0.4734663E-02
 877953.  0.1199224E-01 -0.1322052E+01 -0.2181460E-02 -0.6246307E-01 -0.7589498E-04 -0.3927611E-02
 839781.  0.1965631E-01 -0.1209343E+01 -0.1663684E-02 -0.1071169E+00 -0.5468922E-04 -0.3159684E-02
 801609.  0.2619540E-01 -0.9528489E+00 -0.9411389E-03 -0.1302596E+00 -0.3790075E-04 -0.2456894E-02
 763438.  0.3087963E-01 -0.5992337E+00 -0.1480181E-03 -0.1308980E+00 -0.2507880E-04 -0.1838401E-02
 725266.  0.3329665E-01 -0.2058854E+00  0.5887133E-03 -0.1122639E+00 -0.1567861E-04 -0.1315915E-02
 687094.  0.3338232E-01  0.1700156E+00  0.1171054E-02 -0.8055687E-01 -0.9110202E-05 -0.8933346E-03
 648922.  0.3138966E-01  0.4812316E+00  0.1542893E-02 -0.4326025E-01 -0.4777610E-05 -0.5686903E-03
 610750.  0.2780735E-01  0.6971317E+00  0.1692560E-02 -0.7467870E-02 -0.2118298E-05 -0.3328686E-03
 572578.  0.2325002E-01  0.8064150E+00  0.1646326E-02  0.2142063E-01 -0.6378625E-06 -0.1727733E-03
 534406.  0.1834428E-01  0.8158778E+00  0.1455796E-02  0.4041411E-01  0.7215065E-07 -0.7302973E-04
 496234.  0.1363216E-01  0.7460331E+00  0.1182950E-02  0.4900162E-01  0.3254039E-06 -0.1768406E-04
 458062.  0.9506914E-02  0.6249329E+00  0.8864613E-03  0.4868556E-01  0.3428007E-06  0.7950555E-05
 419891.  0.6187449E-02  0.4817311E+00  0.6119177E-03  0.4218686E-01  0.2652068E-06  0.1578530E-04
 381719.  0.3728283E-02  0.3413151E+00  0.3871308E-03  0.3257184E-01  0.1709625E-06  0.1472894E-04
 343547.  0.2056761E-02  0.2209685E+00  0.2224183E-03  0.2251969E-01  0.9479252E-07  0.1047747E-04
 305375.  0.1022611E-02  0.1292933E+00  0.1143984E-03  0.1387365E-01  0.4531460E-07  0.6169390E-05
 267203.  0.4480175E-03  0.6718449E-01  0.5155327E-04  0.7510254E-02  0.1838579E-07  0.3046256E-05
 229031.  0.1672584E-03  0.3016501E-01  0.1969979E-04  0.3483713E-02  0.6132338E-08  0.1239820E-05
 190859.  0.5049428E-04  0.1119932E-01  0.6060842E-05  0.1327165E-02  0.1590055E-08  0.3988775E-06
 152688.  0.1128721E-04  0.3190332E-02  0.1375257E-05  0.3857021E-03  0.2903312E-09  0.9334438E-07
 114516.  0.1582780E-05  0.6052678E-03  0.1950524E-06  0.7427588E-04  0.3092772E-10  0.1349617E-07
  76344.  0.9593813E-07  0.5559544E-04  0.1191733E-07  0.6893427E-05  0.1257251E-11  0.8327198E-09
  38172.  0.7653689E-09  0.8924035E-06  0.9552156E-10  0.1113261E-06  0.5014629E-14  0.6674443E-11
      0.  0.0000000E+00  0.0000000E+00  0.0000000E+00  0.0000000E+00  0.0000000E+00  0.0000000E+00
