       3       43 S      263        109.13410          8.43214          6.16886        221.96111      185    7
6371000. -0.2255717E-01 -0.1751905E+01 -0.2380041E-02  0.2017713E-01  0.1729622E-02 -0.3356584E-01
6370000. -0.2228092E-01 -0.1767990E+01 -0.2382954E-02  0.1694070E-01  0.1734869E-02 -0.3329126E-01
6369000. -0.2200220E-01 -0.1783259E+01 -0.2385359E-02  0.1369534E-01  0.1740074E-02 -0.3302108E-01
6368000. -0.2172115E-01 -0.1797709E+01 -0.2387253E-02  0.1044190E-01  0.1745236E-02 -0.3275536E-01
6368000. -0.2172115E-01 -0.1797709E+01 -0.2387253E-02  0.1044190E-01  0.1745236E-02 -0.3275536E-01
6367000. -0.2143790E-01 -0.1811337E+01 -0.2388636E-02  0.7181233E-02  0.1750356E-02 -0.3249409E-01
6366000. -0.2115258E-01 -0.1824140E+01 -0.2389507E-02  0.3914198E-02  0.1755437E-02 -0.3223734E-01
6365000. -0.2086531E-01 -0.1836115E+01 -0.2389865E-02  0.6416465E-03  0.1760477E-02 -0.3198512E-01
6364000. -0.2057622E-01 -0.1847260E+01 -0.2389708E-02 -0.2635564E-02  0.1765478E-02 -0.3173747E-01
6363000. -0.2028546E-01 -0.1857572E+01 -0.2389037E-02 -0.5916574E-02  0.1770440E-02 -0.3149442E-01
6362000. -0.1999313E-01 -0.1867050E+01 -0.2387851E-02 -0.9200524E-02  0.1775365E-02 -0.3125599E-01
6361000. -0.1969939E-01 -0.1875692E+01 -0.2386149E-02 -0.1248655E-01  0.1780252E-02 -0.3102224E-01
6360000. -0.1940436E-01 -0.1883496E+01 -0.2383931E-02 -0.1577379E-01  0.1785103E-02 -0.3079318E-01
6359000. -0.1910816E-01 -0.1890462E+01 -0.2381197E-02 -0.1906139E-01  0.1789919E-02 -0.3056884E-01
6358000. -0.1881094E-01 -0.1896587E+01 -0.2377947E-02 -0.2234847E-01  0.1794700E-02 -0.3034927E-01
6357000. -0.1851283E-01 -0.1901873E+01 -0.2374181E-02 -0.2563419E-01  0.1799447E-02 -0.3013450E-01
6356000. -0.1821395E-01 -0.1906318E+01 -0.2369900E-02 -0.2891766E-01  0.1804160E-02 -0.2992455E-01
6356000. -0.1821395E-01 -0.1634043E+01 -0.2369900E-02 -0.1115910E-01  0.1804160E-02 -0.2596140E-01
6355000. -0.1795710E-01 -0.1638648E+01 -0.2368016E-02 -0.1284725E-01  0.1808205E-02 -0.2557738E-01
6354000. -0.1769956E-01 -0.1642824E+01 -0.2365867E-02 -0.1453570E-01  0.1812190E-02 -0.2519691E-01
6353000. -0.1744140E-01 -0.1646570E+01 -0.2363453E-02 -0.1622417E-01  0.1816115E-02 -0.2482001E-01
6352000. -0.1718269E-01 -0.1649885E+01 -0.2360774E-02 -0.1791242E-01  0.1819981E-02 -0.2444668E-01
6351000. -0.1692349E-01 -0.1652769E+01 -0.2357830E-02 -0.1960016E-01  0.1823790E-02 -0.2407694E-01
6350000. -0.1666387E-01 -0.1655223E+01 -0.2354621E-02 -0.2128714E-01  0.1827540E-02 -0.2371079E-01
6349000. -0.1640390E-01 -0.1657244E+01 -0.2351147E-02 -0.2297308E-01  0.1831233E-02 -0.2334825E-01
6348000. -0.1614364E-01 -0.1658834E+01 -0.2347409E-02 -0.2465773E-01  0.1834870E-02 -0.2298931E-01
6347000. -0.1588318E-01 -0.1659993E+01 -0.2343407E-02 -0.2634082E-01  0.1838450E-02 -0.2263399E-01
6346600. -0.1577894E-01 -0.1660336E+01 -0.2341732E-02 -0.2701355E-01  0.1839867E-02 -0.2249288E-01
6346600. -0.1577894E-01 -0.1851931E+01 -0.2341732E-02 -0.1385600E-01  0.1839867E-02 -0.1699099E-01
6318800. -0.7712490E-02 -0.1813818E+01 -0.2231395E-02 -0.3658912E-01  0.1889412E-02 -0.6038513E-02
6291000. -0.2213244E-03 -0.1589561E+01 -0.2025016E-02 -0.5753953E-01  0.1895109E-02  0.3164140E-02
6291000. -0.2213244E-03 -0.1637823E+01 -0.2025016E-02 -0.5941253E-01  0.1895109E-02  0.3164140E-02
6263000.  0.6120117E-02 -0.1219432E+01 -0.1720209E-02 -0.7843705E-01  0.1864674E-02  0.1046777E-01
6235000.  0.1027773E-01 -0.6518437E+00 -0.1344407E-02 -0.9144735E-01  0.1804811E-02  0.1660172E-01
6207000.  0.1171038E-01  0.1041029E-01 -0.9271826E-03 -0.9712312E-01  0.1720084E-02  0.2182260E-01
6179000.  0.1014406E-01  0.7012472E+00 -0.5023848E-03 -0.9485714E-01  0.1614011E-02  0.2634804E-01
6151000.  0.5609149E-02  0.1349408E+01 -0.1048095E-03 -0.8483277E-01  0.1489258E-02  0.3034682E-01
6151000.  0.5609149E-02  0.1070970E+01 -0.1048095E-03 -0.7530243E-01  0.1489258E-02  0.3003649E-01
6128500.  0.1186004E-02  0.1421962E+01  0.1417501E-03 -0.6389472E-01  0.1382006E-02  0.3062346E-01
6106000. -0.4339889E-02  0.1692852E+01  0.3438818E-03 -0.5026928E-01  0.1273490E-02  0.3075756E-01
6083500. -0.1066071E-01  0.1870389E+01  0.4951387E-03 -0.3522035E-01  0.1165255E-02  0.3046890E-01
6061000. -0.1743132E-01  0.1946753E+01  0.5919541E-03 -0.1957721E-01  0.1058747E-02  0.2978386E-01
6038500. -0.2428890E-01  0.1919741E+01  0.6336863E-03 -0.4159607E-02  0.9553246E-03  0.2872468E-01
6016000. -0.3087259E-01  0.1792628E+01  0.6225088E-03  0.1026439E-01  0.8562770E-03  0.2730907E-01
5993500. -0.3684220E-01  0.1573760E+01  0.5631626E-03  0.2301436E-01  0.7628381E-03  0.2554995E-01
5971000. -0.4189510E-01  0.1275936E+01  0.4625944E-03  0.3352565E-01  0.6762093E-03  0.2345270E-01
5971000. -0.4189510E-01  0.1186837E+01  0.4625944E-03  0.3481125E-01  0.6762093E-03  0.2893713E-01
5937667. -0.4671725E-01  0.6457807E+00  0.2551133E-03  0.4348502E-01  0.5348104E-03  0.2506693E-01
5904333. -0.4859317E-01  0.7034448E-01  0.1773514E-04  0.4634211E-01  0.4142219E-03  0.2101452E-01
5871000. -0.4748844E-01 -0.4853920E+00 -0.2211365E-03  0.4423164E-01  0.3149021E-03  0.1696586E-01
5837667. -0.4362421E-01 -0.9783558E+00 -0.4384289E-03  0.3829698E-01  0.2364328E-03  0.1306376E-01
5804333. -0.3741374E-01 -0.1378216E+01 -0.6173683E-03  0.2977326E-01  0.1777883E-03  0.9396954E-02
5771000. -0.2939604E-01 -0.1667328E+01 -0.7475218E-03  0.1983413E-01  0.1376344E-03  0.5995997E-02
5771000. -0.2939604E-01 -0.1667420E+01 -0.7475218E-03  0.1983452E-01  0.1376344E-03  0.5995997E-02
5701000. -0.8959066E-02 -0.1962308E+01 -0.8339843E-03 -0.4565259E-02  0.1196312E-03 -0.2986368E-02
5701000. -0.8959066E-02 -0.1702760E+01 -0.8339843E-03 -0.1711159E-02  0.1196312E-03 -0.4611296E-03
5667333. -0.2336064E-03 -0.1610523E+01 -0.8152169E-03 -0.5149324E-02  0.1226757E-03 -0.4643575E-03
5633667.  0.8165864E-02 -0.1569413E+01 -0.7806154E-03 -0.7921048E-02  0.1238047E-03 -0.6218724E-05
5600000.  0.1627686E-01 -0.1493605E+01 -0.7318364E-03 -0.1047442E-01  0.1231717E-03  0.2292703E-03
5600000.  0.1627686E-01 -0.1493605E+01 -0.7318364E-03 -0.1047442E-01  0.1231717E-03  0.2292703E-03
5563518.  0.2451191E-01 -0.1377319E+01 -0.6651786E-03 -0.1271430E-01  0.1213729E-03  0.3847917E-03
5527037.  0.3199558E-01 -0.1232435E+01 -0.5873368E-03 -0.1437527E-01  0.1188819E-03  0.4779946E-03
5490556.  0.3858520E-01 -0.1066280E+01 -0.5016911E-03 -0.1544043E-01  0.1159549E-03  0.5407534E-03
5454074.  0.4418024E-01 -0.8862107E+00 -0.4116120E-03 -0.1592778E-01  0.1127154E-03  0.5897696E-03
5417593.  0.4872149E-01 -0.6994150E+00 -0.3203102E-03 -0.1587736E-01  0.1091965E-03  0.6397665E-03
5381111.  0.5218967E-01 -0.5123956E+00 -0.2306796E-03 -0.1535555E-01  0.1053861E-03  0.6910175E-03
5344630.  0.5460017E-01 -0.3309053E+00 -0.1452065E-03 -0.1443906E-01  0.1012813E-03  0.7432930E-03
5308148.  0.5599906E-01 -0.1597675E+00 -0.6591938E-04 -0.1320873E-01  0.9686408E-04  0.7992341E-03
5271667.  0.5645698E-01 -0.2800806E-02  0.5640347E-05 -0.1175517E-01  0.9214383E-04  0.8482003E-03
5235185.  0.5606354E-01  0.1372065E+00  0.6842754E-04 -0.1015636E-01  0.8715776E-04  0.8927836E-03
5198704.  0.5492161E-01  0.2584073E+00  0.1218199E-03 -0.8487174E-02  0.8192941E-04  0.9313316E-03
5162222.  0.5314193E-01  0.3598645E+00  0.1656335E-03 -0.6820509E-02  0.7652453E-04  0.9542577E-03
5125741.  0.5083827E-01  0.4414760E+00  0.2000301E-03 -0.5206053E-02  0.7101602E-04  0.9682968E-03
5089259.  0.4812294E-01  0.5037658E+00  0.2254445E-03 -0.3690337E-02  0.6545873E-04  0.9702851E-03
5052778.  0.4510388E-01  0.5478133E+00  0.2425528E-03 -0.2309468E-02  0.5993238E-04  0.9580472E-03
5016296.  0.4188114E-01  0.5751526E+00  0.2521864E-03 -0.1082255E-02  0.5450367E-04  0.9364581E-03
4979815.  0.3854563E-01  0.5875492E+00  0.2552729E-03 -0.2470232E-04  0.4922961E-04  0.9038256E-03
4943333.  0.3517712E-01  0.5869887E+00  0.2528016E-03  0.8593295E-03  0.4417104E-04  0.8619587E-03
4906852.  0.3184410E-01  0.5755248E+00  0.2457537E-03  0.1574529E-02  0.3936687E-04  0.8150274E-03
4870370.  0.2860307E-01  0.5551588E+00  0.2350842E-03  0.2125756E-02  0.3485220E-04  0.7608937E-03
4833889.  0.2549947E-01  0.5278738E+00  0.2216939E-03  0.2527863E-02  0.3065797E-04  0.7039671E-03
4797407.  0.2256747E-01  0.4954772E+00  0.2063878E-03  0.2797029E-02  0.2679126E-04  0.6462259E-03
4760926.  0.1983181E-01  0.4595885E+00  0.1898901E-03  0.2947155E-02  0.2326297E-04  0.5861046E-03
4724444.  0.1730797E-01  0.4216897E+00  0.1728227E-03  0.2999216E-02  0.2007453E-04  0.5279662E-03
4687963.  0.1500400E-01  0.3830015E+00  0.1556976E-03  0.2969978E-02  0.1721337E-04  0.4716348E-03
4651482.  0.1292134E-01  0.3445487E+00  0.1389353E-03  0.2875393E-02  0.1467000E-04  0.4172619E-03
4615000.  0.1105608E-01  0.3071727E+00  0.1228592E-03  0.2732638E-02  0.1242684E-04  0.3668683E-03
4578518.  0.9400225E-02  0.2714962E+00  0.1077074E-03  0.2554607E-02  0.1046234E-04  0.3198365E-03
4542037.  0.7942673E-02  0.2379929E+00  0.9364671E-04  0.2353740E-02  0.8756864E-05  0.2766109E-03
4505556.  0.6669946E-02  0.2069784E+00  0.8077403E-04  0.2141137E-02  0.7285573E-05  0.2379585E-03
4469074.  0.5567230E-02  0.1786222E+00  0.6913441E-04  0.1924166E-02  0.6025363E-05  0.2028209E-03
4432593.  0.4619068E-02  0.1530115E+00  0.5873154E-04  0.1710408E-02  0.4954846E-05  0.1718053E-03
4396111.  0.3809700E-02  0.1301259E+00  0.4953013E-04  0.1505057E-02  0.4050254E-05  0.1447295E-03
4359630.  0.3123794E-02  0.1098783E+00  0.4147317E-04  0.1311298E-02  0.3291380E-05  0.1208864E-03
4323148.  0.2546553E-02  0.9214034E-01  0.3448455E-04  0.1132221E-02  0.2659257E-05  0.1004446E-03
4286667.  0.2064119E-02  0.7673788E-01  0.2847611E-04  0.9691218E-03  0.2135434E-05  0.8297271E-04
4250185.  0.1663645E-02  0.6347670E-01  0.2335441E-04  0.8225314E-03  0.1704151E-05  0.6808923E-04
4213704.  0.1333464E-02  0.5215468E-01  0.1902417E-04  0.6926786E-03  0.1350923E-05  0.5566854E-04
4177222.  0.1063061E-02  0.4256015E-01  0.1539111E-04  0.5788449E-03  0.1062725E-05  0.4531123E-04
4140741.  0.8431430E-03  0.3449064E-01  0.1236602E-04  0.4802198E-03  0.8285128E-06  0.3679642E-04
4104259.  0.6655299E-03  0.2775003E-01  0.9864396E-05  0.3957678E-03  0.6380456E-06  0.2998415E-04
4067778.  0.5231602E-03  0.2215318E-01  0.7809216E-05  0.3240903E-03  0.4825211E-06  0.2456187E-04
4031296.  0.4099652E-03  0.1753184E-01  0.6130736E-05  0.2639749E-03  0.3542028E-06  0.2047355E-04
3994815.  0.3208150E-03  0.1373120E-01  0.4766497E-05  0.2141212E-03  0.2456855E-06  0.1762561E-04
3958333.  0.2514141E-03  0.1061132E-01  0.3661534E-05  0.1732015E-03  0.1501667E-06  0.1593413E-04
3921852.  0.1982280E-03  0.8048791E-02  0.2768025E-05  0.1400894E-03  0.6083089E-07  0.1548359E-04
3885370.  0.1583865E-03  0.5932549E-02  0.2044443E-05  0.1136593E-03 -0.2972651E-07  0.1638618E-04
3848889.  0.1296218E-03  0.4165060E-02  0.1455608E-05  0.9286741E-04 -0.1298583E-06  0.1888353E-04
3812407.  0.1101860E-03  0.2660584E-02  0.9719915E-06  0.7673613E-04 -0.2498175E-06  0.2339178E-04
3775926.  0.9879264E-04  0.1344790E-02  0.5699265E-06  0.6420244E-04 -0.4026868E-06  0.3049847E-04
3739444.  0.9454339E-04  0.1562124E-03  0.2321485E-06  0.5405314E-04 -0.6057085E-06  0.4108023E-04
3702963.  0.9684836E-04 -0.9502287E-03 -0.5061329E-07  0.4466216E-04 -0.8820881E-06  0.5635649E-04
3666482.  0.1053091E-03 -0.1994277E-02 -0.2761392E-06  0.3355355E-04 -0.1263151E-05  0.7795890E-04
3630000.  0.1195292E-03 -0.2952929E-02 -0.4242377E-06  0.1677972E-04 -0.1791112E-05  0.1080693E-03
3630000.  0.1195292E-03 -0.2952929E-02 -0.4242377E-06  0.1677972E-04 -0.1791112E-05  0.1080693E-03
3592500.  0.1393793E-03 -0.3743628E-02 -0.4429771E-06 -0.1342007E-04 -0.2546155E-05  0.1507347E-03
3555000.  0.1627191E-03 -0.4076712E-02 -0.2167545E-06 -0.6914741E-04 -0.3595581E-05  0.2086992E-03
3517500.  0.1854381E-03 -0.3408388E-02  0.4627400E-06 -0.1721429E-03 -0.5039916E-05  0.2854472E-03
3480000.  0.1988568E-03 -0.6785896E-03  0.1975301E-05 -0.3604401E-03 -0.6997192E-05  0.3831140E-03
3480000.  0.1988568E-03  0.1241678E-01  0.5545325E-05  0.3538088E-03 -0.6997192E-05 -0.2546165E-03
3409422.  0.9823909E-04  0.6372639E-02  0.2700521E-05  0.1784960E-03 -0.4328391E-05 -0.2124606E-03
3338844.  0.4724623E-04  0.3179247E-02  0.1282056E-05  0.8769676E-04 -0.2399570E-05 -0.1365779E-03
3268266.  0.2211979E-04  0.1542229E-02  0.5932229E-06  0.4196044E-04 -0.1235925E-05 -0.7739438E-04
3197688.  0.1007987E-04  0.7274972E-03  0.2674507E-06  0.1954963E-04 -0.6016084E-06 -0.4044497E-04
3127109.  0.4469458E-05  0.3336795E-03  0.1174342E-06  0.8866601E-05 -0.2793059E-06 -0.1989201E-04
3056531.  0.1927547E-05  0.1487802E-03  0.5019361E-07  0.3913211E-05 -0.1243351E-06 -0.9306364E-05
2985953.  0.8080932E-06  0.6446164E-04  0.2086996E-07  0.1679715E-05 -0.5323567E-07 -0.4166560E-05
2915375.  0.3291034E-06  0.2712470E-04  0.8435057E-08  0.7007839E-06 -0.2196258E-07 -0.1791408E-05
2844797.  0.1300987E-06  0.1107753E-04  0.3311113E-08  0.2839540E-06 -0.8738460E-08 -0.7411435E-06
2774219.  0.4987515E-07  0.4387166E-05  0.1261117E-08  0.1116459E-06 -0.3354216E-08 -0.2953599E-06
2703641.  0.1852301E-07  0.1683356E-05  0.4655383E-09  0.4255278E-07 -0.1241897E-08 -0.1134224E-06
2633062.  0.6656343E-08  0.6250863E-06  0.1663551E-09  0.1570364E-07 -0.4432898E-09 -0.4196398E-07
2562484.  0.2311502E-08  0.2243631E-06  0.5746702E-10  0.5604215E-08 -0.1524234E-09 -0.1495075E-07
2491906.  0.7745327E-09  0.7773185E-07  0.1916199E-10  0.1931263E-08 -0.5043053E-10 -0.5124759E-08
2421328.  0.2500112E-09  0.2595407E-07  0.6157098E-11  0.6416331E-09 -0.1603333E-10 -0.1688105E-08
2350750.  0.7760008E-10  0.8337096E-08  0.1902931E-11  0.2051546E-09 -0.4890401E-11 -0.5335945E-09
2280172.  0.2311376E-10  0.2571490E-08  0.5645390E-12  0.6300433E-10 -0.1428394E-11 -0.1615707E-09
2209594.  0.6591925E-11  0.7599391E-09  0.1604011E-12  0.1854413E-10 -0.3986681E-12 -0.4677202E-10
2139016.  0.1795596E-11  0.2146618E-09  0.4353879E-13  0.5218410E-11 -0.1060695E-12 -0.1291485E-10
2068438.  0.4658673E-12  0.5780336E-10  0.1125889E-13  0.1400227E-11 -0.2682917E-13 -0.3392703E-11
1997859.  0.1147741E-12  0.1479313E-10  0.2765066E-14  0.3571837E-12 -0.6431551E-14 -0.8454511E-12
1927281.  0.2677529E-13  0.3584121E-11  0.6423730E-15  0.8638666E-13 -0.1455318E-14 -0.1993405E-12
1856703.  0.0000000E+00  0.0000000E+00  0.0000000E+00  0.0000000E+00  0.0000000E+00  0.0000000E+00
1786125.  0.0000000E+00  0.0000000E+00  0.0000000E+00  0.0000000E+00  0.0000000E+00  0.0000000E+00
1715547.  0.0000000E+00  0.0000000E+00  0.0000000E+00  0.0000000E+00  0.0000000E+00  0.0000000E+00
1644969.  0.0000000E+00  0.0000000E+00  0.0000000E+00  0.0000000E+00  0.0000000E+00  0.0000000E+00
1574391.  0.0000000E+00  0.0000000E+00  0.0000000E+00  0.0000000E+00  0.0000000E+00  0.0000000E+00
1503812.  0.0000000E+00  0.0000000E+00  0.0000000E+00  0.0000000E+00  0.0000000E+00  0.0000000E+00
1433234.  0.0000000E+00  0.0000000E+00  0.0000000E+00  0.0000000E+00  0.0000000E+00  0.0000000E+00
1362656.  0.0000000E+00  0.0000000E+00  0.0000000E+00  0.0000000E+00  0.0000000E+00  0.0000000E+00
1292078.  0.0000000E+00  0.0000000E+00  0.0000000E+00  0.0000000E+00  0.0000000E+00  0.0000000E+00
1221500.  0.0000000E+00  0.0000000E+00  0.0000000E+00  0.0000000E+00  0.0000000E+00  0.0000000E+00
1221500.  0.0000000E+00  0.0000000E+00  0.0000000E+00  0.0000000E+00  0.0000000E+00  0.0000000E+00
1183328.  0.0000000E+00  0.0000000E+00  0.0000000E+00  0.0000000E+00  0.0000000E+00  0.0000000E+00
1145156.  0.0000000E+00  0.0000000E+00  0.0000000E+00  0.0000000E+00  0.0000000E+00  0.0000000E+00
1106984.  0.0000000E+00  0.0000000E+00  0.0000000E+00  0.0000000E+00  0.0000000E+00  0.0000000E+00
1068812.  0.0000000E+00  0.0000000E+00  0.0000000E+00  0.0000000E+00  0.0000000E+00  0.0000000E+00
1030641.  0.0000000E+00  0.0000000E+00  0.0000000E+00  0.0000000E+00  0.0000000E+00  0.0000000E+00
 992469.  0.0000000E+00  0.0000000E+00  0.0000000E+00  0.0000000E+00  0.0000000E+00  0.0000000E+00
 954297.  0.0000000E+00  0.0000000E+00  0.0000000E+00  0.0000000E+00  0.0000000E+00  0.0000000E+00
 916125.  0.0000000E+00  0.0000000E+00  0.0000000E+00  0.0000000E+00  0.0000000E+00  0.0000000E+00
 877953.  0.0000000E+00  0.0000000E+00  0.0000000E+00  0.0000000E+00  0.0000000E+00  0.0000000E+00
 839781.  0.0000000E+00  0.0000000E+00  0.0000000E+00  0.0000000E+00  0.0000000E+00  0.0000000E+00
 801609.  0.0000000E+00  0.0000000E+00  0.0000000E+00  0.0000000E+00  0.0000000E+00  0.0000000E+00
 763438.  0.0000000E+00  0.0000000E+00  0.0000000E+00  0.0000000E+00  0.0000000E+00  0.0000000E+00
 725266.  0.0000000E+00  0.0000000E+00  0.0000000E+00  0.0000000E+00  0.0000000E+00  0.0000000E+00
 687094.  0.0000000E+00  0.0000000E+00  0.0000000E+00  0.0000000E+00  0.0000000E+00  0.0000000E+00
 648922.  0.0000000E+00  0.0000000E+00  0.0000000E+00  0.0000000E+00  0.0000000E+00  0.0000000E+00
 610750.  0.0000000E+00  0.0000000E+00  0.0000000E+00  0.0000000E+00  0.0000000E+00  0.0000000E+00
 572578.  0.0000000E+00  0.0000000E+00  0.0000000E+00  0.0000000E+00  0.0000000E+00  0.0000000E+00
 534406.  0.0000000E+00  0.0000000E+00  0.0000000E+00  0.0000000E+00  0.0000000E+00  0.0000000E+00
 496234.  0.0000000E+00  0.0000000E+00  0.0000000E+00  0.0000000E+00  0.0000000E+00  0.0000000E+00
 458062.  0.0000000E+00  0.0000000E+00  0.0000000E+00  0.0000000E+00  0.0000000E+00  0.0000000E+00
 419891.  0.0000000E+00  0.0000000E+00  0.0000000E+00  0.0000000E+00  0.0000000E+00  0.0000000E+00
 381719.  0.0000000E+00  0.0000000E+00  0.0000000E+00  0.0000000E+00  0.0000000E+00  0.0000000E+00
 343547.  0.0000000E+00  0.0000000E+00  0.0000000E+00  0.0000000E+00  0.0000000E+00  0.0000000E+00
 305375.  0.0000000E+00  0.0000000E+00  0.0000000E+00  0.0000000E+00  0.0000000E+00  0.0000000E+00
 267203.  0.0000000E+00  0.0000000E+00  0.0000000E+00  0.0000000E+00  0.0000000E+00  0.0000000E+00
 229031.  0.0000000E+00  0.0000000E+00  0.0000000E+00  0.0000000E+00  0.0000000E+00  0.0000000E+00
 190859.  0.0000000E+00  0.0000000E+00  0.0000000E+00  0.0000000E+00  0.0000000E+00  0.0000000E+00
 152688.  0.0000000E+00  0.0000000E+00  0.0000000E+00  0.0000000E+00  0.0000000E+00  0.0000000E+00
 114516.  0.0000000E+00  0.0000000E+00  0.0000000E+00  0.0000000E+00  0.0000000E+00  0.0000000E+00
  76344.  0.0000000E+00  0.0000000E+00  0.0000000E+00  0.0000000E+00  0.0000000E+00  0.0000000E+00
  38172.  0.0000000E+00  0.0000000E+00  0.0000000E+00  0.0000000E+00  0.0000000E+00  0.0000000E+00
      0.  0.0000000E+00  0.0000000E+00  0.0000000E+00  0.0000000E+00  0.0000000E+00  0.0000000E+00
