       2       23 S      187        200.52600          8.49472          8.74109        408.89401      185    7
6371000. -0.5523745E-02 -0.1629151E+00 -0.7705775E-03  0.4753167E-02  0.6199740E-03 -0.4462885E-02
6370000. -0.5498081E-02 -0.1640905E+00 -0.7712991E-03  0.4441439E-02  0.6206729E-03 -0.4443725E-02
6369000. -0.5472234E-02 -0.1652434E+00 -0.7719718E-03  0.4129026E-02  0.6213690E-03 -0.4424832E-02
6368000. -0.5446208E-02 -0.1663735E+00 -0.7725953E-03  0.3815951E-02  0.6220620E-03 -0.4406208E-02
6368000. -0.5446208E-02 -0.1663735E+00 -0.7725953E-03  0.3815951E-02  0.6220620E-03 -0.4406208E-02
6367000. -0.5420007E-02 -0.1674808E+00 -0.7731697E-03  0.3502239E-02  0.6227522E-03 -0.4387853E-02
6366000. -0.5393633E-02 -0.1685653E+00 -0.7736947E-03  0.3187913E-02  0.6234395E-03 -0.4369770E-02
6365000. -0.5367091E-02 -0.1696268E+00 -0.7741703E-03  0.2872998E-02  0.6241240E-03 -0.4351958E-02
6364000. -0.5340385E-02 -0.1706653E+00 -0.7745965E-03  0.2557518E-02  0.6248057E-03 -0.4334419E-02
6363000. -0.5313517E-02 -0.1716808E+00 -0.7749732E-03  0.2241498E-02  0.6254847E-03 -0.4317154E-02
6362000. -0.5286491E-02 -0.1726730E+00 -0.7753002E-03  0.1924962E-02  0.6261609E-03 -0.4300164E-02
6361000. -0.5259312E-02 -0.1736421E+00 -0.7755774E-03  0.1607935E-02  0.6268346E-03 -0.4283450E-02
6360000. -0.5231983E-02 -0.1745879E+00 -0.7758049E-03  0.1290441E-02  0.6275057E-03 -0.4267013E-02
6359000. -0.5204507E-02 -0.1755103E+00 -0.7759825E-03  0.9725040E-03  0.6281741E-03 -0.4250854E-02
6358000. -0.5176887E-02 -0.1764094E+00 -0.7761102E-03  0.6541495E-03  0.6288401E-03 -0.4234974E-02
6357000. -0.5149129E-02 -0.1772849E+00 -0.7761878E-03  0.3354018E-03  0.6295036E-03 -0.4219374E-02
6356000. -0.5121235E-02 -0.1781370E+00 -0.7762155E-03  0.1628556E-04  0.6301646E-03 -0.4204056E-02
6356000. -0.5121235E-02 -0.1529616E+00 -0.7762155E-03  0.1736279E-02  0.6301646E-03 -0.3089735E-02
6355000. -0.5097171E-02 -0.1536524E+00 -0.7764750E-03  0.1570516E-02  0.6306471E-03 -0.3057758E-02
6354000. -0.5073001E-02 -0.1543312E+00 -0.7767085E-03  0.1404508E-02  0.6311246E-03 -0.3025973E-02
6353000. -0.5048724E-02 -0.1549978E+00 -0.7769159E-03  0.1238261E-02  0.6315971E-03 -0.2994382E-02
6352000. -0.5024344E-02 -0.1556523E+00 -0.7770972E-03  0.1071783E-02  0.6320646E-03 -0.2962983E-02
6351000. -0.4999862E-02 -0.1562947E+00 -0.7772523E-03  0.9050828E-03  0.6325272E-03 -0.2931778E-02
6350000. -0.4975280E-02 -0.1569249E+00 -0.7773813E-03  0.7381675E-03  0.6329850E-03 -0.2900767E-02
6349000. -0.4950600E-02 -0.1575428E+00 -0.7774840E-03  0.5710449E-03  0.6334378E-03 -0.2869950E-02
6348000. -0.4925825E-02 -0.1581485E+00 -0.7775606E-03  0.4037227E-03  0.6338859E-03 -0.2839328E-02
6347000. -0.4900955E-02 -0.1587419E+00 -0.7776108E-03  0.2362089E-03  0.6343292E-03 -0.2808900E-02
6346600. -0.4890981E-02 -0.1589759E+00 -0.7776235E-03  0.1691514E-03  0.6345051E-03 -0.2796783E-02
6346600. -0.4890981E-02 -0.1770332E+00 -0.7776235E-03  0.1455597E-02  0.6345051E-03 -0.1091370E-02
6318800. -0.4089271E-02 -0.1895183E+00 -0.7787796E-03 -0.9438060E-03  0.6370496E-03 -0.9174154E-04
6291000. -0.3245313E-02 -0.1963278E+00 -0.7692748E-03 -0.3420110E-02  0.6354473E-03  0.8105663E-03
6291000. -0.3245313E-02 -0.2026373E+00 -0.7692748E-03 -0.3646363E-02  0.6354473E-03  0.8105663E-03
6263000. -0.2351724E-02 -0.2028759E+00 -0.7471830E-03 -0.6401617E-02  0.6302066E-03  0.1559255E-02
6235000. -0.1472193E-02 -0.1962257E+00 -0.7131123E-03 -0.9084213E-02  0.6218687E-03  0.2221260E-02
6207000. -0.6370061E-03 -0.1827172E+00 -0.6675570E-03 -0.1161494E-01  0.6107978E-03  0.2804309E-02
6179000.  0.1241557E-03 -0.1625969E+00 -0.6113532E-03 -0.1391773E-01  0.5973233E-03  0.3316365E-02
6151000.  0.7831751E-03 -0.1363290E+00 -0.5456603E-03 -0.1592195E-01  0.5817397E-03  0.3765472E-02
6151000.  0.7831751E-03 -0.1346365E+00 -0.5456603E-03 -0.1413629E-01  0.5817397E-03  0.3722143E-02
6128500.  0.1223521E-02 -0.1144373E+00 -0.4943084E-03 -0.1490991E-01  0.5679503E-03  0.4080458E-02
6106000.  0.1589438E-02 -0.9255142E-01 -0.4405980E-03 -0.1547130E-01  0.5529626E-03  0.4401145E-02
6083500.  0.1875684E-02 -0.6938483E-01 -0.3852824E-03 -0.1581904E-01  0.5369051E-03  0.4686725E-02
6061000.  0.2078460E-02 -0.4534820E-01 -0.3291135E-03 -0.1595512E-01  0.5198976E-03  0.4939543E-02
6038500.  0.2195417E-02 -0.2085071E-01 -0.2728303E-03 -0.1588497E-01  0.5020517E-03  0.5161874E-02
6016000.  0.2225642E-02  0.3705425E-02 -0.2171470E-03 -0.1561701E-01  0.4834712E-03  0.5355899E-02
5993500.  0.2169617E-02  0.2793227E-01 -0.1627433E-03 -0.1516232E-01  0.4642525E-03  0.5523679E-02
5971000.  0.2029161E-02  0.5146173E-01 -0.1102556E-03 -0.1453447E-01  0.4444845E-03  0.5667298E-02
5971000.  0.2029161E-02  0.4433831E-01 -0.1102556E-03 -0.1318474E-01  0.4444845E-03  0.5401663E-02
5937667.  0.1724759E-02  0.7139044E-01 -0.4500332E-04 -0.1173059E-01  0.4159053E-03  0.5512805E-02
5904333.  0.1289075E-02  0.9446047E-01  0.1227329E-04 -0.1014903E-01  0.3869029E-03  0.5563700E-02
5871000.  0.7436624E-03  0.1133193E+00  0.6110848E-04 -0.8515916E-02  0.3577842E-03  0.5558293E-02
5837667.  0.1107014E-03  0.1279349E+00  0.1014033E-03 -0.6893661E-02  0.3288309E-03  0.5501370E-02
5804333. -0.5878958E-03  0.1384328E+00  0.1333501E-03 -0.5331577E-02  0.3002973E-03  0.5398501E-02
5771000. -0.1331133E-02  0.1450560E+00  0.1573637E-03 -0.3866637E-02  0.2724095E-03  0.5255935E-02
5771000. -0.1331133E-02  0.1450626E+00  0.1573637E-03 -0.3866457E-02  0.2724095E-03  0.5255935E-02
5701000. -0.2993818E-02  0.1552250E+00  0.1860695E-03 -0.1390646E-02  0.2169231E-03  0.4842641E-02
5701000. -0.2993818E-02  0.1338538E+00  0.1860695E-03 -0.3505618E-03  0.2169231E-03  0.5686490E-02
5667333. -0.3675333E-02  0.1253230E+00  0.1854020E-03  0.4904887E-03  0.1883324E-03  0.5127467E-02
5633667. -0.4329924E-02  0.1228083E+00  0.1817727E-03  0.8477946E-03  0.1626575E-03  0.4602506E-02
5600000. -0.4970421E-02  0.1193489E+00  0.1764456E-03  0.1165790E-02  0.1396038E-03  0.4128923E-02
5600000. -0.4970421E-02  0.1193489E+00  0.1764456E-03  0.1165790E-02  0.1396038E-03  0.4128923E-02
5563518. -0.5640806E-02  0.1146503E+00  0.1689223E-03  0.1452049E-02  0.1173189E-03  0.3662190E-02
5527037. -0.6281879E-02  0.1091462E+00  0.1599280E-03  0.1679864E-02  0.9757969E-04  0.3239187E-02
5490556. -0.6889541E-02  0.1030082E+00  0.1497923E-03  0.1851155E-02  0.8014774E-04  0.2855735E-02
5454074. -0.7460653E-02  0.9640324E-01  0.1388302E-03  0.1968831E-02  0.6480572E-04  0.2508395E-02
5417593. -0.7993010E-02  0.8950462E-01  0.1273427E-03  0.2035276E-02  0.5136042E-04  0.2192787E-02
5381111. -0.8485415E-02  0.8246956E-01  0.1156115E-03  0.2054556E-02  0.3963761E-04  0.1906276E-02
5344630. -0.8937498E-02  0.7545071E-01  0.1038958E-03  0.2030531E-02  0.2947888E-04  0.1645989E-02
5308148. -0.9349800E-02  0.6859352E-01  0.9243329E-04  0.1966798E-02  0.2074420E-04  0.1408448E-02
5271667. -0.9723600E-02  0.6202791E-01  0.8143717E-04  0.1868466E-02  0.1330728E-04  0.1192472E-02
5235185. -0.1006095E-01  0.5587827E-01  0.7109466E-04  0.1738931E-02  0.7052993E-05  0.9947224E-03
5198704. -0.1036454E-01  0.5025803E-01  0.6157465E-04  0.1582116E-02  0.1885401E-05  0.8128285E-03
5162222. -0.1063771E-01  0.4526625E-01  0.5301783E-04  0.1403027E-02 -0.2285191E-05  0.6460717E-03
5125741. -0.1088432E-01  0.4099750E-01  0.4554523E-04  0.1203919E-02 -0.5535093E-05  0.4907714E-03
5089259. -0.1110876E-01  0.3753595E-01  0.3926145E-04  0.9884204E-03 -0.7924690E-05  0.3454244E-03
5052778. -0.1131587E-01  0.3495746E-01  0.3425006E-04  0.7599072E-03 -0.9507292E-05  0.2084753E-03
5016296. -0.1151092E-01  0.3333328E-01  0.3058113E-04  0.5198325E-03 -0.1032187E-04  0.7676282E-04
4979815. -0.1169956E-01  0.3272992E-01  0.2831337E-04  0.2709527E-03 -0.1039381E-04 -0.5115461E-04
4943333. -0.1188782E-01  0.3321081E-01  0.2749246E-04  0.1451512E-04 -0.9738625E-05 -0.1777779E-03
4906852. -0.1208209E-01  0.3484051E-01  0.2816120E-04 -0.2491221E-03 -0.8353519E-05 -0.3064489E-03
4870370. -0.1228914E-01  0.3768381E-01  0.3035564E-04 -0.5182531E-03 -0.6222959E-05 -0.4385448E-03
4833889. -0.1251610E-01  0.4180991E-01  0.3410893E-04 -0.7938920E-03 -0.3316381E-05 -0.5783022E-03
4797407. -0.1277055E-01  0.4729734E-01  0.3946192E-04 -0.1076827E-02  0.4218158E-06 -0.7293293E-03
4760926. -0.1306051E-01  0.5422939E-01  0.4645319E-04 -0.1366408E-02  0.5061388E-05 -0.8939246E-03
4724444. -0.1339455E-01  0.6270654E-01  0.5513035E-04 -0.1666089E-02  0.1069816E-04 -0.1078561E-02
4687963. -0.1378181E-01  0.7284379E-01  0.6555541E-04 -0.1977080E-02  0.1745964E-04 -0.1287466E-02
4651482. -0.1423218E-01  0.8477264E-01  0.7779682E-04 -0.2301102E-02  0.2549885E-04 -0.1526095E-02
4615000. -0.1475637E-01  0.9865333E-01  0.9194233E-04 -0.2642540E-02  0.3501037E-04 -0.1802905E-02
4578518. -0.1536606E-01  0.1146675E+00  0.1080971E-03 -0.3003231E-02  0.4623238E-04 -0.2124795E-02
4542037. -0.1607404E-01  0.1330287E+00  0.1263806E-03 -0.3387144E-02  0.5944923E-04 -0.2501813E-02
4505556. -0.1689449E-01  0.1539937E+00  0.1469422E-03 -0.3799339E-02  0.7501365E-04 -0.2946621E-02
4469074. -0.1784313E-01  0.1778467E+00  0.1699482E-03 -0.4241282E-02  0.9334493E-04 -0.3470426E-02
4432593. -0.1893739E-01  0.2049288E+00  0.1955841E-03 -0.4719231E-02  0.1149442E-03 -0.4091565E-02
4396111. -0.2019694E-01  0.2356333E+00  0.2240711E-03 -0.5236929E-02  0.1404259E-03 -0.4829332E-02
4359630. -0.2164364E-01  0.2703907E+00  0.2556360E-03 -0.5795171E-02  0.1705128E-03 -0.5704601E-02
4323148. -0.2330224E-01  0.3097198E+00  0.2905293E-03 -0.6399764E-02  0.2060782E-03 -0.6747800E-02
4286667. -0.2520042E-01  0.3541848E+00  0.3290157E-03 -0.7049962E-02  0.2481717E-03 -0.7990687E-02
4250185. -0.2736946E-01  0.4044172E+00  0.3713511E-03 -0.7743700E-02  0.2980452E-03 -0.9472221E-02
4213704. -0.2984429E-01  0.4611352E+00  0.4177812E-03 -0.8479408E-02  0.3572016E-03 -0.1124213E-01
4177222. -0.3266432E-01  0.5250943E+00  0.4685161E-03 -0.9244255E-02  0.4274477E-03 -0.1335490E-01
4140741. -0.3587318E-01  0.5971177E+00  0.5236786E-03 -0.1002375E-01  0.5109319E-03 -0.1587974E-01
4104259. -0.3951976E-01  0.6780909E+00  0.5832983E-03 -0.1079455E-01  0.6102580E-03 -0.1890150E-01
4067778. -0.4365748E-01  0.7688338E+00  0.6471967E-03 -0.1151065E-01  0.7285179E-03 -0.2251149E-01
4031296. -0.4834496E-01  0.8702074E+00  0.7149234E-03 -0.1212063E-01  0.8694277E-03 -0.2683378E-01
3994815. -0.5364499E-01  0.9829274E+00  0.7856478E-03 -0.1254042E-01  0.1037454E-02 -0.3200832E-01
3958333. -0.5962419E-01  0.1107420E+01  0.8579369E-03 -0.1264325E-01  0.1237929E-02 -0.3819602E-01
3921852. -0.6635023E-01  0.1243822E+01  0.9295432E-03 -0.1227059E-01  0.1477221E-02 -0.4560563E-01
3885370. -0.7389049E-01  0.1391569E+01  0.9971053E-03 -0.1118256E-01  0.1762994E-02 -0.5446938E-01
3848889. -0.8230554E-01  0.1549084E+01  0.1055623E-02 -0.9049858E-02  0.2104325E-02 -0.6506565E-01
3812407. -0.9164427E-01  0.1713450E+01  0.1097927E-02 -0.5430804E-02  0.2512106E-02 -0.7773399E-01
3775926. -0.1019316E+00  0.1879382E+01  0.1113785E-02  0.3086654E-03  0.2999224E-02 -0.9284859E-01
3739444. -0.1131549E+00  0.2038561E+01  0.1088744E-02  0.9017634E-02  0.3580982E-02 -0.1108667E+00
3702963. -0.1252408E+00  0.2178139E+01  0.1002651E-02  0.2186322E-01  0.4275448E-02 -0.1323102E+00
3666482. -0.1380247E+00  0.2278443E+01  0.8273898E-03  0.4047456E-01  0.5103828E-02 -0.1577429E+00
3630000. -0.1512053E+00  0.2310811E+01  0.5239928E-03  0.6704152E-01  0.6090881E-02 -0.1878375E+00
3630000. -0.1512053E+00  0.2310811E+01  0.5239928E-03  0.6704152E-01  0.6090881E-02 -0.1878375E+00
3592500. -0.1646364E+00  0.2228707E+01  0.2185460E-04  0.1058486E+00  0.7300991E-02 -0.2243482E+00
3555000. -0.1770845E+00  0.1963586E+01 -0.7536430E-03  0.1608064E+00  0.8744556E-02 -0.2672964E+00
3517500. -0.1872069E+00  0.1419281E+01 -0.1914986E-02  0.2381770E+00  0.1046181E-01 -0.3174650E+00
3480000. -0.1929756E+00  0.4566604E+00 -0.3618322E-02  0.3466652E+00  0.1249716E-01 -0.3754634E+00
3480000. -0.1929756E+00 -0.6230765E+01 -0.9978608E-02 -0.3348536E+00  0.1249716E-01  0.2434062E+00
3409422. -0.1339715E+00 -0.4500778E+01 -0.6835476E-02 -0.2374941E+00  0.9787449E-02  0.2386104E+00
3338844. -0.9167563E-01 -0.3199041E+01 -0.4621024E-02 -0.1660793E+00  0.7313806E-02  0.2052962E+00
3268266. -0.6183594E-01 -0.2238229E+01 -0.3082648E-02 -0.1145187E+00  0.5268470E-02  0.1636476E+00
3197688. -0.4111046E-01 -0.1541855E+01 -0.2028838E-02 -0.7786226E-01  0.3680827E-02  0.1237609E+00
3127109. -0.2693587E-01 -0.1045887E+01 -0.1317053E-02 -0.5219467E-01  0.2503759E-02  0.8990567E-01
3056531. -0.1738988E-01 -0.6986078E+00 -0.8430826E-03 -0.3449122E-01  0.1662314E-02  0.6318937E-01
2985953. -0.1105940E-01 -0.4594587E+00 -0.5319798E-03 -0.2246314E-01  0.1078971E-02  0.4315949E-01
2915375. -0.6926144E-02 -0.2974710E+00 -0.3307529E-03 -0.1441389E-01  0.6853836E-03  0.2872828E-01
2844797. -0.4269760E-02 -0.1895447E+00 -0.2025336E-03 -0.9109245E-02  0.4263360E-03  0.1866945E-01
2774219. -0.2589795E-02 -0.1188220E+00 -0.1220815E-03 -0.5667453E-02  0.2597738E-03  0.1185873E-01
2703641. -0.1544702E-02 -0.7325096E-01 -0.7239529E-04 -0.3469605E-02  0.1550553E-03  0.7367455E-02
2633062. -0.9054715E-03 -0.4438519E-01 -0.4220796E-04 -0.2088855E-02  0.9064750E-04  0.4478157E-02
2562484. -0.5212734E-03 -0.2641929E-01 -0.2417670E-04 -0.1235952E-02  0.5188805E-04  0.2663190E-02
2491906. -0.2944977E-03 -0.1543707E-01 -0.1359468E-04 -0.7181950E-03  0.2906741E-04  0.1549302E-02
2421328. -0.1631376E-03 -0.8847849E-02 -0.7497722E-05 -0.4095245E-03  0.1592564E-04  0.8813058E-03
2350750. -0.8852597E-04 -0.4970090E-02 -0.4051878E-05 -0.2289421E-03  0.8527076E-05  0.4899155E-03
2280172. -0.4700836E-04 -0.2733533E-02 -0.2143303E-05 -0.1253563E-03  0.4457747E-05  0.2659466E-03
2209594. -0.2439834E-04 -0.1470441E-02 -0.1108399E-05 -0.6715202E-04  0.2272881E-05  0.1408471E-03
2139016. -0.1236129E-04 -0.7726974E-03 -0.5596584E-06 -0.3515030E-04  0.1128885E-05  0.7269582E-04
2068438. -0.6104636E-05 -0.3961171E-03 -0.2755073E-06 -0.1795399E-04  0.5454139E-06  0.3651991E-04
1997859. -0.2933915E-05 -0.1978019E-03 -0.1320137E-06 -0.8934865E-05  0.2559256E-06  0.1783091E-04
1927281. -0.1369807E-05 -0.9605191E-04 -0.6146218E-07 -0.4324917E-05  0.1164243E-06  0.8447510E-05
1856703. -0.6200446E-06 -0.4527152E-04 -0.2774741E-07 -0.2032352E-05  0.5124286E-07  0.3875882E-05
1786125. -0.2714964E-06 -0.2066640E-04 -0.1211949E-07 -0.9251745E-06  0.2177161E-07  0.1718568E-05
1715547. -0.1147064E-06 -0.9115609E-05 -0.5108510E-08 -0.4070110E-06  0.8906201E-08  0.7346125E-06
1644969. -0.4662889E-07 -0.3874471E-05 -0.2072103E-08 -0.1725703E-06  0.3497559E-08  0.3018828E-06
1574391. -0.1817856E-07 -0.1582023E-05 -0.8061781E-09 -0.7030081E-07  0.1314191E-08  0.1188860E-06
1503812. -0.6771223E-08 -0.6184252E-06 -0.2997564E-09 -0.2741743E-07  0.4706631E-09  0.4470443E-07
1433234. -0.2398302E-08 -0.2306667E-06 -0.1061303E-09 -0.1018948E-07  0.1599728E-09  0.1598393E-07
1362656. -0.7987975E-09 -0.8228690E-07 -0.3581770E-10 -0.3567409E-08  0.5135550E-10  0.5406876E-08
1292078. -0.2294831E-09 -0.3025958E-07 -0.1227062E-10 -0.1071103E-08  0.1550930E-10  0.1719620E-08
1221500.  0.2501100E-10 -0.2143356E-07 -0.7543601E-11  0.1697409E-09  0.4392964E-11  0.5175179E-09
1221500.  0.2501100E-10  0.4924438E-10 -0.8769648E-13 -0.1309077E-09  0.4392964E-11  0.5066830E-09
1183328.  0.2106058E-10  0.1018964E-08  0.3263407E-12 -0.2473507E-10  0.2174606E-11  0.2596780E-09
1145156.  0.1464548E-10  0.1038166E-08  0.3484005E-12  0.9995072E-11  0.1049898E-11  0.1298336E-09
1106984.  0.0000000E+00  0.0000000E+00  0.0000000E+00  0.0000000E+00  0.0000000E+00  0.0000000E+00
1068812.  0.0000000E+00  0.0000000E+00  0.0000000E+00  0.0000000E+00  0.0000000E+00  0.0000000E+00
1030641.  0.0000000E+00  0.0000000E+00  0.0000000E+00  0.0000000E+00  0.0000000E+00  0.0000000E+00
 992469.  0.0000000E+00  0.0000000E+00  0.0000000E+00  0.0000000E+00  0.0000000E+00  0.0000000E+00
 954297.  0.0000000E+00  0.0000000E+00  0.0000000E+00  0.0000000E+00  0.0000000E+00  0.0000000E+00
 916125.  0.0000000E+00  0.0000000E+00  0.0000000E+00  0.0000000E+00  0.0000000E+00  0.0000000E+00
 877953.  0.0000000E+00  0.0000000E+00  0.0000000E+00  0.0000000E+00  0.0000000E+00  0.0000000E+00
 839781.  0.0000000E+00  0.0000000E+00  0.0000000E+00  0.0000000E+00  0.0000000E+00  0.0000000E+00
 801609.  0.0000000E+00  0.0000000E+00  0.0000000E+00  0.0000000E+00  0.0000000E+00  0.0000000E+00
 763438.  0.0000000E+00  0.0000000E+00  0.0000000E+00  0.0000000E+00  0.0000000E+00  0.0000000E+00
 725266.  0.0000000E+00  0.0000000E+00  0.0000000E+00  0.0000000E+00  0.0000000E+00  0.0000000E+00
 687094.  0.0000000E+00  0.0000000E+00  0.0000000E+00  0.0000000E+00  0.0000000E+00  0.0000000E+00
 648922.  0.0000000E+00  0.0000000E+00  0.0000000E+00  0.0000000E+00  0.0000000E+00  0.0000000E+00
 610750.  0.0000000E+00  0.0000000E+00  0.0000000E+00  0.0000000E+00  0.0000000E+00  0.0000000E+00
 572578.  0.0000000E+00  0.0000000E+00  0.0000000E+00  0.0000000E+00  0.0000000E+00  0.0000000E+00
 534406.  0.0000000E+00  0.0000000E+00  0.0000000E+00  0.0000000E+00  0.0000000E+00  0.0000000E+00
 496234.  0.0000000E+00  0.0000000E+00  0.0000000E+00  0.0000000E+00  0.0000000E+00  0.0000000E+00
 458062.  0.0000000E+00  0.0000000E+00  0.0000000E+00  0.0000000E+00  0.0000000E+00  0.0000000E+00
 419891.  0.0000000E+00  0.0000000E+00  0.0000000E+00  0.0000000E+00  0.0000000E+00  0.0000000E+00
 381719.  0.0000000E+00  0.0000000E+00  0.0000000E+00  0.0000000E+00  0.0000000E+00  0.0000000E+00
 343547.  0.0000000E+00  0.0000000E+00  0.0000000E+00  0.0000000E+00  0.0000000E+00  0.0000000E+00
 305375.  0.0000000E+00  0.0000000E+00  0.0000000E+00  0.0000000E+00  0.0000000E+00  0.0000000E+00
 267203.  0.0000000E+00  0.0000000E+00  0.0000000E+00  0.0000000E+00  0.0000000E+00  0.0000000E+00
 229031.  0.0000000E+00  0.0000000E+00  0.0000000E+00  0.0000000E+00  0.0000000E+00  0.0000000E+00
 190859.  0.0000000E+00  0.0000000E+00  0.0000000E+00  0.0000000E+00  0.0000000E+00  0.0000000E+00
 152688.  0.0000000E+00  0.0000000E+00  0.0000000E+00  0.0000000E+00  0.0000000E+00  0.0000000E+00
 114516.  0.0000000E+00  0.0000000E+00  0.0000000E+00  0.0000000E+00  0.0000000E+00  0.0000000E+00
  76344.  0.0000000E+00  0.0000000E+00  0.0000000E+00  0.0000000E+00  0.0000000E+00  0.0000000E+00
  38172.  0.0000000E+00  0.0000000E+00  0.0000000E+00  0.0000000E+00  0.0000000E+00  0.0000000E+00
      0.  0.0000000E+00  0.0000000E+00  0.0000000E+00  0.0000000E+00  0.0000000E+00  0.0000000E+00
