       4       14 S      283        224.45660         12.29949          5.82758        263.35501      185    7
6371000. -0.4197634E-01  0.7330816E+00  0.8476916E-02  0.5045326E-01 -0.1479681E-02  0.1013528E+00
6370000. -0.4209086E-01  0.7260840E+00  0.8468721E-02  0.5396451E-01 -0.1495570E-02  0.1010980E+00
6369000. -0.4220427E-01  0.7189879E+00  0.8459976E-02  0.5747085E-01 -0.1511418E-02  0.1008419E+00
6368000. -0.4231656E-01  0.7117936E+00  0.8450680E-02  0.6097202E-01 -0.1527226E-02  0.1005846E+00
6368000. -0.4231656E-01  0.7117936E+00  0.8450680E-02  0.6097202E-01 -0.1527226E-02  0.1005846E+00
6367000. -0.4242771E-01  0.7045012E+00  0.8440835E-02  0.6446779E-01 -0.1542994E-02  0.1003261E+00
6366000. -0.4253771E-01  0.6971110E+00  0.8430443E-02  0.6795789E-01 -0.1558721E-02  0.1000663E+00
6365000. -0.4264655E-01  0.6896233E+00  0.8419503E-02  0.7144210E-01 -0.1574407E-02  0.9980526E-01
6364000. -0.4275420E-01  0.6820382E+00  0.8408016E-02  0.7492015E-01 -0.1590052E-02  0.9954302E-01
6363000. -0.4286065E-01  0.6743562E+00  0.8395984E-02  0.7839181E-01 -0.1605656E-02  0.9927955E-01
6362000. -0.4296589E-01  0.6665774E+00  0.8383407E-02  0.8185684E-01 -0.1621218E-02  0.9901487E-01
6361000. -0.4306990E-01  0.6587021E+00  0.8370287E-02  0.8531497E-01 -0.1636738E-02  0.9874897E-01
6360000. -0.4317266E-01  0.6507306E+00  0.8356625E-02  0.8876599E-01 -0.1652217E-02  0.9848187E-01
6359000. -0.4327417E-01  0.6426632E+00  0.8342422E-02  0.9220964E-01 -0.1667654E-02  0.9821357E-01
6358000. -0.4337440E-01  0.6345003E+00  0.8327679E-02  0.9564567E-01 -0.1683049E-02  0.9794407E-01
6357000. -0.4347335E-01  0.6262420E+00  0.8312397E-02  0.9907384E-01 -0.1698401E-02  0.9767336E-01
6356000. -0.4357099E-01  0.6178889E+00  0.8296577E-02  0.1024939E+00 -0.1713710E-02  0.9740148E-01
6356000. -0.4357099E-01  0.5638756E+00  0.8296577E-02  0.8247394E-01 -0.1713710E-02  0.1068820E+00
6355000. -0.4365903E-01  0.5579181E+00  0.8283468E-02  0.8456761E-01 -0.1730461E-02  0.1065528E+00
6354000. -0.4374613E-01  0.5519037E+00  0.8270030E-02  0.8665670E-01 -0.1747160E-02  0.1062228E+00
6353000. -0.4383228E-01  0.5458326E+00  0.8256265E-02  0.8874113E-01 -0.1763807E-02  0.1058922E+00
6352000. -0.4391748E-01  0.5397049E+00  0.8242172E-02  0.9082080E-01 -0.1780402E-02  0.1055607E+00
6351000. -0.4400171E-01  0.5335208E+00  0.8227754E-02  0.9289562E-01 -0.1796944E-02  0.1052286E+00
6350000. -0.4408496E-01  0.5272804E+00  0.8213011E-02  0.9496550E-01 -0.1813435E-02  0.1048958E+00
6349000. -0.4416723E-01  0.5209840E+00  0.8197943E-02  0.9703033E-01 -0.1829874E-02  0.1045622E+00
6348000. -0.4424850E-01  0.5146316E+00  0.8182551E-02  0.9909002E-01 -0.1846260E-02  0.1042279E+00
6347000. -0.4432878E-01  0.5082237E+00  0.8166837E-02  0.1011445E+00 -0.1862593E-02  0.1038929E+00
6346600. -0.4436061E-01  0.5056449E+00  0.8160461E-02  0.1019648E+00 -0.1869112E-02  0.1037587E+00
6346600. -0.4436061E-01  0.6513689E+00  0.8160461E-02  0.8596819E-01 -0.1869112E-02  0.1192266E+00
6318800. -0.4689801E-01  0.5060993E+00  0.7701604E-02  0.1237992E+00 -0.2367977E-02  0.1093841E+00
6291000. -0.4873073E-01  0.3288211E+00  0.7085539E-02  0.1578662E+00 -0.2823351E-02  0.9929397E-01
6291000. -0.4873073E-01  0.3468129E+00  0.7085539E-02  0.1618202E+00 -0.2823351E-02  0.9929397E-01
6263000. -0.4979474E-01  0.1325856E+00  0.6303737E-02  0.1930352E+00 -0.3237366E-02  0.8906806E-01
6235000. -0.4985733E-01 -0.1080576E+00  0.5397481E-02  0.2183246E+00 -0.3605858E-02  0.7857840E-01
6207000. -0.4881438E-01 -0.3695021E+00  0.4394408E-02  0.2369940E+00 -0.3927676E-02  0.6782895E-01
6179000. -0.4658846E-01 -0.6452482E+00  0.3324790E-02  0.2485400E+00 -0.4201690E-02  0.5682548E-01
6151000. -0.4313239E-01 -0.9280497E+00  0.2220670E-02  0.2526628E+00 -0.4426805E-02  0.4557838E-01
6151000. -0.4313239E-01 -0.7023214E+00  0.2220670E-02  0.2273356E+00 -0.4426805E-02  0.4796470E-01
6128500. -0.4035287E-01 -0.8709413E+00  0.1422515E-02  0.2240478E+00 -0.4584035E-02  0.4109537E-01
6106000. -0.3698806E-01 -0.1033354E+01  0.6424364E-03  0.2171317E+00 -0.4717219E-02  0.3435050E-01
6083500. -0.3306441E-01 -0.1187021E+01 -0.1071297E-03  0.2068088E+00 -0.4826832E-02  0.2774973E-01
6061000. -0.2861705E-01 -0.1329561E+01 -0.8146095E-03  0.1933459E+00 -0.4913415E-02  0.2131188E-01
6038500. -0.2368920E-01 -0.1458793E+01 -0.1469447E-02  0.1770518E+00 -0.4977574E-02  0.1505327E-01
6016000. -0.1833140E-01 -0.1572751E+01 -0.2062242E-02  0.1582692E+00 -0.5019968E-02  0.8988476E-02
5993500. -0.1260069E-01 -0.1669711E+01 -0.2584847E-02  0.1373665E+00 -0.5041306E-02  0.3130637E-02
5971000. -0.6559750E-02 -0.1748234E+01 -0.3030461E-02  0.1147341E+00 -0.5042337E-02 -0.2509647E-02
5971000. -0.6559750E-02 -0.1602763E+01 -0.3030461E-02  0.1025090E+00 -0.5042337E-02 -0.1650921E-02
5937667.  0.1926250E-02 -0.1634539E+01 -0.3477479E-02  0.6846078E-01 -0.5016756E-02 -0.7984601E-02
5904333.  0.1047794E-01 -0.1628164E+01 -0.3748730E-02  0.3548891E-01 -0.4960280E-02 -0.1346123E-01
5871000.  0.1890202E-01 -0.1586377E+01 -0.3852330E-02  0.4509973E-02 -0.4877367E-02 -0.1809532E-01
5837667.  0.2702224E-01 -0.1512630E+01 -0.3800606E-02 -0.2378969E-01 -0.4772345E-02 -0.2191908E-01
5804333.  0.3468173E-01 -0.1410861E+01 -0.3608905E-02 -0.4893200E-01 -0.4649335E-02 -0.2497873E-01
5771000.  0.4174437E-01 -0.1285289E+01 -0.3294606E-02 -0.7062216E-01 -0.4512195E-02 -0.2733269E-01
5771000.  0.4174437E-01 -0.1285346E+01 -0.3294606E-02 -0.7062148E-01 -0.4512195E-02 -0.2733269E-01
5701000.  0.5445460E-01 -0.1011315E+01 -0.2300276E-02 -0.1084633E+00 -0.4203722E-02 -0.2853268E-01
5701000.  0.5445460E-01 -0.8660834E+00 -0.2300276E-02 -0.9897888E-01 -0.4203722E-02 -0.4388147E-01
5667333.  0.5851946E-01 -0.6826245E+00 -0.1761734E-02 -0.1048674E+00 -0.3977678E-02 -0.4163290E-01
5633667.  0.6174291E-01 -0.5387272E+00 -0.1190230E-02 -0.1113902E+00 -0.3763109E-02 -0.3962934E-01
5600000.  0.6419224E-01 -0.3866996E+00 -0.5883835E-03 -0.1160083E+00 -0.3558978E-02 -0.3760996E-01
5600000.  0.6419224E-01 -0.3866996E+00 -0.5883835E-03 -0.1160083E+00 -0.3558978E-02 -0.3760996E-01
5563518.  0.6591885E-01 -0.2154595E+00  0.8503008E-04 -0.1188180E+00 -0.3349948E-02 -0.3539331E-01
5527037.  0.6665216E-01 -0.4024697E-01  0.7681224E-03 -0.1194074E+00 -0.3153673E-02 -0.3315999E-01
5490556.  0.6637752E-01  0.1361416E+00  0.1448440E-02 -0.1178661E+00 -0.2970185E-02 -0.3093119E-01
5454074.  0.6509604E-01  0.3109602E+00  0.2114129E-02 -0.1143154E+00 -0.2799383E-02 -0.2872989E-01
5417593.  0.6282438E-01  0.4815801E+00  0.2754090E-02 -0.1089145E+00 -0.2641092E-02 -0.2656499E-01
5381111.  0.5959362E-01  0.6455289E+00  0.3358258E-02 -0.1018388E+00 -0.2495043E-02 -0.2445640E-01
5344630.  0.5544882E-01  0.8005094E+00  0.3917568E-02 -0.9328734E-01 -0.2360872E-02 -0.2241847E-01
5308148.  0.5044701E-01  0.9444926E+00  0.4424210E-02 -0.8347401E-01 -0.2238153E-02 -0.2045795E-01
5271667.  0.4465694E-01  0.1075593E+01  0.4871555E-02 -0.7261855E-01 -0.2126395E-02 -0.1859290E-01
5235185.  0.3815659E-01  0.1192293E+01  0.5254312E-02 -0.6095012E-01 -0.2025031E-02 -0.1682696E-01
5198704.  0.3103252E-01  0.1293303E+01  0.5568462E-02 -0.4869584E-01 -0.1933486E-02 -0.1516595E-01
5162222.  0.2337749E-01  0.1377531E+01  0.5811300E-02 -0.3607758E-01 -0.1851124E-02 -0.1361955E-01
5125741.  0.1529006E-01  0.1444317E+01  0.5981364E-02 -0.2331501E-01 -0.1777293E-02 -0.1218669E-01
5089259.  0.6871095E-02  0.1493181E+01  0.6078426E-02 -0.1061162E-01 -0.1711337E-02 -0.1086918E-01
5052778. -0.1775471E-02  0.1523892E+01  0.6103378E-02  0.1839252E-02 -0.1652594E-02 -0.9667158E-02
5016296. -0.1054644E-01  0.1536581E+01  0.6058183E-02  0.1386123E-01 -0.1600409E-02 -0.8577956E-02
4979815. -0.1933879E-01  0.1531512E+01  0.5945759E-02  0.2529575E-01 -0.1554148E-02 -0.7597272E-02
4943333. -0.2805278E-01  0.1509239E+01  0.5769876E-02  0.3600308E-01 -0.1513204E-02 -0.6720129E-02
4906852. -0.3659159E-01  0.1470546E+01  0.5535060E-02  0.4586364E-01 -0.1476997E-02 -0.5941494E-02
4870370. -0.4486406E-01  0.1416301E+01  0.5246433E-02  0.5477994E-01 -0.1444994E-02 -0.5249776E-02
4833889. -0.5278388E-01  0.1347653E+01  0.4909658E-02  0.6267264E-01 -0.1416716E-02 -0.4640351E-02
4797407. -0.6027254E-01  0.1265837E+01  0.4530746E-02  0.6948604E-01 -0.1391710E-02 -0.4103986E-02
4760926. -0.6725782E-01  0.1172142E+01  0.4116010E-02  0.7518386E-01 -0.1369612E-02 -0.3623195E-02
4724444. -0.7367633E-01  0.1068060E+01  0.3671882E-02  0.7974675E-01 -0.1350108E-02 -0.3196934E-02
4687963. -0.7947247E-01  0.9550656E+00  0.3204887E-02  0.8317659E-01 -0.1332927E-02 -0.2808691E-02
4651482. -0.8459967E-01  0.8346694E+00  0.2721456E-02  0.8549158E-01 -0.1317900E-02 -0.2443488E-02
4615000. -0.8902014E-01  0.7084383E+00  0.2227878E-02  0.8672222E-01 -0.1304903E-02 -0.2097568E-02
4578518. -0.9270471E-01  0.5778890E+00  0.1730246E-02  0.8691715E-01 -0.1293881E-02 -0.1750381E-02
4542037. -0.9563291E-01  0.4445345E+00  0.1234341E-02  0.8613357E-01 -0.1284881E-02 -0.1391228E-02
4505556. -0.9779298E-01  0.3098344E+00  0.7455710E-03  0.8443727E-01 -0.1277979E-02 -0.1014048E-02
4469074. -0.9918124E-01  0.1751670E+00  0.2689215E-03  0.8190915E-01 -0.1273360E-02 -0.5909334E-03
4432593. -0.9980162E-01  0.4185397E-01 -0.1910420E-03  0.7862704E-01 -0.1271300E-02 -0.1202645E-03
4396111. -0.9966543E-01 -0.8889633E-01 -0.6302678E-03  0.7467722E-01 -0.1272099E-02  0.4125542E-03
4359630. -0.9879064E-01 -0.2159471E+00 -0.1045181E-02  0.7015411E-01 -0.1276197E-02  0.1033756E-02
4323148. -0.9720126E-01 -0.3383176E+00 -0.1432760E-02  0.6514076E-01 -0.1284108E-02  0.1745812E-02
4286667. -0.9492681E-01 -0.4551000E+00 -0.1790438E-02  0.5972928E-01 -0.1296406E-02  0.2570551E-02
4250185. -0.9200148E-01 -0.5655186E+00 -0.2116211E-02  0.5400784E-01 -0.1313805E-02  0.3529008E-02
4213704. -0.8846371E-01 -0.6689405E+00 -0.2408511E-02  0.4805417E-01 -0.1337095E-02  0.4631980E-02
4177222. -0.8435503E-01 -0.7648043E+00 -0.2666261E-02  0.4195097E-01 -0.1367185E-02  0.5908643E-02
4140741. -0.7972020E-01 -0.8526986E+00 -0.2888799E-02  0.3576793E-01 -0.1405135E-02  0.7379736E-02
4104259. -0.7460544E-01 -0.9323379E+00 -0.3075849E-02  0.2956476E-01 -0.1452105E-02  0.9064421E-02
4067778. -0.6905914E-01 -0.1003445E+01 -0.3227474E-02  0.2340555E-01 -0.1509438E-02  0.1100583E-01
4031296. -0.6313011E-01 -0.1065960E+01 -0.3344057E-02  0.1732986E-01 -0.1578679E-02  0.1322659E-01
3994815. -0.5686799E-01 -0.1119834E+01 -0.3426170E-02  0.1137342E-01 -0.1661519E-02  0.1576510E-01
3958333. -0.5032207E-01 -0.1165033E+01 -0.3474600E-02  0.5567571E-02 -0.1759937E-02  0.1867435E-01
3921852. -0.4354201E-01 -0.1201697E+01 -0.3490234E-02 -0.8048314E-04 -0.1876170E-02  0.2199648E-01
3885370. -0.3657609E-01 -0.1229891E+01 -0.3473986E-02 -0.5568319E-02 -0.2012759E-02  0.2579503E-01
3848889. -0.2947299E-01 -0.1249703E+01 -0.3426753E-02 -0.1090661E-01 -0.2172628E-02  0.3014068E-01
3812407. -0.2227986E-01 -0.1261280E+01 -0.3349303E-02 -0.1612801E-01 -0.2359133E-02  0.3511141E-01
3775926. -0.1504426E-01 -0.1264598E+01 -0.3242200E-02 -0.2127273E-01 -0.2576118E-02  0.4080594E-01
3739444. -0.7813117E-02 -0.1259652E+01 -0.3105707E-02 -0.2640448E-01 -0.2828052E-02  0.4733585E-01
3702963. -0.6343676E-03 -0.1246320E+01 -0.2939672E-02 -0.3160788E-01 -0.3120068E-02  0.5483238E-01
3666482.  0.6443071E-02 -0.1224195E+01 -0.2743399E-02 -0.3698536E-01 -0.3458147E-02  0.6345288E-01
3630000.  0.1336781E-01 -0.1192814E+01 -0.2515516E-02 -0.4267125E-01 -0.3849253E-02  0.7338317E-01
3630000.  0.1336781E-01 -0.1192814E+01 -0.2515516E-02 -0.4267125E-01 -0.3849253E-02  0.7338317E-01
3592500.  0.2026814E-01 -0.1149968E+01 -0.2245995E-02 -0.4900799E-01 -0.4315065E-02  0.8518448E-01
3555000.  0.2688164E-01 -0.1095098E+01 -0.1937192E-02 -0.5605922E-01 -0.4855771E-02  0.9888271E-01
3517500.  0.3313263E-01 -0.1026434E+01 -0.1584138E-02 -0.6409292E-01 -0.5483511E-02  0.1148194E+00
3480000.  0.3893279E-01 -0.9414245E+00 -0.1180120E-02 -0.7343660E-01 -0.6212609E-02  0.1333962E+00
3480000.  0.3893279E-01  0.4049498E+00  0.4357282E-02  0.6322378E-01 -0.6212609E-02  0.8539307E-02
3409422.  0.3439034E-01  0.4117202E+00  0.3689077E-02  0.5732649E-01 -0.6096087E-02 -0.2678062E-01
3338844.  0.2987592E-01  0.4008040E+00  0.3088392E-02  0.5109143E-01 -0.5672500E-02 -0.4764898E-01
3268266.  0.2555646E-01  0.3773149E+00  0.2557207E-02  0.4482325E-01 -0.5078729E-02 -0.5810220E-01
3197688.  0.2154633E-01  0.3456200E+00  0.2094552E-02  0.3875203E-01 -0.4411824E-02 -0.6131747E-01
3127109.  0.1791579E-01  0.3093102E+00  0.1697266E-02  0.3304312E-01 -0.3737778E-02 -0.5974380E-01
3056531.  0.1469970E-01  0.2712153E+00  0.1360695E-02  0.2780575E-01 -0.3098945E-02 -0.5522478E-01
2985953.  0.1190539E-01  0.2334658E+00  0.1079227E-02  0.2310190E-01 -0.2520061E-02 -0.4911004E-01
2915375.  0.9520082E-02  0.1975809E+00  0.8467843E-03  0.1895623E-01 -0.2013193E-02 -0.4235386E-01
2844797.  0.7517153E-02  0.1645607E+00  0.6571822E-03  0.1536502E-01 -0.1581625E-02 -0.3560136E-01
2774219.  0.5861313E-02  0.1349849E+00  0.5043984E-03  0.1230363E-01 -0.1222863E-02 -0.2926157E-01
2703641.  0.4512752E-02  0.1091038E+00  0.3827691E-03  0.9733108E-02 -0.9309034E-03 -0.2356807E-01
2633062.  0.3430314E-02  0.8692114E-01  0.2871125E-03  0.7605956E-02 -0.6978916E-03 -0.1862828E-01
2562484.  0.2573863E-02  0.6826780E-01  0.2128032E-03  0.5870574E-02 -0.5153042E-03 -0.1446313E-01
2491906.  0.1905781E-02  0.5285941E-01  0.1557918E-03  0.4474353E-02 -0.3747133E-03 -0.1103698E-01
2421328.  0.1392013E-02  0.4034665E-01  0.1126051E-03  0.3366451E-02 -0.2682924E-03 -0.8280858E-02
2350750.  0.1002561E-02  0.3035192E-01  0.8031547E-04  0.2499481E-02 -0.1890839E-03 -0.6109133E-02
2280172.  0.7116352E-03  0.2249722E-01  0.5649609E-04  0.1830500E-02 -0.1311151E-03 -0.4431247E-02
2209594.  0.4975405E-03  0.1642337E-01  0.3916834E-04  0.1321615E-02 -0.8940665E-04 -0.3159408E-02
2139016.  0.3423986E-03  0.1180237E-01  0.2674450E-04  0.9401413E-03 -0.5991352E-04 -0.2213325E-02
2068438.  0.2317579E-03  0.8344241E-02  0.1797062E-04  0.6584655E-03 -0.3942630E-04 -0.1522676E-02
1997859.  0.1541540E-03  0.5799661E-02  0.1187193E-04  0.4537107E-03 -0.2545456E-04 -0.1027998E-02
1927281.  0.1006623E-03  0.3959663E-02  0.7703175E-05  0.3072852E-03 -0.1610740E-04 -0.6805214E-03
1856703.  0.6445840E-04  0.2652987E-02  0.4903516E-05  0.2043488E-03 -0.9978269E-05 -0.4412890E-03
1786125.  0.4042353E-04  0.1742441E-02  0.3058281E-05  0.1332776E-03 -0.6043330E-05 -0.2799832E-03
1715547.  0.2479031E-04  0.1120471E-02  0.1866225E-05  0.8513248E-04 -0.3572978E-05 -0.1735724E-03
1644969.  0.1483993E-04  0.7045710E-03  0.1112553E-05  0.5316690E-04 -0.2058605E-05 -0.1049743E-03
1574391.  0.8649399E-05  0.4328644E-03  0.6471342E-06  0.3238312E-04 -0.1153652E-05 -0.6182056E-04
1503812.  0.4885495E-05  0.2601270E-03  0.3673396E-06  0.1914226E-04 -0.6275480E-06 -0.3537160E-04
1433234.  0.2639563E-05  0.1544783E-03  0.2049260E-06  0.1082309E-04 -0.3307340E-06 -0.1960822E-04
1362656.  0.1293294E-05  0.9509510E-04  0.1165144E-06  0.5502461E-05 -0.1687234E-06 -0.1049502E-04
1292078.  0.4005562E-06  0.7194824E-04  0.7778178E-07  0.1591994E-05 -0.8343065E-07 -0.5416442E-05
1221500. -0.4510864E-06  0.9052159E-04  0.8277032E-07 -0.2783838E-05 -0.3979689E-07 -0.2780164E-05
1221500. -0.4510864E-06  0.2228757E-05  0.2885229E-08  0.2367788E-05 -0.3979689E-07 -0.2584751E-05
1183328. -0.4333418E-06 -0.7057737E-05 -0.7094988E-08  0.1071518E-05 -0.2674048E-07 -0.1812813E-05
1145156. -0.3769715E-06 -0.1107885E-04 -0.1102113E-07  0.3113817E-06 -0.1765811E-07 -0.1249337E-05
1106984. -0.3068710E-06 -0.1192912E-04 -0.1152790E-07 -0.9565141E-07 -0.1145109E-07 -0.8456328E-06
1068812. -0.2374619E-06 -0.1104096E-04 -0.1031573E-07 -0.2805578E-06 -0.7286017E-08 -0.5617802E-06
1030641. -0.1761435E-06 -0.9351483E-05 -0.8426094E-08 -0.3341576E-06 -0.4543892E-08 -0.3659966E-06
 992469. -0.1258333E-06 -0.7438283E-05 -0.6451136E-08 -0.3170674E-06 -0.2774136E-08 -0.2335967E-06
 954297. -0.8679344E-07 -0.5627577E-05 -0.4689714E-08 -0.2678356E-06 -0.1655752E-08 -0.1458876E-06
 916125. -0.5787000E-07 -0.4077288E-05 -0.3259181E-08 -0.2094368E-06 -0.9645915E-09 -0.8902878E-07
 877953. -0.3730718E-07 -0.2839146E-05 -0.2172997E-08 -0.1543009E-06 -0.5474996E-09 -0.5300239E-07
 839781. -0.2324237E-07 -0.1903270E-05 -0.1392130E-08 -0.1080524E-06 -0.3021433E-09 -0.3072531E-07
 801609. -0.1397723E-07 -0.1228796E-05 -0.8571834E-09 -0.7224074E-07 -0.1617301E-09 -0.1730565E-07
 763438. -0.8099735E-08 -0.7636140E-06 -0.5068844E-09 -0.4619758E-07 -0.8373827E-10 -0.9446644E-08
 725266. -0.4512458E-08 -0.4560997E-06 -0.2873845E-09 -0.2826306E-07 -0.4180272E-10 -0.4982746E-08
 687094. -0.2409783E-08 -0.2612712E-06 -0.1558394E-09 -0.1652338E-07 -0.2004529E-10 -0.2530913E-08
 648922. -0.1229095E-08 -0.1431124E-06 -0.8056085E-10 -0.9210788E-08 -0.9192439E-11 -0.1232909E-08
 610750. -0.5960878E-09 -0.7466902E-07 -0.3953408E-10 -0.4879622E-08 -0.4010379E-11 -0.5732442E-09
 572578. -0.2734302E-09 -0.3692754E-07 -0.1831985E-10 -0.2445682E-08 -0.1654043E-11 -0.2529045E-09
 534406. -0.1178907E-09 -0.1721221E-07 -0.7968017E-11 -0.1151354E-08 -0.6404524E-12 -0.1049702E-09
 496234.  0.0000000E+00  0.0000000E+00  0.0000000E+00  0.0000000E+00  0.0000000E+00  0.0000000E+00
 458062.  0.0000000E+00  0.0000000E+00  0.0000000E+00  0.0000000E+00  0.0000000E+00  0.0000000E+00
 419891.  0.0000000E+00  0.0000000E+00  0.0000000E+00  0.0000000E+00  0.0000000E+00  0.0000000E+00
 381719.  0.0000000E+00  0.0000000E+00  0.0000000E+00  0.0000000E+00  0.0000000E+00  0.0000000E+00
 343547.  0.0000000E+00  0.0000000E+00  0.0000000E+00  0.0000000E+00  0.0000000E+00  0.0000000E+00
 305375.  0.0000000E+00  0.0000000E+00  0.0000000E+00  0.0000000E+00  0.0000000E+00  0.0000000E+00
 267203.  0.0000000E+00  0.0000000E+00  0.0000000E+00  0.0000000E+00  0.0000000E+00  0.0000000E+00
 229031.  0.0000000E+00  0.0000000E+00  0.0000000E+00  0.0000000E+00  0.0000000E+00  0.0000000E+00
 190859.  0.0000000E+00  0.0000000E+00  0.0000000E+00  0.0000000E+00  0.0000000E+00  0.0000000E+00
 152688.  0.0000000E+00  0.0000000E+00  0.0000000E+00  0.0000000E+00  0.0000000E+00  0.0000000E+00
 114516.  0.0000000E+00  0.0000000E+00  0.0000000E+00  0.0000000E+00  0.0000000E+00  0.0000000E+00
  76344.  0.0000000E+00  0.0000000E+00  0.0000000E+00  0.0000000E+00  0.0000000E+00  0.0000000E+00
  38172.  0.0000000E+00  0.0000000E+00  0.0000000E+00  0.0000000E+00  0.0000000E+00  0.0000000E+00
      0.  0.0000000E+00  0.0000000E+00  0.0000000E+00  0.0000000E+00  0.0000000E+00  0.0000000E+00
