       3       22 S      242        202.15100          8.80094          6.50786        204.10980      185    7
6371000. -0.3454798E-01 -0.1509110E+01 -0.7721153E-02  0.2682683E-01  0.5279757E-02 -0.5628499E-01
6370000. -0.3431056E-01 -0.1516129E+01 -0.7725114E-02  0.2363694E-01  0.5288572E-02 -0.5603368E-01
6369000. -0.3407205E-01 -0.1522935E+01 -0.7728573E-02  0.2044285E-01  0.5297347E-02 -0.5578429E-01
6368000. -0.3383248E-01 -0.1529527E+01 -0.7731531E-02  0.1724480E-01  0.5306084E-02 -0.5553683E-01
6368000. -0.3383248E-01 -0.1529527E+01 -0.7731531E-02  0.1724480E-01  0.5306084E-02 -0.5553683E-01
6367000. -0.3359190E-01 -0.1535906E+01 -0.7733987E-02  0.1404303E-01  0.5314781E-02 -0.5529132E-01
6366000. -0.3335034E-01 -0.1542071E+01 -0.7735939E-02  0.1083780E-01  0.5323441E-02 -0.5504776E-01
6365000. -0.3310782E-01 -0.1548022E+01 -0.7737389E-02  0.7629356E-02  0.5332062E-02 -0.5480617E-01
6364000. -0.3286439E-01 -0.1553758E+01 -0.7738334E-02  0.4417943E-02  0.5340646E-02 -0.5456654E-01
6363000. -0.3262008E-01 -0.1559278E+01 -0.7738776E-02  0.1203811E-02  0.5349192E-02 -0.5432890E-01
6362000. -0.3237491E-01 -0.1564583E+01 -0.7738712E-02 -0.2012790E-02  0.5357701E-02 -0.5409325E-01
6361000. -0.3212893E-01 -0.1569672E+01 -0.7738143E-02 -0.5231612E-02  0.5366173E-02 -0.5385959E-01
6360000. -0.3188217E-01 -0.1574545E+01 -0.7737069E-02 -0.8452404E-02  0.5374609E-02 -0.5362795E-01
6359000. -0.3163465E-01 -0.1579201E+01 -0.7735490E-02 -0.1167492E-01  0.5383009E-02 -0.5339833E-01
6358000. -0.3138643E-01 -0.1583640E+01 -0.7733404E-02 -0.1489890E-01  0.5391372E-02 -0.5317073E-01
6357000. -0.3113753E-01 -0.1587861E+01 -0.7730813E-02 -0.1812411E-01  0.5399700E-02 -0.5294517E-01
6356000. -0.3088798E-01 -0.1591865E+01 -0.7727715E-02 -0.2135029E-01  0.5407993E-02 -0.5272166E-01
6356000. -0.3088798E-01 -0.1376659E+01 -0.7727715E-02 -0.3684446E-02  0.5407993E-02 -0.4600079E-01
6355000. -0.3067162E-01 -0.1380136E+01 -0.7727002E-02 -0.5406525E-02  0.5415184E-02 -0.4562853E-01
6354000. -0.3045473E-01 -0.1383500E+01 -0.7726017E-02 -0.7129529E-02  0.5422316E-02 -0.4525778E-01
6353000. -0.3023732E-01 -0.1386748E+01 -0.7724763E-02 -0.8853380E-02  0.5429391E-02 -0.4488855E-01
6352000. -0.3001940E-01 -0.1389882E+01 -0.7723238E-02 -0.1057799E-01  0.5436408E-02 -0.4452086E-01
6351000. -0.2980101E-01 -0.1392900E+01 -0.7721443E-02 -0.1230329E-01  0.5443368E-02 -0.4415469E-01
6350000. -0.2958215E-01 -0.1395804E+01 -0.7719376E-02 -0.1402919E-01  0.5450270E-02 -0.4379006E-01
6349000. -0.2936284E-01 -0.1398592E+01 -0.7717039E-02 -0.1575561E-01  0.5457114E-02 -0.4342696E-01
6348000. -0.2914310E-01 -0.1401266E+01 -0.7714430E-02 -0.1748248E-01  0.5463902E-02 -0.4306541E-01
6347000. -0.2892296E-01 -0.1403823E+01 -0.7711551E-02 -0.1920970E-01  0.5470634E-02 -0.4270540E-01
6346600. -0.2883479E-01 -0.1404814E+01 -0.7710322E-02 -0.1990067E-01  0.5473311E-02 -0.4256183E-01
6346600. -0.2883479E-01 -0.1590223E+01 -0.7710322E-02 -0.6546925E-02  0.5473311E-02 -0.3250756E-01
6318800. -0.2177223E-01 -0.1637857E+01 -0.7625408E-02 -0.3241147E-01  0.5590213E-02 -0.2122725E-01
6291000. -0.1462156E-01 -0.1630280E+01 -0.7427632E-02 -0.5816218E-01  0.5659846E-02 -0.1082987E-01
6291000. -0.1462156E-01 -0.1684802E+01 -0.7427632E-02 -0.6066423E-01  0.5659846E-02 -0.1082987E-01
6263000. -0.7350472E-02 -0.1613699E+01 -0.7100269E-02 -0.8808786E-01  0.5687249E-02 -0.1775560E-02
6235000. -0.5282002E-03 -0.1480822E+01 -0.6655881E-02 -0.1137886E+00  0.5676587E-02  0.6504773E-02
6207000.  0.5578878E-02 -0.1288829E+01 -0.6103729E-02 -0.1370059E+00  0.5631102E-02  0.1408296E-01
6179000.  0.1072040E-01 -0.1042346E+01 -0.5456286E-02 -0.1570427E+00  0.5553720E-02  0.2103303E-01
6151000.  0.1467058E-01 -0.7479135E+00 -0.4728912E-02 -0.1732866E+00  0.5447037E-02  0.2742918E-01
6151000.  0.1467058E-01 -0.8009625E+00 -0.4728912E-02 -0.1544760E+00  0.5447037E-02  0.2661753E-01
6128500.  0.1713054E-01 -0.5902168E+00 -0.4173194E-02 -0.1598442E+00  0.5345082E-02  0.3105251E-01
6106000.  0.1882707E-01 -0.3692817E+00 -0.3602638E-02 -0.1628817E+00  0.5228171E-02  0.3509146E-01
6083500.  0.1973132E-01 -0.1421930E+00 -0.3025423E-02 -0.1636244E+00  0.5097665E-02  0.3875398E-01
6061000.  0.1982864E-01  0.8705669E-01 -0.2449538E-02 -0.1621431E+00  0.4954862E-02  0.4205865E-01
6038500.  0.1911829E-01  0.3145784E+00 -0.1882662E-02 -0.1585424E+00  0.4800993E-02  0.4502415E-01
6016000.  0.1761303E-01  0.5366340E+00 -0.1332051E-02 -0.1529563E+00  0.4637223E-02  0.4766883E-01
5993500.  0.1533846E-01  0.7497005E+00 -0.8044440E-03 -0.1455432E+00  0.4464653E-02  0.5001055E-01
5971000.  0.1233214E-01  0.9505234E+00 -0.3059802E-03 -0.1364841E+00  0.4284320E-02  0.5206779E-01
5971000.  0.1233214E-01  0.8537359E+00 -0.3059802E-03 -0.1229337E+00  0.4284320E-02  0.5045341E-01
5937667.  0.7297702E-02  0.1063653E+01  0.2919874E-03 -0.1054631E+00  0.4015674E-02  0.5211320E-01
5904333.  0.1277356E-02  0.1230315E+01  0.7964030E-03 -0.8730258E-01  0.3740293E-02  0.5303226E-01
5871000. -0.5500424E-02  0.1353343E+01  0.1205631E-02 -0.6919251E-01  0.3461939E-02  0.5326239E-01
5837667. -0.1281027E-01  0.1434036E+01  0.1521552E-02 -0.5172064E-01  0.3184051E-02  0.5286471E-01
5804333. -0.2043720E-01  0.1474977E+01  0.1748736E-02 -0.3533140E-01  0.2909730E-02  0.5190792E-01
5771000. -0.2818158E-01  0.1479658E+01  0.1893706E-02 -0.2033819E-01  0.2641723E-02  0.5046730E-01
5771000. -0.2818158E-01  0.1479730E+01  0.1893706E-02 -0.2033644E-01  0.2641723E-02  0.5046730E-01
5701000. -0.4443942E-01  0.1457340E+01  0.1979625E-02  0.4142996E-02  0.2115439E-02  0.4524615E-01
5701000. -0.4443942E-01  0.1260231E+01  0.1979625E-02  0.1418465E-01  0.2115439E-02  0.5777202E-01
5667333. -0.5073132E-01  0.1133270E+01  0.1880639E-02  0.2216287E-01  0.1825976E-02  0.5176345E-01
5633667. -0.5652393E-01  0.1062407E+01  0.1754160E-02  0.2534670E-01  0.1567188E-02  0.4632331E-01
5600000. -0.6193453E-01  0.9832023E+00  0.1613026E-02  0.2802422E-01  0.1335551E-02  0.4140838E-01
5600000. -0.6193453E-01  0.9832023E+00  0.1613026E-02  0.2802422E-01  0.1335551E-02  0.4140838E-01
5563518. -0.6729944E-01  0.8894127E+00  0.1445867E-02  0.3024516E-01  0.1112515E-02  0.3657202E-01
5527037. -0.7210821E-01  0.7893190E+00  0.1267925E-02  0.3179746E-01  0.9158348E-03  0.3219717E-01
5490556. -0.7633023E-01  0.6847680E+00  0.1082920E-02  0.3272025E-01  0.7429828E-03  0.2824400E-01
5454074. -0.7994510E-01  0.5775098E+00  0.8943082E-03  0.3306272E-01  0.5916291E-03  0.2468036E-01
5417593. -0.8294209E-01  0.4692582E+00  0.7052981E-03  0.3286988E-01  0.4596759E-03  0.2146328E-01
5381111. -0.8532013E-01  0.3615422E+00  0.5187776E-03  0.3220174E-01  0.3452087E-03  0.1856833E-01
5344630. -0.8708626E-01  0.2557729E+00  0.3373076E-03  0.3111663E-01  0.2464594E-03  0.1596871E-01
5308148. -0.8825539E-01  0.1532044E+00  0.1631115E-03  0.2966997E-01  0.1618323E-03  0.1363175E-01
5271667. -0.8884899E-01  0.5493313E-01 -0.1924775E-05  0.2792927E-01  0.8985741E-04  0.1154754E-01
5235185. -0.8889444E-01 -0.3811937E-01 -0.1562828E-03  0.2594710E-01  0.2916177E-04  0.9686296E-02
5198704. -0.8842388E-01 -0.1251801E+00 -0.2987238E-03  0.2377888E-01 -0.2145803E-04  0.8027758E-02
5162222. -0.8747346E-01 -0.2056314E+00 -0.4283748E-03  0.2148713E-01 -0.6315688E-04  0.6567004E-02
5125741. -0.8608238E-01 -0.2790401E+00 -0.5446417E-03  0.1911221E-01 -0.9698411E-04  0.5274759E-02
5089259. -0.8429187E-01 -0.3450899E+00 -0.6471886E-03  0.1670248E-01 -0.1238676E-03  0.4140723E-02
5052778. -0.8214474E-01 -0.4035971E+00 -0.7359469E-03  0.1430306E-01 -0.1446911E-03  0.3155408E-02
5016296. -0.7968420E-01 -0.4545430E+00 -0.8110676E-03  0.1194393E-01 -0.1602472E-03  0.2298469E-02
4979815. -0.7695358E-01 -0.4979705E+00 -0.8728820E-03  0.9661757E-02 -0.1712483E-03  0.1563618E-02
4943333. -0.7399533E-01 -0.5340598E+00 -0.9219141E-03  0.7481989E-02 -0.1783658E-03  0.9390124E-03
4906852. -0.7085089E-01 -0.5630799E+00 -0.9587978E-03  0.5422865E-02 -0.1821809E-03  0.4092143E-03
4870370. -0.6755973E-01 -0.5853319E+00 -0.9842976E-03  0.3508509E-02 -0.1832341E-03 -0.2678829E-04
4833889. -0.6415964E-01 -0.6012392E+00 -0.9992708E-03  0.1747065E-02 -0.1820232E-03 -0.3843126E-03
4797407. -0.6068546E-01 -0.6112460E+00 -0.1004611E-02  0.1460362E-03 -0.1789638E-03 -0.6724359E-03
4760926. -0.5716993E-01 -0.6157984E+00 -0.1001278E-02 -0.1281431E-02 -0.1744590E-03 -0.8906272E-03
4724444. -0.5364252E-01 -0.6154528E+00 -0.9902538E-03 -0.2541349E-02 -0.1688650E-03 -0.1054741E-02
4687963. -0.5013001E-01 -0.6107138E+00 -0.9724984E-03 -0.3631814E-02 -0.1624790E-03 -0.1167201E-02
4651482. -0.4665597E-01 -0.6021056E+00 -0.9489857E-03 -0.4553467E-02 -0.1555916E-03 -0.1231351E-02
4615000. -0.4324085E-01 -0.5901906E+00 -0.9206516E-03 -0.5316789E-02 -0.1484491E-03 -0.1257075E-02
4578518. -0.3990223E-01 -0.5754701E+00 -0.8883926E-03 -0.5925058E-02 -0.1412690E-03 -0.1244518E-02
4542037. -0.3665478E-01 -0.5584697E+00 -0.8530745E-03 -0.6387791E-02 -0.1342617E-03 -0.1198074E-02
4505556. -0.3350995E-01 -0.5396991E+00 -0.8154908E-03 -0.6717743E-02 -0.1276008E-03 -0.1123526E-02
4469074. -0.3047656E-01 -0.5196009E+00 -0.7763860E-03 -0.6920254E-02 -0.1214560E-03 -0.1017811E-02
4432593. -0.2756097E-01 -0.4986562E+00 -0.7364521E-03 -0.7010231E-02 -0.1159933E-03 -0.8862159E-03
4396111. -0.2476664E-01 -0.4772818E+00 -0.6962952E-03 -0.6999065E-02 -0.1113547E-03 -0.7293414E-03
4359630. -0.2209512E-01 -0.4558539E+00 -0.6564758E-03 -0.6894744E-02 -0.1076961E-03 -0.5439774E-03
4323148. -0.1954543E-01 -0.4347666E+00 -0.6174828E-03 -0.6712266E-02 -0.1051748E-03 -0.3321061E-03
4286667. -0.1711480E-01 -0.4143450E+00 -0.5797356E-03 -0.6461407E-02 -0.1039495E-03 -0.9058729E-04
4250185. -0.1479840E-01 -0.3948945E+00 -0.5435964E-03 -0.6152363E-02 -0.1042018E-03  0.1844035E-03
4213704. -0.1258993E-01 -0.3767138E+00 -0.5093628E-03 -0.5797958E-02 -0.1061304E-03  0.4957537E-03
4177222. -0.1048131E-01 -0.3600400E+00 -0.4772661E-03 -0.5407277E-02 -0.1099622E-03  0.8503685E-03
4140741. -0.8463333E-02 -0.3451104E+00 -0.4474843E-03 -0.4991858E-02 -0.1159650E-03  0.1255167E-02
4104259. -0.6525290E-02 -0.3321308E+00 -0.4201215E-03 -0.4563927E-02 -0.1244479E-03  0.1718350E-02
4067778. -0.4655679E-02 -0.3212528E+00 -0.3952208E-03 -0.4134227E-02 -0.1357795E-03  0.2252274E-02
4031296. -0.2841912E-02 -0.3126309E+00 -0.3727505E-03 -0.3717445E-02 -0.1504008E-03  0.2869570E-02
3994815. -0.1070854E-02 -0.3063616E+00 -0.3525923E-03 -0.3329692E-02 -0.1688326E-03  0.3586388E-02
3958333.  0.6711690E-03 -0.3024766E+00 -0.3345271E-03 -0.2989797E-02 -0.1917011E-03  0.4422493E-02
3921852.  0.2397747E-02 -0.3009755E+00 -0.3182145E-03 -0.2722303E-02 -0.2197522E-03  0.5400989E-02
3885370.  0.4122354E-02 -0.3017422E+00 -0.3031535E-03 -0.2558405E-02 -0.2538792E-03  0.6549309E-02
3848889.  0.5857260E-02 -0.3045394E+00 -0.2886403E-03 -0.2538797E-02 -0.2951428E-03  0.7899918E-02
3812407.  0.7613172E-02 -0.3089775E+00 -0.2737026E-03 -0.2716885E-02 -0.3448125E-03  0.9491784E-02
3775926.  0.9397633E-02 -0.3143929E+00 -0.2570116E-03 -0.3165138E-02 -0.4043897E-03  0.1136881E-01
3739444.  0.1121371E-01 -0.3198065E+00 -0.2367583E-03 -0.3979230E-02 -0.4756576E-03  0.1358403E-01
3702963.  0.1305742E-01 -0.3237665E+00 -0.2104996E-03 -0.5287956E-02 -0.5607205E-03  0.1619832E-01
3666482.  0.1491468E-01 -0.3241173E+00 -0.1749232E-03 -0.7267195E-02 -0.6620521E-03  0.1927853E-01
3630000.  0.1675669E-01 -0.3178198E+00 -0.1255530E-03 -0.1015052E-01 -0.7825479E-03  0.2290478E-01
3630000.  0.1675669E-01 -0.3178198E+00 -0.1255530E-03 -0.1015052E-01 -0.7825479E-03  0.2290478E-01
3592500.  0.1858149E-01 -0.2997929E+00 -0.5405643E-04 -0.1439328E-01 -0.9299202E-03  0.2728943E-01
3555000.  0.2024991E-01 -0.2633538E+00  0.4733208E-04 -0.2039807E-01 -0.1105304E-02  0.3244022E-01
3517500.  0.2162708E-01 -0.1989369E+00  0.1907687E-03 -0.2880495E-01 -0.1313523E-02  0.3846380E-01
3480000.  0.2251058E-01 -0.9293517E-01  0.3928415E-03 -0.4049198E-01 -0.1560009E-02  0.4545810E-01
3480000.  0.2251058E-01  0.6777143E+00  0.1235621E-02  0.3892826E-01 -0.1560009E-02 -0.2673298E-01
3409422.  0.1601075E-01  0.5028075E+00  0.8659927E-03  0.2829027E-01 -0.1253017E-02 -0.2774660E-01
3338844.  0.1122602E-01  0.3669789E+00  0.5991521E-03  0.2027324E-01 -0.9595489E-03 -0.2482969E-01
3268266.  0.7760089E-02  0.2636247E+00  0.4091787E-03  0.1432789E-01 -0.7081514E-03 -0.2045050E-01
3197688.  0.5288526E-02  0.1864593E+00  0.2757891E-03  0.9986846E-02 -0.5068777E-03 -0.1593222E-01
3127109.  0.3552981E-02  0.1298735E+00  0.1834161E-03  0.6865008E-02 -0.3532936E-03 -0.1190508E-01
3056531.  0.2352771E-02  0.8909115E-01  0.1203333E-03  0.4653447E-02 -0.2404128E-03 -0.8600510E-02
2985953.  0.1535308E-02  0.6018835E-01  0.7785441E-04  0.3109888E-02 -0.1599953E-03 -0.6036163E-02
2915375.  0.9869934E-03  0.4004071E-01  0.4965570E-04  0.2048511E-02 -0.1042468E-03 -0.4128424E-02
2844797.  0.6248568E-03  0.2622477E-01  0.3120750E-04  0.1329583E-02 -0.6654491E-04 -0.2757150E-02
2774219.  0.3894125E-03  0.1690498E-01  0.1931715E-04  0.8499795E-03 -0.4163092E-04 -0.1800289E-02
2703641.  0.2387747E-03  0.1072132E-01  0.1177023E-04  0.5349552E-03 -0.2552753E-04 -0.1150171E-02
2633062.  0.1439687E-03  0.6686694E-02  0.7055342E-05  0.3312925E-03 -0.1534063E-04 -0.7192632E-03
2562484.  0.8530566E-04  0.4098993E-02  0.4157711E-05  0.2017619E-03 -0.9032406E-05 -0.4403201E-03
2491906.  0.4963676E-04  0.2468151E-02  0.2406933E-05  0.1207544E-03 -0.5208287E-05 -0.2638425E-03
2421328.  0.2833979E-04  0.1458771E-02  0.1367684E-05  0.7096990E-04 -0.2939429E-05 -0.1546928E-03
2350750.  0.1586241E-04  0.8456163E-03  0.7621152E-06  0.4092491E-04 -0.1622526E-05 -0.8869925E-04
2280172.  0.8695386E-05  0.4803266E-03  0.4160306E-06  0.2313313E-04 -0.8751943E-06 -0.4970469E-04
2209594.  0.4663107E-05  0.2670761E-03  0.2222340E-06  0.1280439E-04 -0.4608517E-06 -0.2719775E-04
2139016.  0.2443400E-05  0.1452023E-03  0.1160202E-06  0.6931929E-05 -0.2366223E-06 -0.1451730E-04
2068438.  0.1249259E-05  0.7709006E-04  0.5911445E-07  0.3665699E-05 -0.1183071E-06 -0.7549870E-05
1997859.  0.6222753E-06  0.3991038E-04  0.2935062E-07  0.1890751E-05 -0.5751322E-07 -0.3820272E-05
1927281.  0.3014771E-06  0.2011638E-04  0.1417648E-07  0.9497115E-06 -0.2713904E-07 -0.1877917E-05
1856703.  0.1417873E-06  0.9853890E-05  0.6648305E-08  0.4637026E-06 -0.1240652E-07 -0.8951657E-06
1786125.  0.6459567E-07  0.4681487E-05  0.3020735E-08  0.2196322E-06 -0.5482613E-08 -0.4129431E-06
1715547.  0.2843865E-07  0.2152238E-05  0.1326553E-08  0.1006855E-06 -0.2336338E-08 -0.1839203E-06
1644969.  0.1206628E-07  0.9550176E-06  0.5615197E-09  0.4455842E-07 -0.9573657E-09 -0.7888114E-07
1574391.  0.4918728E-08  0.4078331E-06  0.2283995E-09  0.1898037E-07 -0.3760359E-09 -0.3247954E-07
1503812.  0.1919442E-08  0.1670684E-06  0.8896470E-10  0.7755126E-08 -0.1410597E-09 -0.1279466E-07
1433234.  0.7136047E-09  0.6546162E-07  0.3307649E-10  0.3025183E-08 -0.5032866E-10 -0.4802802E-08
1362656.  0.2496436E-09  0.2463866E-07  0.1176925E-10  0.1112215E-08 -0.1700262E-10 -0.1709646E-08
1292078.  0.7463095E-10  0.9685916E-08  0.4298612E-11  0.3468198E-09 -0.5419668E-11 -0.5736847E-09
1221500. -0.9641107E-11  0.7286168E-08  0.2798250E-11 -0.6485987E-10 -0.1625309E-11 -0.1829030E-09
1221500. -0.9641107E-11 -0.1379382E-10  0.3492168E-13  0.5046744E-10 -0.1625309E-11 -0.1787265E-09
1183328. -0.8235947E-11 -0.3693816E-09 -0.1296911E-12  0.1065721E-10 -0.8312774E-12 -0.9467053E-10
1145156. -0.5866964E-11 -0.3900928E-09 -0.1433229E-12 -0.3371315E-11 -0.4150010E-12 -0.4898853E-10
1106984. -0.3766968E-11 -0.3036770E-09 -0.1105685E-12 -0.6492312E-11 -0.2019290E-12 -0.2472806E-10
1068812. -0.2247722E-11 -0.2054081E-09 -0.7312854E-13 -0.5676234E-11 -0.9562641E-13 -0.1214995E-10
1030641.  0.0000000E+00  0.0000000E+00  0.0000000E+00  0.0000000E+00  0.0000000E+00  0.0000000E+00
 992469.  0.0000000E+00  0.0000000E+00  0.0000000E+00  0.0000000E+00  0.0000000E+00  0.0000000E+00
 954297.  0.0000000E+00  0.0000000E+00  0.0000000E+00  0.0000000E+00  0.0000000E+00  0.0000000E+00
 916125.  0.0000000E+00  0.0000000E+00  0.0000000E+00  0.0000000E+00  0.0000000E+00  0.0000000E+00
 877953.  0.0000000E+00  0.0000000E+00  0.0000000E+00  0.0000000E+00  0.0000000E+00  0.0000000E+00
 839781.  0.0000000E+00  0.0000000E+00  0.0000000E+00  0.0000000E+00  0.0000000E+00  0.0000000E+00
 801609.  0.0000000E+00  0.0000000E+00  0.0000000E+00  0.0000000E+00  0.0000000E+00  0.0000000E+00
 763438.  0.0000000E+00  0.0000000E+00  0.0000000E+00  0.0000000E+00  0.0000000E+00  0.0000000E+00
 725266.  0.0000000E+00  0.0000000E+00  0.0000000E+00  0.0000000E+00  0.0000000E+00  0.0000000E+00
 687094.  0.0000000E+00  0.0000000E+00  0.0000000E+00  0.0000000E+00  0.0000000E+00  0.0000000E+00
 648922.  0.0000000E+00  0.0000000E+00  0.0000000E+00  0.0000000E+00  0.0000000E+00  0.0000000E+00
 610750.  0.0000000E+00  0.0000000E+00  0.0000000E+00  0.0000000E+00  0.0000000E+00  0.0000000E+00
 572578.  0.0000000E+00  0.0000000E+00  0.0000000E+00  0.0000000E+00  0.0000000E+00  0.0000000E+00
 534406.  0.0000000E+00  0.0000000E+00  0.0000000E+00  0.0000000E+00  0.0000000E+00  0.0000000E+00
 496234.  0.0000000E+00  0.0000000E+00  0.0000000E+00  0.0000000E+00  0.0000000E+00  0.0000000E+00
 458062.  0.0000000E+00  0.0000000E+00  0.0000000E+00  0.0000000E+00  0.0000000E+00  0.0000000E+00
 419891.  0.0000000E+00  0.0000000E+00  0.0000000E+00  0.0000000E+00  0.0000000E+00  0.0000000E+00
 381719.  0.0000000E+00  0.0000000E+00  0.0000000E+00  0.0000000E+00  0.0000000E+00  0.0000000E+00
 343547.  0.0000000E+00  0.0000000E+00  0.0000000E+00  0.0000000E+00  0.0000000E+00  0.0000000E+00
 305375.  0.0000000E+00  0.0000000E+00  0.0000000E+00  0.0000000E+00  0.0000000E+00  0.0000000E+00
 267203.  0.0000000E+00  0.0000000E+00  0.0000000E+00  0.0000000E+00  0.0000000E+00  0.0000000E+00
 229031.  0.0000000E+00  0.0000000E+00  0.0000000E+00  0.0000000E+00  0.0000000E+00  0.0000000E+00
 190859.  0.0000000E+00  0.0000000E+00  0.0000000E+00  0.0000000E+00  0.0000000E+00  0.0000000E+00
 152688.  0.0000000E+00  0.0000000E+00  0.0000000E+00  0.0000000E+00  0.0000000E+00  0.0000000E+00
 114516.  0.0000000E+00  0.0000000E+00  0.0000000E+00  0.0000000E+00  0.0000000E+00  0.0000000E+00
  76344.  0.0000000E+00  0.0000000E+00  0.0000000E+00  0.0000000E+00  0.0000000E+00  0.0000000E+00
  38172.  0.0000000E+00  0.0000000E+00  0.0000000E+00  0.0000000E+00  0.0000000E+00  0.0000000E+00
      0.  0.0000000E+00  0.0000000E+00  0.0000000E+00  0.0000000E+00  0.0000000E+00  0.0000000E+00
