       7       28 S      428        116.78620         12.02683          7.53041        255.76790      185    7
6371000.  0.6046131E-01  0.1530147E+00  0.6283995E-03 -0.5983291E-01 -0.7082039E-03 -0.9347796E-01
6370000.  0.6043445E-01  0.1892092E+00  0.6377185E-03 -0.5890493E-01 -0.6935309E-03 -0.9348370E-01
6369000.  0.6040191E-01  0.2253157E+00  0.6468897E-03 -0.5795088E-01 -0.6788576E-03 -0.9348285E-01
6368000.  0.6036372E-01  0.2613291E+00  0.6559092E-03 -0.5697097E-01 -0.6641849E-03 -0.9347539E-01
6368000.  0.6036372E-01  0.2613291E+00  0.6559092E-03 -0.5697097E-01 -0.6641849E-03 -0.9347539E-01
6367000.  0.6031988E-01  0.2972441E+00  0.6647728E-03 -0.5596544E-01 -0.6495139E-03 -0.9346133E-01
6366000.  0.6027041E-01  0.3330555E+00  0.6734767E-03 -0.5493454E-01 -0.6348456E-03 -0.9344066E-01
6365000.  0.6021533E-01  0.3687582E+00  0.6820167E-03 -0.5387853E-01 -0.6201811E-03 -0.9341338E-01
6364000.  0.6015466E-01  0.4043469E+00  0.6903890E-03 -0.5279766E-01 -0.6055214E-03 -0.9337947E-01
6363000.  0.6008841E-01  0.4398168E+00  0.6985898E-03 -0.5169220E-01 -0.5908675E-03 -0.9333894E-01
6362000.  0.6001659E-01  0.4751625E+00  0.7066151E-03 -0.5056243E-01 -0.5762206E-03 -0.9329178E-01
6361000.  0.5993925E-01  0.5103793E+00  0.7144612E-03 -0.4940864E-01 -0.5615815E-03 -0.9323799E-01
6360000.  0.5985638E-01  0.5454618E+00  0.7221244E-03 -0.4823110E-01 -0.5469514E-03 -0.9317757E-01
6359000.  0.5976802E-01  0.5804054E+00  0.7296008E-03 -0.4703012E-01 -0.5323313E-03 -0.9311052E-01
6358000.  0.5967419E-01  0.6152049E+00  0.7368870E-03 -0.4580601E-01 -0.5177223E-03 -0.9303682E-01
6357000.  0.5957490E-01  0.6498556E+00  0.7439792E-03 -0.4455907E-01 -0.5031253E-03 -0.9295648E-01
6356000.  0.5947019E-01  0.6843524E+00  0.7508739E-03 -0.4328962E-01 -0.4885415E-03 -0.9286951E-01
6356000.  0.5947019E-01  0.4895314E+00  0.7508739E-03 -0.4946095E-01 -0.4885415E-03 -0.1058095E+00
6355000.  0.5939134E-01  0.5151872E+00  0.7585755E-03 -0.4867062E-01 -0.4719358E-03 -0.1057790E+00
6354000.  0.5930847E-01  0.5407536E+00  0.7661519E-03 -0.4786555E-01 -0.4553353E-03 -0.1057441E+00
6353000.  0.5922159E-01  0.5662277E+00  0.7736008E-03 -0.4704587E-01 -0.4387406E-03 -0.1057051E+00
6352000.  0.5913072E-01  0.5916069E+00  0.7809199E-03 -0.4621171E-01 -0.4221523E-03 -0.1056619E+00
6351000.  0.5903587E-01  0.6168884E+00  0.7881069E-03 -0.4536321E-01 -0.4055712E-03 -0.1056144E+00
6350000.  0.5893707E-01  0.6420696E+00  0.7951597E-03 -0.4450051E-01 -0.3889978E-03 -0.1055627E+00
6349000.  0.5883432E-01  0.6671477E+00  0.8020759E-03 -0.4362374E-01 -0.3724329E-03 -0.1055068E+00
6348000.  0.5872764E-01  0.6921201E+00  0.8088534E-03 -0.4273305E-01 -0.3558771E-03 -0.1054466E+00
6347000.  0.5861706E-01  0.7169842E+00  0.8154901E-03 -0.4182859E-01 -0.3393311E-03 -0.1053823E+00
6346600.  0.5857173E-01  0.7268988E+00  0.8181048E-03 -0.4146298E-01 -0.3327155E-03 -0.1053553E+00
6346600.  0.5857173E-01  0.5510457E+00  0.8181048E-03 -0.4682727E-01 -0.3327155E-03 -0.1257784E+00
6318800.  0.5504922E-01  0.1052400E+01  0.9779321E-03 -0.2518998E-01  0.2142408E-03 -0.1246001E+00
6291000.  0.4950922E-01  0.1470244E+01  0.1028768E-02  0.2728356E-02  0.7518960E-03 -0.1215131E+00
6291000.  0.4950922E-01  0.1495515E+01  0.1028768E-02  0.4496811E-02  0.7518960E-03 -0.1215131E+00
6263000.  0.4221493E-01  0.1801948E+01  0.9369968E-03  0.3758928E-01  0.1274931E-02 -0.1161757E+00
6235000.  0.3387504E-01  0.1969194E+01  0.6981670E-03  0.7081313E-01  0.1770246E-02 -0.1089195E+00
6207000.  0.2511928E-01  0.1991399E+01  0.3196910E-03  0.1005444E+00  0.2229732E-02 -0.9990226E-01
6179000.  0.1657194E-01  0.1876898E+01 -0.1755243E-03  0.1234179E+00  0.2646107E-02 -0.8934178E-01
6151000.  0.8790610E-02  0.1647464E+01 -0.7510090E-03  0.1366824E+00  0.3013158E-02 -0.7750397E-01
6151000.  0.8790610E-02  0.1276877E+01 -0.7510090E-03  0.1189495E+00  0.3013158E-02 -0.7799032E-01
6128500.  0.4692405E-02  0.1039666E+01 -0.1175207E-02  0.1203415E+00  0.3275995E-02 -0.7080913E-01
6106000.  0.1467992E-02  0.7847822E+00 -0.1594401E-02  0.1161284E+00  0.3513013E-02 -0.6338301E-01
6083500. -0.8494190E-03  0.5287168E+00 -0.1989114E-02  0.1065410E+00  0.3723498E-02 -0.5579724E-01
6061000. -0.2283828E-02  0.2872339E+00 -0.2341202E-02  0.9209862E-01  0.3907034E-02 -0.4813595E-01
6038500. -0.2912389E-02  0.7453557E-01 -0.2634814E-02  0.7357101E-01  0.4063502E-02 -0.4048193E-01
6016000. -0.2858516E-02 -0.9749027E-01 -0.2857178E-02  0.5192545E-01  0.4193073E-02 -0.3291675E-01
5993500. -0.2282700E-02 -0.2198091E+00 -0.2999203E-02  0.2826574E-01  0.4296200E-02 -0.2552072E-01
5971000. -0.1371717E-02 -0.2866212E+00 -0.3055841E-02  0.3768130E-02  0.4373624E-02 -0.1837288E-01
5971000. -0.1371717E-02 -0.3436235E+00 -0.3055841E-02  0.3155045E-02  0.4373624E-02 -0.1819331E-01
5937667.  0.4972359E-03 -0.3522936E+00 -0.2990965E-02 -0.2711868E-01  0.4440175E-02 -0.7379300E-02
5904333.  0.2139329E-02 -0.2605050E+00 -0.2782558E-02 -0.5140883E-01  0.4452353E-02  0.2568697E-02
5871000.  0.3091858E-02 -0.9338354E-01 -0.2465783E-02 -0.6841075E-01  0.4415029E-02  0.1152429E-01
5837667.  0.3036370E-02  0.1198001E+00 -0.2080110E-02 -0.7775424E-01  0.4333671E-02  0.1938737E-01
5804333.  0.1809905E-02  0.3494129E+00 -0.1664839E-02 -0.7984128E-01  0.4214189E-02  0.2608615E-01
5771000. -0.6009873E-03  0.5684065E+00 -0.1255622E-02 -0.7564302E-01  0.4062808E-02  0.3157902E-01
5771000. -0.6009873E-03  0.5683622E+00 -0.1255622E-02 -0.7564057E-01  0.4062808E-02  0.3157902E-01
5701000. -0.9312348E-02  0.9853237E+00 -0.5112895E-03 -0.5687713E-01  0.3668039E-02  0.3951827E-01
5701000. -0.9312348E-02  0.7949713E+00 -0.5112895E-03 -0.4291433E-01  0.3668039E-02  0.4214309E-01
5667333. -0.1352999E-01  0.8039314E+00 -0.3268728E-03 -0.2783391E-01  0.3442888E-02  0.4280031E-01
5633667. -0.1783446E-01  0.8220368E+00 -0.2094698E-03 -0.1685647E-01  0.3217184E-02  0.4256222E-01
5600000. -0.2212452E-01  0.7928203E+00 -0.1491107E-03 -0.6014328E-02  0.2993794E-02  0.4190683E-01
5600000. -0.2212452E-01  0.7928203E+00 -0.1491107E-03 -0.6014328E-02  0.2993794E-02  0.4190683E-01
5563518. -0.2644921E-01  0.7089666E+00 -0.1464992E-03  0.4906193E-02  0.2756961E-02  0.4073965E-01
5527037. -0.3015007E-01  0.5760870E+00 -0.2024951E-03  0.1436349E-01  0.2527969E-02  0.3918465E-01
5490556. -0.3296831E-01  0.4022398E+00 -0.3072714E-03  0.2187649E-01  0.2308794E-02  0.3732431E-01
5454074. -0.3469809E-01  0.1977812E+00 -0.4486891E-03  0.2711876E-01  0.2100947E-02  0.3523826E-01
5417593. -0.3519788E-01 -0.2527539E-01 -0.6131799E-03  0.2992251E-01  0.1905533E-02  0.3299506E-01
5381111. -0.3439727E-01 -0.2542892E+00 -0.7866958E-03  0.3028065E-01  0.1723243E-02  0.3066360E-01
5344630. -0.3229862E-01 -0.4765928E+00 -0.9555505E-03  0.2832983E-01  0.1554415E-02  0.2830358E-01
5308148. -0.2897477E-01 -0.6803200E+00 -0.1107221E-02  0.2432956E-01  0.1399063E-02  0.2596363E-01
5271667. -0.2456315E-01 -0.8549556E+00 -0.1230953E-02  0.1863934E-01  0.1256938E-02  0.2369187E-01
5235185. -0.1925565E-01 -0.9919348E+00 -0.1318272E-02  0.1168542E-01  0.1127542E-02  0.2152081E-01
5198704. -0.1328744E-01 -0.1084919E+01 -0.1363254E-02  0.3932072E-02  0.1010230E-02  0.1947712E-01
5162222. -0.6922581E-02 -0.1129982E+01 -0.1362686E-02 -0.4145760E-02  0.9041980E-03  0.1758214E-01
5125741. -0.4407418E-03 -0.1125826E+01 -0.1316028E-02 -0.1209315E-01  0.8085683E-03  0.1584617E-01
5089259.  0.5878559E-02 -0.1073516E+01 -0.1225231E-02 -0.1949746E-01  0.7224082E-03  0.1427410E-01
5052778.  0.1176766E-01 -0.9763556E+00 -0.1094457E-02 -0.2600389E-01  0.6447841E-03  0.1286505E-01
5016296.  0.1698437E-01 -0.8396266E+00 -0.9296766E-03 -0.3133361E-01  0.5747708E-03  0.1161383E-01
4979815.  0.2132062E-01 -0.6701203E+00 -0.7382461E-03 -0.3528746E-01  0.5114971E-03  0.1050968E-01
4943333.  0.2461125E-01 -0.4757749E+00 -0.5284022E-03 -0.3775089E-01  0.4541533E-03  0.9540118E-02
4906852.  0.2673837E-01 -0.2652256E+00 -0.3088210E-03 -0.3869164E-01  0.4020070E-03  0.8692079E-02
4870370.  0.2763459E-01 -0.4731071E-01 -0.8812091E-04 -0.3815250E-01  0.3544131E-03  0.7946843E-02
4833889.  0.2728277E-01  0.1692763E+00  0.1254964E-03 -0.3624308E-01  0.3108255E-03  0.7291166E-02
4797407.  0.2571402E-01  0.3764295E+00  0.3246421E-03 -0.3312702E-01  0.2707693E-03  0.6710023E-02
4760926.  0.2300383E-01  0.5668533E+00  0.5029665E-03 -0.2900947E-01  0.2338728E-03  0.6185774E-02
4724444.  0.1926591E-01  0.7344450E+00  0.6553994E-03 -0.2412235E-01  0.1998358E-03  0.5709287E-02
4687963.  0.1464579E-01  0.8743216E+00  0.7782247E-03 -0.1871096E-01  0.1684209E-03  0.5268240E-02
4651482.  0.9312760E-02  0.9829907E+00  0.8691521E-03 -0.1302159E-01  0.1394547E-03  0.4852830E-02
4615000.  0.3451820E-02  0.1058429E+01  0.9272724E-03 -0.7289282E-02  0.1128067E-03  0.4457314E-02
4578518. -0.2743887E-02  0.1099904E+01  0.9529632E-03 -0.1728751E-02  0.8838037E-04  0.4076181E-02
4542037. -0.9080796E-02  0.1108014E+01  0.9477608E-03  0.3472121E-02  0.6610398E-04  0.3706173E-02
4505556. -0.1537260E-01  0.1084521E+01  0.9141837E-03  0.8159358E-02  0.4591964E-04  0.3345504E-02
4469074. -0.2144564E-01  0.1032060E+01  0.8555229E-03  0.1221602E-01  0.2776855E-04  0.2996007E-02
4432593. -0.2714341E-01  0.9541472E+00  0.7756472E-03  0.1555916E-01  0.1158973E-04  0.2656663E-02
4396111. -0.3233185E-01  0.8548079E+00  0.6787828E-03  0.1814474E-01 -0.2679556E-05  0.2329919E-02
4359630. -0.3690028E-01  0.7383928E+00  0.5693129E-03  0.1996346E-01 -0.1513049E-04  0.2022088E-02
4323148. -0.4076423E-01  0.6094735E+00  0.4515893E-03  0.2103180E-01 -0.2587001E-04  0.1732248E-02
4286667. -0.4386486E-01  0.4725490E+00  0.3297936E-03  0.2139673E-01 -0.3501499E-04  0.1466606E-02
4250185. -0.4616891E-01  0.3319196E+00  0.2077623E-03  0.2112495E-01 -0.4272364E-04  0.1230745E-02
4213704. -0.4766671E-01  0.1915916E+00  0.8893055E-04  0.2029494E-01 -0.4916643E-04  0.1025297E-02
4177222. -0.4837041E-01  0.5510088E-01 -0.2377853E-04  0.1900158E-01 -0.5454156E-04  0.8591982E-03
4140741. -0.4831091E-01 -0.7450960E-01 -0.1279800E-03  0.1734008E-01 -0.5908914E-04  0.7361771E-03
4104259. -0.4753497E-01 -0.1947681E+00 -0.2218400E-03  0.1540511E-01 -0.6305544E-04  0.6578568E-03
4067778. -0.4610193E-01 -0.3037606E+00 -0.3040751E-03  0.1329595E-01 -0.6673969E-04  0.6391432E-03
4031296. -0.4408022E-01 -0.4001912E+00 -0.3739336E-03  0.1109437E-01 -0.7048880E-04  0.6806689E-03
3994815. -0.4154435E-01 -0.4832732E+00 -0.4311024E-03  0.8877094E-02 -0.7466724E-04  0.7920172E-03
3958333. -0.3857170E-01 -0.5527169E+00 -0.4757030E-03  0.6713777E-02 -0.7972889E-04  0.9910909E-03
3921852. -0.3524017E-01 -0.6087159E+00 -0.5081835E-03  0.4651124E-02 -0.8619973E-04  0.1286606E-02
3885370. -0.3162523E-01 -0.6517783E+00 -0.5292369E-03  0.2727883E-02 -0.9469168E-04  0.1701460E-02
3848889. -0.2779903E-01 -0.6826977E+00 -0.5397373E-03  0.9672577E-03 -0.1059653E-03  0.2262721E-02
3812407. -0.2382803E-01 -0.7024825E+00 -0.5406285E-03 -0.6289290E-03 -0.1209423E-03  0.3001459E-02
3775926. -0.1977333E-01 -0.7121463E+00 -0.5328347E-03 -0.2069325E-02 -0.1407706E-03  0.3966219E-02
3739444. -0.1568970E-01 -0.7127113E+00 -0.5171685E-03 -0.3385687E-02 -0.1669065E-03  0.5215179E-02
3702963. -0.1162693E-01 -0.7050024E+00 -0.4941971E-03 -0.4631369E-02 -0.2011847E-03  0.6825667E-02
3666482. -0.7630919E-02 -0.6894304E+00 -0.4641261E-03 -0.5880482E-02 -0.2459670E-03  0.8903862E-02
3630000. -0.3746468E-02 -0.6659241E+00 -0.4266383E-03 -0.7242784E-02 -0.3043037E-03  0.1158530E-01
3630000. -0.3746468E-02 -0.6659241E+00 -0.4266383E-03 -0.7242784E-02 -0.3043037E-03  0.1158530E-01
3592500.  0.7969570E-04 -0.6324448E+00 -0.3792647E-03 -0.8916423E-02 -0.3825567E-03  0.1516176E-01
3555000.  0.3675621E-02 -0.5871569E+00 -0.3207057E-03 -0.1108643E-01 -0.4849247E-03  0.1982939E-01
3517500.  0.6960276E-02 -0.5257517E+00 -0.2471887E-03 -0.1405848E-01 -0.6188102E-03  0.2593805E-01
3480000.  0.9819322E-02 -0.4410512E+00 -0.1528141E-03 -0.1825646E-01 -0.7940041E-03  0.3395526E-01
3480000.  0.9819322E-02  0.2531163E+00  0.5589152E-03  0.1694368E-01 -0.7940041E-03  0.2464841E-02
3409422.  0.7262928E-02  0.2079191E+00  0.3946206E-03  0.1282974E-01 -0.7388290E-03 -0.1030323E-01
3338844.  0.5211310E-02  0.1629763E+00  0.2720340E-03  0.9422797E-02 -0.5994575E-03 -0.1381616E-01
3268266.  0.3634365E-02  0.1227346E+00  0.1832153E-03  0.6726751E-02 -0.4483279E-03 -0.1302822E-01
3197688.  0.2467018E-02  0.8920480E-01  0.1206137E-03  0.4674732E-02 -0.3165972E-03 -0.1062805E-01
3127109.  0.1631619E-02  0.6276914E-01  0.7763413E-04  0.3166023E-02 -0.2137414E-03 -0.7962424E-02
3056531.  0.1052158E-02  0.4285453E-01  0.4886491E-04  0.2091328E-02 -0.1389412E-03 -0.5619439E-02
2985953.  0.6618405E-03  0.2843190E-01  0.3007672E-04  0.1348041E-02 -0.8733782E-04 -0.3784665E-02
2915375.  0.4062016E-03  0.1834991E-01  0.1810099E-04  0.8481724E-03 -0.5323118E-04 -0.2450403E-02
2844797.  0.2432600E-03  0.1152868E-01  0.1064907E-04  0.5209703E-03 -0.3150962E-04 -0.1531925E-02
2774219.  0.1421326E-03  0.7053631E-02  0.6122209E-05  0.3123664E-03 -0.1813245E-04 -0.9272666E-03
2703641.  0.8100262E-04  0.4203357E-02  0.3437902E-05  0.1827867E-03 -0.1014886E-04 -0.5443189E-03
2633062.  0.4500996E-04  0.2439478E-02  0.1884597E-05  0.1043509E-03 -0.5525511E-05 -0.3101579E-03
2562484.  0.2437224E-04  0.1378506E-02  0.1007850E-05  0.5809171E-04 -0.2925863E-05 -0.1716249E-03
2491906.  0.1285176E-04  0.7581195E-03  0.5253829E-06  0.3151524E-04 -0.1506174E-05 -0.9222607E-04
2421328.  0.6594102E-05  0.4055284E-03  0.2667237E-06  0.1664878E-04 -0.7532816E-06 -0.4811454E-04
2350750.  0.3288959E-05  0.2108255E-03  0.1317343E-06  0.8556724E-05 -0.3657090E-06 -0.2435593E-04
2280172.  0.1592900E-05  0.1064227E-03  0.6322261E-07  0.4274035E-05 -0.1721709E-06 -0.1195341E-04
2209594.  0.7481593E-06  0.5210390E-04  0.2944435E-07  0.2072277E-05 -0.7850441E-07 -0.5681856E-05
2139016.  0.3402878E-06  0.2470962E-04  0.1328723E-07  0.9739492E-06 -0.3461906E-07 -0.2612493E-05
2068438.  0.1496353E-06  0.1133370E-04  0.5800119E-08  0.4430200E-06 -0.1474031E-07 -0.1160222E-05
1997859.  0.6349615E-07  0.5019243E-05  0.2444447E-08  0.1946856E-06 -0.6048462E-08 -0.4968136E-06
1927281.  0.2594714E-07  0.2142040E-05  0.9925487E-09  0.8249103E-07 -0.2386781E-08 -0.2047196E-06
1856703.  0.1018663E-07  0.8789659E-06  0.3873526E-09  0.3362438E-07 -0.9035475E-09 -0.8099261E-07
1786125.  0.3831892E-08  0.3459209E-06  0.1449017E-09  0.1315118E-07 -0.3272405E-09 -0.3068488E-07
1715547.  0.1376977E-08  0.1301960E-06  0.5180009E-10  0.4921278E-08 -0.1130334E-09 -0.1109971E-07
1644969.  0.4710668E-09  0.4671082E-07  0.1763516E-10  0.1756158E-08 -0.3710491E-10 -0.3820672E-08
1574391.  0.1528220E-09  0.1591542E-07  0.5695285E-11  0.5953767E-09 -0.1152885E-10 -0.1246615E-08
1503812.  0.4680488E-10  0.5127863E-08  0.1736934E-11  0.1909372E-09 -0.3374843E-11 -0.3838485E-09
1433234.  0.1346464E-10  0.1554675E-08  0.4976806E-12  0.5764227E-10 -0.9258245E-12 -0.1109770E-09
1362656.  0.3618213E-11  0.4408082E-09  0.1331233E-12  0.1629488E-10 -0.2364524E-12 -0.2996251E-10
1292078.  0.0000000E+00  0.0000000E+00  0.0000000E+00  0.0000000E+00  0.0000000E+00  0.0000000E+00
1221500.  0.0000000E+00  0.0000000E+00  0.0000000E+00  0.0000000E+00  0.0000000E+00  0.0000000E+00
1221500.  0.0000000E+00  0.0000000E+00  0.0000000E+00  0.0000000E+00  0.0000000E+00  0.0000000E+00
1183328.  0.0000000E+00  0.0000000E+00  0.0000000E+00  0.0000000E+00  0.0000000E+00  0.0000000E+00
1145156.  0.0000000E+00  0.0000000E+00  0.0000000E+00  0.0000000E+00  0.0000000E+00  0.0000000E+00
1106984.  0.0000000E+00  0.0000000E+00  0.0000000E+00  0.0000000E+00  0.0000000E+00  0.0000000E+00
1068812.  0.0000000E+00  0.0000000E+00  0.0000000E+00  0.0000000E+00  0.0000000E+00  0.0000000E+00
1030641.  0.0000000E+00  0.0000000E+00  0.0000000E+00  0.0000000E+00  0.0000000E+00  0.0000000E+00
 992469.  0.0000000E+00  0.0000000E+00  0.0000000E+00  0.0000000E+00  0.0000000E+00  0.0000000E+00
 954297.  0.0000000E+00  0.0000000E+00  0.0000000E+00  0.0000000E+00  0.0000000E+00  0.0000000E+00
 916125.  0.0000000E+00  0.0000000E+00  0.0000000E+00  0.0000000E+00  0.0000000E+00  0.0000000E+00
 877953.  0.0000000E+00  0.0000000E+00  0.0000000E+00  0.0000000E+00  0.0000000E+00  0.0000000E+00
 839781.  0.0000000E+00  0.0000000E+00  0.0000000E+00  0.0000000E+00  0.0000000E+00  0.0000000E+00
 801609.  0.0000000E+00  0.0000000E+00  0.0000000E+00  0.0000000E+00  0.0000000E+00  0.0000000E+00
 763438.  0.0000000E+00  0.0000000E+00  0.0000000E+00  0.0000000E+00  0.0000000E+00  0.0000000E+00
 725266.  0.0000000E+00  0.0000000E+00  0.0000000E+00  0.0000000E+00  0.0000000E+00  0.0000000E+00
 687094.  0.0000000E+00  0.0000000E+00  0.0000000E+00  0.0000000E+00  0.0000000E+00  0.0000000E+00
 648922.  0.0000000E+00  0.0000000E+00  0.0000000E+00  0.0000000E+00  0.0000000E+00  0.0000000E+00
 610750.  0.0000000E+00  0.0000000E+00  0.0000000E+00  0.0000000E+00  0.0000000E+00  0.0000000E+00
 572578.  0.0000000E+00  0.0000000E+00  0.0000000E+00  0.0000000E+00  0.0000000E+00  0.0000000E+00
 534406.  0.0000000E+00  0.0000000E+00  0.0000000E+00  0.0000000E+00  0.0000000E+00  0.0000000E+00
 496234.  0.0000000E+00  0.0000000E+00  0.0000000E+00  0.0000000E+00  0.0000000E+00  0.0000000E+00
 458062.  0.0000000E+00  0.0000000E+00  0.0000000E+00  0.0000000E+00  0.0000000E+00  0.0000000E+00
 419891.  0.0000000E+00  0.0000000E+00  0.0000000E+00  0.0000000E+00  0.0000000E+00  0.0000000E+00
 381719.  0.0000000E+00  0.0000000E+00  0.0000000E+00  0.0000000E+00  0.0000000E+00  0.0000000E+00
 343547.  0.0000000E+00  0.0000000E+00  0.0000000E+00  0.0000000E+00  0.0000000E+00  0.0000000E+00
 305375.  0.0000000E+00  0.0000000E+00  0.0000000E+00  0.0000000E+00  0.0000000E+00  0.0000000E+00
 267203.  0.0000000E+00  0.0000000E+00  0.0000000E+00  0.0000000E+00  0.0000000E+00  0.0000000E+00
 229031.  0.0000000E+00  0.0000000E+00  0.0000000E+00  0.0000000E+00  0.0000000E+00  0.0000000E+00
 190859.  0.0000000E+00  0.0000000E+00  0.0000000E+00  0.0000000E+00  0.0000000E+00  0.0000000E+00
 152688.  0.0000000E+00  0.0000000E+00  0.0000000E+00  0.0000000E+00  0.0000000E+00  0.0000000E+00
 114516.  0.0000000E+00  0.0000000E+00  0.0000000E+00  0.0000000E+00  0.0000000E+00  0.0000000E+00
  76344.  0.0000000E+00  0.0000000E+00  0.0000000E+00  0.0000000E+00  0.0000000E+00  0.0000000E+00
  38172.  0.0000000E+00  0.0000000E+00  0.0000000E+00  0.0000000E+00  0.0000000E+00  0.0000000E+00
      0.  0.0000000E+00  0.0000000E+00  0.0000000E+00  0.0000000E+00  0.0000000E+00  0.0000000E+00
