       6       24 S      384        134.23840         12.17152          6.99345        278.73029      185    7
6371000.  0.6654488E-01 -0.4661466E+00 -0.1754726E-02 -0.6829960E-01 -0.1086622E-03 -0.1227715E+00
6370000.  0.6661566E-01 -0.4358122E+00 -0.1743845E-02 -0.7033276E-01 -0.8940643E-04 -0.1225841E+00
6369000.  0.6668168E-01 -0.4053094E+00 -0.1732648E-02 -0.7234375E-01 -0.7018055E-04 -0.1223913E+00
6368000.  0.6674289E-01 -0.3746417E+00 -0.1721136E-02 -0.7433218E-01 -0.5098535E-04 -0.1221931E+00
6368000.  0.6674289E-01 -0.3746417E+00 -0.1721136E-02 -0.7433218E-01 -0.5098535E-04 -0.1221931E+00
6367000.  0.6679928E-01 -0.3438123E+00 -0.1709315E-02 -0.7629764E-01 -0.3182167E-04 -0.1219895E+00
6366000.  0.6685081E-01 -0.3128245E+00 -0.1697186E-02 -0.7823975E-01 -0.1269038E-04 -0.1217806E+00
6365000.  0.6689747E-01 -0.2816816E+00 -0.1684754E-02 -0.8015811E-01  0.6407708E-05 -0.1215663E+00
6364000.  0.6693923E-01 -0.2503871E+00 -0.1672024E-02 -0.8205236E-01  0.2547174E-04 -0.1213467E+00
6363000.  0.6697606E-01 -0.2189444E+00 -0.1658998E-02 -0.8392210E-01  0.4450088E-04 -0.1211217E+00
6362000.  0.6700795E-01 -0.1873569E+00 -0.1645680E-02 -0.8576695E-01  0.6349430E-04 -0.1208915E+00
6361000.  0.6703488E-01 -0.1556282E+00 -0.1632075E-02 -0.8758658E-01  0.8245115E-04 -0.1206559E+00
6360000.  0.6705680E-01 -0.1237618E+00 -0.1618186E-02 -0.8938059E-01  0.1013706E-03 -0.1204149E+00
6359000.  0.6707372E-01 -0.9176115E-01 -0.1604018E-02 -0.9114865E-01  0.1202518E-03 -0.1201687E+00
6358000.  0.6708560E-01 -0.5963000E-01 -0.1589574E-02 -0.9289040E-01  0.1390940E-03 -0.1199172E+00
6357000.  0.6709243E-01 -0.2737193E-01 -0.1574859E-02 -0.9460550E-01  0.1578963E-03 -0.1196604E+00
6356000.  0.6709418E-01  0.5009407E-02 -0.1559876E-02 -0.9629361E-01  0.1766578E-03 -0.1193984E+00
6356000.  0.6709418E-01 -0.9070870E-01 -0.1559876E-02 -0.8540139E-01  0.1766578E-03 -0.1339973E+00
6355000.  0.6710657E-01 -0.6702639E-01 -0.1546392E-02 -0.8641754E-01  0.1976693E-03 -0.1337304E+00
6354000.  0.6711522E-01 -0.4326969E-01 -0.1532749E-02 -0.8741762E-01  0.2186386E-03 -0.1334601E+00
6353000.  0.6712015E-01 -0.1944056E-01 -0.1518950E-02 -0.8840150E-01  0.2395652E-03 -0.1331866E+00
6352000.  0.6712133E-01  0.4458976E-02 -0.1504998E-02 -0.8936907E-01  0.2604487E-03 -0.1329098E+00
6351000.  0.6711874E-01  0.2842691E-01 -0.1490896E-02 -0.9032020E-01  0.2812885E-03 -0.1326298E+00
6350000.  0.6711239E-01  0.5246121E-01 -0.1476646E-02 -0.9125477E-01  0.3020840E-03 -0.1323465E+00
6349000.  0.6710228E-01  0.7655985E-01 -0.1462250E-02 -0.9217266E-01  0.3228348E-03 -0.1320599E+00
6348000.  0.6708836E-01  0.1007208E+00 -0.1447712E-02 -0.9307376E-01  0.3435404E-03 -0.1317701E+00
6347000.  0.6707065E-01  0.1249419E+00 -0.1433033E-02 -0.9395795E-01  0.3642002E-03 -0.1314771E+00
6346600.  0.6706250E-01  0.1346468E+00 -0.1427123E-02 -0.9430688E-01  0.3724513E-03 -0.1313590E+00
6346600.  0.6706250E-01 -0.1036361E+00 -0.1427123E-02 -0.8600546E-01  0.3724513E-03 -0.1547427E+00
6318800.  0.6637533E-01  0.4238018E+00 -0.1022952E-02 -0.9760542E-01  0.1030684E-02 -0.1467300E+00
6291000.  0.6334056E-01  0.9672406E+00 -0.5900743E-03 -0.9908569E-01  0.1651013E-02 -0.1373727E+00
6291000.  0.6334056E-01  0.9772711E+00 -0.5900743E-03 -0.1002932E+00  0.1651013E-02 -0.1373727E+00
6263000.  0.5784290E-01  0.1518876E+01 -0.1655648E-03 -0.9111684E-01  0.2231310E-02 -0.1264735E+00
6235000.  0.5006509E-01  0.2009253E+01  0.1960645E-03 -0.7189198E-01  0.2760735E-02 -0.1142387E+00
6207000.  0.4030455E-01  0.2416099E+01  0.4540746E-03 -0.4430968E-01  0.3233668E-02 -0.1007895E+00
6179000.  0.2899098E-01  0.2711935E+01  0.5768041E-03 -0.1078274E-01  0.3645125E-02 -0.8629570E-01
6151000.  0.1666011E-01  0.2876329E+01  0.5444444E-03  0.2574350E-01  0.3990980E-02 -0.7097603E-01
6151000.  0.1666011E-01  0.2342852E+01  0.5444444E-03  0.2058988E-01  0.3990980E-02 -0.7189776E-01
6128500.  0.8398403E-02  0.2324392E+01  0.4284411E-03  0.4493713E-01  0.4230489E-02 -0.6375428E-01
6106000.  0.3223093E-03  0.2238308E+01  0.2289019E-03  0.6770886E-01  0.4441445E-02 -0.5573919E-01
6083500. -0.7336942E-02  0.2089310E+01 -0.4668402E-04  0.8783608E-01  0.4624423E-02 -0.4792171E-01
6061000. -0.1436896E-01  0.1884445E+01 -0.3872998E-03  0.1043965E+00  0.4780236E-02 -0.4036566E-01
6038500. -0.2059194E-01  0.1632776E+01 -0.7789849E-03  0.1166506E+00  0.4909913E-02 -0.3312967E-01
6016000. -0.2585893E-01  0.1344925E+01 -0.1205527E-02  0.1240657E+00  0.5014680E-02 -0.2626764E-01
5993500. -0.3006263E-01  0.1032629E+01 -0.1649220E-02  0.1263303E+00  0.5095946E-02 -0.1982858E-01
5971000. -0.3313844E-01  0.7082573E+00 -0.2091659E-02  0.1233600E+00  0.5155286E-02 -0.1385839E-01
5971000. -0.3313844E-01  0.6002160E+00 -0.2091659E-02  0.1134192E+00  0.5155286E-02 -0.9520293E-02
5937667. -0.3506773E-01  0.1441230E+00 -0.2651088E-02  0.9920160E-01  0.5182908E-02 -0.1236182E-02
5904333. -0.3473993E-01 -0.2585883E+00 -0.3118745E-02  0.7869978E-01  0.5170229E-02  0.5897283E-02
5871000. -0.3248987E-01 -0.5880524E+00 -0.3467577E-02  0.5416070E-01  0.5123072E-02  0.1195701E-01
5837667. -0.2873518E-01 -0.8324062E+00 -0.3682282E-02  0.2778028E-01  0.5046848E-02  0.1702080E-01
5804333. -0.2393571E-01 -0.9872047E+00 -0.3758522E-02  0.1533747E-02  0.4946581E-02  0.2115744E-01
5771000. -0.1855768E-01 -0.1054430E+01 -0.3701459E-02 -0.2293358E-01  0.4826974E-02  0.2442238E-01
5771000. -0.1855768E-01 -0.1054556E+01 -0.3701459E-02 -0.2293230E-01  0.4826974E-02  0.2442238E-01
5701000. -0.7259966E-02 -0.9456619E+00 -0.3180742E-02 -0.7013596E-01  0.4538979E-02  0.2727409E-01
5701000. -0.7259966E-02 -0.8783796E+00 -0.3180742E-02 -0.5448206E-01  0.4538979E-02  0.2932041E-01
5667333. -0.2971712E-02 -0.7466711E+00 -0.2880591E-02 -0.5923706E-01  0.4375863E-02  0.3237009E-01
5633667.  0.6372388E-03 -0.6163349E+00 -0.2550649E-02 -0.6571905E-01  0.4197747E-02  0.3493301E-01
5600000.  0.3493089E-02 -0.4607679E+00 -0.2190578E-02 -0.7008192E-01  0.4007809E-02  0.3685379E-01
5600000.  0.3493089E-02 -0.4607679E+00 -0.2190578E-02 -0.7008192E-01  0.4007809E-02  0.3685379E-01
5563518.  0.5600945E-02 -0.2728934E+00 -0.1782018E-02 -0.7215910E-01  0.3792339E-02  0.3829918E-01
5527037.  0.6598424E-02 -0.7463934E-01 -0.1369351E-02 -0.7153492E-01  0.3570312E-02  0.3915804E-01
5490556.  0.6455037E-02  0.1239367E+00 -0.9676667E-03 -0.6835653E-01  0.3344879E-02  0.3949985E-01
5454074.  0.5196797E-02  0.3132139E+00 -0.5909122E-03 -0.6287473E-01  0.3118813E-02  0.3938683E-01
5417593.  0.2902340E-02  0.4845263E+00 -0.2513335E-03 -0.5543904E-01  0.2894563E-02  0.3887719E-01
5381111. -0.3033770E-03  0.6303251E+00  0.4103219E-04 -0.4645287E-01  0.2674234E-02  0.3802362E-01
5344630. -0.4255950E-02  0.7445573E+00  0.2785596E-03 -0.3636558E-01  0.2459666E-02  0.3687508E-01
5308148. -0.8761630E-02  0.8228773E+00  0.4562959E-03 -0.2564494E-01  0.2252403E-02  0.3547743E-01
5271667. -0.1360581E-01  0.8625295E+00  0.5719219E-03 -0.1474887E-01  0.2053756E-02  0.3387492E-01
5235185. -0.1856398E-01  0.8626456E+00  0.6257114E-03 -0.4116523E-02  0.1864771E-02  0.3210694E-01
5198704. -0.2341095E-01  0.8239848E+00  0.6203289E-03  0.5857097E-02  0.1686298E-02  0.3021213E-01
5162222. -0.2793053E-01  0.7487525E+00  0.5605371E-03  0.1483512E-01  0.1518938E-02  0.2822953E-01
5125741. -0.3192310E-01  0.6406695E+00  0.4528694E-03  0.2253952E-01  0.1363114E-02  0.2618932E-01
5089259. -0.3521389E-01  0.5044647E+00  0.3052269E-03  0.2876848E-01  0.1219055E-02  0.2412481E-01
5052778. -0.3765736E-01  0.3457482E+00  0.1264719E-03  0.3339209E-01  0.1086815E-02  0.2206670E-01
5016296. -0.3914237E-01  0.1707467E+00 -0.7401141E-04  0.3635203E-01  0.9662841E-03  0.2003800E-01
4979815. -0.3959415E-01 -0.1402998E-01 -0.2866874E-03  0.3765996E-01  0.8572254E-03  0.1806498E-01
4943333. -0.3897555E-01 -0.2020275E+00 -0.5022893E-03  0.3738863E-01  0.7592528E-03  0.1616751E-01
4906852. -0.3728652E-01 -0.3868855E+00 -0.7120986E-03  0.3566385E-01  0.6718978E-03  0.1436033E-01
4870370. -0.3456217E-01 -0.5626770E+00 -0.9082749E-03  0.3265651E-01  0.5945840E-03  0.1266188E-01
4833889. -0.3087013E-01 -0.7240903E+00 -0.1084031E-02  0.2856927E-01  0.5266671E-03  0.1107976E-01
4797407. -0.2630585E-01 -0.8665897E+00 -0.1233826E-02  0.2362630E-01  0.4674593E-03  0.9621082E-02
4760926. -0.2098906E-01 -0.9864376E+00 -0.1353430E-02  0.1806553E-01  0.4162294E-03  0.8294236E-02
4724444. -0.1505735E-01 -0.1080939E+01 -0.1439993E-02  0.1212371E-01  0.3722231E-03  0.7097338E-02
4687963. -0.8661808E-02 -0.1148274E+01 -0.1491990E-02  0.6030785E-02  0.3346986E-03  0.6030658E-02
4651482. -0.1960797E-02 -0.1187574E+01 -0.1509183E-02  0.1713369E-05  0.3029147E-03  0.5091439E-02
4615000.  0.4885224E-02 -0.1198940E+01 -0.1492500E-02 -0.5771331E-02  0.2761574E-03  0.4273659E-02
4578518.  0.1171817E-01 -0.1183212E+01 -0.1443895E-02 -0.1112259E-01  0.2537523E-03  0.3569914E-02
4542037.  0.1838702E-01 -0.1142023E+01 -0.1366190E-02 -0.1591539E-01  0.2350713E-03  0.2971822E-02
4505556.  0.2475244E-01 -0.1077644E+01 -0.1262896E-02 -0.2004568E-01  0.2195325E-03  0.2470455E-02
4469074.  0.3068926E-01 -0.9927539E+00 -0.1138021E-02 -0.2344264E-01  0.2066217E-03  0.2051766E-02
4432593.  0.3608858E-01 -0.8905110E+00 -0.9959079E-03 -0.2606335E-01  0.1958912E-03  0.1707770E-02
4396111.  0.4086085E-01 -0.7742559E+00 -0.8410397E-03 -0.2789685E-01  0.1869432E-03  0.1426359E-02
4359630.  0.4493536E-01 -0.6474277E+00 -0.6778952E-03 -0.2895986E-01  0.1794692E-03  0.1191200E-02
4323148.  0.4826182E-01 -0.5135162E+00 -0.5107881E-03 -0.2928704E-01  0.1732236E-03  0.9957552E-03
4286667.  0.5080918E-01 -0.3758738E+00 -0.3437829E-03 -0.2893720E-01  0.1680177E-03  0.8253239E-03
4250185.  0.5256531E-01 -0.2376500E+00 -0.1805426E-03 -0.2798308E-01  0.1637509E-03  0.6662809E-03
4213704.  0.5353527E-01 -0.1017497E+00 -0.2431377E-04 -0.2650427E-01  0.1603780E-03  0.5111434E-03
4177222.  0.5373988E-01  0.2927680E-01  0.1221698E-03 -0.2459353E-01  0.1579227E-03  0.3430713E-03
4140741.  0.5321351E-01  0.1532359E+00  0.2566893E-03 -0.2234146E-01  0.1564950E-03  0.1512770E-03
4104259.  0.5200188E-01  0.2683427E+00  0.3775485E-03 -0.1983664E-01  0.1562491E-03 -0.7270273E-04
4067778.  0.5016001E-01  0.3731843E+00  0.4835639E-03 -0.1717225E-01  0.1574363E-03 -0.3520444E-03
4031296.  0.4774952E-01  0.4667978E+00  0.5740505E-03 -0.1442372E-01  0.1603996E-03 -0.6943686E-03
3994815.  0.4483676E-01  0.5485593E+00  0.6487255E-03 -0.1166232E-01  0.1655412E-03 -0.1117267E-02
3958333.  0.4149046E-01  0.6181818E+00  0.7077145E-03 -0.8953375E-02  0.1734026E-03 -0.1647708E-02
3921852.  0.3778023E-01  0.6757367E+00  0.7514454E-03 -0.6339869E-02  0.1846474E-03 -0.2302965E-02
3885370.  0.3377426E-01  0.7214975E+00  0.7805734E-03 -0.3857845E-02  0.2000786E-03 -0.3116052E-02
3848889.  0.2953907E-01  0.7559376E+00  0.7959211E-03 -0.1528480E-02  0.2207075E-03 -0.4124830E-02
3812407.  0.2513744E-01  0.7796970E+00  0.7983693E-03  0.6485274E-03  0.2477707E-03 -0.5371845E-02
3775926.  0.2062901E-01  0.7933854E+00  0.7887676E-03  0.2683692E-02  0.2827999E-03 -0.6918520E-02
3739444.  0.1606939E-01  0.7976284E+00  0.7678421E-03  0.4611260E-02  0.3277123E-03 -0.8836657E-02
3702963.  0.1151146E-01  0.7928913E+00  0.7360573E-03  0.6487602E-02  0.3848823E-03 -0.1121795E-01
3666482.  0.7006020E-02  0.7792910E+00  0.6934989E-03  0.8389863E-02  0.4572967E-03 -0.1418353E-01
3630000.  0.2604110E-02  0.7566004E+00  0.6397118E-03  0.1043059E-01  0.5487168E-03 -0.1788361E-01
3630000.  0.2604110E-02  0.7566004E+00  0.6397118E-03  0.1043059E-01  0.5487168E-03 -0.1788361E-01
3592500. -0.1755332E-02  0.7227930E+00  0.5714562E-03  0.1282845E-01  0.6674883E-03 -0.2265751E-01
3555000. -0.5879959E-02  0.6763806E+00  0.4876822E-03  0.1574494E-01  0.8178980E-03 -0.2868521E-01
3517500. -0.9686470E-02  0.6139883E+00  0.3845265E-03  0.1946960E-01  0.1008319E-02 -0.3631962E-01
3480000. -0.1306604E-01  0.5302089E+00  0.2561483E-03  0.2438956E-01  0.1249496E-02 -0.4601784E-01
3480000. -0.1306604E-01 -0.2726531E+00 -0.8751868E-03 -0.2230308E-01  0.1249496E-02 -0.4115258E-02
3409422. -0.1022177E-01 -0.2393535E+00 -0.6530285E-03 -0.1787283E-01  0.1190821E-02  0.1241931E-01
3338844. -0.7782894E-02 -0.2005598E+00 -0.4773575E-03 -0.1393642E-01  0.1012766E-02  0.1845360E-01
3268266. -0.5778258E-02 -0.1616709E+00 -0.3420429E-03 -0.1059569E-01  0.8024769E-03  0.1886983E-01
3197688. -0.4188776E-02 -0.1260147E+00 -0.2403346E-03 -0.7866406E-02  0.6043027E-03  0.1664041E-01
3127109. -0.2967843E-02 -0.9530699E-01 -0.1656378E-03 -0.5709098E-02  0.4371330E-03  0.1347936E-01
3056531. -0.2056682E-02 -0.7011326E-01 -0.1119878E-03 -0.4053673E-02  0.3056626E-03  0.1029939E-01
2985953. -0.1394655E-02 -0.5025620E-01 -0.7427677E-04 -0.2817416E-02  0.2074111E-03  0.7524231E-02
2915375. -0.9256733E-03 -0.3514109E-01 -0.4832434E-04 -0.1917418E-02  0.1369180E-03  0.5296095E-02
2844797. -0.6014287E-03 -0.2398997E-01 -0.3083373E-04 -0.1277955E-02  0.8806723E-04  0.3608382E-02
2774219. -0.3824954E-03 -0.1599762E-01 -0.1928890E-04 -0.8341614E-03  0.5524747E-04  0.2386693E-02
2703641. -0.2380700E-03 -0.1042334E-01 -0.1182616E-04 -0.5331643E-03  0.3382070E-04  0.1535326E-02
2633062. -0.1449714E-03 -0.6635988E-02 -0.7102720E-05 -0.3336048E-03  0.2020712E-04  0.9616099E-03
2562484. -0.8633320E-04 -0.4127648E-02 -0.4176451E-05 -0.2042703E-03  0.1178288E-04  0.5867482E-03
2491906. -0.5025141E-04 -0.2507653E-02 -0.2402681E-05 -0.1223368E-03  0.6703331E-05  0.3488541E-03
2421328. -0.2856939E-04 -0.1487324E-02 -0.1351306E-05 -0.7161714E-04  0.3718832E-05  0.2020823E-03
2350750. -0.1585219E-04 -0.8607082E-03 -0.7423274E-06 -0.4095084E-04  0.2010506E-05  0.1140109E-03
2280172. -0.8576480E-05 -0.4856152E-03 -0.3979090E-06 -0.2285153E-04  0.1058320E-05  0.6260974E-04
2209594. -0.4519559E-05 -0.2668835E-03 -0.2078861E-06 -0.1243186E-04  0.5418726E-06  0.3343999E-04
2139016. -0.2316970E-05 -0.1427187E-03 -0.1057220E-06 -0.6586037E-05  0.2695399E-06  0.1735330E-04
2068438. -0.1153933E-05 -0.7417075E-04 -0.5226135E-07 -0.3393198E-05  0.1300741E-06  0.8739006E-05
1997859. -0.5574312E-06 -0.3740710E-04 -0.2507067E-07 -0.1697621E-05  0.6080007E-07  0.4264638E-05
1927281. -0.2607306E-06 -0.1827872E-04 -0.1165049E-07 -0.8233686E-06  0.2747790E-07  0.2013408E-05
1856703. -0.1178445E-06 -0.8637685E-05 -0.5233915E-08 -0.3864010E-06  0.1198199E-07  0.9178651E-06
1786125. -0.5135226E-07 -0.3939037E-05 -0.2267863E-08 -0.1750796E-06  0.5029489E-08  0.4031574E-06
1715547. -0.2151935E-07 -0.1729327E-05 -0.9453412E-09 -0.7640522E-07  0.2026808E-08  0.1701904E-06
1644969. -0.8646744E-08 -0.7288982E-06 -0.3779788E-09 -0.3202527E-07  0.7817740E-09  0.6885234E-07
1574391. -0.3320349E-08 -0.2940349E-06 -0.1444792E-09 -0.1285180E-07  0.2876275E-09  0.2660756E-07
1503812. -0.1213756E-08 -0.1131208E-06 -0.5259830E-10 -0.4919439E-08  0.1005406E-09  0.9784785E-08
1433234. -0.4202027E-09 -0.4137208E-07 -0.1817249E-10 -0.1787161E-08  0.3324257E-10  0.3409225E-08
1362656. -0.1358120E-09 -0.1446438E-07 -0.5980698E-11 -0.6070434E-09  0.1034991E-10  0.1119212E-08
1292078. -0.3569185E-10 -0.5432857E-08 -0.2071131E-11 -0.1657895E-09  0.3032416E-11  0.3434552E-09
1221500.  0.1471544E-10 -0.4941270E-08 -0.1613223E-11  0.8515397E-10  0.8426526E-12  0.1012311E-09
1221500.  0.1471544E-10 -0.1248307E-09 -0.8823581E-13 -0.7721178E-10  0.8426526E-12  0.9485628E-10
1183328.  0.1298656E-10  0.5481859E-09  0.1675220E-12 -0.1735503E-10  0.4228882E-12  0.4972806E-10
1145156.  0.9324211E-11  0.6170737E-09  0.1952804E-12  0.3978629E-11  0.2058587E-12  0.2526684E-10
1106984.  0.5974080E-11  0.4873397E-09  0.1520071E-12  0.8830514E-11  0.9716631E-13  0.1241685E-10
1068812.  0.0000000E+00  0.0000000E+00  0.0000000E+00  0.0000000E+00  0.0000000E+00  0.0000000E+00
1030641.  0.0000000E+00  0.0000000E+00  0.0000000E+00  0.0000000E+00  0.0000000E+00  0.0000000E+00
 992469.  0.0000000E+00  0.0000000E+00  0.0000000E+00  0.0000000E+00  0.0000000E+00  0.0000000E+00
 954297.  0.0000000E+00  0.0000000E+00  0.0000000E+00  0.0000000E+00  0.0000000E+00  0.0000000E+00
 916125.  0.0000000E+00  0.0000000E+00  0.0000000E+00  0.0000000E+00  0.0000000E+00  0.0000000E+00
 877953.  0.0000000E+00  0.0000000E+00  0.0000000E+00  0.0000000E+00  0.0000000E+00  0.0000000E+00
 839781.  0.0000000E+00  0.0000000E+00  0.0000000E+00  0.0000000E+00  0.0000000E+00  0.0000000E+00
 801609.  0.0000000E+00  0.0000000E+00  0.0000000E+00  0.0000000E+00  0.0000000E+00  0.0000000E+00
 763438.  0.0000000E+00  0.0000000E+00  0.0000000E+00  0.0000000E+00  0.0000000E+00  0.0000000E+00
 725266.  0.0000000E+00  0.0000000E+00  0.0000000E+00  0.0000000E+00  0.0000000E+00  0.0000000E+00
 687094.  0.0000000E+00  0.0000000E+00  0.0000000E+00  0.0000000E+00  0.0000000E+00  0.0000000E+00
 648922.  0.0000000E+00  0.0000000E+00  0.0000000E+00  0.0000000E+00  0.0000000E+00  0.0000000E+00
 610750.  0.0000000E+00  0.0000000E+00  0.0000000E+00  0.0000000E+00  0.0000000E+00  0.0000000E+00
 572578.  0.0000000E+00  0.0000000E+00  0.0000000E+00  0.0000000E+00  0.0000000E+00  0.0000000E+00
 534406.  0.0000000E+00  0.0000000E+00  0.0000000E+00  0.0000000E+00  0.0000000E+00  0.0000000E+00
 496234.  0.0000000E+00  0.0000000E+00  0.0000000E+00  0.0000000E+00  0.0000000E+00  0.0000000E+00
 458062.  0.0000000E+00  0.0000000E+00  0.0000000E+00  0.0000000E+00  0.0000000E+00  0.0000000E+00
 419891.  0.0000000E+00  0.0000000E+00  0.0000000E+00  0.0000000E+00  0.0000000E+00  0.0000000E+00
 381719.  0.0000000E+00  0.0000000E+00  0.0000000E+00  0.0000000E+00  0.0000000E+00  0.0000000E+00
 343547.  0.0000000E+00  0.0000000E+00  0.0000000E+00  0.0000000E+00  0.0000000E+00  0.0000000E+00
 305375.  0.0000000E+00  0.0000000E+00  0.0000000E+00  0.0000000E+00  0.0000000E+00  0.0000000E+00
 267203.  0.0000000E+00  0.0000000E+00  0.0000000E+00  0.0000000E+00  0.0000000E+00  0.0000000E+00
 229031.  0.0000000E+00  0.0000000E+00  0.0000000E+00  0.0000000E+00  0.0000000E+00  0.0000000E+00
 190859.  0.0000000E+00  0.0000000E+00  0.0000000E+00  0.0000000E+00  0.0000000E+00  0.0000000E+00
 152688.  0.0000000E+00  0.0000000E+00  0.0000000E+00  0.0000000E+00  0.0000000E+00  0.0000000E+00
 114516.  0.0000000E+00  0.0000000E+00  0.0000000E+00  0.0000000E+00  0.0000000E+00  0.0000000E+00
  76344.  0.0000000E+00  0.0000000E+00  0.0000000E+00  0.0000000E+00  0.0000000E+00  0.0000000E+00
  38172.  0.0000000E+00  0.0000000E+00  0.0000000E+00  0.0000000E+00  0.0000000E+00  0.0000000E+00
      0.  0.0000000E+00  0.0000000E+00  0.0000000E+00  0.0000000E+00  0.0000000E+00  0.0000000E+00
