       5       28 S      344        133.41769         10.52760          6.49138        251.35760      185    7
6371000. -0.1994141E-01  0.9797337E+00  0.3020537E-02  0.2296194E-01 -0.9451008E-03  0.6501275E-01
6370000. -0.2009442E-01  0.9699678E+00  0.3016675E-02  0.2623923E-01 -0.9552812E-03  0.6470536E-01
6369000. -0.2024588E-01  0.9598502E+00  0.3012300E-02  0.2950963E-01 -0.9654132E-03  0.6439706E-01
6368000. -0.2039572E-01  0.9493818E+00  0.3007412E-02  0.3277252E-01 -0.9754968E-03  0.6408785E-01
6368000. -0.2039572E-01  0.9493818E+00  0.3007412E-02  0.3277252E-01 -0.9754968E-03  0.6408785E-01
6367000. -0.2054390E-01  0.9385639E+00  0.3002012E-02  0.3602728E-01 -0.9855318E-03  0.6377776E-01
6366000. -0.2069034E-01  0.9273977E+00  0.2996102E-02  0.3927328E-01 -0.9955181E-03  0.6346679E-01
6365000. -0.2083501E-01  0.9158844E+00  0.2989684E-02  0.4250991E-01 -0.1005455E-02  0.6315496E-01
6364000. -0.2097784E-01  0.9040255E+00  0.2982758E-02  0.4573655E-01 -0.1015344E-02  0.6284229E-01
6363000. -0.2111878E-01  0.8918225E+00  0.2975327E-02  0.4895258E-01 -0.1025183E-02  0.6252880E-01
6362000. -0.2125779E-01  0.8792768E+00  0.2967391E-02  0.5215739E-01 -0.1034973E-02  0.6221448E-01
6361000. -0.2139479E-01  0.8663902E+00  0.2958954E-02  0.5535036E-01 -0.1044713E-02  0.6189938E-01
6360000. -0.2152975E-01  0.8531643E+00  0.2950016E-02  0.5853089E-01 -0.1054404E-02  0.6158349E-01
6359000. -0.2166260E-01  0.8396008E+00  0.2940581E-02  0.6169836E-01 -0.1064046E-02  0.6126684E-01
6358000. -0.2179330E-01  0.8257017E+00  0.2930649E-02  0.6485218E-01 -0.1073638E-02  0.6094945E-01
6357000. -0.2192179E-01  0.8114688E+00  0.2920223E-02  0.6799174E-01 -0.1083179E-02  0.6063132E-01
6356000. -0.2204802E-01  0.7969041E+00  0.2909305E-02  0.7111644E-01 -0.1092671E-02  0.6031248E-01
6356000. -0.2204802E-01  0.7311985E+00  0.2909305E-02  0.5284212E-01 -0.1092671E-02  0.6510987E-01
6355000. -0.2216199E-01  0.7209469E+00  0.2900868E-02  0.5466523E-01 -0.1102860E-02  0.6471528E-01
6354000. -0.2227433E-01  0.7105057E+00  0.2892145E-02  0.5648056E-01 -0.1112987E-02  0.6432061E-01
6353000. -0.2238502E-01  0.6998758E+00  0.2883138E-02  0.5828790E-01 -0.1123051E-02  0.6392586E-01
6352000. -0.2249403E-01  0.6890583E+00  0.2873847E-02  0.6008703E-01 -0.1133054E-02  0.6353104E-01
6351000. -0.2260132E-01  0.6780542E+00  0.2864275E-02  0.6187773E-01 -0.1142995E-02  0.6313617E-01
6350000. -0.2270688E-01  0.6668646E+00  0.2854423E-02  0.6365980E-01 -0.1152874E-02  0.6274124E-01
6349000. -0.2281066E-01  0.6554905E+00  0.2844292E-02  0.6543303E-01 -0.1162691E-02  0.6234628E-01
6348000. -0.2291264E-01  0.6439333E+00  0.2833883E-02  0.6719720E-01 -0.1172446E-02  0.6195128E-01
6347000. -0.2301279E-01  0.6321940E+00  0.2823198E-02  0.6895208E-01 -0.1182139E-02  0.6155626E-01
6346600. -0.2305234E-01  0.6274475E+00  0.2818847E-02  0.6965140E-01 -0.1185999E-02  0.6139825E-01
6346600. -0.2305234E-01  0.8266373E+00  0.2818847E-02  0.5546134E-01 -0.1185999E-02  0.6943626E-01
6318800. -0.2606270E-01  0.5373904E+00  0.2512597E-02  0.8400068E-01 -0.1464290E-02  0.5817799E-01
6291000. -0.2761829E-01  0.1632293E+00  0.2094998E-02  0.1062093E+00 -0.1694232E-02  0.4727108E-01
6291000. -0.2761829E-01  0.1783997E+00  0.2094998E-02  0.1088823E+00 -0.1694232E-02  0.4727108E-01
6263000. -0.2742570E-01 -0.2745347E+00  0.1579402E-02  0.1242261E+00 -0.1878786E-02  0.3676259E-01
6235000. -0.2515529E-01 -0.7613435E+00  0.1017098E-02  0.1300202E+00 -0.2017782E-02  0.2653658E-01
6207000. -0.2073747E-01 -0.1245465E+01  0.4510579E-03  0.1259343E+00 -0.2112445E-02  0.1658891E-01
6179000. -0.1426759E-01 -0.1688868E+01 -0.7595912E-04  0.1123955E+00 -0.2164025E-02  0.6935580E-02
6151000. -0.6006081E-02 -0.2054964E+01 -0.5246946E-03  0.9056111E-01 -0.2173900E-02 -0.2380543E-02
6151000. -0.6006081E-02 -0.1690624E+01 -0.5246946E-03  0.8025405E-01 -0.2173900E-02 -0.2048254E-02
6128500.  0.2529019E-03 -0.1843982E+01 -0.7752649E-03  0.6125073E-01 -0.2159245E-02 -0.6166003E-02
6106000.  0.6944081E-02 -0.1934487E+01 -0.9550861E-03  0.4034691E-01 -0.2130958E-02 -0.9766471E-02
6083500.  0.1383754E-01 -0.1958100E+01 -0.1059146E-02  0.1850864E-01 -0.2090881E-02 -0.1284140E-01
6061000.  0.2069402E-01 -0.1913576E+01 -0.1085857E-02 -0.3298643E-02 -0.2040879E-02 -0.1538678E-01
6038500.  0.2727483E-01 -0.1802463E+01 -0.1036978E-02 -0.2414931E-01 -0.1982825E-02 -0.1740210E-01
6016000.  0.3335144E-01 -0.1628945E+01 -0.9174151E-03 -0.4319408E-01 -0.1918586E-02 -0.1888985E-01
5993500.  0.3871443E-01 -0.1399605E+01 -0.7348928E-03 -0.5969063E-01 -0.1850016E-02 -0.1985560E-01
5971000.  0.4318143E-01 -0.1123119E+01 -0.4995302E-03 -0.7302830E-01 -0.1778948E-02 -0.2030555E-01
5971000.  0.4318143E-01 -0.1032733E+01 -0.4995302E-03 -0.7011756E-01 -0.1778948E-02 -0.2595836E-01
5937667.  0.4740038E-01 -0.5747327E+00 -0.1025241E-03 -0.8032709E-01 -0.1643591E-02 -0.2561682E-01
5904333.  0.4917096E-01 -0.1025149E+00  0.3277428E-03 -0.8293970E-01 -0.1512448E-02 -0.2438195E-01
5871000.  0.4850458E-01  0.3518730E+00  0.7536955E-03 -0.7887104E-01 -0.1389647E-02 -0.2246306E-01
5837667.  0.4556670E-01  0.7618679E+00  0.1143599E-02 -0.6939011E-01 -0.1278255E-02 -0.2005003E-01
5804333.  0.4064501E-01  0.1107356E+01  0.1472868E-02 -0.5593426E-01 -0.1180424E-02 -0.1730181E-01
5771000.  0.3411529E-01  0.1374929E+01  0.1724514E-02 -0.3995825E-01 -0.1097573E-02 -0.1434184E-01
5771000.  0.3411529E-01  0.1375015E+01  0.1724514E-02 -0.3995812E-01 -0.1097573E-02 -0.1434184E-01
5701000.  0.1676342E-01  0.1719633E+01  0.1955908E-02 -0.1135338E-02 -0.9880385E-03 -0.5271464E-02
5701000.  0.1676342E-01  0.1501361E+01  0.1955908E-02 -0.4365161E-02 -0.9880385E-03 -0.9996470E-02
5667333.  0.8936606E-02  0.1467588E+01  0.1952602E-02  0.5276232E-02 -0.9370193E-03 -0.9536155E-02
5633667.  0.1189031E-02  0.1463028E+01  0.1900707E-02  0.1440412E-01 -0.8863159E-03 -0.9632786E-02
5600000. -0.6430178E-02  0.1411908E+01  0.1801236E-02  0.2309637E-01 -0.8355488E-03 -0.9569080E-02
5600000. -0.6430178E-02  0.1411908E+01  0.1801236E-02  0.2309637E-01 -0.8355488E-03 -0.9569080E-02
5563518. -0.1423886E-01  0.1307343E+01  0.1644372E-02  0.3149319E-01 -0.7811126E-03 -0.9433581E-02
5527037. -0.2131489E-01  0.1157135E+01  0.1443102E-02  0.3856486E-01 -0.7275963E-03 -0.9253116E-02
5490556. -0.2741648E-01  0.9682435E+00  0.1205666E-02  0.4409574E-01 -0.6751854E-03 -0.9050201E-02
5454074. -0.3234480E-01  0.7487004E+00  0.9413034E-03  0.4795226E-01 -0.6239691E-03 -0.8837366E-02
5417593. -0.3594905E-01  0.5073137E+00  0.6597962E-03  0.5008465E-01 -0.5739726E-03 -0.8625624E-02
5381111. -0.3813010E-01  0.2530849E+00  0.3709640E-03  0.5051781E-01 -0.5251839E-03 -0.8414597E-02
5344630. -0.3884006E-01 -0.5021696E-02  0.8432023E-04  0.4934344E-01 -0.4776077E-03 -0.8202701E-02
5308148. -0.3808140E-01 -0.2585080E+00 -0.1913465E-03  0.4670975E-01 -0.4312439E-03 -0.7989659E-02
5271667. -0.3590344E-01 -0.4995302E+00 -0.4481965E-03  0.4280884E-01 -0.3861310E-03 -0.7765069E-02
5235185. -0.3239753E-01 -0.7212546E+00 -0.6796162E-03  0.3786455E-01 -0.3423403E-03 -0.7527359E-02
5198704. -0.2769135E-01 -0.9179326E+00 -0.8803075E-03  0.3211965E-01 -0.2999574E-03 -0.7272390E-02
5162222. -0.2194180E-01 -0.1084983E+01 -0.1046413E-02  0.2582474E-01 -0.2591050E-03 -0.6991851E-02
5125741. -0.1532858E-01 -0.1219227E+01 -0.1175488E-02  0.1922775E-01 -0.2199308E-03 -0.6686667E-02
5089259. -0.8045377E-02 -0.1318692E+01 -0.1266487E-02  0.1256230E-01 -0.1825788E-03 -0.6354673E-02
5052778. -0.2945545E-03 -0.1382613E+01 -0.1319639E-02  0.6043575E-02 -0.1472079E-03 -0.5995265E-02
5016296.  0.7721670E-02 -0.1411478E+01 -0.1336342E-02 -0.1400826E-03 -0.1139682E-03 -0.5610396E-02
4979815.  0.1580570E-01 -0.1406688E+01 -0.1318979E-02 -0.5831076E-02 -0.8299871E-04 -0.5203262E-02
4943333.  0.2377158E-01 -0.1370592E+01 -0.1270746E-02 -0.1090371E-01 -0.5441458E-04 -0.4777475E-02
4906852.  0.3144817E-01 -0.1306283E+01 -0.1195467E-02 -0.1526560E-01 -0.2831546E-04 -0.4336661E-02
4870370.  0.3868430E-01 -0.1217307E+01 -0.1097386E-02 -0.1886011E-01 -0.4761255E-05 -0.3889461E-02
4833889.  0.4534969E-01 -0.1107708E+01 -0.9809994E-03 -0.2165739E-01  0.1621947E-04 -0.3438234E-02
4797407.  0.5133870E-01 -0.9817012E+00 -0.8508798E-03 -0.2365867E-01  0.3461575E-04 -0.2988513E-02
4760926.  0.5656912E-01 -0.8435176E+00 -0.7115153E-03 -0.2489370E-01  0.5047276E-04 -0.2552166E-02
4724444.  0.6098373E-01 -0.6974058E+00 -0.5671734E-03 -0.2540463E-01  0.6386152E-04 -0.2126352E-02
4687963.  0.6454851E-01 -0.5473710E+00 -0.4218287E-03 -0.2525803E-01  0.7486238E-04 -0.1720266E-02
4651482.  0.6725185E-01 -0.3971131E+00 -0.2790178E-03 -0.2453270E-01  0.8361445E-04 -0.1340770E-02
4615000.  0.6910234E-01 -0.2499897E+00 -0.1418245E-03 -0.2330924E-01  0.9025988E-04 -0.9848257E-03
4578518.  0.7012641E-01 -0.1089155E+00 -0.1283887E-04 -0.2168180E-01  0.9495690E-04 -0.6616192E-03
4542037.  0.7036593E-01  0.2365935E-01  0.1058842E-03 -0.1974008E-01  0.9790163E-04 -0.3718421E-03
4505556.  0.6987545E-01  0.1457685E+00  0.2127889E-03 -0.1756894E-01  0.9926911E-04 -0.1117631E-03
4469074.  0.6871938E-01  0.2559223E+00  0.3068295E-03 -0.1525989E-01  0.9926306E-04  0.1074249E-03
4432593.  0.6696933E-01  0.3531185E+00  0.3874233E-03 -0.1288417E-01  0.9809996E-04  0.2938375E-03
4396111.  0.6470122E-01  0.4367796E+00  0.4543875E-03 -0.1051064E-01  0.9595932E-04  0.4475350E-03
4359630.  0.6199345E-01  0.5067139E+00  0.5079294E-03 -0.8205619E-02  0.9305307E-04  0.5616574E-03
4323148.  0.5892397E-01  0.5631474E+00  0.5485718E-03 -0.6011481E-02  0.8958319E-04  0.6453161E-03
4286667.  0.5556903E-01  0.6065540E+00  0.5770709E-03 -0.3971469E-02  0.8572577E-04  0.6962285E-03
4250185.  0.5200099E-01  0.6376910E+00  0.5944117E-03 -0.2117536E-02  0.8167556E-04  0.7133465E-03
4213704.  0.4828756E-01  0.6575435E+00  0.6017068E-03 -0.4655930E-03  0.7760894E-04  0.7021319E-03
4177222.  0.4449010E-01  0.6672001E+00  0.6001639E-03  0.9673704E-03  0.7369743E-04  0.6585326E-03
4140741.  0.4066370E-01  0.6679040E+00  0.5910528E-03  0.2178584E-02  0.7012775E-04  0.5836007E-03
4104259.  0.3685570E-01  0.6609509E+00  0.5756263E-03  0.3173409E-02  0.6706690E-04  0.4799273E-03
4067778.  0.3310652E-01  0.6476111E+00  0.5551216E-03  0.3954016E-02  0.6470552E-04  0.3386578E-03
4031296.  0.2944872E-01  0.6292188E+00  0.5307182E-03  0.4538276E-02  0.6325584E-04  0.1616514E-03
3994815.  0.2590781E-01  0.6070125E+00  0.5034889E-03  0.4943823E-02  0.6293171E-04 -0.5622509E-04
3958333.  0.2250215E-01  0.5821392E+00  0.4744105E-03  0.5187664E-02  0.6400039E-04 -0.3260731E-03
3921852.  0.1924395E-01  0.5557131E+00  0.4443329E-03  0.5297798E-02  0.6677533E-04 -0.6537623E-03
3885370.  0.1613916E-01  0.5286671E+00  0.4139448E-03  0.5300136E-02  0.7162655E-04 -0.1054160E-02
3848889.  0.1318915E-01  0.5018060E+00  0.3837842E-03  0.5224387E-02  0.7902105E-04 -0.1545163E-02
3812407.  0.1039073E-01  0.4757801E+00  0.3541914E-03  0.5107786E-02  0.8953459E-04 -0.2147775E-02
3775926.  0.7738033E-02  0.4509822E+00  0.3252922E-03  0.4989698E-02  0.1038897E-03 -0.2892650E-02
3739444.  0.5223295E-02  0.4275715E+00  0.2969554E-03  0.4920594E-02  0.1230037E-03 -0.3816619E-02
3702963.  0.2839050E-02  0.4053559E+00  0.2687265E-03  0.4963918E-02  0.1480299E-03 -0.4966864E-02
3666482.  0.5801302E-03  0.3836397E+00  0.2397424E-03  0.5199808E-02  0.1804334E-03 -0.6404700E-02
3630000. -0.1553052E-02  0.3611363E+00  0.2086030E-03  0.5737512E-02  0.2220727E-03 -0.8206567E-02
3630000. -0.1553052E-02  0.3611363E+00  0.2086030E-03  0.5737512E-02  0.2220727E-03 -0.8206567E-02
3592500. -0.3603629E-02  0.3348289E+00  0.1721014E-03  0.6760932E-02  0.2769750E-03 -0.1053968E-01
3555000. -0.5481014E-02  0.3015010E+00  0.1276453E-03  0.8484519E-02  0.3473581E-03 -0.1349136E-01
3517500. -0.7127741E-02  0.2552462E+00  0.7023128E-04  0.1122682E-01  0.4373338E-03 -0.1722770E-01
3480000. -0.8443012E-02  0.1870485E+00 -0.7397539E-05  0.1544348E-01  0.5521029E-03 -0.2195379E-01
3480000. -0.8443012E-02 -0.2787113E+00 -0.4122977E-03 -0.1469506E-01  0.5521029E-03  0.5122815E-02
3409422. -0.5788396E-02 -0.2033157E+00 -0.2750277E-03 -0.1029929E-01  0.4634452E-03  0.9791970E-02
3338844. -0.3878261E-02 -0.1441345E+00 -0.1798511E-03 -0.7055754E-02  0.3515698E-03  0.9936683E-02
3268266. -0.2541168E-02 -0.9949421E-01 -0.1153200E-03 -0.4728361E-02  0.2496487E-03  0.8313901E-02
3197688. -0.1629117E-02 -0.6696863E-01 -0.7250771E-04 -0.3101240E-02  0.1687733E-03  0.6285638E-02
3127109. -0.1022152E-02 -0.4399688E-01 -0.4470285E-04 -0.1991411E-02  0.1096401E-03  0.4445975E-02
3056531. -0.6277451E-03 -0.2823257E-01 -0.2702130E-04 -0.1252184E-02  0.6882212E-04  0.2991813E-02
2985953. -0.3773530E-03 -0.1770271E-01 -0.1601014E-04 -0.7710203E-03  0.4188516E-04  0.1933029E-02
2915375. -0.2219971E-03 -0.1084886E-01 -0.9295298E-05 -0.4648459E-03  0.2476827E-04  0.1205688E-02
2844797. -0.1277818E-03 -0.6498284E-02 -0.5286079E-05 -0.2743482E-03  0.1424967E-04  0.7284012E-03
2774219. -0.7193675E-04 -0.3803900E-02 -0.2942992E-05 -0.1584530E-03  0.7981942E-05  0.4271089E-03
2703641. -0.3958974E-04 -0.2175489E-02 -0.1603145E-05 -0.8951784E-04  0.4354569E-05  0.2433716E-03
2633062. -0.2128645E-04 -0.1215069E-02 -0.8538548E-06 -0.4944088E-04  0.2313706E-05  0.1348459E-03
2562484. -0.1117413E-04 -0.6624202E-03 -0.4443142E-06 -0.2667788E-04  0.1196984E-05  0.7266756E-04
2491906. -0.5722088E-05 -0.3522554E-03 -0.2256843E-06 -0.1405282E-04  0.6026507E-06  0.3808200E-04
2421328. -0.2855731E-05 -0.1825676E-03 -0.1117850E-06 -0.7219947E-05  0.2950771E-06  0.1939981E-04
2350750. -0.1387516E-05 -0.9213443E-04 -0.5393257E-07 -0.3614284E-05  0.1403816E-06  0.9600411E-05
2280172. -0.6555296E-06 -0.4522506E-04 -0.2531392E-07 -0.1760871E-05  0.6482168E-07  0.4611229E-05
2209594. -0.3007398E-06 -0.2156531E-04 -0.1154255E-07 -0.8338451E-06  0.2901441E-07  0.2147352E-05
2139016. -0.1337742E-06 -0.9975594E-05 -0.5105072E-08 -0.3832325E-06  0.1257050E-07  0.9682361E-06
2068438. -0.5759643E-07 -0.4469267E-05 -0.2186277E-08 -0.1706663E-06  0.5262681E-08  0.4220710E-06
1997859. -0.2395656E-07 -0.1935806E-05 -0.9048228E-09 -0.7350891E-07  0.2124918E-08  0.1775592E-06
1927281. -0.9605915E-08 -0.8089934E-06 -0.3611152E-09 -0.3056005E-07  0.8257139E-09  0.7194266E-07
1856703. -0.3704139E-08 -0.3254534E-06 -0.1386410E-09 -0.1223433E-07  0.3080358E-09  0.2800966E-07
1786125. -0.1369913E-08 -0.1257107E-06 -0.5106409E-10 -0.4704220E-08  0.1100158E-09  0.1045124E-07
1715547. -0.4844260E-09 -0.4648664E-07 -0.1798795E-10 -0.1732201E-08  0.3749978E-10  0.3726230E-08
1644969. -0.1632253E-09 -0.1640282E-07 -0.6039203E-11 -0.6087876E-09  0.1215558E-10  0.1265134E-08
1574391. -0.5219907E-10 -0.5501816E-08 -0.1924835E-11 -0.2034444E-09  0.3731938E-11  0.4074577E-09
1503812. -0.1577230E-10 -0.1746671E-08 -0.5797720E-12 -0.6436542E-10  0.1080143E-11  0.1239278E-09
1433234. -0.4479903E-11 -0.5222586E-09 -0.1641836E-12 -0.1918474E-10  0.2931594E-12  0.3541600E-10
1362656. -0.1189519E-11 -0.1461626E-09 -0.4343473E-13 -0.5358625E-11  0.7411700E-13  0.9458126E-11
1292078.  0.0000000E+00  0.0000000E+00  0.0000000E+00  0.0000000E+00  0.0000000E+00  0.0000000E+00
1221500.  0.0000000E+00  0.0000000E+00  0.0000000E+00  0.0000000E+00  0.0000000E+00  0.0000000E+00
1221500.  0.0000000E+00  0.0000000E+00  0.0000000E+00  0.0000000E+00  0.0000000E+00  0.0000000E+00
1183328.  0.0000000E+00  0.0000000E+00  0.0000000E+00  0.0000000E+00  0.0000000E+00  0.0000000E+00
1145156.  0.0000000E+00  0.0000000E+00  0.0000000E+00  0.0000000E+00  0.0000000E+00  0.0000000E+00
1106984.  0.0000000E+00  0.0000000E+00  0.0000000E+00  0.0000000E+00  0.0000000E+00  0.0000000E+00
1068812.  0.0000000E+00  0.0000000E+00  0.0000000E+00  0.0000000E+00  0.0000000E+00  0.0000000E+00
1030641.  0.0000000E+00  0.0000000E+00  0.0000000E+00  0.0000000E+00  0.0000000E+00  0.0000000E+00
 992469.  0.0000000E+00  0.0000000E+00  0.0000000E+00  0.0000000E+00  0.0000000E+00  0.0000000E+00
 954297.  0.0000000E+00  0.0000000E+00  0.0000000E+00  0.0000000E+00  0.0000000E+00  0.0000000E+00
 916125.  0.0000000E+00  0.0000000E+00  0.0000000E+00  0.0000000E+00  0.0000000E+00  0.0000000E+00
 877953.  0.0000000E+00  0.0000000E+00  0.0000000E+00  0.0000000E+00  0.0000000E+00  0.0000000E+00
 839781.  0.0000000E+00  0.0000000E+00  0.0000000E+00  0.0000000E+00  0.0000000E+00  0.0000000E+00
 801609.  0.0000000E+00  0.0000000E+00  0.0000000E+00  0.0000000E+00  0.0000000E+00  0.0000000E+00
 763438.  0.0000000E+00  0.0000000E+00  0.0000000E+00  0.0000000E+00  0.0000000E+00  0.0000000E+00
 725266.  0.0000000E+00  0.0000000E+00  0.0000000E+00  0.0000000E+00  0.0000000E+00  0.0000000E+00
 687094.  0.0000000E+00  0.0000000E+00  0.0000000E+00  0.0000000E+00  0.0000000E+00  0.0000000E+00
 648922.  0.0000000E+00  0.0000000E+00  0.0000000E+00  0.0000000E+00  0.0000000E+00  0.0000000E+00
 610750.  0.0000000E+00  0.0000000E+00  0.0000000E+00  0.0000000E+00  0.0000000E+00  0.0000000E+00
 572578.  0.0000000E+00  0.0000000E+00  0.0000000E+00  0.0000000E+00  0.0000000E+00  0.0000000E+00
 534406.  0.0000000E+00  0.0000000E+00  0.0000000E+00  0.0000000E+00  0.0000000E+00  0.0000000E+00
 496234.  0.0000000E+00  0.0000000E+00  0.0000000E+00  0.0000000E+00  0.0000000E+00  0.0000000E+00
 458062.  0.0000000E+00  0.0000000E+00  0.0000000E+00  0.0000000E+00  0.0000000E+00  0.0000000E+00
 419891.  0.0000000E+00  0.0000000E+00  0.0000000E+00  0.0000000E+00  0.0000000E+00  0.0000000E+00
 381719.  0.0000000E+00  0.0000000E+00  0.0000000E+00  0.0000000E+00  0.0000000E+00  0.0000000E+00
 343547.  0.0000000E+00  0.0000000E+00  0.0000000E+00  0.0000000E+00  0.0000000E+00  0.0000000E+00
 305375.  0.0000000E+00  0.0000000E+00  0.0000000E+00  0.0000000E+00  0.0000000E+00  0.0000000E+00
 267203.  0.0000000E+00  0.0000000E+00  0.0000000E+00  0.0000000E+00  0.0000000E+00  0.0000000E+00
 229031.  0.0000000E+00  0.0000000E+00  0.0000000E+00  0.0000000E+00  0.0000000E+00  0.0000000E+00
 190859.  0.0000000E+00  0.0000000E+00  0.0000000E+00  0.0000000E+00  0.0000000E+00  0.0000000E+00
 152688.  0.0000000E+00  0.0000000E+00  0.0000000E+00  0.0000000E+00  0.0000000E+00  0.0000000E+00
 114516.  0.0000000E+00  0.0000000E+00  0.0000000E+00  0.0000000E+00  0.0000000E+00  0.0000000E+00
  76344.  0.0000000E+00  0.0000000E+00  0.0000000E+00  0.0000000E+00  0.0000000E+00  0.0000000E+00
  38172.  0.0000000E+00  0.0000000E+00  0.0000000E+00  0.0000000E+00  0.0000000E+00  0.0000000E+00
      0.  0.0000000E+00  0.0000000E+00  0.0000000E+00  0.0000000E+00  0.0000000E+00  0.0000000E+00
