       2       34 S      198        145.59309          7.96944          6.24377        174.98940      185    7
6371000. -0.5844252E-01 -0.1558721E+01 -0.3430352E-02  0.5501217E-01  0.3517588E-02 -0.1290667E-01
6370000. -0.5819593E-01 -0.1583190E+01 -0.3438795E-02  0.5256961E-01  0.3519610E-02 -0.1285769E-01
6369000. -0.5794554E-01 -0.1607274E+01 -0.3446854E-02  0.5011360E-01  0.3521625E-02 -0.1281323E-01
6368000. -0.5769140E-01 -0.1630968E+01 -0.3454526E-02  0.4764447E-01  0.3523633E-02 -0.1277331E-01
6368000. -0.5769140E-01 -0.1630968E+01 -0.3454526E-02  0.4764447E-01  0.3523633E-02 -0.1277331E-01
6367000. -0.5743356E-01 -0.1654272E+01 -0.3461810E-02  0.4516258E-01  0.3525635E-02 -0.1273794E-01
6366000. -0.5717210E-01 -0.1677180E+01 -0.3468703E-02  0.4266828E-01  0.3527632E-02 -0.1270714E-01
6365000. -0.5690708E-01 -0.1699691E+01 -0.3475204E-02  0.4016193E-01  0.3529624E-02 -0.1268093E-01
6364000. -0.5663855E-01 -0.1721802E+01 -0.3481310E-02  0.3764388E-01  0.3531613E-02 -0.1265933E-01
6363000. -0.5636659E-01 -0.1743510E+01 -0.3487020E-02  0.3511449E-01  0.3533599E-02 -0.1264236E-01
6362000. -0.5609125E-01 -0.1764813E+01 -0.3492333E-02  0.3257412E-01  0.3535582E-02 -0.1263004E-01
6361000. -0.5581259E-01 -0.1785707E+01 -0.3497245E-02  0.3002312E-01  0.3537564E-02 -0.1262238E-01
6360000. -0.5553069E-01 -0.1806191E+01 -0.3501757E-02  0.2746188E-01  0.3539545E-02 -0.1261940E-01
6359000. -0.5524561E-01 -0.1826262E+01 -0.3505866E-02  0.2489074E-01  0.3541525E-02 -0.1262114E-01
6358000. -0.5495741E-01 -0.1845917E+01 -0.3509570E-02  0.2231008E-01  0.3543507E-02 -0.1262759E-01
6357000. -0.5466616E-01 -0.1865154E+01 -0.3512869E-02  0.1972026E-01  0.3545490E-02 -0.1263879E-01
6356000. -0.5437192E-01 -0.1883972E+01 -0.3515761E-02  0.1712166E-01  0.3547475E-02 -0.1265475E-01
6356000. -0.5437192E-01 -0.1586938E+01 -0.3515761E-02  0.3054174E-01  0.3547475E-02 -0.8240489E-03
6355000. -0.5412166E-01 -0.1601813E+01 -0.3520455E-02  0.2927271E-01  0.3547592E-02 -0.6668828E-03
6354000. -0.5386908E-01 -0.1616483E+01 -0.3524950E-02  0.2799818E-01  0.3547684E-02 -0.5125855E-03
6353000. -0.5361422E-01 -0.1630947E+01 -0.3529244E-02  0.2671824E-01  0.3547753E-02 -0.3611622E-03
6352000. -0.5335711E-01 -0.1645203E+01 -0.3533337E-02  0.2543301E-01  0.3547798E-02 -0.2126181E-03
6351000. -0.5309777E-01 -0.1659251E+01 -0.3537228E-02  0.2414259E-01  0.3547820E-02 -0.6695848E-04
6350000. -0.5283624E-01 -0.1673089E+01 -0.3540915E-02  0.2284709E-01  0.3547819E-02  0.7581118E-04
6349000. -0.5257256E-01 -0.1686717E+01 -0.3544400E-02  0.2154662E-01  0.3547796E-02  0.2156855E-03
6348000. -0.5230675E-01 -0.1700132E+01 -0.3547679E-02  0.2024130E-01  0.3547751E-02  0.3526588E-03
6347000. -0.5203886E-01 -0.1713333E+01 -0.3550753E-02  0.1893123E-01  0.3547685E-02  0.4867257E-03
6346600. -0.5193112E-01 -0.1718554E+01 -0.3551926E-02  0.1840590E-01  0.3547653E-02  0.5395373E-03
6346600. -0.5193112E-01 -0.1835981E+01 -0.3551926E-02  0.2820340E-01  0.3547653E-02  0.1864716E-01
6318800. -0.4328272E-01 -0.2113453E+01 -0.3639036E-02  0.1130365E-01  0.3453743E-02  0.2421462E-01
6291000. -0.3362502E-01 -0.2296151E+01 -0.3647541E-02 -0.7676629E-02  0.3337801E-02  0.2877101E-01
6291000. -0.3362502E-01 -0.2360805E+01 -0.3647541E-02 -0.9037116E-02  0.3337801E-02  0.2877101E-01
6263000. -0.2305312E-01 -0.2429392E+01 -0.3558594E-02 -0.3153669E-01  0.3204459E-02  0.3176544E-01
6235000. -0.1245847E-01 -0.2370443E+01 -0.3370400E-02 -0.5399445E-01  0.3059751E-02  0.3396622E-01
6207000. -0.2405715E-02 -0.2183245E+01 -0.3085872E-02 -0.7517040E-01  0.2906865E-02  0.3550960E-01
6179000.  0.6552923E-02 -0.1874182E+01 -0.2713298E-02 -0.9386992E-01  0.2748393E-02  0.3653077E-01
6151000.  0.1390880E-01 -0.1456661E+01 -0.2265993E-02 -0.1090112E+00  0.2586338E-02  0.3716085E-01
6151000.  0.1390880E-01 -0.1397654E+01 -0.2265993E-02 -0.9778235E-01  0.2586338E-02  0.3639134E-01
6128500.  0.1826678E-01 -0.1066024E+01 -0.1912072E-02 -0.1022492E+00  0.2456196E-02  0.3726798E-01
6106000.  0.2141279E-01 -0.7130032E+00 -0.1546614E-02 -0.1043129E+00  0.2323373E-02  0.3791599E-01
6083500.  0.2328965E-01 -0.3489994E+00 -0.1178094E-02 -0.1039923E+00  0.2188613E-02  0.3837069E-01
6061000.  0.2387684E-01  0.1568576E-01 -0.8147994E-03 -0.1013729E+00  0.2052541E-02  0.3866370E-01
6038500.  0.2318962E-01  0.3711315E+00 -0.4646071E-03 -0.9660138E-01  0.1915677E-02  0.3882478E-01
6016000.  0.2127724E-01  0.7080470E+00 -0.1347801E-03 -0.8987674E-01  0.1778434E-02  0.3888218E-01
5993500.  0.1822032E-01  0.1017999E+01  0.1681997E-03 -0.8144096E-01  0.1641132E-02  0.3886290E-01
5971000.  0.1412744E-01  0.1293601E+01  0.4387689E-03 -0.7157046E-01  0.1503993E-02  0.3879468E-01
5971000.  0.1412744E-01  0.1187027E+01  0.4387689E-03 -0.6529483E-01  0.1503993E-02  0.3694528E-01
5937667.  0.7172185E-02  0.1456365E+01  0.7404267E-03 -0.4997074E-01  0.1314555E-02  0.3540817E-01
5904333. -0.9526745E-03  0.1634309E+01  0.9620134E-03 -0.3483719E-01  0.1134114E-02  0.3350646E-01
5871000. -0.9777565E-02  0.1725166E+01  0.1106701E-02 -0.2068934E-01  0.9645350E-03  0.3126286E-01
5837667. -0.1886790E-01  0.1737467E+01  0.1181200E-02 -0.8079893E-02  0.8075141E-03  0.2871283E-01
5804333. -0.2784148E-01  0.1682465E+01  0.1194522E-02  0.2658256E-02  0.6645372E-03  0.2590068E-01
5771000. -0.3637842E-01  0.1572832E+01  0.1156909E-02  0.1138004E-01  0.5368547E-03  0.2287650E-01
5771000. -0.3637842E-01  0.1572927E+01  0.1156909E-02  0.1138102E-01  0.5368547E-03  0.2287650E-01
5701000. -0.5216362E-01  0.1273705E+01  0.9651866E-03  0.2254553E-01  0.3314571E-03  0.1450780E-01
5701000. -0.5216362E-01  0.1117063E+01  0.9651866E-03  0.3026935E-01  0.3314571E-03  0.2921085E-01
5667333. -0.5739556E-01  0.8760448E+00  0.7984706E-03  0.3200375E-01  0.1954325E-03  0.2244282E-01
5633667. -0.6152925E-01  0.6928735E+00  0.6338063E-03  0.3003569E-01  0.9142786E-04  0.1717327E-01
5600000. -0.6472614E-01  0.5180750E+00  0.4806801E-03  0.2794476E-01  0.1216408E-04  0.1296772E-01
5600000. -0.6472614E-01  0.5180750E+00  0.4806801E-03  0.2794476E-01  0.1216408E-04  0.1296772E-01
5563518. -0.6717607E-01  0.3397402E+00  0.3276094E-03  0.2549184E-01 -0.5133136E-04  0.9355486E-02
5527037. -0.6864288E-01  0.1750006E+00  0.1889799E-03  0.2291239E-01 -0.9647552E-04  0.6529006E-02
5490556. -0.6920899E-01  0.2535234E-01  0.6533679E-04  0.2026800E-01 -0.1272999E-03  0.4331271E-02
5454074. -0.6896392E-01 -0.1082042E+00 -0.4313076E-04  0.1761955E-01 -0.1470454E-03  0.2639673E-02
5417593. -0.6800155E-01 -0.2251382E+00 -0.1365255E-03  0.1501202E-01 -0.1582818E-03  0.1343588E-02
5381111. -0.6641757E-01 -0.3253148E+00 -0.2152261E-03  0.1249414E-01 -0.1630399E-03  0.3657756E-03
5344630. -0.6430750E-01 -0.4089862E+00 -0.2798582E-03  0.1010379E-01 -0.1629543E-03 -0.3590435E-03
5308148. -0.6176415E-01 -0.4767392E+00 -0.3312298E-03  0.7866901E-02 -0.1592957E-03 -0.8895014E-03
5271667. -0.5887668E-01 -0.5293612E+00 -0.3703055E-03  0.5813187E-02 -0.1530773E-03 -0.1258876E-02
5235185. -0.5572861E-01 -0.5679272E+00 -0.3981748E-03  0.3953447E-02 -0.1451088E-03 -0.1507022E-02
5198704. -0.5239722E-01 -0.5936170E+00 -0.4159671E-03  0.2295780E-02 -0.1359944E-03 -0.1662104E-02
5162222. -0.4895258E-01 -0.6076815E+00 -0.4248748E-03  0.8501833E-03 -0.1262271E-03 -0.1738265E-02
5125741. -0.4545742E-01 -0.6115236E+00 -0.4260914E-03 -0.3919786E-03 -0.1161883E-03 -0.1760448E-02
5089259. -0.4196622E-01 -0.6064834E+00 -0.4207657E-03 -0.1435436E-02 -0.1061472E-03 -0.1740186E-02
5052778. -0.3852623E-01 -0.5938969E+00 -0.4100191E-03 -0.2287662E-02 -0.9632394E-04 -0.1686466E-02
5016296. -0.3517662E-01 -0.5750945E+00 -0.3948995E-03 -0.2965152E-02 -0.8687219E-04 -0.1611806E-02
4979815. -0.3194968E-01 -0.5512825E+00 -0.3763730E-03 -0.3479923E-02 -0.7789669E-04 -0.1520846E-02
4943333. -0.2887056E-01 -0.5236155E+00 -0.3553257E-03 -0.3848601E-02 -0.6947529E-04 -0.1419483E-02
4906852. -0.2595843E-01 -0.4931501E+00 -0.3325404E-03 -0.4089786E-02 -0.6164678E-04 -0.1314266E-02
4870370. -0.2322650E-01 -0.4607954E+00 -0.3087063E-03 -0.4217297E-02 -0.5443182E-04 -0.1205462E-02
4833889. -0.2068326E-01 -0.4274026E+00 -0.2844239E-03 -0.4249787E-02 -0.4783865E-04 -0.1097999E-02
4797407. -0.1833241E-01 -0.3936795E+00 -0.2601858E-03 -0.4203745E-02 -0.4184975E-04 -0.9942261E-03
4760926. -0.1617426E-01 -0.3602099E+00 -0.2364092E-03 -0.4091273E-02 -0.3644825E-04 -0.8931702E-03
4724444. -0.1420570E-01 -0.3275183E+00 -0.2134260E-03 -0.3928847E-02 -0.3160817E-04 -0.7984701E-03
4687963. -0.1242121E-01 -0.2959923E+00 -0.1914881E-03 -0.3728064E-02 -0.2729254E-04 -0.7098406E-03
4651482. -0.1081317E-01 -0.2659370E+00 -0.1707857E-03 -0.3499130E-02 -0.2346800E-04 -0.6271354E-03
4615000. -0.9372368E-02 -0.2375919E+00 -0.1514472E-03 -0.3253045E-02 -0.2009616E-04 -0.5517313E-03
4578518. -0.8088624E-02 -0.2111024E+00 -0.1335495E-03 -0.2997034E-02 -0.1713731E-04 -0.4827474E-03
4542037. -0.6951036E-02 -0.1865673E+00 -0.1171297E-03 -0.2738203E-02 -0.1455539E-04 -0.4202187E-03
4505556. -0.5948222E-02 -0.1640291E+00 -0.1021841E-03 -0.2482859E-02 -0.1231170E-04 -0.3644842E-03
4469074. -0.5068756E-02 -0.1434722E+00 -0.8868238E-04 -0.2234405E-02 -0.1037096E-04 -0.3142899E-03
4432593. -0.4301414E-02 -0.1248657E+00 -0.7657364E-04 -0.1997058E-02 -0.8701129E-05 -0.2699268E-03
4396111. -0.3635180E-02 -0.1081358E+00 -0.6578532E-04 -0.1773343E-02 -0.7269280E-05 -0.2309964E-03
4359630. -0.3059616E-02 -0.9318691E-01 -0.5623667E-04 -0.1564419E-02 -0.6047144E-05 -0.1966340E-03
4323148. -0.2564776E-02 -0.7991681E-01 -0.4783764E-04 -0.1371901E-02 -0.5008540E-05 -0.1668539E-03
4286667. -0.2141414E-02 -0.6820442E-01 -0.4049340E-04 -0.1196056E-02 -0.4128627E-05 -0.1411055E-03
4250185. -0.1780949E-02 -0.5792462E-01 -0.3410849E-04 -0.1036768E-02 -0.3385843E-05 -0.1189080E-03
4213704. -0.1475547E-02 -0.4895359E-01 -0.2858845E-04 -0.8939497E-03 -0.2760406E-05 -0.1000689E-03
4177222. -0.1218069E-02 -0.4116254E-01 -0.2384098E-04 -0.7667327E-03 -0.2234371E-05 -0.8411036E-04
4140741. -0.1002121E-02 -0.3443060E-01 -0.1977925E-04 -0.6543541E-03 -0.1792186E-05 -0.7076478E-04
4104259. -0.8219649E-03 -0.2864003E-01 -0.1632044E-04 -0.5559258E-03 -0.1419251E-05 -0.5986381E-04
4067778. -0.6725473E-03 -0.2367801E-01 -0.1338843E-04 -0.4701923E-03 -0.1102718E-05 -0.5103088E-04
4031296. -0.5494139E-03 -0.1944162E-01 -0.1091328E-04 -0.3961693E-03 -0.8309866E-06 -0.4420592E-04
3994815. -0.4486970E-03 -0.1583388E-01 -0.8831140E-05 -0.3327384E-03 -0.5928471E-06 -0.3927168E-04
3958333. -0.3670528E-03 -0.1276506E-01 -0.7084785E-05 -0.2786888E-03 -0.3778995E-06 -0.3610182E-04
3921852. -0.3016321E-03 -0.1015527E-01 -0.5623494E-05 -0.2330150E-03 -0.1758700E-06 -0.3477508E-04
3885370. -0.2500174E-03 -0.7930762E-02 -0.4402358E-05 -0.1946092E-03  0.2398538E-07 -0.3535655E-04
3848889. -0.2101962E-03 -0.6026410E-02 -0.3382981E-05 -0.1623806E-03  0.2330083E-06 -0.3802206E-04
3812407. -0.1804999E-03 -0.4385159E-02 -0.2532968E-05 -0.1352539E-03  0.4640132E-06 -0.4309043E-04
3775926. -0.1595674E-03 -0.2958419E-02 -0.1826653E-05 -0.1119773E-03  0.7318207E-06 -0.5095835E-04
3739444. -0.1462834E-03 -0.1708204E-02 -0.1245905E-05 -0.9113175E-04  0.1054055E-05 -0.6221012E-04
3702963. -0.1397161E-03 -0.6097055E-03 -0.7817295E-06 -0.7091517E-04  0.1452158E-05 -0.7759674E-04
3666482. -0.1390251E-03  0.3433269E-03 -0.4372963E-06 -0.4882228E-04  0.1952297E-05 -0.9801746E-04
3630000. -0.1433321E-03  0.1129450E-02 -0.2327854E-06 -0.2133457E-04  0.2586441E-05 -0.1245951E-03
3630000. -0.1433321E-03  0.1129450E-02 -0.2327854E-06 -0.2133457E-04  0.2586441E-05 -0.1245951E-03
3592500. -0.1517929E-03  0.1695423E-02 -0.2159819E-06  0.1812054E-04  0.3418689E-05 -0.1596032E-03
3555000. -0.1625342E-03  0.1871890E-02 -0.4851029E-06  0.7761020E-04  0.4483203E-05 -0.2037268E-03
3517500. -0.1725542E-03  0.1392246E-02 -0.1195090E-05  0.1707246E-03  0.5836961E-05 -0.2580015E-03
3480000. -0.1767445E-03 -0.2086249E-03 -0.2601965E-05  0.3188109E-03  0.7540556E-05 -0.3224739E-03
3480000. -0.1767445E-03 -0.8899515E-02 -0.6067974E-05 -0.3123624E-03  0.7540556E-05  0.2443429E-03
3409422. -0.1001614E-03 -0.5226292E-02 -0.3398176E-05 -0.1807769E-03  0.5033997E-05  0.2014493E-03
3338844. -0.5562418E-04 -0.3004196E-02 -0.1866940E-05 -0.1025629E-03  0.3132547E-05  0.1421083E-03
3268266. -0.3026866E-04 -0.1690577E-02 -0.1005994E-05 -0.5703921E-04  0.1850305E-05  0.9167354E-04
3197688. -0.1613626E-04 -0.9313571E-03 -0.5315015E-06 -0.3108975E-04  0.1047651E-05  0.5558921E-04
3127109. -0.8424819E-05 -0.5022464E-03 -0.2752223E-06 -0.1660360E-04  0.5718892E-06  0.3212678E-04
3056531. -0.4306314E-05 -0.2650580E-03 -0.1396165E-06 -0.8685228E-05  0.3020379E-06  0.1783402E-04
2985953. -0.2153904E-05 -0.1368465E-03 -0.6934587E-07 -0.4447897E-05  0.1546679E-06  0.9552981E-05
2915375. -0.1053601E-05 -0.6908741E-04 -0.3370251E-07 -0.2228888E-05  0.7689271E-07  0.4951723E-05
2844797. -0.5036960E-06 -0.3408756E-04 -0.1601595E-07 -0.1092219E-05  0.3713741E-07  0.2487898E-05
2774219. -0.2351671E-06 -0.1642627E-04 -0.7436089E-08 -0.5230061E-06  0.1742940E-07  0.1212752E-05
2703641. -0.1071349E-06 -0.7724976E-05 -0.3370167E-08 -0.2445254E-06  0.7947875E-08  0.5737810E-06
2633062. -0.4757879E-07 -0.3542323E-05 -0.1489496E-08 -0.1115216E-06  0.3520019E-08  0.2634779E-06
2562484. -0.2057652E-07 -0.1582323E-05 -0.6412739E-09 -0.4956529E-07  0.1513223E-08  0.1173897E-06
2491906. -0.8655444E-08 -0.6877545E-06 -0.2686177E-09 -0.2144274E-07  0.6308906E-09  0.5071477E-07
2421328. -0.3536697E-08 -0.2905153E-06 -0.1093287E-09 -0.9018165E-08  0.2548260E-09  0.2122690E-07
2350750. -0.1401744E-08 -0.1190984E-06 -0.4317226E-10 -0.3682006E-08  0.9959352E-10  0.8598365E-08
2280172. -0.5380297E-09 -0.4731314E-07 -0.1651361E-10 -0.1457157E-08  0.3760861E-10  0.3366334E-08
2209594. -0.1996368E-09 -0.1818281E-07 -0.6107577E-11 -0.5580057E-09  0.1369910E-10  0.1271884E-08
2139016. -0.7146920E-10 -0.6747242E-08 -0.2179846E-11 -0.2063744E-09  0.4804271E-11  0.4629380E-09
2068438. -0.2463175E-10 -0.2412509E-08 -0.7491368E-12 -0.7356001E-10  0.1618714E-11  0.1619986E-09
1997859. -0.8152884E-11 -0.8292211E-09 -0.2472925E-12 -0.2520995E-10  0.5227251E-12  0.5437732E-10
1927281. -0.2584695E-11 -0.2732843E-09 -0.7820112E-13 -0.8285609E-11  0.1613547E-12  0.1746378E-10
1856703. -0.7824824E-12 -0.8610596E-10 -0.2361828E-13 -0.2603906E-11  0.4746483E-13  0.5350616E-11
1786125. -0.2254458E-12 -0.2585289E-10 -0.6789631E-14 -0.7799290E-12  0.1326054E-13  0.1558795E-11
1715547. -0.6158516E-13 -0.7369454E-11 -0.1850728E-14 -0.2218345E-12  0.3504764E-14  0.4302260E-12
1644969. -0.1589035E-13 -0.1985064E-11 -0.4760602E-15 -0.5970006E-13  0.8719551E-15  0.1120931E-12
1574391.  0.0000000E+00  0.0000000E+00  0.0000000E+00  0.0000000E+00  0.0000000E+00  0.0000000E+00
1503812.  0.0000000E+00  0.0000000E+00  0.0000000E+00  0.0000000E+00  0.0000000E+00  0.0000000E+00
1433234.  0.0000000E+00  0.0000000E+00  0.0000000E+00  0.0000000E+00  0.0000000E+00  0.0000000E+00
1362656.  0.0000000E+00  0.0000000E+00  0.0000000E+00  0.0000000E+00  0.0000000E+00  0.0000000E+00
1292078.  0.0000000E+00  0.0000000E+00  0.0000000E+00  0.0000000E+00  0.0000000E+00  0.0000000E+00
1221500.  0.0000000E+00  0.0000000E+00  0.0000000E+00  0.0000000E+00  0.0000000E+00  0.0000000E+00
1221500.  0.0000000E+00  0.0000000E+00  0.0000000E+00  0.0000000E+00  0.0000000E+00  0.0000000E+00
1183328.  0.0000000E+00  0.0000000E+00  0.0000000E+00  0.0000000E+00  0.0000000E+00  0.0000000E+00
1145156.  0.0000000E+00  0.0000000E+00  0.0000000E+00  0.0000000E+00  0.0000000E+00  0.0000000E+00
1106984.  0.0000000E+00  0.0000000E+00  0.0000000E+00  0.0000000E+00  0.0000000E+00  0.0000000E+00
1068812.  0.0000000E+00  0.0000000E+00  0.0000000E+00  0.0000000E+00  0.0000000E+00  0.0000000E+00
1030641.  0.0000000E+00  0.0000000E+00  0.0000000E+00  0.0000000E+00  0.0000000E+00  0.0000000E+00
 992469.  0.0000000E+00  0.0000000E+00  0.0000000E+00  0.0000000E+00  0.0000000E+00  0.0000000E+00
 954297.  0.0000000E+00  0.0000000E+00  0.0000000E+00  0.0000000E+00  0.0000000E+00  0.0000000E+00
 916125.  0.0000000E+00  0.0000000E+00  0.0000000E+00  0.0000000E+00  0.0000000E+00  0.0000000E+00
 877953.  0.0000000E+00  0.0000000E+00  0.0000000E+00  0.0000000E+00  0.0000000E+00  0.0000000E+00
 839781.  0.0000000E+00  0.0000000E+00  0.0000000E+00  0.0000000E+00  0.0000000E+00  0.0000000E+00
 801609.  0.0000000E+00  0.0000000E+00  0.0000000E+00  0.0000000E+00  0.0000000E+00  0.0000000E+00
 763438.  0.0000000E+00  0.0000000E+00  0.0000000E+00  0.0000000E+00  0.0000000E+00  0.0000000E+00
 725266.  0.0000000E+00  0.0000000E+00  0.0000000E+00  0.0000000E+00  0.0000000E+00  0.0000000E+00
 687094.  0.0000000E+00  0.0000000E+00  0.0000000E+00  0.0000000E+00  0.0000000E+00  0.0000000E+00
 648922.  0.0000000E+00  0.0000000E+00  0.0000000E+00  0.0000000E+00  0.0000000E+00  0.0000000E+00
 610750.  0.0000000E+00  0.0000000E+00  0.0000000E+00  0.0000000E+00  0.0000000E+00  0.0000000E+00
 572578.  0.0000000E+00  0.0000000E+00  0.0000000E+00  0.0000000E+00  0.0000000E+00  0.0000000E+00
 534406.  0.0000000E+00  0.0000000E+00  0.0000000E+00  0.0000000E+00  0.0000000E+00  0.0000000E+00
 496234.  0.0000000E+00  0.0000000E+00  0.0000000E+00  0.0000000E+00  0.0000000E+00  0.0000000E+00
 458062.  0.0000000E+00  0.0000000E+00  0.0000000E+00  0.0000000E+00  0.0000000E+00  0.0000000E+00
 419891.  0.0000000E+00  0.0000000E+00  0.0000000E+00  0.0000000E+00  0.0000000E+00  0.0000000E+00
 381719.  0.0000000E+00  0.0000000E+00  0.0000000E+00  0.0000000E+00  0.0000000E+00  0.0000000E+00
 343547.  0.0000000E+00  0.0000000E+00  0.0000000E+00  0.0000000E+00  0.0000000E+00  0.0000000E+00
 305375.  0.0000000E+00  0.0000000E+00  0.0000000E+00  0.0000000E+00  0.0000000E+00  0.0000000E+00
 267203.  0.0000000E+00  0.0000000E+00  0.0000000E+00  0.0000000E+00  0.0000000E+00  0.0000000E+00
 229031.  0.0000000E+00  0.0000000E+00  0.0000000E+00  0.0000000E+00  0.0000000E+00  0.0000000E+00
 190859.  0.0000000E+00  0.0000000E+00  0.0000000E+00  0.0000000E+00  0.0000000E+00  0.0000000E+00
 152688.  0.0000000E+00  0.0000000E+00  0.0000000E+00  0.0000000E+00  0.0000000E+00  0.0000000E+00
 114516.  0.0000000E+00  0.0000000E+00  0.0000000E+00  0.0000000E+00  0.0000000E+00  0.0000000E+00
  76344.  0.0000000E+00  0.0000000E+00  0.0000000E+00  0.0000000E+00  0.0000000E+00  0.0000000E+00
  38172.  0.0000000E+00  0.0000000E+00  0.0000000E+00  0.0000000E+00  0.0000000E+00  0.0000000E+00
      0.  0.0000000E+00  0.0000000E+00  0.0000000E+00  0.0000000E+00  0.0000000E+00  0.0000000E+00
