       7       24 S      424        128.02310         12.76242          7.38478        247.49300      185    7
6371000.  0.5301474E-01  0.4145890E+00  0.1934725E-02 -0.5108001E-01 -0.9468135E-03 -0.7630306E-01
6370000.  0.5294761E-01  0.4406385E+00  0.1942550E-02 -0.4861834E-01 -0.9348273E-03 -0.7642480E-01
6369000.  0.5287642E-01  0.4665039E+00  0.1949987E-02 -0.4613759E-01 -0.9228223E-03 -0.7654145E-01
6368000.  0.5280118E-01  0.4921823E+00  0.1957033E-02 -0.4363829E-01 -0.9107995E-03 -0.7665299E-01
6368000.  0.5280118E-01  0.4921823E+00  0.1957033E-02 -0.4363829E-01 -0.9107995E-03 -0.7665299E-01
6367000.  0.5272193E-01  0.5176708E+00  0.1963685E-02 -0.4112096E-01 -0.8987595E-03 -0.7675941E-01
6366000.  0.5263868E-01  0.5429661E+00  0.1969940E-02 -0.3858614E-01 -0.8867032E-03 -0.7686072E-01
6365000.  0.5255149E-01  0.5680655E+00  0.1975797E-02 -0.3603438E-01 -0.8746315E-03 -0.7695688E-01
6364000.  0.5246036E-01  0.5929661E+00  0.1981251E-02 -0.3346621E-01 -0.8625450E-03 -0.7704791E-01
6363000.  0.5236535E-01  0.6176650E+00  0.1986302E-02 -0.3088217E-01 -0.8504447E-03 -0.7713377E-01
6362000.  0.5226647E-01  0.6421595E+00  0.1990945E-02 -0.2828283E-01 -0.8383312E-03 -0.7721449E-01
6361000.  0.5216377E-01  0.6664469E+00  0.1995180E-02 -0.2566874E-01 -0.8262056E-03 -0.7729002E-01
6360000.  0.5205727E-01  0.6905243E+00  0.1999003E-02 -0.2304045E-01 -0.8140684E-03 -0.7736038E-01
6359000.  0.5194701E-01  0.7143894E+00  0.2002412E-02 -0.2039853E-01 -0.8019207E-03 -0.7742554E-01
6358000.  0.5183302E-01  0.7380393E+00  0.2005405E-02 -0.1774355E-01 -0.7897631E-03 -0.7748552E-01
6357000.  0.5171534E-01  0.7614717E+00  0.2007981E-02 -0.1507607E-01 -0.7775965E-03 -0.7754028E-01
6356000.  0.5159399E-01  0.7846841E+00  0.2010138E-02 -0.1239667E-01 -0.7654217E-03 -0.7758983E-01
6356000.  0.5159399E-01  0.6087434E+00  0.2010138E-02 -0.2718422E-01 -0.7654217E-03 -0.8881609E-01
6355000.  0.5149707E-01  0.6261759E+00  0.2014274E-02 -0.2551685E-01 -0.7514718E-03 -0.8893388E-01
6354000.  0.5139743E-01  0.6434779E+00  0.2018147E-02 -0.2384063E-01 -0.7375036E-03 -0.8904818E-01
6353000.  0.5129508E-01  0.6606479E+00  0.2021757E-02 -0.2215579E-01 -0.7235177E-03 -0.8915901E-01
6352000.  0.5119004E-01  0.6776847E+00  0.2025102E-02 -0.2046257E-01 -0.7095148E-03 -0.8926636E-01
6351000.  0.5108234E-01  0.6945867E+00  0.2028181E-02 -0.1876119E-01 -0.6954952E-03 -0.8937021E-01
6350000.  0.5097200E-01  0.7113526E+00  0.2030991E-02 -0.1705188E-01 -0.6814596E-03 -0.8947056E-01
6349000.  0.5085904E-01  0.7279811E+00  0.2033533E-02 -0.1533490E-01 -0.6674086E-03 -0.8956742E-01
6348000.  0.5074348E-01  0.7444708E+00  0.2035805E-02 -0.1361047E-01 -0.6533426E-03 -0.8966076E-01
6347000.  0.5062534E-01  0.7608203E+00  0.2037806E-02 -0.1187883E-01 -0.6392622E-03 -0.8975059E-01
6346600.  0.5057737E-01  0.7673206E+00  0.2038529E-02 -0.1118421E-01 -0.6336262E-03 -0.8978554E-01
6346600.  0.5057737E-01  0.6842647E+00  0.2038529E-02 -0.2337980E-01 -0.6336262E-03 -0.1074211E+00
6318800.  0.4688090E-01  0.9964737E+00  0.2063160E-02  0.1268548E-01 -0.1576758E-03 -0.1104352E+00
6291000.  0.4201052E-01  0.1219957E+01  0.1924785E-02  0.5083080E-01  0.3275486E-03 -0.1116648E+00
6291000.  0.4201052E-01  0.1244682E+01  0.1924785E-02  0.5401319E-01  0.3275486E-03 -0.1116648E+00
6263000.  0.3623619E-01  0.1365054E+01  0.1600597E-02  0.9300844E-01  0.8170564E-03 -0.1107816E+00
6235000.  0.3016919E-01  0.1378447E+01  0.1114182E-02  0.1272882E+00  0.1298572E-02 -0.1080378E+00
6207000.  0.2426497E-01  0.1293126E+01  0.4932036E-03  0.1537740E+00  0.1764088E-02 -0.1035187E+00
6179000.  0.1892276E-01  0.1126205E+01 -0.2223877E-03  0.1699954E+00  0.2206068E-02 -0.9735186E-01
6151000.  0.1444979E-01  0.9021368E+00 -0.9835351E-03  0.1743103E+00  0.2617615E-02 -0.8969855E-01
6151000.  0.1444979E-01  0.6765040E+00 -0.9835351E-03  0.1512292E+00  0.2617615E-02 -0.9049799E-01
6128500.  0.1239394E-01  0.4872428E+00 -0.1509126E-02  0.1454460E+00  0.2928334E-02 -0.8537320E-01
6106000.  0.1100465E-01  0.3009907E+00 -0.2004234E-02  0.1340448E+00  0.3220017E-02 -0.7973002E-01
6083500.  0.1025081E-01  0.1291749E+00 -0.2449995E-02  0.1176179E+00  0.3490959E-02 -0.7363871E-01
6061000.  0.1006303E-01 -0.1801258E-01 -0.2830026E-02  0.9697084E-01  0.3739704E-02 -0.6717217E-01
6038500.  0.1033875E-01 -0.1320646E+00 -0.3131100E-02  0.7307826E-01  0.3965059E-02 -0.6040486E-01
6016000.  0.1094892E-01 -0.2065355E+00 -0.3343658E-02  0.4703072E-01  0.4166095E-02 -0.5341286E-01
5993500.  0.1174572E-01 -0.2372625E+00 -0.3462108E-02  0.1997878E-01  0.4342154E-02 -0.4627351E-01
5971000.  0.1257085E-01 -0.2224879E+00 -0.3484955E-02 -0.6920860E-02  0.4492853E-02 -0.3906437E-01
5971000.  0.1257085E-01 -0.2733052E+00 -0.3484955E-02 -0.8045720E-02  0.4492853E-02 -0.4071000E-01
5937667.  0.1381431E-01 -0.1887059E+00 -0.3355043E-02 -0.4049091E-01  0.4676817E-02 -0.2964822E-01
5904333.  0.1442425E-01 -0.3460504E-01 -0.3074368E-02 -0.6544706E-01  0.4803666E-02 -0.1891254E-01
5871000.  0.1409469E-01  0.1664439E+00 -0.2684854E-02 -0.8202832E-01  0.4875664E-02 -0.8715544E-02
5837667.  0.1264296E-01  0.3903418E+00 -0.2230704E-02 -0.9021520E-01  0.4896127E-02  0.7594515E-03
5804333.  0.1001095E-01  0.6139012E+00 -0.1754336E-02 -0.9067345E-01  0.4869238E-02  0.9362675E-02
5771000.  0.6255619E-02  0.8166680E+00 -0.1293372E-02 -0.8455472E-01  0.4799877E-02  0.1698013E-01
5771000.  0.6255619E-02  0.8166388E+00 -0.1293372E-02 -0.8455224E-01  0.4799877E-02  0.1698013E-01
5701000. -0.4991812E-02  0.1197877E+01 -0.4764365E-03 -0.6098859E-01  0.4536579E-02  0.3030387E-01
5701000. -0.4991812E-02  0.9768649E+00 -0.4764365E-03 -0.4715574E-01  0.4536579E-02  0.3171088E-01
5667333. -0.1012384E-01  0.9711376E+00 -0.2739139E-03 -0.3045240E-01  0.4360563E-02  0.3459002E-01
5633667. -0.1530851E-01  0.9893818E+00 -0.1472540E-03 -0.1769717E-01  0.4172840E-02  0.3637941E-01
5600000. -0.2049122E-01  0.9636934E+00 -0.8757381E-04 -0.4896661E-02  0.3976971E-02  0.3765483E-01
5600000. -0.2049122E-01  0.9636934E+00 -0.8757381E-04 -0.4896661E-02  0.3976971E-02  0.3765483E-01
5563518. -0.2581291E-01  0.8867499E+00 -0.9773847E-04  0.8265097E-02  0.3758829E-02  0.3843749E-01
5527037. -0.3055616E-01  0.7625353E+00 -0.1794992E-03  0.2000201E-01  0.3537828E-02  0.3866646E-01
5490556. -0.3446691E-01  0.5971770E+00 -0.3229665E-03  0.2973275E-01  0.3316939E-02  0.3841048E-01
5454074. -0.3733220E-01  0.3988784E+00 -0.5153427E-03  0.3702351E-01  0.3098726E-02  0.3774095E-01
5417593. -0.3899102E-01  0.1775431E+00 -0.7417790E-03  0.4159898E-01  0.2885382E-02  0.3672288E-01
5381111. -0.3934194E-01 -0.5610983E-01 -0.9863465E-03  0.4334883E-01  0.2678692E-02  0.3542688E-01
5344630. -0.3834634E-01 -0.2909070E+00 -0.1232910E-02  0.4231826E-01  0.2480066E-02  0.3391794E-01
5308148. -0.3602917E-01 -0.5159109E+00 -0.1466032E-02  0.3869390E-01  0.2290550E-02  0.3225309E-01
5271667. -0.3247632E-01 -0.7209128E+00 -0.1671680E-02  0.3278438E-01  0.2110871E-02  0.3049303E-01
5235185. -0.2782855E-01 -0.8969336E+00 -0.1837896E-02  0.2499369E-01  0.1941428E-02  0.2868339E-01
5198704. -0.2227408E-01 -0.1036554E+01 -0.1955225E-02  0.1579327E-01  0.1782393E-02  0.2686626E-01
5162222. -0.1603802E-01 -0.1134175E+01 -0.2017053E-02  0.5695442E-02  0.1633683E-02  0.2508071E-01
5125741. -0.9372256E-02 -0.1186295E+01 -0.2019738E-02 -0.4777659E-02  0.1495049E-02  0.2335259E-01
5089259. -0.2542125E-02 -0.1191439E+01 -0.1962589E-02 -0.1512050E-01  0.1366088E-02  0.2170409E-01
5052778.  0.4183627E-02 -0.1150167E+01 -0.1847725E-02 -0.2486305E-01  0.1246303E-02  0.2015095E-01
5016296.  0.1054595E-01 -0.1065002E+01 -0.1679778E-02 -0.3359665E-01  0.1135111E-02  0.1870247E-01
4979815.  0.1630435E-01 -0.9401153E+00 -0.1465544E-02 -0.4098206E-01  0.1031908E-02  0.1736223E-01
4943333.  0.2124719E-01 -0.7811391E+00 -0.1213505E-02 -0.4676350E-01  0.9360665E-03  0.1612996E-01
4906852.  0.2519793E-01 -0.5948380E+00 -0.9333803E-03 -0.5077311E-01  0.8469795E-03  0.1500287E-01
4870370.  0.2802149E-01 -0.3887074E+00 -0.6355781E-03 -0.5292853E-01  0.7640666E-03  0.1397122E-01
4833889.  0.2962688E-01 -0.1707216E+00 -0.3307613E-03 -0.5323336E-01  0.6868052E-03  0.1302869E-01
4797407.  0.2996928E-01  0.5110484E-01 -0.2931394E-04 -0.5176771E-01  0.6147052E-03  0.1216542E-01
4760926.  0.2904925E-01  0.2689529E+00  0.2589959E-03 -0.4867704E-01  0.5473600E-03  0.1136699E-01
4724444.  0.2691059E-01  0.4755813E+00  0.5254355E-03 -0.4416391E-01  0.4844131E-03  0.1062732E-01
4687963.  0.2363671E-01  0.6644725E+00  0.7625240E-03 -0.3847089E-01  0.4255628E-03  0.9934645E-02
4651482.  0.1934551E-01  0.8300771E+00  0.9642763E-03 -0.3186866E-01  0.3705697E-03  0.9278995E-02
4615000.  0.1418333E-01  0.9680013E+00  0.1126304E-02 -0.2464230E-01  0.3192357E-03  0.8655082E-02
4578518.  0.8318756E-02  0.1074960E+01  0.1245848E-02 -0.1707741E-01  0.2714015E-03  0.8055517E-02
4542037.  0.1935672E-02  0.1148934E+01  0.1321766E-02 -0.9450501E-02  0.2269429E-03  0.7476171E-02
4505556. -0.4774439E-02  0.1189140E+01  0.1354448E-02 -0.2016402E-02  0.1857488E-03  0.6914998E-02
4469074. -0.1161859E-01  0.1195826E+01  0.1345659E-02  0.4999156E-02  0.1477168E-03  0.6371353E-02
4432593. -0.1840801E-01  0.1170405E+01  0.1298369E-02  0.1140230E-01  0.1127495E-03  0.5844936E-02
4396111. -0.2496535E-01  0.1115139E+01  0.1216539E-02  0.1704068E-01  0.8074191E-04  0.5338174E-02
4359630. -0.3112752E-01  0.1033004E+01  0.1104891E-02  0.2180205E-01  0.5156528E-04  0.4857029E-02
4323148. -0.3675126E-01  0.9276682E+00  0.9686733E-03  0.2561218E-01  0.2506798E-04  0.4402616E-02
4286667. -0.4171478E-01  0.8031452E+00  0.8134504E-03  0.2843940E-01  0.1079057E-05  0.3982823E-02
4250185. -0.4592058E-01  0.6637006E+00  0.6448462E-03  0.3028733E-01 -0.2062664E-04  0.3605688E-02
4213704. -0.4929559E-01  0.5137338E+00  0.4683989E-03  0.3118885E-01 -0.4030210E-04  0.3275294E-02
4177222. -0.5179205E-01  0.3575185E+00  0.2893429E-03  0.3120942E-01 -0.5825132E-04  0.3004758E-02
4140741. -0.5338595E-01  0.1991749E+00  0.1125017E-03  0.3043192E-01 -0.7484463E-04  0.2802542E-02
4104259. -0.5407623E-01  0.4249770E-01 -0.5783682E-04  0.2895480E-01 -0.9048786E-04  0.2675592E-02
4067778. -0.5388237E-01 -0.1091036E+00 -0.2179870E-03  0.2689422E-01 -0.1056762E-03  0.2646455E-02
4031296. -0.5284203E-01 -0.2527024E+00 -0.3649367E-03  0.2436131E-01 -0.1209945E-03  0.2722187E-02
3994815. -0.5100835E-01 -0.3858449E+00 -0.4963004E-03  0.2147156E-01 -0.1370855E-03  0.2921146E-02
3958333. -0.4844692E-01 -0.5065936E+00 -0.6103783E-03  0.1834033E-01 -0.1547424E-03  0.3272695E-02
3921852. -0.4523306E-01 -0.6135531E+00 -0.7060638E-03  0.1506397E-01 -0.1748904E-03  0.3795757E-02
3885370. -0.4144849E-01 -0.7057728E+00 -0.7827934E-03  0.1173298E-01 -0.1986124E-03  0.4528041E-02
3848889. -0.3717952E-01 -0.7827351E+00 -0.8404754E-03  0.8421971E-02 -0.2272308E-03  0.5513507E-02
3812407. -0.3251371E-01 -0.8443372E+00 -0.8793783E-03  0.5180686E-02 -0.2623315E-03  0.6802086E-02
3775926. -0.2753910E-01 -0.8906767E+00 -0.9000128E-03  0.2045575E-02 -0.3058503E-03  0.8467560E-02
3739444. -0.2234191E-01 -0.9221013E+00 -0.9030236E-03 -0.9762309E-03 -0.3601890E-03  0.1059678E-01
3702963. -0.1700665E-01 -0.9390058E+00 -0.8890122E-03 -0.3905054E-02 -0.4283052E-03  0.1330215E-01
3666482. -0.1161559E-01 -0.9416201E+00 -0.8583975E-03 -0.6786154E-02 -0.5139144E-03  0.1673460E-01
3630000. -0.6250050E-02 -0.9300191E+00 -0.8112234E-03 -0.9706068E-02 -0.6217000E-03  0.2108255E-01
3630000. -0.6250050E-02 -0.9300191E+00 -0.8112234E-03 -0.9706068E-02 -0.6217000E-03  0.2108255E-01
3592500. -0.8483810E-03 -0.9027375E+00 -0.7448811E-03 -0.1287927E-01 -0.7618428E-03  0.2676727E-01
3555000.  0.4343900E-02 -0.8585635E+00 -0.6588951E-03 -0.1641856E-01 -0.9398994E-03  0.3403170E-01
3517500.  0.9220622E-02 -0.7949535E+00 -0.5503644E-03 -0.2059128E-01 -0.1166460E-02  0.4333561E-01
3480000.  0.1365547E-01 -0.7075047E+00 -0.4145501E-03 -0.2575866E-01 -0.1455224E-02  0.5528303E-01
3480000.  0.1365547E-01  0.2386528E+00  0.9930787E-03  0.2316424E-01 -0.1455224E-02  0.1149014E-01
3409422.  0.1106323E-01  0.2264706E+00  0.7581661E-03  0.1924747E-01 -0.1441085E-02 -0.1116676E-01
3338844.  0.8685737E-02  0.2012324E+00  0.5660285E-03  0.1548929E-01 -0.1256861E-02 -0.2043636E-01
3268266.  0.6626633E-02  0.1699907E+00  0.4135734E-03  0.1210973E-01 -0.1015564E-02 -0.2224914E-01
3197688.  0.4922877E-02  0.1377515E+00  0.2959130E-03  0.9218191E-02 -0.7775315E-03 -0.2032354E-01
3127109.  0.3566336E-02  0.1076983E+00  0.2074194E-03  0.6843322E-02 -0.5707559E-03 -0.1688080E-01
3056531.  0.2522131E-02  0.8155273E-01  0.1424707E-03  0.4960359E-02 -0.4044691E-03 -0.1316005E-01
2985953.  0.1742515E-02  0.5997071E-01  0.9590547E-04  0.3513535E-02 -0.2778772E-03 -0.9780485E-02
2915375.  0.1176688E-02  0.4290614E-01  0.6327074E-04  0.2433345E-02 -0.1855732E-03 -0.6989834E-02
2844797.  0.7768602E-03  0.2990466E-01  0.4090300E-04  0.1648318E-02 -0.1206737E-03 -0.4828688E-02
2774219.  0.5014900E-03  0.2032235E-01  0.2590623E-04  0.1092256E-02 -0.7648941E-04 -0.3234811E-02
2703641.  0.3165130E-03  0.1347277E-01  0.1606975E-04  0.7080229E-03 -0.4728635E-04 -0.2105745E-02
2633062.  0.1952701E-03  0.8715686E-02  0.9758490E-05  0.4488883E-03 -0.2851777E-04 -0.1333621E-02
2562484.  0.1177198E-03  0.5502140E-02  0.5798308E-05  0.2782760E-03 -0.1677759E-04 -0.8223010E-03
2491906.  0.6931384E-04  0.3389033E-02  0.3368891E-05  0.1686043E-03 -0.9626257E-05 -0.4937600E-03
2421328.  0.3983649E-04  0.2036048E-02  0.1912573E-05  0.9978669E-04 -0.5383859E-05 -0.2887116E-03
2350750.  0.2233100E-04  0.1192471E-02  0.1060043E-05  0.5764867E-04 -0.2933278E-05 -0.1643370E-03
2280172.  0.1219880E-04  0.6803972E-03  0.5730301E-06  0.3248325E-04 -0.1555514E-05 -0.9100982E-04
2209594.  0.6487251E-05  0.3778921E-03  0.3017856E-06  0.1783457E-04 -0.8020803E-06 -0.4899892E-04
2139016.  0.3354471E-05  0.2040915E-03  0.1546468E-06  0.9530436E-05 -0.4016687E-06 -0.2562143E-04
2068438.  0.1684298E-05  0.1070576E-03  0.7700003E-07  0.4950549E-05 -0.1950859E-06 -0.1299633E-04
1997859.  0.8199210E-06  0.5446799E-04  0.3719213E-07  0.2496009E-05 -0.9174866E-07 -0.6385899E-05
1927281.  0.3863074E-06  0.2683567E-04  0.1739608E-07  0.1219487E-05 -0.4170758E-07 -0.3034618E-05
1856703.  0.1758078E-06  0.1278011E-04  0.7863392E-08  0.5762680E-06 -0.1828838E-07 -0.1392004E-05
1786125.  0.7711022E-07  0.5870850E-05  0.3427173E-08  0.2628208E-06 -0.7717333E-08 -0.6150188E-06
1715547.  0.3251236E-07  0.2595233E-05  0.1436512E-08  0.1154056E-06 -0.3125644E-08 -0.2610770E-06
1644969.  0.1313980E-07  0.1100977E-05  0.5773778E-09  0.4865480E-07 -0.1211380E-08 -0.1061805E-06
1574391.  0.5073324E-08  0.4468439E-06  0.2217920E-09  0.1963270E-07 -0.4477076E-09 -0.4123816E-07
1503812.  0.1864089E-08  0.1728999E-06  0.8112357E-10  0.7553832E-08 -0.1571691E-09 -0.1523675E-07
1433234.  0.6483519E-09  0.6359002E-07  0.2815667E-10  0.2756980E-08 -0.5217881E-10 -0.5332314E-08
1362656.  0.2100641E-09  0.2239627E-07  0.9323305E-11  0.9385906E-09 -0.1631254E-10 -0.1757530E-08
1292078.  0.5378696E-10  0.8652666E-08  0.3308082E-11  0.2489212E-09 -0.4806701E-11 -0.5409137E-09
1221500. -0.3005963E-10  0.8635982E-08  0.2819599E-11 -0.1714683E-09 -0.1351753E-11 -0.1610535E-09
1221500. -0.3005963E-10  0.3247146E-09  0.1974566E-12  0.1578124E-09 -0.1351753E-11 -0.1480316E-09
1183328. -0.2686977E-10 -0.1080340E-08 -0.3332095E-12  0.3736459E-10 -0.6899676E-12 -0.7933094E-10
1145156. -0.1951344E-10 -0.1256265E-08 -0.3999167E-12 -0.6862788E-11 -0.3407907E-12 -0.4106364E-10
1106984. -0.1263118E-10 -0.1009420E-08 -0.3160147E-12 -0.1780490E-10 -0.1627997E-12 -0.2053152E-10
1068812. -0.7544344E-11 -0.6920073E-09 -0.2108248E-12 -0.1621673E-10 -0.7521705E-13 -0.9889744E-11
1030641.  0.0000000E+00  0.0000000E+00  0.0000000E+00  0.0000000E+00  0.0000000E+00  0.0000000E+00
 992469.  0.0000000E+00  0.0000000E+00  0.0000000E+00  0.0000000E+00  0.0000000E+00  0.0000000E+00
 954297.  0.0000000E+00  0.0000000E+00  0.0000000E+00  0.0000000E+00  0.0000000E+00  0.0000000E+00
 916125.  0.0000000E+00  0.0000000E+00  0.0000000E+00  0.0000000E+00  0.0000000E+00  0.0000000E+00
 877953.  0.0000000E+00  0.0000000E+00  0.0000000E+00  0.0000000E+00  0.0000000E+00  0.0000000E+00
 839781.  0.0000000E+00  0.0000000E+00  0.0000000E+00  0.0000000E+00  0.0000000E+00  0.0000000E+00
 801609.  0.0000000E+00  0.0000000E+00  0.0000000E+00  0.0000000E+00  0.0000000E+00  0.0000000E+00
 763438.  0.0000000E+00  0.0000000E+00  0.0000000E+00  0.0000000E+00  0.0000000E+00  0.0000000E+00
 725266.  0.0000000E+00  0.0000000E+00  0.0000000E+00  0.0000000E+00  0.0000000E+00  0.0000000E+00
 687094.  0.0000000E+00  0.0000000E+00  0.0000000E+00  0.0000000E+00  0.0000000E+00  0.0000000E+00
 648922.  0.0000000E+00  0.0000000E+00  0.0000000E+00  0.0000000E+00  0.0000000E+00  0.0000000E+00
 610750.  0.0000000E+00  0.0000000E+00  0.0000000E+00  0.0000000E+00  0.0000000E+00  0.0000000E+00
 572578.  0.0000000E+00  0.0000000E+00  0.0000000E+00  0.0000000E+00  0.0000000E+00  0.0000000E+00
 534406.  0.0000000E+00  0.0000000E+00  0.0000000E+00  0.0000000E+00  0.0000000E+00  0.0000000E+00
 496234.  0.0000000E+00  0.0000000E+00  0.0000000E+00  0.0000000E+00  0.0000000E+00  0.0000000E+00
 458062.  0.0000000E+00  0.0000000E+00  0.0000000E+00  0.0000000E+00  0.0000000E+00  0.0000000E+00
 419891.  0.0000000E+00  0.0000000E+00  0.0000000E+00  0.0000000E+00  0.0000000E+00  0.0000000E+00
 381719.  0.0000000E+00  0.0000000E+00  0.0000000E+00  0.0000000E+00  0.0000000E+00  0.0000000E+00
 343547.  0.0000000E+00  0.0000000E+00  0.0000000E+00  0.0000000E+00  0.0000000E+00  0.0000000E+00
 305375.  0.0000000E+00  0.0000000E+00  0.0000000E+00  0.0000000E+00  0.0000000E+00  0.0000000E+00
 267203.  0.0000000E+00  0.0000000E+00  0.0000000E+00  0.0000000E+00  0.0000000E+00  0.0000000E+00
 229031.  0.0000000E+00  0.0000000E+00  0.0000000E+00  0.0000000E+00  0.0000000E+00  0.0000000E+00
 190859.  0.0000000E+00  0.0000000E+00  0.0000000E+00  0.0000000E+00  0.0000000E+00  0.0000000E+00
 152688.  0.0000000E+00  0.0000000E+00  0.0000000E+00  0.0000000E+00  0.0000000E+00  0.0000000E+00
 114516.  0.0000000E+00  0.0000000E+00  0.0000000E+00  0.0000000E+00  0.0000000E+00  0.0000000E+00
  76344.  0.0000000E+00  0.0000000E+00  0.0000000E+00  0.0000000E+00  0.0000000E+00  0.0000000E+00
  38172.  0.0000000E+00  0.0000000E+00  0.0000000E+00  0.0000000E+00  0.0000000E+00  0.0000000E+00
      0.  0.0000000E+00  0.0000000E+00  0.0000000E+00  0.0000000E+00  0.0000000E+00  0.0000000E+00
