       7       22 S      422        134.22260         13.25498          7.00440        240.81149      185    7
6371000. -0.4157763E-01 -0.5205160E+00 -0.2781427E-02  0.3879620E-01  0.1006532E-02  0.5525544E-01
6370000. -0.4149448E-01 -0.5389201E+00 -0.2787260E-02  0.3552603E-01  0.9978453E-03  0.5542887E-01
6369000. -0.4140846E-01 -0.5571152E+00 -0.2792578E-02  0.3224226E-01  0.9891317E-03  0.5559856E-01
6368000. -0.4131960E-01 -0.5750994E+00 -0.2797381E-02  0.2894555E-01  0.9803919E-03  0.5576449E-01
6368000. -0.4131960E-01 -0.5750994E+00 -0.2797381E-02  0.2894555E-01  0.9803919E-03  0.5576449E-01
6367000. -0.4122793E-01 -0.5928708E+00 -0.2801664E-02  0.2563652E-01  0.9716263E-03  0.5592665E-01
6366000. -0.4113349E-01 -0.6104276E+00 -0.2805428E-02  0.2231583E-01  0.9628354E-03  0.5608502E-01
6365000. -0.4103632E-01 -0.6277680E+00 -0.2808669E-02  0.1898413E-01  0.9540201E-03  0.5623961E-01
6364000. -0.4093644E-01 -0.6448901E+00 -0.2811387E-02  0.1564207E-01  0.9451808E-03  0.5639039E-01
6363000. -0.4083388E-01 -0.6617922E+00 -0.2813579E-02  0.1229032E-01  0.9363181E-03  0.5653736E-01
6362000. -0.4072870E-01 -0.6784728E+00 -0.2815244E-02  0.8929512E-02  0.9274327E-03  0.5668050E-01
6361000. -0.4062091E-01 -0.6949302E+00 -0.2816382E-02  0.5560325E-02  0.9185250E-03  0.5681980E-01
6360000. -0.4051055E-01 -0.7111628E+00 -0.2816990E-02  0.2183418E-02  0.9095958E-03  0.5695526E-01
6359000. -0.4039767E-01 -0.7271691E+00 -0.2817067E-02 -0.1200546E-02  0.9006457E-03  0.5708687E-01
6358000. -0.4028229E-01 -0.7429477E+00 -0.2816612E-02 -0.4590900E-02  0.8916752E-03  0.5721460E-01
6357000. -0.4016445E-01 -0.7584971E+00 -0.2815625E-02 -0.7986976E-02  0.8826850E-03  0.5733846E-01
6356000. -0.4004419E-01 -0.7738160E+00 -0.2814105E-02 -0.1138810E-01  0.8736756E-03  0.5745843E-01
6356000. -0.4004419E-01 -0.6228217E+00 -0.2814105E-02  0.7919189E-02  0.8736756E-03  0.6617159E-01
6355000. -0.3994552E-01 -0.6344566E+00 -0.2815181E-02  0.5793619E-02  0.8632743E-03  0.6636045E-01
6354000. -0.3984503E-01 -0.6459536E+00 -0.2815923E-02  0.3663248E-02  0.8528437E-03  0.6654666E-01
6353000. -0.3974275E-01 -0.6573118E+00 -0.2816331E-02  0.1528343E-02  0.8423840E-03  0.6673021E-01
6352000. -0.3963869E-01 -0.6685303E+00 -0.2816403E-02 -0.6108247E-03  0.8318957E-03  0.6691108E-01
6351000. -0.3953289E-01 -0.6796085E+00 -0.2816139E-02 -0.2753983E-02  0.8213792E-03  0.6708927E-01
6350000. -0.3942535E-01 -0.6905456E+00 -0.2815538E-02 -0.4900862E-02  0.8108350E-03  0.6726478E-01
6349000. -0.3931612E-01 -0.7013407E+00 -0.2814600E-02 -0.7051187E-02  0.8002634E-03  0.6743760E-01
6348000. -0.3920520E-01 -0.7119933E+00 -0.2813324E-02 -0.9204687E-02  0.7896650E-03  0.6760772E-01
6347000. -0.3909262E-01 -0.7225025E+00 -0.2811711E-02 -0.1136108E-01  0.7790400E-03  0.6777512E-01
6346600. -0.3904712E-01 -0.7266659E+00 -0.2810970E-02 -0.1222439E-01  0.7747827E-03  0.6784133E-01
6346600. -0.3904712E-01 -0.7011039E+00 -0.2810970E-02  0.3563680E-02  0.7747827E-03  0.8145649E-01
6318800. -0.3554889E-01 -0.8885485E+00 -0.2732128E-02 -0.3986918E-01  0.4076320E-03  0.8658581E-01
6291000. -0.3141790E-01 -0.9901688E+00 -0.2463896E-02 -0.8270659E-01  0.2128239E-04  0.9024659E-01
6291000. -0.3141790E-01 -0.1012747E+01 -0.2463896E-02 -0.8664568E-01  0.2128239E-04  0.9024659E-01
6263000. -0.2691793E-01 -0.1019675E+01 -0.1990830E-02 -0.1276377E+00 -0.3800912E-03  0.9214302E-01
6235000. -0.2258430E-01 -0.9387367E+00 -0.1353034E-02 -0.1611045E+00 -0.7863287E-03  0.9246362E-01
6207000. -0.1877544E-01 -0.7837530E+00 -0.5897848E-03 -0.1843338E+00 -0.1190577E-02  0.9124703E-01
6179000. -0.1577407E-01 -0.5751335E+00  0.2493400E-03 -0.1953831E+00 -0.1586223E-02  0.8856232E-01
6151000. -0.1376171E-01 -0.3382133E+00  0.1108219E-02 -0.1932381E+00 -0.1967008E-02  0.8450115E-01
6151000. -0.1376171E-01 -0.2243733E+00  0.1108219E-02 -0.1678998E+00 -0.1967008E-02  0.8526252E-01
6128500. -0.1327585E-01 -0.5224154E-01  0.1683940E-02 -0.1571402E+00 -0.2262792E-02  0.8214004E-01
6106000. -0.1337617E-01  0.1059470E+00  0.2211484E-02 -0.1407334E+00 -0.2546481E-02  0.7842061E-01
6083500. -0.1399659E-01  0.2408685E+00  0.2672272E-02 -0.1194863E+00 -0.2816053E-02  0.7415476E-01
6061000. -0.1504054E-01  0.3446194E+00  0.3050905E-02 -0.9438578E-01 -0.3069676E-02  0.6939739E-01
6038500. -0.1638648E-01  0.4110348E+00  0.3335722E-02 -0.6655107E-01 -0.3305714E-02  0.6420662E-01
6016000. -0.1789458E-01  0.4359318E+00  0.3519162E-02 -0.3717865E-01 -0.3522745E-02  0.5864379E-01
5993500. -0.1941391E-01  0.4172259E+00  0.3597950E-02 -0.7487384E-02 -0.3719568E-02  0.5277323E-01
5971000. -0.2078995E-01  0.3549672E+00  0.3573077E-02  0.2133301E-01 -0.3895211E-02  0.4666077E-01
5971000. -0.2078995E-01  0.3840865E+00  0.3573077E-02  0.2184661E-01 -0.3895211E-02  0.4938235E-01
5937667. -0.2244061E-01  0.2354636E+00  0.3366817E-02  0.5565437E-01 -0.4128411E-02  0.3972877E-01
5904333. -0.2315306E-01  0.2901815E-01  0.3005929E-02  0.8076277E-01 -0.4310808E-02  0.3000033E-01
5871000. -0.2268280E-01 -0.2127732E+00  0.2538064E-02  0.9652049E-01 -0.4442623E-02  0.2043308E-01
5837667. -0.2090522E-01 -0.4669569E+00  0.2011923E-02  0.1031361E+00 -0.4525272E-02  0.1123927E-01
5804333. -0.1781250E-01 -0.7120960E+00  0.1473283E-02  0.1014817E+00 -0.4561202E-02  0.2600940E-02
5771000. -0.1350207E-01 -0.9297012E+00  0.9621227E-03  0.9288725E-01 -0.4553720E-02 -0.5333387E-02
5771000. -0.1350207E-01 -0.9296875E+00  0.9621227E-03  0.9288473E-01 -0.4553720E-02 -0.5333387E-02
5701000. -0.9043005E-03 -0.1328193E+01  0.8651274E-04  0.6310380E-01 -0.4409144E-02 -0.2051798E-01
5701000. -0.9043005E-03 -0.1096311E+01  0.8651274E-04  0.5011107E-01 -0.4409144E-02 -0.2026309E-01
5667333.  0.4869632E-02 -0.1095410E+01 -0.1268408E-03  0.3160030E-01 -0.4291535E-02 -0.2392485E-01
5633667.  0.1073423E-01 -0.1122756E+01 -0.2542411E-03  0.1677242E-01 -0.4158161E-02 -0.2648070E-01
5600000.  0.1664386E-01 -0.1105165E+01 -0.3032721E-03  0.1791202E-02 -0.4012446E-02 -0.2857954E-01
5600000.  0.1664386E-01 -0.1105165E+01 -0.3032721E-03  0.1791202E-02 -0.4012446E-02 -0.2857954E-01
5563518.  0.2279745E-01 -0.1035544E+01 -0.2685083E-03 -0.1374685E-01 -0.3843628E-02 -0.3029002E-01
5527037.  0.2840891E-01 -0.9166015E+00 -0.1487103E-03 -0.2778558E-01 -0.3666582E-02 -0.3146229E-01
5490556.  0.3321071E-01 -0.7538373E+00  0.4553677E-04 -0.3964960E-01 -0.3484251E-02 -0.3214483E-01
5454074.  0.3697271E-01 -0.5548149E+00  0.3002089E-03 -0.4881435E-01 -0.3299278E-02 -0.3239192E-01
5417593.  0.3951321E-01 -0.3288745E+00  0.5987326E-03 -0.5492380E-01 -0.3114022E-02 -0.3225470E-01
5381111.  0.4070725E-01 -0.8628787E-01  0.9230278E-03 -0.5779669E-01 -0.2930505E-02 -0.3179288E-01
5344630.  0.4049053E-01  0.1620244E+00  0.1254434E-02 -0.5742272E-01 -0.2750428E-02 -0.3106325E-01
5308148.  0.3886167E-01  0.4051449E+00  0.1574733E-02 -0.5395157E-01 -0.2575172E-02 -0.3011720E-01
5271667.  0.3588067E-01  0.6326381E+00  0.1866940E-02 -0.4767247E-01 -0.2405816E-02 -0.2901256E-01
5235185.  0.3166458E-01  0.8350227E+00  0.2116109E-02 -0.3899290E-01 -0.2243128E-02 -0.2779355E-01
5198704.  0.2638147E-01  0.1004130E+01  0.2309863E-02 -0.2840814E-01 -0.2087651E-02 -0.2650280E-01
5162222.  0.2024125E-01  0.1133394E+01  0.2438870E-02 -0.1647349E-01 -0.1939663E-02 -0.2518212E-01
5125741.  0.1348668E-01  0.1218158E+01  0.2497067E-02 -0.3774539E-02 -0.1799259E-02 -0.2385992E-01
5089259.  0.6380947E-02  0.1255682E+01  0.2481754E-02  0.9105166E-02 -0.1666362E-02 -0.2256273E-01
5052778. -0.8018780E-03  0.1245196E+01  0.2393523E-02  0.2160448E-01 -0.1540774E-02 -0.2131108E-01
5016296. -0.7789875E-02  0.1187916E+01  0.2236032E-02  0.3321517E-01 -0.1422185E-02 -0.2011887E-01
4979815. -0.1432234E-01  0.1086782E+01  0.2015682E-02  0.4349374E-01 -0.1310234E-02 -0.1899481E-01
4943333. -0.2016081E-01  0.9463460E+00  0.1741161E-02  0.5208049E-01 -0.1204511E-02 -0.1794345E-01
4906852. -0.2509627E-01  0.7724984E+00  0.1422984E-02  0.5870812E-01 -0.1104596E-02 -0.1696632E-01
4870370. -0.2895688E-01  0.5720999E+00  0.1072893E-02  0.6320269E-01 -0.1010076E-02 -0.1605783E-01
4833889. -0.3161196E-01  0.3527811E+00  0.7033853E-03  0.6548899E-01 -0.9205695E-03 -0.1521529E-01
4797407. -0.3297605E-01  0.1225062E+00  0.3270784E-03  0.6558344E-01 -0.8357107E-03 -0.1443187E-01
4760926. -0.3300943E-01 -0.1106649E+00 -0.4369695E-04  0.6358363E-01 -0.7552024E-03 -0.1369535E-01
4724444. -0.3171801E-01 -0.3389485E+00 -0.3974382E-03  0.5966491E-01 -0.6787826E-03 -0.1300220E-01
4687963. -0.2915104E-01 -0.5550352E+00 -0.7237813E-03  0.5406052E-01 -0.6062341E-03 -0.1234193E-01
4651482. -0.2539756E-01 -0.7523609E+00 -0.1013866E-02  0.4705057E-01 -0.5373955E-03 -0.1170559E-01
4615000. -0.2058132E-01 -0.9253387E+00 -0.1260535E-02  0.3894820E-01 -0.4721385E-03 -0.1108944E-01
4578518. -0.1485553E-01 -0.1069372E+01 -0.1458463E-02  0.3008210E-01 -0.4103695E-03 -0.1048632E-01
4542037. -0.8396432E-02 -0.1181064E+01 -0.1604228E-02  0.2078599E-01 -0.3520273E-03 -0.9892964E-02
4505556. -0.1395783E-02 -0.1258253E+01 -0.1696307E-02  0.1138256E-01 -0.2970564E-03 -0.9308578E-02
4469074.  0.5945383E-02 -0.1299855E+01 -0.1734957E-02  0.2172754E-02 -0.2454070E-03 -0.8732460E-02
4432593.  0.1342286E-01 -0.1306058E+01 -0.1722087E-02 -0.6569470E-02 -0.1970310E-03 -0.8166114E-02
4396111.  0.2083733E-01 -0.1278048E+01 -0.1661061E-02 -0.1461106E-01 -0.1518609E-03 -0.7613336E-02
4359630.  0.2799797E-01 -0.1217900E+01 -0.1556464E-02 -0.2176023E-01 -0.1098004E-03 -0.7081277E-02
4323148.  0.3472937E-01 -0.1128610E+01 -0.1413846E-02 -0.2786878E-01 -0.7071846E-04 -0.6573621E-02
4286667.  0.4087424E-01 -0.1013737E+01 -0.1239480E-02 -0.3283760E-01 -0.3445102E-04 -0.6100683E-02
4250185.  0.4629780E-01 -0.8773322E+00 -0.1040060E-02 -0.3661206E-01 -0.7636935E-06 -0.5673428E-02
4213704.  0.5088904E-01 -0.7238222E+00 -0.8224971E-03 -0.3917778E-01  0.3062304E-04 -0.5299474E-02
4177222.  0.5456313E-01 -0.5577171E+00 -0.5936353E-03 -0.4056397E-01  0.6006298E-04 -0.4996092E-02
4140741.  0.5726086E-01 -0.3835897E+00 -0.3600853E-03 -0.4082942E-01  0.8800005E-04 -0.4776260E-02
4104259.  0.5894921E-01 -0.2058606E+00 -0.1280189E-03 -0.4006074E-01  0.1149415E-03 -0.4651896E-02
4067778.  0.5961955E-01 -0.2870252E-01  0.9695081E-04 -0.3837289E-01  0.1415165E-03 -0.4652273E-02
4031296.  0.5928630E-01  0.1440701E+00  0.3099161E-03 -0.3588684E-01  0.1684819E-03 -0.4790326E-02
3994815.  0.5798454E-01  0.3090484E+00  0.5066723E-03 -0.3273702E-01  0.1966879E-03 -0.5092072E-02
3958333.  0.5576747E-01  0.4633055E+00  0.6838381E-03 -0.2906533E-01  0.2271879E-03 -0.5596552E-02
3921852.  0.5270372E-01  0.6044456E+00  0.8387892E-03 -0.2500085E-01  0.2612185E-03 -0.6331497E-02
3885370.  0.4887390E-01  0.7305573E+00  0.9696520E-03 -0.2067126E-01  0.3002341E-03 -0.7346851E-02
3848889.  0.4436862E-01  0.8402177E+00  0.1075240E-02 -0.1619128E-01  0.3460031E-03 -0.8700339E-02
3812407.  0.3928464E-01  0.9325162E+00  0.1154966E-02 -0.1165152E-01  0.4006405E-03 -0.1045705E-01
3775926.  0.3372354E-01  0.1006846E+01  0.1208716E-02 -0.7129843E-02  0.4667095E-03 -0.1271062E-01
3739444.  0.2778868E-01  0.1062995E+01  0.1236746E-02 -0.2673062E-02  0.5473622E-03 -0.1557003E-01
3702963.  0.2158455E-01  0.1100952E+01  0.1239488E-02  0.1701500E-02  0.6464413E-03 -0.1917431E-01
3666482.  0.1521521E-01  0.1120709E+01  0.1217405E-02  0.6002890E-02  0.7687226E-03 -0.2370786E-01
3630000.  0.8784492E-02  0.1122321E+01  0.1170782E-02  0.1028425E-01  0.9201554E-03 -0.2939769E-01
3630000.  0.8784492E-02  0.1122321E+01  0.1170782E-02  0.1028425E-01  0.9201554E-03 -0.2939769E-01
3592500.  0.2220562E-02  0.1104737E+01  0.1097145E-02  0.1476048E-01  0.1114024E-02 -0.3676300E-01
3555000. -0.4180694E-02  0.1066861E+01  0.9965724E-03  0.1946801E-01  0.1356745E-02 -0.4607530E-01
3517500. -0.1029568E-01  0.1007101E+01  0.8670766E-03  0.2463205E-01  0.1661287E-02 -0.5786996E-01
3480000. -0.1598769E-01  0.9225216E+00  0.7051103E-03  0.3056030E-01  0.2044218E-02 -0.7284275E-01
3480000. -0.1598769E-01 -0.2013135E+00 -0.1363859E-02 -0.2674861E-01  0.2044218E-02 -0.2157046E-01
3409422. -0.1365373E-01 -0.2159974E+00 -0.1085213E-02 -0.2347315E-01  0.2092889E-02  0.9410406E-02
3338844. -0.1127697E-01 -0.2103603E+00 -0.8448728E-03 -0.1989954E-01  0.1895328E-02  0.2415647E-01
3268266. -0.9040652E-02 -0.1917681E+00 -0.6441602E-03 -0.1636506E-01  0.1593802E-02  0.2905126E-01
3197688. -0.7053517E-02 -0.1662553E+00 -0.4813053E-03 -0.1309357E-01  0.1271964E-02  0.2839999E-01
3127109. -0.5365710E-02 -0.1383552E+00 -0.3526026E-03 -0.1021351E-01  0.9745951E-03  0.2499781E-01
3056531. -0.3985300E-02 -0.1111706E+00 -0.2533601E-03 -0.7779207E-02  0.7218027E-03  0.2057082E-01
2985953. -0.2892887E-02 -0.8658804E-01 -0.1785919E-03 -0.5791810E-02  0.5188883E-03  0.1611154E-01
2915375. -0.2053685E-02 -0.6554923E-01 -0.1235057E-03 -0.4218395E-02  0.3630402E-03  0.1212840E-01
2844797. -0.1426455E-02 -0.4832037E-01 -0.8379067E-04 -0.3007184E-02  0.2476357E-03  0.8826137E-02
2774219. -0.9696313E-03 -0.3473023E-01 -0.5576003E-04 -0.2098872E-02  0.1648633E-03  0.6231729E-02
2703641. -0.6450692E-03 -0.2435984E-01 -0.3638817E-04 -0.1434425E-02  0.1071924E-03  0.4278717E-02
2633062. -0.4199659E-03 -0.1668242E-01 -0.2327841E-04 -0.9598823E-03  0.6808630E-04  0.2860931E-02
2562484. -0.2675056E-03 -0.1115787E-01 -0.1459196E-04 -0.6288345E-03  0.4225030E-04  0.1864507E-02
2491906. -0.1666479E-03 -0.7288775E-02 -0.8957782E-05 -0.4031742E-03  0.2560870E-04  0.1184849E-02
2421328. -0.1014840E-03 -0.4649530E-02 -0.5381858E-05 -0.2528676E-03  0.1515530E-04  0.7342428E-03
2350750. -0.6037435E-04 -0.2895314E-02 -0.3162134E-05 -0.1550569E-03  0.8752184E-05  0.4436208E-03
2280172. -0.3506170E-04 -0.1759105E-02 -0.1815373E-05 -0.9289260E-04  0.4928624E-05  0.2612135E-03
2209594. -0.1985855E-04 -0.1042082E-02 -0.1017319E-05 -0.5432493E-04  0.2703977E-05  0.1498007E-03
2139016. -0.1095825E-04 -0.6013921E-03 -0.5558580E-06 -0.3098269E-04  0.1443729E-05  0.8359911E-04
2068438. -0.5884229E-05 -0.3377659E-03 -0.2957550E-06 -0.1721271E-04  0.7492638E-06  0.4535307E-04
1997859. -0.3070360E-05 -0.1843950E-03 -0.1530142E-06 -0.9302974E-05  0.3774194E-06  0.2388824E-04
1927281. -0.1554410E-05 -0.9771366E-04 -0.7685369E-07 -0.4884255E-05  0.1842263E-06  0.1219851E-04
1856703. -0.7621466E-06 -0.5017961E-04 -0.3740514E-07 -0.2486804E-05  0.8697642E-07  0.6028833E-05
1786125. -0.3611818E-06 -0.2492617E-04 -0.1760481E-07 -0.1225507E-05  0.3963251E-07  0.2878155E-05
1715547. -0.1650535E-06 -0.1195121E-04 -0.7993678E-08 -0.5832692E-06  0.1738807E-07  0.1324262E-05
1644969. -0.7254217E-07 -0.5517400E-05 -0.3492392E-08 -0.2674328E-06  0.7324937E-08  0.5857229E-06
1574391. -0.3057061E-07 -0.2445780E-05 -0.1463714E-08 -0.1177871E-06  0.2953551E-08  0.2483025E-06
1503812. -0.1230718E-07 -0.1037933E-05 -0.5865902E-09 -0.4965636E-07  0.1135839E-08  0.1005405E-06
1433234. -0.4705146E-08 -0.4210888E-06 -0.2243214E-09 -0.1991887E-07  0.4149942E-09  0.3872497E-07
1362656. -0.1668667E-08 -0.1660318E-06 -0.8291701E-10 -0.7414430E-08  0.1435976E-09  0.1410904E-07
1292078. -0.4314928E-09 -0.7621220E-07 -0.3456096E-10 -0.1957399E-08  0.4723872E-10  0.4821829E-08
1221500.  0.3852988E-09 -0.8964065E-07 -0.3456628E-10  0.2189646E-08  0.1497824E-10  0.1620382E-08
1221500.  0.3852988E-09 -0.4531092E-08 -0.2847180E-11 -0.2024460E-08  0.1497824E-10  0.1453469E-08
1183328.  0.3545263E-09  0.1169429E-07  0.4369432E-11 -0.5768585E-09  0.8237459E-11  0.8445363E-09
1145156.  0.2706320E-09  0.1494857E-07  0.5733049E-11  0.2475242E-10  0.4384966E-11  0.4733184E-09
1106984.  0.1855849E-09  0.1297371E-07  0.4880060E-11  0.2155354E-09  0.2259506E-11  0.2562200E-09
1068812.  0.1178693E-09  0.9575643E-08  0.3497250E-11  0.2287316E-09  0.1126472E-11  0.1340240E-09
1030641.  0.7033867E-10  0.6393150E-08  0.2257154E-11  0.1807374E-09  0.5428288E-12  0.6772510E-10
 992469.  0.3973589E-10  0.3958318E-08  0.1347427E-11  0.1236739E-09  0.2524741E-12  0.3302058E-10
 954297.  0.2133993E-10  0.2302096E-08  0.7542609E-12  0.7655597E-10  0.1133041E-12  0.1545690E-10
 916125.  0.0000000E+00  0.0000000E+00  0.0000000E+00  0.0000000E+00  0.0000000E+00  0.0000000E+00
 877953.  0.0000000E+00  0.0000000E+00  0.0000000E+00  0.0000000E+00  0.0000000E+00  0.0000000E+00
 839781.  0.0000000E+00  0.0000000E+00  0.0000000E+00  0.0000000E+00  0.0000000E+00  0.0000000E+00
 801609.  0.0000000E+00  0.0000000E+00  0.0000000E+00  0.0000000E+00  0.0000000E+00  0.0000000E+00
 763438.  0.0000000E+00  0.0000000E+00  0.0000000E+00  0.0000000E+00  0.0000000E+00  0.0000000E+00
 725266.  0.0000000E+00  0.0000000E+00  0.0000000E+00  0.0000000E+00  0.0000000E+00  0.0000000E+00
 687094.  0.0000000E+00  0.0000000E+00  0.0000000E+00  0.0000000E+00  0.0000000E+00  0.0000000E+00
 648922.  0.0000000E+00  0.0000000E+00  0.0000000E+00  0.0000000E+00  0.0000000E+00  0.0000000E+00
 610750.  0.0000000E+00  0.0000000E+00  0.0000000E+00  0.0000000E+00  0.0000000E+00  0.0000000E+00
 572578.  0.0000000E+00  0.0000000E+00  0.0000000E+00  0.0000000E+00  0.0000000E+00  0.0000000E+00
 534406.  0.0000000E+00  0.0000000E+00  0.0000000E+00  0.0000000E+00  0.0000000E+00  0.0000000E+00
 496234.  0.0000000E+00  0.0000000E+00  0.0000000E+00  0.0000000E+00  0.0000000E+00  0.0000000E+00
 458062.  0.0000000E+00  0.0000000E+00  0.0000000E+00  0.0000000E+00  0.0000000E+00  0.0000000E+00
 419891.  0.0000000E+00  0.0000000E+00  0.0000000E+00  0.0000000E+00  0.0000000E+00  0.0000000E+00
 381719.  0.0000000E+00  0.0000000E+00  0.0000000E+00  0.0000000E+00  0.0000000E+00  0.0000000E+00
 343547.  0.0000000E+00  0.0000000E+00  0.0000000E+00  0.0000000E+00  0.0000000E+00  0.0000000E+00
 305375.  0.0000000E+00  0.0000000E+00  0.0000000E+00  0.0000000E+00  0.0000000E+00  0.0000000E+00
 267203.  0.0000000E+00  0.0000000E+00  0.0000000E+00  0.0000000E+00  0.0000000E+00  0.0000000E+00
 229031.  0.0000000E+00  0.0000000E+00  0.0000000E+00  0.0000000E+00  0.0000000E+00  0.0000000E+00
 190859.  0.0000000E+00  0.0000000E+00  0.0000000E+00  0.0000000E+00  0.0000000E+00  0.0000000E+00
 152688.  0.0000000E+00  0.0000000E+00  0.0000000E+00  0.0000000E+00  0.0000000E+00  0.0000000E+00
 114516.  0.0000000E+00  0.0000000E+00  0.0000000E+00  0.0000000E+00  0.0000000E+00  0.0000000E+00
  76344.  0.0000000E+00  0.0000000E+00  0.0000000E+00  0.0000000E+00  0.0000000E+00  0.0000000E+00
  38172.  0.0000000E+00  0.0000000E+00  0.0000000E+00  0.0000000E+00  0.0000000E+00  0.0000000E+00
      0.  0.0000000E+00  0.0000000E+00  0.0000000E+00  0.0000000E+00  0.0000000E+00  0.0000000E+00
