       1       36 S      132        160.74200          6.82284          5.38109        151.98000      185    7
6371000.  0.8839216E-01  0.4342152E+00  0.9619215E-03 -0.8743025E-01 -0.3285891E-02 -0.4510897E-01
6370000.  0.8832143E-01  0.4670163E+00  0.9756132E-03 -0.8702801E-01 -0.3278848E-02 -0.4463299E-01
6369000.  0.8824556E-01  0.4997499E+00  0.9892407E-03 -0.8661038E-01 -0.3271880E-02 -0.4415389E-01
6368000.  0.8816455E-01  0.5324126E+00  0.1002801E-02 -0.8617742E-01 -0.3264987E-02 -0.4367166E-01
6368000.  0.8816455E-01  0.5324126E+00  0.1002801E-02 -0.8617742E-01 -0.3264987E-02 -0.4367166E-01
6367000.  0.8807842E-01  0.5650010E+00  0.1016293E-02 -0.8572914E-01 -0.3258171E-02 -0.4318628E-01
6366000.  0.8798719E-01  0.5975116E+00  0.1029713E-02 -0.8526561E-01 -0.3251430E-02 -0.4269774E-01
6365000.  0.8789086E-01  0.6299411E+00  0.1043059E-02 -0.8478687E-01 -0.3244767E-02 -0.4220602E-01
6364000.  0.8778944E-01  0.6622859E+00  0.1056329E-02 -0.8429296E-01 -0.3238181E-02 -0.4171110E-01
6363000.  0.8768295E-01  0.6945428E+00  0.1069520E-02 -0.8378392E-01 -0.3231673E-02 -0.4121296E-01
6362000.  0.8757141E-01  0.7267084E+00  0.1082629E-02 -0.8325982E-01 -0.3225243E-02 -0.4071159E-01
6361000.  0.8745483E-01  0.7587792E+00  0.1095656E-02 -0.8272070E-01 -0.3218893E-02 -0.4020697E-01
6360000.  0.8733322E-01  0.7907519E+00  0.1108597E-02 -0.8216663E-01 -0.3212622E-02 -0.3969909E-01
6359000.  0.8720660E-01  0.8226231E+00  0.1121449E-02 -0.8159766E-01 -0.3206431E-02 -0.3918792E-01
6358000.  0.8707499E-01  0.8543896E+00  0.1134211E-02 -0.8101384E-01 -0.3200320E-02 -0.3867345E-01
6357000.  0.8693840E-01  0.8860479E+00  0.1146880E-02 -0.8041524E-01 -0.3194290E-02 -0.3815566E-01
6356000.  0.8679684E-01  0.9175948E+00  0.1159454E-02 -0.7980192E-01 -0.3188342E-02 -0.3763453E-01
6356000.  0.8679684E-01  0.7190204E+00  0.1159454E-02 -0.8219524E-01 -0.3188342E-02 -0.5652052E-01
6355000.  0.8668209E-01  0.7431595E+00  0.1172337E-02 -0.8195334E-01 -0.3179505E-02 -0.5608450E-01
6354000.  0.8656355E-01  0.7672550E+00  0.1185181E-02 -0.8170379E-01 -0.3170736E-02 -0.5564784E-01
6353000.  0.8644123E-01  0.7913051E+00  0.1197985E-02 -0.8144659E-01 -0.3162036E-02 -0.5521052E-01
6352000.  0.8631514E-01  0.8153081E+00  0.1210749E-02 -0.8118176E-01 -0.3153404E-02 -0.5477256E-01
6351000.  0.8618529E-01  0.8392625E+00  0.1223470E-02 -0.8090932E-01 -0.3144841E-02 -0.5433391E-01
6350000.  0.8605168E-01  0.8631667E+00  0.1236147E-02 -0.8062930E-01 -0.3136348E-02 -0.5389459E-01
6349000.  0.8591433E-01  0.8870190E+00  0.1248781E-02 -0.8034169E-01 -0.3127923E-02 -0.5345456E-01
6348000.  0.8577323E-01  0.9108177E+00  0.1261368E-02 -0.8004653E-01 -0.3119567E-02 -0.5301383E-01
6347000.  0.8562841E-01  0.9345614E+00  0.1273909E-02 -0.7974383E-01 -0.3111281E-02 -0.5257238E-01
6346600.  0.8556943E-01  0.9440431E+00  0.1278911E-02 -0.7962065E-01 -0.3107985E-02 -0.5239559E-01
6346600.  0.8556943E-01  0.8705509E+00  0.1278911E-02 -0.8124297E-01 -0.3107985E-02 -0.8223241E-01
6318800.  0.8055976E-01  0.1423578E+01  0.1627777E-02 -0.7810385E-01 -0.2771350E-02 -0.7223362E-01
6291000.  0.7317826E-01  0.1954302E+01  0.1955781E-02 -0.7170565E-01 -0.2476232E-02 -0.6317545E-01
6291000.  0.7317826E-01  0.2001463E+01  0.1955781E-02 -0.7169022E-01 -0.2476232E-02 -0.6317545E-01
6263000.  0.6326414E-01  0.2500053E+01  0.2247954E-02 -0.6073057E-01 -0.2218353E-02 -0.5427840E-01
6235000.  0.5130812E-01  0.2927225E+01  0.2485172E-02 -0.4675683E-01 -0.1998362E-02 -0.4590904E-01
6207000.  0.3766777E-01  0.3263497E+01  0.2655270E-02 -0.3028180E-01 -0.1814249E-02 -0.3793026E-01
6179000.  0.2278029E-01  0.3492263E+01  0.2748586E-02 -0.1192709E-01 -0.1664567E-02 -0.3022148E-01
6151000.  0.7148087E-02  0.3600566E+01  0.2758389E-02  0.7598010E-02 -0.1548368E-02 -0.2267622E-01
6151000.  0.7148087E-02  0.3201936E+01  0.2758389E-02  0.6115910E-02 -0.1548368E-02 -0.2307169E-01
6128500. -0.4138289E-02  0.3181715E+01  0.2720441E-02  0.1529961E-01 -0.1470950E-02 -0.2081661E-01
6106000. -0.1526798E-01  0.3113619E+01  0.2650975E-02  0.2393401E-01 -0.1401008E-02 -0.1883804E-01
6083500. -0.2607690E-01  0.3000610E+01  0.2552247E-02  0.3184323E-01 -0.1337561E-02 -0.1713919E-01
6061000. -0.3641280E-01  0.2846420E+01  0.2427093E-02  0.3887665E-01 -0.1279615E-02 -0.1572384E-01
6038500. -0.4613788E-01  0.2655465E+01  0.2278832E-02  0.4490998E-01 -0.1226158E-02 -0.1459804E-01
6016000. -0.5513093E-01  0.2432717E+01  0.2111178E-02  0.4984541E-01 -0.1176153E-02 -0.1377056E-01
5993500. -0.6328908E-01  0.2183564E+01  0.1928141E-02  0.5361114E-01 -0.1128528E-02 -0.1325272E-01
5971000. -0.7052910E-01  0.1913723E+01  0.1733944E-02  0.5616003E-01 -0.1082160E-02 -0.1306218E-01
5971000. -0.7052910E-01  0.1814697E+01  0.1733944E-02  0.5846736E-01 -0.1082160E-02 -0.3829326E-02
5937667. -0.7889152E-01  0.1383535E+01  0.1428710E-02  0.5778064E-01 -0.1060192E-02 -0.4627738E-02
5904333. -0.8503926E-01  0.9707585E+00  0.1133323E-02  0.5479686E-01 -0.1033184E-02 -0.5743299E-02
5871000. -0.8910695E-01  0.5904936E+00  0.8583184E-03  0.5008455E-01 -0.9996493E-03 -0.7114495E-02
5837667. -0.9129270E-01  0.2527252E+00  0.6113402E-03  0.4416486E-01 -0.9583565E-03 -0.8705687E-02
5804333. -0.9183701E-01 -0.3617512E-01  0.3974854E-03  0.3748903E-01 -0.9081761E-03 -0.1051329E-01
5771000. -0.9100553E-01 -0.2728331E+00  0.2197151E-03  0.3042814E-01 -0.8479210E-03 -0.1256507E-01
5771000. -0.9100553E-01 -0.2728126E+00  0.2197151E-03  0.3043044E-01 -0.8479210E-03 -0.1256507E-01
5701000. -0.8587643E-01 -0.6170007E+00 -0.7176640E-06  0.9358479E-02 -0.6532386E-03 -0.2353068E-01
5701000. -0.8587643E-01 -0.5016085E+00 -0.7176640E-06  0.2754016E-01 -0.6532386E-03  0.6747996E-03
5667333. -0.8294769E-01 -0.6086156E+00 -0.1448897E-03  0.2606141E-01 -0.6432916E-03 -0.3958829E-02
5633667. -0.7942692E-01 -0.7215762E+00 -0.2669941E-03  0.1984186E-01 -0.6157490E-03 -0.6220896E-02
5600000. -0.7538758E-01 -0.8015074E+00 -0.3571995E-03  0.1454651E-01 -0.5788352E-03 -0.7639232E-02
5600000. -0.7538758E-01 -0.8015074E+00 -0.3571995E-03  0.1454651E-01 -0.5788352E-03 -0.7639232E-02
5563518. -0.7062433E-01 -0.8572493E+00 -0.4263868E-03  0.9773265E-02 -0.5324992E-03 -0.8438217E-02
5527037. -0.6562144E-01 -0.8861106E+00 -0.4707879E-03  0.5870157E-02 -0.4832225E-03 -0.8698661E-02
5490556. -0.6051856E-01 -0.8929302E+00 -0.4950605E-03  0.2725766E-02 -0.4335919E-03 -0.8584746E-02
5454074. -0.5542927E-01 -0.8820024E+00 -0.5032672E-03  0.2418613E-03 -0.3853924E-03 -0.8216674E-02
5417593. -0.5044406E-01 -0.8572226E+00 -0.4988967E-03 -0.1682518E-02 -0.3397828E-03 -0.7694376E-02
5381111. -0.4563236E-01 -0.8218589E+00 -0.4849116E-03 -0.3128881E-02 -0.2974449E-03 -0.7082309E-02
5344630. -0.4104664E-01 -0.7787851E+00 -0.4638315E-03 -0.4173482E-02 -0.2587521E-03 -0.6429211E-02
5308148. -0.3672353E-01 -0.7304587E+00 -0.4377440E-03 -0.4887972E-02 -0.2238180E-03 -0.5773623E-02
5271667. -0.3268749E-01 -0.6788658E+00 -0.4083797E-03 -0.5327312E-02 -0.1926019E-03 -0.5133733E-02
5235185. -0.2895193E-01 -0.6257328E+00 -0.3771516E-03 -0.5547557E-02 -0.1649583E-03 -0.4528312E-02
5198704. -0.2552177E-01 -0.5724211E+00 -0.3451759E-03 -0.5595130E-02 -0.1406563E-03 -0.3967381E-02
5162222. -0.2239479E-01 -0.5199713E+00 -0.3133384E-03 -0.5505035E-02 -0.1194369E-03 -0.3451973E-02
5125741. -0.1956358E-01 -0.4692709E+00 -0.2823212E-03 -0.5314502E-02 -0.1010252E-03 -0.2987393E-02
5089259. -0.1701611E-01 -0.4209210E+00 -0.2526150E-03 -0.5050639E-02 -0.8513037E-04 -0.2572124E-02
5052778. -0.1473777E-01 -0.3753576E+00 -0.2245778E-03 -0.4735526E-02 -0.7148006E-04 -0.2203314E-02
5016296. -0.1271152E-01 -0.3328865E+00 -0.1984398E-03 -0.4389982E-02 -0.5981112E-04 -0.1879485E-02
4979815. -0.1091928E-01 -0.2936568E+00 -0.1743335E-03 -0.4028207E-02 -0.4987817E-04 -0.1596323E-02
4943333. -0.9342183E-02 -0.2577323E+00 -0.1523149E-03 -0.3662570E-02 -0.4145900E-04 -0.1350210E-02
4906852. -0.7961382E-02 -0.2250975E+00 -0.1323762E-03 -0.3303215E-02 -0.3434989E-04 -0.1138133E-02
4870370. -0.6758231E-02 -0.1956522E+00 -0.1144625E-03 -0.2956022E-02 -0.2836905E-04 -0.9554271E-03
4833889. -0.5714866E-02 -0.1692745E+00 -0.9848835E-04 -0.2626808E-02 -0.2335726E-04 -0.7992947E-03
4797407. -0.4814132E-02 -0.1457928E+00 -0.8433807E-04 -0.2319169E-02 -0.1917049E-04 -0.6665937E-03
4760926. -0.4040064E-02 -0.1250086E+00 -0.7188521E-04 -0.2034331E-02 -0.1568569E-04 -0.5536938E-03
4724444. -0.3377730E-02 -0.1067254E+00 -0.6099307E-04 -0.1774113E-02 -0.1279539E-04 -0.4585557E-03
4687963. -0.2813456E-02 -0.9072788E-01 -0.5152059E-04 -0.1538460E-02 -0.1040538E-04 -0.3785314E-03
4651482. -0.2334752E-02 -0.7680281E-01 -0.4332890E-04 -0.1326676E-02 -0.8435995E-05 -0.3113385E-03
4615000. -0.1930325E-02 -0.6474676E-01 -0.3628257E-04 -0.1138159E-02 -0.6818420E-05 -0.2553448E-03
4578518. -0.1590065E-02 -0.5435841E-01 -0.3025271E-04 -0.9713849E-03 -0.5493878E-05 -0.2087059E-03
4542037. -0.1304971E-02 -0.4545175E-01 -0.2511924E-04 -0.8248991E-03 -0.4413129E-05 -0.1700097E-03
4505556. -0.1067053E-02 -0.3785225E-01 -0.2076990E-04 -0.6972052E-03 -0.3533884E-05 -0.1381168E-03
4469074. -0.8692981E-03 -0.3139599E-01 -0.1710250E-04 -0.5863866E-03 -0.2820844E-05 -0.1117781E-03
4432593. -0.7055930E-03 -0.2593798E-01 -0.1402510E-04 -0.4909114E-03 -0.2244695E-05 -0.9018729E-04
4396111. -0.5706022E-03 -0.2134395E-01 -0.1145429E-04 -0.4091317E-03 -0.1780434E-05 -0.7255802E-04
4359630. -0.4597380E-03 -0.1749366E-01 -0.9316665E-05 -0.3393822E-03 -0.1407620E-05 -0.5815110E-04
4323148. -0.3690432E-03 -0.1428162E-01 -0.7547219E-05 -0.2802914E-03 -0.1109265E-05 -0.4646831E-04
4286667. -0.2951442E-03 -0.1161328E-01 -0.6088996E-05 -0.2304690E-03 -0.8712055E-06 -0.3701491E-04
4250185. -0.2351662E-03 -0.9405916E-02 -0.4892549E-05 -0.1886565E-03 -0.6819009E-06 -0.2937995E-04
4213704. -0.1866821E-03 -0.7588042E-02 -0.3915200E-05 -0.1537772E-03 -0.5318520E-06 -0.2325538E-04
4177222. -0.1476434E-03 -0.6096818E-02 -0.3120200E-05 -0.1247984E-03 -0.4132606E-06 -0.1834710E-04
4140741. -0.1163386E-03 -0.4878848E-02 -0.2476377E-05 -0.1008476E-03 -0.3198462E-06 -0.1443119E-04
4104259. -0.9133630E-04 -0.3888138E-02 -0.1957126E-05 -0.8115977E-04 -0.2464317E-06 -0.1133084E-04
4067778. -0.7145233E-04 -0.3085364E-02 -0.1540118E-05 -0.6503578E-04 -0.1888608E-06 -0.8874348E-05
4031296. -0.5570653E-04 -0.2437552E-02 -0.1206605E-05 -0.5190575E-04 -0.1437876E-06 -0.6948291E-05
3994815. -0.4329470E-04 -0.1916729E-02 -0.9409225E-06 -0.4126796E-04 -0.1084682E-06 -0.5451469E-05
3958333. -0.3355854E-04 -0.1499351E-02 -0.7300818E-06 -0.3268299E-04 -0.8070825E-07 -0.4295914E-05
3921852. -0.2596353E-04 -0.1165993E-02 -0.5633860E-06 -0.2579610E-04 -0.5872815E-07 -0.3424047E-05
3885370. -0.2007631E-04 -0.9003280E-03 -0.4320129E-06 -0.2029642E-04 -0.4105374E-07 -0.2784176E-05
3848889. -0.1554929E-04 -0.6889364E-03 -0.3287975E-06 -0.1592335E-04 -0.2647290E-07 -0.2338811E-05
3812407. -0.1210403E-04 -0.5207867E-03 -0.2479167E-06 -0.1246104E-04 -0.1394347E-07 -0.2064037E-05
3775926. -0.9519915E-05 -0.3868439E-03 -0.1847143E-06 -0.9720300E-05 -0.2544334E-08 -0.1942069E-05
3739444. -0.7622441E-05 -0.2798663E-03 -0.1355296E-06 -0.7539214E-05  0.8576567E-08 -0.1966482E-05
3702963. -0.6274257E-05 -0.1941811E-03 -0.9758561E-07 -0.5770253E-05  0.2025857E-07 -0.2138793E-05
3666482. -0.5366114E-05 -0.1256020E-03 -0.6894401E-07 -0.4265044E-05  0.3336500E-07 -0.2465846E-05
3630000. -0.4808197E-05 -0.7156629E-04 -0.4853913E-07 -0.2864257E-05  0.4882122E-07 -0.2962033E-05
3630000. -0.4808197E-05 -0.7156629E-04 -0.4853913E-07 -0.2864257E-05  0.4882122E-07 -0.2962033E-05
3592500. -0.4515193E-05 -0.3052179E-04 -0.3610264E-07 -0.1323399E-05  0.6822253E-07 -0.3663971E-05
3555000. -0.4415969E-05 -0.6403464E-05 -0.3372845E-07  0.6137245E-06  0.9235939E-07 -0.4572093E-05
3517500. -0.4393993E-05 -0.5869498E-05 -0.4495314E-07  0.3387452E-05  0.1224389E-06 -0.5679095E-05
3480000. -0.4274375E-05 -0.4266345E-04 -0.7656995E-07  0.7685119E-05  0.1595012E-06 -0.6929294E-05
3480000. -0.4274375E-05 -0.2420827E-03 -0.1321246E-06 -0.7581209E-05  0.1595012E-06  0.6778561E-05
3409422. -0.2260596E-05 -0.1319547E-03 -0.6932925E-07 -0.4093914E-05  0.9638488E-07  0.4640731E-05
3338844. -0.1172652E-05 -0.7051245E-04 -0.3570577E-07 -0.2169201E-05  0.5514803E-07  0.2894952E-05
3268266. -0.5964600E-06 -0.3693315E-04 -0.1804203E-07 -0.1127469E-05  0.3020341E-07  0.1694700E-05
3197688. -0.2973678E-06 -0.1895671E-04 -0.8940522E-08 -0.5746425E-06  0.1593400E-07  0.9446979E-06
3127109. -0.1452455E-06 -0.9531203E-05 -0.4342520E-08 -0.2870689E-06  0.8128198E-08  0.5055596E-06
3056531. -0.6946745E-07 -0.4692297E-05 -0.2066214E-08 -0.1404935E-06  0.4018802E-08  0.2609958E-06
2985953. -0.3251296E-07 -0.2260681E-05 -0.9624330E-09 -0.6732025E-07  0.1928601E-08  0.1303615E-06
2915375. -0.1488070E-07 -0.1065217E-05 -0.4385373E-09 -0.3156180E-07  0.8990146E-09  0.6310847E-07
2844797. -0.6654870E-08 -0.4905373E-06 -0.1953113E-09 -0.1446691E-07  0.4071954E-09  0.2963998E-07
2774219. -0.2905526E-08 -0.2205918E-06 -0.8494537E-10 -0.6477709E-08  0.1791964E-09  0.1351177E-07
2703641. -0.1237252E-08 -0.9678222E-07 -0.3604202E-10 -0.2830685E-08  0.7659457E-10  0.5978687E-08
2633062. -0.5133054E-09 -0.4138463E-07 -0.1490211E-10 -0.1205976E-08  0.3177895E-10  0.2567058E-08
2562484. -0.2072653E-09 -0.1722614E-07 -0.5996435E-11 -0.5004167E-09  0.1278606E-10  0.1069180E-08
2491906. -0.8141698E-10 -0.6964507E-08 -0.2343137E-11 -0.2021692E-09  0.4976930E-11  0.4322252E-09
2421328.  0.0000000E+00  0.0000000E+00  0.0000000E+00  0.0000000E+00  0.0000000E+00  0.0000000E+00
2350750.  0.0000000E+00  0.0000000E+00  0.0000000E+00  0.0000000E+00  0.0000000E+00  0.0000000E+00
2280172.  0.0000000E+00  0.0000000E+00  0.0000000E+00  0.0000000E+00  0.0000000E+00  0.0000000E+00
2209594.  0.0000000E+00  0.0000000E+00  0.0000000E+00  0.0000000E+00  0.0000000E+00  0.0000000E+00
2139016.  0.0000000E+00  0.0000000E+00  0.0000000E+00  0.0000000E+00  0.0000000E+00  0.0000000E+00
2068438.  0.0000000E+00  0.0000000E+00  0.0000000E+00  0.0000000E+00  0.0000000E+00  0.0000000E+00
1997859.  0.0000000E+00  0.0000000E+00  0.0000000E+00  0.0000000E+00  0.0000000E+00  0.0000000E+00
1927281.  0.0000000E+00  0.0000000E+00  0.0000000E+00  0.0000000E+00  0.0000000E+00  0.0000000E+00
1856703.  0.0000000E+00  0.0000000E+00  0.0000000E+00  0.0000000E+00  0.0000000E+00  0.0000000E+00
1786125.  0.0000000E+00  0.0000000E+00  0.0000000E+00  0.0000000E+00  0.0000000E+00  0.0000000E+00
1715547.  0.0000000E+00  0.0000000E+00  0.0000000E+00  0.0000000E+00  0.0000000E+00  0.0000000E+00
1644969.  0.0000000E+00  0.0000000E+00  0.0000000E+00  0.0000000E+00  0.0000000E+00  0.0000000E+00
1574391.  0.0000000E+00  0.0000000E+00  0.0000000E+00  0.0000000E+00  0.0000000E+00  0.0000000E+00
1503812.  0.0000000E+00  0.0000000E+00  0.0000000E+00  0.0000000E+00  0.0000000E+00  0.0000000E+00
1433234.  0.0000000E+00  0.0000000E+00  0.0000000E+00  0.0000000E+00  0.0000000E+00  0.0000000E+00
1362656.  0.0000000E+00  0.0000000E+00  0.0000000E+00  0.0000000E+00  0.0000000E+00  0.0000000E+00
1292078.  0.0000000E+00  0.0000000E+00  0.0000000E+00  0.0000000E+00  0.0000000E+00  0.0000000E+00
1221500.  0.0000000E+00  0.0000000E+00  0.0000000E+00  0.0000000E+00  0.0000000E+00  0.0000000E+00
1221500.  0.0000000E+00  0.0000000E+00  0.0000000E+00  0.0000000E+00  0.0000000E+00  0.0000000E+00
1183328.  0.0000000E+00  0.0000000E+00  0.0000000E+00  0.0000000E+00  0.0000000E+00  0.0000000E+00
1145156.  0.0000000E+00  0.0000000E+00  0.0000000E+00  0.0000000E+00  0.0000000E+00  0.0000000E+00
1106984.  0.0000000E+00  0.0000000E+00  0.0000000E+00  0.0000000E+00  0.0000000E+00  0.0000000E+00
1068812.  0.0000000E+00  0.0000000E+00  0.0000000E+00  0.0000000E+00  0.0000000E+00  0.0000000E+00
1030641.  0.0000000E+00  0.0000000E+00  0.0000000E+00  0.0000000E+00  0.0000000E+00  0.0000000E+00
 992469.  0.0000000E+00  0.0000000E+00  0.0000000E+00  0.0000000E+00  0.0000000E+00  0.0000000E+00
 954297.  0.0000000E+00  0.0000000E+00  0.0000000E+00  0.0000000E+00  0.0000000E+00  0.0000000E+00
 916125.  0.0000000E+00  0.0000000E+00  0.0000000E+00  0.0000000E+00  0.0000000E+00  0.0000000E+00
 877953.  0.0000000E+00  0.0000000E+00  0.0000000E+00  0.0000000E+00  0.0000000E+00  0.0000000E+00
 839781.  0.0000000E+00  0.0000000E+00  0.0000000E+00  0.0000000E+00  0.0000000E+00  0.0000000E+00
 801609.  0.0000000E+00  0.0000000E+00  0.0000000E+00  0.0000000E+00  0.0000000E+00  0.0000000E+00
 763438.  0.0000000E+00  0.0000000E+00  0.0000000E+00  0.0000000E+00  0.0000000E+00  0.0000000E+00
 725266.  0.0000000E+00  0.0000000E+00  0.0000000E+00  0.0000000E+00  0.0000000E+00  0.0000000E+00
 687094.  0.0000000E+00  0.0000000E+00  0.0000000E+00  0.0000000E+00  0.0000000E+00  0.0000000E+00
 648922.  0.0000000E+00  0.0000000E+00  0.0000000E+00  0.0000000E+00  0.0000000E+00  0.0000000E+00
 610750.  0.0000000E+00  0.0000000E+00  0.0000000E+00  0.0000000E+00  0.0000000E+00  0.0000000E+00
 572578.  0.0000000E+00  0.0000000E+00  0.0000000E+00  0.0000000E+00  0.0000000E+00  0.0000000E+00
 534406.  0.0000000E+00  0.0000000E+00  0.0000000E+00  0.0000000E+00  0.0000000E+00  0.0000000E+00
 496234.  0.0000000E+00  0.0000000E+00  0.0000000E+00  0.0000000E+00  0.0000000E+00  0.0000000E+00
 458062.  0.0000000E+00  0.0000000E+00  0.0000000E+00  0.0000000E+00  0.0000000E+00  0.0000000E+00
 419891.  0.0000000E+00  0.0000000E+00  0.0000000E+00  0.0000000E+00  0.0000000E+00  0.0000000E+00
 381719.  0.0000000E+00  0.0000000E+00  0.0000000E+00  0.0000000E+00  0.0000000E+00  0.0000000E+00
 343547.  0.0000000E+00  0.0000000E+00  0.0000000E+00  0.0000000E+00  0.0000000E+00  0.0000000E+00
 305375.  0.0000000E+00  0.0000000E+00  0.0000000E+00  0.0000000E+00  0.0000000E+00  0.0000000E+00
 267203.  0.0000000E+00  0.0000000E+00  0.0000000E+00  0.0000000E+00  0.0000000E+00  0.0000000E+00
 229031.  0.0000000E+00  0.0000000E+00  0.0000000E+00  0.0000000E+00  0.0000000E+00  0.0000000E+00
 190859.  0.0000000E+00  0.0000000E+00  0.0000000E+00  0.0000000E+00  0.0000000E+00  0.0000000E+00
 152688.  0.0000000E+00  0.0000000E+00  0.0000000E+00  0.0000000E+00  0.0000000E+00  0.0000000E+00
 114516.  0.0000000E+00  0.0000000E+00  0.0000000E+00  0.0000000E+00  0.0000000E+00  0.0000000E+00
  76344.  0.0000000E+00  0.0000000E+00  0.0000000E+00  0.0000000E+00  0.0000000E+00  0.0000000E+00
  38172.  0.0000000E+00  0.0000000E+00  0.0000000E+00  0.0000000E+00  0.0000000E+00  0.0000000E+00
      0.  0.0000000E+00  0.0000000E+00  0.0000000E+00  0.0000000E+00  0.0000000E+00  0.0000000E+00
