      22        6 S      714        103.93130         59.25539         23.28749         91.33889      185    7
6371000.  0.1182262E-01 -0.7753719E-02  0.9319230E-04 -0.1172942E-01 -0.1388881E-04 -0.2219747E-01
6370000.  0.1182319E-01  0.4848636E-03  0.9501707E-04 -0.1152049E-01 -0.1040447E-04 -0.2219960E-01
6369000.  0.1182246E-01  0.8725001E-02  0.9680847E-04 -0.1130443E-01 -0.6919977E-05 -0.2219935E-01
6368000.  0.1182045E-01  0.1696577E-01  0.9856541E-04 -0.1108132E-01 -0.3435717E-05 -0.2219670E-01
6368000.  0.1182045E-01  0.1696577E-01  0.9856541E-04 -0.1108132E-01 -0.3435717E-05 -0.2219670E-01
6367000.  0.1181714E-01  0.2520623E-01  0.1002868E-03 -0.1085123E-01  0.4793916E-07 -0.2219165E-01
6366000.  0.1181254E-01  0.3344547E-01  0.1019715E-03 -0.1061425E-01  0.3530616E-05 -0.2218421E-01
6365000.  0.1180664E-01  0.4168256E-01  0.1036185E-03 -0.1037045E-01  0.7011936E-05 -0.2217438E-01
6364000.  0.1179945E-01  0.4991657E-01  0.1052267E-03 -0.1011992E-01  0.1049153E-04 -0.2216215E-01
6363000.  0.1179097E-01  0.5814657E-01  0.1067950E-03 -0.9862747E-02  0.1396901E-04 -0.2214753E-01
6362000.  0.1178120E-01  0.6637163E-01  0.1083225E-03 -0.9599023E-02  0.1744401E-04 -0.2213052E-01
6361000.  0.1177013E-01  0.7459085E-01  0.1098080E-03 -0.9328840E-02  0.2091615E-04 -0.2211111E-01
6360000.  0.1175778E-01  0.8280328E-01  0.1112507E-03 -0.9052292E-02  0.2438506E-04 -0.2208932E-01
6359000.  0.1174414E-01  0.9100801E-01  0.1126494E-03 -0.8769477E-02  0.2785036E-04 -0.2206514E-01
6358000.  0.1172921E-01  0.9920412E-01  0.1140033E-03 -0.8480497E-02  0.3131168E-04 -0.2203857E-01
6357000.  0.1171300E-01  0.1073907E+00  0.1153113E-03 -0.8185453E-02  0.3476864E-04 -0.2200962E-01
6356000.  0.1169550E-01  0.1155668E+00  0.1165726E-03 -0.7884452E-02  0.3822086E-04 -0.2197828E-01
6356000.  0.1169550E-01  0.7376678E-01  0.1165726E-03 -0.9359792E-02  0.3822086E-04 -0.2452309E-01
6355000.  0.1168346E-01  0.7971226E-01  0.1180258E-03 -0.9156236E-02  0.4206822E-04 -0.2449962E-01
6354000.  0.1167048E-01  0.8565242E-01  0.1194467E-03 -0.8948521E-02  0.4591175E-04 -0.2447424E-01
6353000.  0.1165657E-01  0.9158675E-01  0.1208347E-03 -0.8736693E-02  0.4975114E-04 -0.2444695E-01
6352000.  0.1164173E-01  0.9751476E-01  0.1221891E-03 -0.8520804E-02  0.5358609E-04 -0.2441775E-01
6351000.  0.1162596E-01  0.1034360E+00  0.1235093E-03 -0.8300907E-02  0.5741632E-04 -0.2438663E-01
6350000.  0.1160926E-01  0.1093499E+00  0.1247948E-03 -0.8077055E-02  0.6124150E-04 -0.2435361E-01
6349000.  0.1159163E-01  0.1152561E+00  0.1260447E-03 -0.7849301E-02  0.6506136E-04 -0.2431867E-01
6348000.  0.1157308E-01  0.1211540E+00  0.1272586E-03 -0.7617701E-02  0.6887558E-04 -0.2428184E-01
6347000.  0.1155360E-01  0.1270432E+00  0.1284359E-03 -0.7382311E-02  0.7268388E-04 -0.2424310E-01
6346600.  0.1154555E-01  0.1293963E+00  0.1288964E-03 -0.7287107E-02  0.7420546E-04 -0.2422707E-01
6346600.  0.1154555E-01  0.7641234E-01  0.1288964E-03 -0.8642883E-02  0.7420546E-04 -0.2825283E-01
6318800.  0.1095573E-01  0.1932948E+00  0.1537592E-03 -0.2412542E-02  0.1949168E-03 -0.2687241E-01
6291000.  0.9868189E-02  0.3036299E+00  0.1477287E-03  0.5336329E-02  0.3069917E-03 -0.2430407E-01
6291000.  0.9868189E-02  0.3075672E+00  0.1477287E-03  0.5841160E-02  0.3069917E-03 -0.2430407E-01
6263000.  0.8290611E-02  0.4078336E+00  0.1034622E-03  0.1423276E-01  0.4059563E-03 -0.2055330E-01
6235000.  0.6309049E-02  0.4906261E+00  0.2427318E-04  0.2150348E-01  0.4861999E-03 -0.1581317E-01
6207000.  0.4009979E-02  0.5516915E+00 -0.8201423E-04  0.2637162E-01  0.5437856E-03 -0.1027875E-01
6179000.  0.1496408E-02  0.5877922E+00 -0.2025704E-03  0.2787088E-01  0.5757324E-03 -0.4188516E-02
6151000. -0.1116928E-02  0.5968471E+00 -0.3212999E-03  0.2550166E-01  0.5801853E-03  0.2185396E-02
6151000. -0.1116928E-02  0.4804171E+00 -0.3212999E-03  0.2252534E-01  0.5801853E-03  0.2247190E-02
6128500. -0.2782497E-02  0.4609774E+00 -0.3933909E-03  0.1799832E-01  0.5647654E-03  0.6467256E-02
6106000. -0.4360466E-02  0.4309928E+00 -0.4465014E-03  0.1184060E-01  0.5346925E-03  0.1052866E-01
6083500. -0.5815658E-02  0.3916587E+00 -0.4756248E-03  0.4497527E-02  0.4906999E-03  0.1433462E-01
6061000. -0.7117375E-02  0.3443088E+00 -0.4775072E-03 -0.3490615E-02  0.4338489E-03  0.1779648E-01
6038500. -0.8239808E-02  0.2903681E+00 -0.4509041E-03 -0.1153433E-01  0.3654973E-03  0.2083534E-01
6016000. -0.9162259E-02  0.2313020E+00 -0.3966683E-03 -0.1904339E-01  0.2872615E-03  0.2338373E-01
5993500. -0.9869227E-02  0.1685792E+00 -0.3176693E-03 -0.2547359E-01  0.2009742E-03  0.2538704E-01
5971000. -0.1035036E-01  0.1036426E+00 -0.2185533E-03 -0.3036905E-01  0.1086373E-03  0.2680397E-01
5971000. -0.1035036E-01  0.9414692E-01 -0.2185533E-03 -0.2583243E-01  0.1086373E-03  0.2815891E-01
5937667. -0.1059736E-01  0.1176755E-02 -0.7505473E-04 -0.2844752E-01 -0.4210403E-04  0.2923764E-01
5904333. -0.1037494E-01 -0.8478107E-01  0.7326988E-04 -0.2772028E-01 -0.1949760E-03  0.2898030E-01
5871000. -0.9727079E-02 -0.1610869E+00  0.2099873E-03 -0.2412095E-01 -0.3431627E-03  0.2746582E-01
5837667. -0.8709457E-02 -0.2258722E+00  0.3220078E-03 -0.1842601E-01 -0.4804027E-03  0.2482009E-01
5804333. -0.7385717E-02 -0.2779390E+00  0.4007543E-03 -0.1155850E-01 -0.6011905E-03  0.2120476E-01
5771000. -0.5824359E-02 -0.3166602E+00  0.4425296E-03 -0.4441098E-02 -0.7009278E-03  0.1680738E-01
5771000. -0.5824359E-02 -0.3166630E+00  0.4425296E-03 -0.4440728E-02 -0.7009278E-03  0.1680738E-01
5701000. -0.1954799E-02 -0.3782331E+00  0.4194275E-03  0.8053738E-02 -0.8250128E-03  0.5454616E-02
5701000. -0.1954799E-02 -0.3118380E+00  0.4194275E-03  0.6924665E-02 -0.8250128E-03  0.6005604E-02
5667333. -0.3505910E-03 -0.2979943E+00  0.3733409E-03  0.1031670E-01 -0.8429390E-03  0.8253754E-03
5633667.  0.1218901E-02 -0.2961780E+00  0.3114474E-03  0.1298423E-01 -0.8339481E-03 -0.4225056E-02
5600000.  0.2760444E-02 -0.2854742E+00  0.2385454E-03  0.1436947E-01 -0.7984367E-03 -0.9183079E-02
5600000.  0.2760444E-02 -0.2854742E+00  0.2385454E-03  0.1436947E-01 -0.7984367E-03 -0.9183079E-02
5563518.  0.4338851E-02 -0.2641974E+00  0.1553754E-03  0.1444064E-01 -0.7311419E-03 -0.1425449E-01
5527037.  0.5768388E-02 -0.2336448E+00  0.7568830E-04  0.1319488E-01 -0.6361152E-03 -0.1884172E-01
5490556.  0.6998891E-02 -0.1948805E+00  0.6196568E-05  0.1094002E-01 -0.5165894E-03 -0.2278717E-01
5454074.  0.7987117E-02 -0.1492690E+00 -0.4843500E-04  0.8076160E-02 -0.3766275E-03 -0.2595832E-01
5417593.  0.8698466E-02 -0.9847430E-01 -0.8598122E-04  0.5047108E-02 -0.2209869E-03 -0.2824984E-01
5381111.  0.9108449E-02 -0.4432383E-01 -0.1067365E-03  0.2278152E-02 -0.5491854E-04 -0.2958961E-01
5344630.  0.9203452E-02  0.1120145E-01 -0.1132648E-03  0.1307044E-03  0.1159890E-03 -0.2993763E-01
5308148.  0.8981393E-02  0.6608067E-01 -0.1099165E-03 -0.1139495E-02  0.2860282E-03 -0.2928638E-01
5271667.  0.8451743E-02  0.1183123E+00 -0.1021306E-03 -0.1410684E-02  0.4495304E-03 -0.2766309E-01
5235185.  0.7635052E-02  0.1660369E+00 -0.9564063E-04 -0.7016471E-03  0.6010848E-03 -0.2512350E-01
5198704.  0.6562022E-02  0.2075953E+00 -0.9567786E-04  0.8327752E-03  0.7356654E-03 -0.2175248E-01
5162222.  0.5272105E-02  0.2415729E+00 -0.1062445E-03  0.2923492E-02  0.8488249E-03 -0.1766064E-01
5125741.  0.3811895E-02  0.2669470E+00 -0.1295628E-03  0.5224753E-02  0.9367928E-03 -0.1297785E-01
5089259.  0.2232710E-02  0.2830264E+00 -0.1657512E-03  0.7353897E-02  0.9966027E-03 -0.7850750E-02
5052778.  0.5889558E-03  0.2895010E+00 -0.2127374E-03  0.8937682E-02  0.1026158E-02 -0.2438049E-02
5016296. -0.1064630E-02  0.2864917E+00 -0.2664552E-03  0.9658055E-02  0.1024292E-02  0.3096119E-02
4979815. -0.2674724E-02  0.2744257E+00 -0.3212530E-03  0.9286565E-02  0.9907858E-03  0.8585559E-02
4943333. -0.4191602E-02  0.2540738E+00 -0.3705055E-03  0.7713195E-02  0.9263618E-03  0.1386798E-01
4906852. -0.5570624E-02  0.2264765E+00 -0.4073262E-03  0.4959587E-02  0.8326569E-03  0.1878857E-01
4870370. -0.6773700E-02  0.1928218E+00 -0.4253348E-03  0.1178224E-02  0.7121488E-03  0.2320612E-01
4833889. -0.7769911E-02  0.1544672E+00 -0.4193674E-03 -0.3361158E-02  0.5680960E-03  0.2699379E-01
4797407. -0.8536376E-02  0.1127970E+00 -0.3860773E-03 -0.8298596E-02  0.4044130E-03  0.3004506E-01
4760926. -0.9057971E-02  0.6917280E-01 -0.3243677E-03 -0.1321581E-01  0.2255765E-03  0.3227589E-01
4724444. -0.9327350E-02  0.2491011E-01 -0.2355830E-03 -0.1768389E-01  0.3646484E-04  0.3362381E-01
4687963. -0.9344316E-02 -0.1879945E-01 -0.1234818E-03 -0.2129706E-01 -0.1577404E-03  0.3405305E-01
4651482. -0.9115139E-02 -0.6089874E-01  0.6026944E-05 -0.2371494E-01 -0.3517426E-03  0.3355300E-01
4615000. -0.8651673E-02 -0.1004902E+00  0.1453656E-03 -0.2469835E-01 -0.5402509E-03  0.3213678E-01
4578518. -0.7970520E-02 -0.1368158E+00  0.2859012E-03 -0.2412309E-01 -0.7181144E-03  0.2984357E-01
4542037. -0.7092216E-02 -0.1692702E+00  0.4186665E-03 -0.2199862E-01 -0.8804721E-03  0.2673450E-01
4505556. -0.6040291E-02 -0.1973856E+00  0.5351360E-03 -0.1846419E-01 -0.1022880E-02  0.2289088E-01
4469074. -0.4840742E-02 -0.2207646E+00  0.6279036E-03 -0.1376972E-01 -0.1141416E-02  0.1841379E-01
4432593. -0.3521584E-02 -0.2391360E+00  0.6912762E-03 -0.8261759E-02 -0.1232772E-02  0.1341848E-01
4396111. -0.2112058E-02 -0.2522772E+00  0.7217342E-03 -0.2343140E-02 -0.1294343E-02  0.8032377E-02
4359630. -0.6428111E-03 -0.2599838E+00  0.7181413E-03  0.3560150E-02 -0.1324278E-02  0.2392649E-02
4323148.  0.8548061E-03 -0.2621574E+00  0.6817791E-03  0.9036826E-02 -0.1321529E-02 -0.3359511E-02
4286667.  0.2348746E-02 -0.2586995E+00  0.6161575E-03  0.1372572E-01 -0.1285863E-02 -0.9080693E-02
4250185.  0.3806680E-02 -0.2495702E+00  0.5266333E-03  0.1734592E-01 -0.1217861E-02 -0.1462998E-01
4213704.  0.5196202E-02 -0.2348320E+00  0.4198918E-03  0.1971968E-01 -0.1118905E-02 -0.1987101E-01
4177222.  0.6485540E-02 -0.2145946E+00  0.3033107E-03  0.2078010E-01 -0.9911214E-03 -0.2467729E-01
4140741.  0.7643786E-02 -0.1891111E+00  0.1843288E-03  0.2057719E-01 -0.8373449E-03 -0.2893258E-01
4104259.  0.8642011E-02 -0.1587649E+00  0.6977224E-04  0.1926658E-01 -0.6610225E-03 -0.3253483E-01
4067778.  0.9453680E-02 -0.1240611E+00 -0.3465361E-04  0.1708584E-01 -0.4661527E-03 -0.3539969E-01
4031296.  0.1005579E-01 -0.8569314E-01 -0.1248182E-03  0.1433864E-01 -0.2571529E-03 -0.3745811E-01
3994815.  0.1042965E-01 -0.4449320E-01 -0.1984150E-03  0.1135524E-01 -0.3880290E-04 -0.3866131E-01
3958333.  0.1056177E-01 -0.1432094E-02 -0.2550323E-03  0.8460224E-02  0.1839250E-03 -0.3898184E-01
3921852.  0.1044459E-01  0.4239488E-01 -0.2960418E-03  0.5948885E-02  0.4059243E-03 -0.3840899E-01
3885370.  0.1007702E-01  0.8581322E-01 -0.3243364E-03  0.4050686E-02  0.6221146E-03 -0.3695446E-01
3848889.  0.9464945E-02  0.1276008E+00 -0.3438900E-03  0.2913372E-02  0.8275147E-03 -0.3464869E-01
3812407.  0.8621071E-02  0.1665698E+00 -0.3592645E-03  0.2591447E-02  0.1017387E-02 -0.3153852E-01
3775926.  0.7564946E-02  0.2015586E+00 -0.3750408E-03  0.3038174E-02  0.1187296E-02 -0.2769005E-01
3739444.  0.6322286E-02  0.2315578E+00 -0.3952694E-03  0.4116562E-02  0.1333243E-02 -0.2318210E-01
3702963.  0.4924207E-02  0.2557255E+00 -0.4229847E-03  0.5611839E-02  0.1451702E-02 -0.1810667E-01
3666482.  0.3406141E-02  0.2733768E+00 -0.4598130E-03  0.7250894E-02  0.1539719E-02 -0.1256749E-01
3630000.  0.1806560E-02  0.2841397E+00 -0.5057277E-03  0.8734168E-02  0.1594953E-02 -0.6674679E-02
3630000.  0.1806560E-02  0.2841397E+00 -0.5057277E-03  0.8734168E-02  0.1594953E-02 -0.6674679E-02
3592500.  0.1195815E-03  0.2878307E+00 -0.5605259E-03  0.9779005E-02  0.1615783E-02 -0.3717944E-03
3555000. -0.1567354E-02  0.2841728E+00 -0.6193169E-03  0.1004626E-01  0.1599094E-02  0.6051388E-02
3517500. -0.3212129E-02  0.2735929E+00 -0.6768081E-03  0.9305550E-02  0.1544565E-02  0.1246460E-01
3480000. -0.4775710E-02  0.2567059E+00 -0.7265954E-03  0.7412906E-02  0.1452630E-02  0.1874031E-01
3480000. -0.4775710E-02  0.4573213E+00 -0.3796197E-03 -0.8041425E-02  0.1452630E-02  0.3405594E-01
3409422. -0.9014670E-02  0.2927503E+00 -0.2416340E-03 -0.1639085E-01  0.8907636E-03  0.6529183E-01
3338844. -0.1102183E-01  0.6351195E-01 -0.3049442E-04 -0.2097291E-01  0.6456192E-04  0.8081564E-01
3268266. -0.1039458E-01 -0.1732437E+00  0.2048337E-03 -0.2066288E-01 -0.8281257E-03  0.7708980E-01
3197688. -0.7355149E-02 -0.3640067E+00  0.4091469E-03 -0.1547007E-01 -0.1575735E-02  0.5516632E-01
3127109. -0.2645548E-02 -0.4699231E+00  0.5334558E-03 -0.6476596E-02 -0.2001635E-02  0.2012820E-01
3056531.  0.2674709E-02 -0.4732002E+00  0.5454994E-03  0.4438962E-02 -0.2001783E-02 -0.2027521E-01
2985953.  0.7474135E-02 -0.3784043E+00  0.4363619E-03  0.1501727E-01 -0.1564549E-02 -0.5742596E-01
2915375.  0.1078229E-01 -0.2091966E+00  0.2221363E-03  0.2307784E-01 -0.7701248E-03 -0.8364509E-01
2844797.  0.1196770E-01 -0.1850020E-02 -0.5932798E-04  0.2693465E-01  0.2284450E-03 -0.9366094E-01
2774219.  0.1083371E-01  0.2027885E+00 -0.3556926E-03  0.2569538E-01  0.1237437E-02 -0.8549112E-01
2703641.  0.7624487E-02  0.3672024E+00 -0.6098590E-03  0.1940215E-01  0.2060593E-02 -0.6063533E-01
2633062.  0.2950781E-02  0.4636008E+00 -0.7703124E-03  0.9001885E-02  0.2535699E-02 -0.2361381E-01
2562484. -0.2342003E-02  0.4778769E+00 -0.8002573E-03 -0.3834623E-02  0.2563053E-02  0.1899627E-01
2491906. -0.7335000E-02  0.4108067E+00 -0.6841091E-03 -0.1700508E-01  0.2121488E-02  0.5981689E-01
2421328. -0.1119469E-01  0.2766002E+00 -0.4303649E-03 -0.2832339E-01  0.1269984E-02  0.9196293E-01
2350750. -0.1330396E-01  0.9939988E-01 -0.7059055E-04 -0.3586506E-01  0.1357678E-03  0.1101591E+00
2280172. -0.1334652E-01 -0.9146932E-01  0.3451481E-03 -0.3825582E-01 -0.1108154E-02  0.1115086E+00
2209594. -0.1133614E-01 -0.2665744E+00  0.7555539E-03 -0.3486491E-01 -0.2271582E-02  0.9582077E-01
2139016. -0.7591704E-02 -0.4009446E+00  0.1096862E-02 -0.2587976E-01 -0.3176821E-02  0.6548756E-01
2068438. -0.2667569E-02 -0.4774847E+00  0.1311749E-02 -0.1225834E-01 -0.3684758E-02  0.2497008E-01
1997859.  0.2745501E-02 -0.4888185E+00  0.1357101E-02  0.4425770E-02 -0.3713619E-02 -0.1998684E-01
1927281.  0.7930352E-02 -0.4375001E+00  0.1209598E-02  0.2221527E-01 -0.3248209E-02 -0.6326126E-01
1856703.  0.1224787E-01 -0.3346971E+00  0.8684607E-03  0.3904585E-01 -0.2339104E-02 -0.9923772E-01
1786125.  0.1521951E-01 -0.1977674E+00  0.3550952E-03  0.5302023E-01 -0.1092886E-02 -0.1235209E+00
1715547.  0.1657919E-01 -0.4717932E-01 -0.2901309E-03  0.6264739E-01  0.3441756E-03 -0.1333909E+00
1644969.  0.1629008E-01  0.9666345E-01 -0.1013421E-02  0.6701637E-01  0.1805749E-02 -0.1279412E+00
1574391.  0.1452781E-01  0.2162196E+00 -0.1754558E-02  0.6588665E-01  0.3124787E-02 -0.1078915E+00
1503812.  0.1163657E-01  0.2988519E+00 -0.2454439E-02  0.5969188E-01  0.4149083E-02 -0.7509273E-01
1433234.  0.8068196E-02  0.3378718E+00 -0.3062159E-02  0.4946606E-01  0.4749738E-02 -0.3175976E-01
1362656.  0.4315101E-02  0.3325313E+00 -0.3541044E-02  0.3671456E-01  0.4819761E-02  0.2057499E-01
1292078.  0.8494720E-03  0.2869841E+00 -0.3872998E-02  0.2326270E-01  0.4259076E-02  0.8246809E-01
1221500. -0.1921112E-02  0.2083527E+00 -0.4061320E-02  0.1113368E-01  0.2940780E-02  0.1586370E+00
1221500. -0.1921112E-02  0.6478614E+01  0.3152167E-01  0.1744282E+00  0.2940780E-02  0.1594692E+00
1183328. -0.3929299E-01  0.5552715E+01  0.2459184E-01  0.2072887E+01  0.2085320E-02  0.1268324E+00
1145156. -0.6357172E-01  0.2212720E+01  0.8182167E-02  0.3230024E+01  0.1412244E-02  0.9855141E-01
1106984. -0.6309737E-01 -0.2462989E+01 -0.1166874E-01  0.3178926E+01  0.8960118E-03  0.7445815E-01
1068812. -0.3478121E-01 -0.6775315E+01 -0.2744680E-01  0.1910023E+01  0.5118590E-03  0.5444494E-01
1030641.  0.1388159E-01 -0.9001397E+01 -0.3300297E-01 -0.1266363E+00  0.2357565E-03  0.3835912E-01
 992469.  0.6663440E-01 -0.8035990E+01 -0.2587117E-01 -0.2191744E+01  0.4492944E-04  0.2591584E-01
 954297.  0.1036538E+00 -0.3844378E+01 -0.8207746E-02 -0.3530530E+01 -0.8115960E-04  0.1665874E-01
 916125.  0.1084590E+00  0.2441990E+01  0.1396396E-01 -0.3646947E+01 -0.1598574E-03  0.9986542E-02
 877953.  0.7416102E-01  0.8835270E+01  0.3289470E-01 -0.2477553E+01 -0.2046514E-03  0.5228927E-02
 839781.  0.6847067E-02  0.1311137E+02  0.4182966E-01 -0.4060115E+00 -0.2250897E-03  0.1761151E-02
 801609. -0.7519004E-01  0.1353738E+02  0.3732679E-01  0.1880302E+01 -0.2273701E-03 -0.8965456E-03
 763438. -0.1462919E+00  0.9463717E+01  0.2037528E-01  0.3634136E+01 -0.2154061E-03 -0.3022281E-02
 725266. -0.1809055E+00  0.1581645E+01 -0.4026894E-02  0.4302242E+01 -0.1920546E-03 -0.4696301E-02
 687094. -0.1613264E+00 -0.8240269E+01 -0.2861299E-01  0.3699905E+01 -0.1601413E-03 -0.5862327E-02
 648922. -0.8330837E-01 -0.1749114E+02 -0.4625273E-01  0.2051716E+01 -0.1230375E-03 -0.6411224E-02
 610750.  0.4224464E-01 -0.2375153E+02 -0.5217027E-01 -0.1073987E+00 -0.8466181E-04 -0.6283734E-02
 572578.  0.1919975E+00 -0.2539252E+02 -0.4525226E-01 -0.2126479E+01 -0.4899686E-04 -0.5523659E-02
 534406.  0.3364297E+00 -0.2202331E+02 -0.2808649E-01 -0.3454653E+01 -0.1939926E-04 -0.4294874E-02
 496234.  0.4476545E+00 -0.1455684E+02 -0.5831960E-02 -0.3804037E+01  0.2040475E-05 -0.2846149E-02
 458062.  0.5064430E+00 -0.4889248E+01  0.1559388E-01 -0.3209534E+01  0.1480711E-04 -0.1443293E-02
 419891.  0.5064418E+00  0.4688339E+01  0.3134259E-01 -0.1976180E+01  0.1988424E-04 -0.3097892E-03
 381719.  0.4545422E+00  0.1215030E+02  0.3887999E-01 -0.5445794E+00  0.1929850E-04  0.4356617E-03
 343547.  0.3676138E+00  0.1625805E+02  0.3831457E-01  0.6688753E+00  0.1546994E-04  0.7790997E-03
 305375.  0.2669103E+00  0.1679796E+02  0.3184340E-01  0.1399447E+01  0.1059554E-04  0.8041231E-03
 267203.  0.1720593E+00  0.1448477E+02  0.2263923E-01  0.1588238E+01  0.6210244E-05  0.6384757E-03
 229031.  0.9648473E-01  0.1059858E+02  0.1365859E-01  0.1356006E+01  0.3062776E-05  0.4106010E-03
 190859.  0.4545160E-01  0.6501853E+01  0.6799493E-02  0.9184400E+00  0.1223686E-05  0.2128956E-03
 152688.  0.1692020E-01  0.3212465E+01  0.2638241E-02  0.4852838E+00  0.3685479E-06  0.8480297E-04
 114516.  0.4427661E-02  0.1170100E+01  0.7115187E-03  0.1850454E+00  0.7276770E-07  0.2322430E-04
  76344.  0.6247768E-03  0.2549534E+00  0.1024869E-03  0.4154576E-01  0.6858366E-08  0.3370142E-05
  38172.  0.2034487E-04  0.1688483E-01  0.3377482E-05  0.2798619E-02  0.1115064E-09  0.1108108E-06
      0.  0.0000000E+00  0.0000000E+00  0.0000000E+00  0.0000000E+00  0.0000000E+00  0.0000000E+00
