       0       14 S       13        446.11649          6.18830          4.66896        299.39279      185    7
6371000.  0.2490474E+00 -0.1328179E+01 -0.1369997E-01 -0.2627473E+00 -0.1399816E-01 -0.2596728E+00
6370000.  0.2492548E+00 -0.1315240E+01 -0.1365867E-01 -0.2634903E+00 -0.1395747E-01 -0.2586867E+00
6369000.  0.2494603E+00 -0.1302274E+01 -0.1361725E-01 -0.2642277E+00 -0.1391695E-01 -0.2576999E+00
6368000.  0.2496636E+00 -0.1289284E+01 -0.1357572E-01 -0.2649597E+00 -0.1387658E-01 -0.2567126E+00
6368000.  0.2496636E+00 -0.1289284E+01 -0.1357572E-01 -0.2649597E+00 -0.1387658E-01 -0.2567126E+00
6367000.  0.2498650E+00 -0.1276267E+01 -0.1353407E-01 -0.2656861E+00 -0.1383636E-01 -0.2557245E+00
6366000.  0.2500643E+00 -0.1263225E+01 -0.1349232E-01 -0.2664071E+00 -0.1379630E-01 -0.2547359E+00
6365000.  0.2502615E+00 -0.1250157E+01 -0.1345044E-01 -0.2671226E+00 -0.1375639E-01 -0.2537466E+00
6364000.  0.2504568E+00 -0.1237064E+01 -0.1340846E-01 -0.2678325E+00 -0.1371664E-01 -0.2527566E+00
6363000.  0.2506499E+00 -0.1223946E+01 -0.1336636E-01 -0.2685369E+00 -0.1367705E-01 -0.2517659E+00
6362000.  0.2508410E+00 -0.1210804E+01 -0.1332416E-01 -0.2692358E+00 -0.1363761E-01 -0.2507746E+00
6361000.  0.2510300E+00 -0.1197636E+01 -0.1328185E-01 -0.2699291E+00 -0.1359832E-01 -0.2497826E+00
6360000.  0.2512169E+00 -0.1184444E+01 -0.1323942E-01 -0.2706168E+00 -0.1355920E-01 -0.2487900E+00
6359000.  0.2514018E+00 -0.1171228E+01 -0.1319689E-01 -0.2712989E+00 -0.1352022E-01 -0.2477966E+00
6358000.  0.2515846E+00 -0.1157987E+01 -0.1315426E-01 -0.2719755E+00 -0.1348141E-01 -0.2468026E+00
6357000.  0.2517653E+00 -0.1144723E+01 -0.1311151E-01 -0.2726464E+00 -0.1344275E-01 -0.2458079E+00
6356000.  0.2519439E+00 -0.1131435E+01 -0.1306867E-01 -0.2733117E+00 -0.1340424E-01 -0.2448125E+00
6356000.  0.2519439E+00 -0.1023913E+01 -0.1306867E-01 -0.2702699E+00 -0.1340424E-01 -0.2996326E+00
6355000.  0.2521039E+00 -0.1013949E+01 -0.1302624E-01 -0.2703710E+00 -0.1335730E-01 -0.2985463E+00
6354000.  0.2522623E+00 -0.1003977E+01 -0.1298379E-01 -0.2704693E+00 -0.1331052E-01 -0.2974605E+00
6353000.  0.2524191E+00 -0.9939976E+00 -0.1294133E-01 -0.2705647E+00 -0.1326392E-01 -0.2963751E+00
6352000.  0.2525743E+00 -0.9840105E+00 -0.1289886E-01 -0.2706572E+00 -0.1321748E-01 -0.2952902E+00
6351000.  0.2527280E+00 -0.9740158E+00 -0.1285637E-01 -0.2707469E+00 -0.1317122E-01 -0.2942058E+00
6350000.  0.2528801E+00 -0.9640136E+00 -0.1281386E-01 -0.2708338E+00 -0.1312512E-01 -0.2931218E+00
6349000.  0.2530306E+00 -0.9540041E+00 -0.1277134E-01 -0.2709177E+00 -0.1307920E-01 -0.2920382E+00
6348000.  0.2531796E+00 -0.9439873E+00 -0.1272882E-01 -0.2709988E+00 -0.1303345E-01 -0.2909551E+00
6347000.  0.2533269E+00 -0.9339632E+00 -0.1268627E-01 -0.2710770E+00 -0.1298786E-01 -0.2898725E+00
6346600.  0.2533854E+00 -0.9299516E+00 -0.1266925E-01 -0.2711075E+00 -0.1296968E-01 -0.2894395E+00
6346600.  0.2533854E+00 -0.1170475E+01 -0.1266925E-01 -0.2697983E+00 -0.1296968E-01 -0.3777913E+00
6318800.  0.2580012E+00 -0.9448073E+00 -0.1150855E-01 -0.2620511E+00 -0.1138737E-01 -0.3476324E+00
6291000.  0.2616285E+00 -0.7175986E+00 -0.1038368E-01 -0.2533673E+00 -0.9934389E-02 -0.3184942E+00
6291000.  0.2616285E+00 -0.7550031E+00 -0.1038368E-01 -0.2523899E+00 -0.9934389E-02 -0.3184942E+00
6263000.  0.2644297E+00 -0.5196906E+00 -0.9294310E-02 -0.2431577E+00 -0.8596648E-02 -0.2903985E+00
6235000.  0.2661967E+00 -0.2846068E+00 -0.8248117E-02 -0.2327333E+00 -0.7380844E-02 -0.2629805E+00
6207000.  0.2669335E+00 -0.5108578E-01 -0.7250421E-02 -0.2210823E+00 -0.6284313E-02 -0.2360957E+00
6179000.  0.2666501E+00  0.1794794E+00 -0.6306679E-02 -0.2081771E+00 -0.5305035E-02 -0.2095990E+00
6151000.  0.2653624E+00  0.4056170E+00 -0.5422446E-02 -0.1939984E+00 -0.4441611E-02 -0.1833501E+00
6151000.  0.2653624E+00  0.1901507E+00 -0.5422446E-02 -0.2048422E+00 -0.4441611E-02 -0.1980315E+00
6128500.  0.2644505E+00  0.3251383E+00 -0.4718775E-02 -0.1935769E+00 -0.3770909E-02 -0.1818693E+00
6106000.  0.2630736E+00  0.4533729E+00 -0.4055692E-02 -0.1818631E+00 -0.3156517E-02 -0.1661358E+00
6083500.  0.2612564E+00  0.5745118E+00 -0.3434716E-02 -0.1697367E+00 -0.2596994E-02 -0.1507893E+00
6061000.  0.2590243E+00  0.6882367E+00 -0.2857243E-02 -0.1572322E+00 -0.2091042E-02 -0.1357924E+00
6038500.  0.2564042E+00  0.7942577E+00 -0.2324553E-02 -0.1443812E+00 -0.1637498E-02 -0.1211012E+00
6016000.  0.2534236E+00  0.8922898E+00 -0.1837816E-02 -0.1312128E+00 -0.1235367E-02 -0.1066706E+00
5993500.  0.2501114E+00  0.9820659E+00 -0.1398104E-02 -0.1177546E+00 -0.8837969E-03 -0.9245975E-01
5971000.  0.2464970E+00  0.1063348E+01 -0.1006398E-02 -0.1040301E+00 -0.5821002E-03 -0.7841867E-01
5971000.  0.2464970E+00  0.9378234E+00 -0.1006398E-02 -0.1216627E+00 -0.5821002E-03 -0.1106872E+00
5937667.  0.2413738E+00  0.1017924E+01 -0.4050934E-03 -0.1082711E+00 -0.4360504E-04 -0.9532173E-01
5904333.  0.2358723E+00  0.1082545E+01  0.1274690E-03 -0.9539796E-01  0.4170206E-03 -0.8090959E-01
5871000.  0.2300710E+00  0.1132770E+01  0.5942495E-03 -0.8314589E-01  0.8046468E-03 -0.6741586E-01
5837667.  0.2240421E+00  0.1169710E+01  0.9987177E-03 -0.7158816E-01  0.1123991E-02 -0.5480055E-01
5804333.  0.2178521E+00  0.1194474E+01  0.1344652E-02 -0.6077313E-01  0.1379532E-02 -0.4301480E-01
5771000.  0.2115623E+00  0.1208134E+01  0.1636008E-02 -0.5073241E-01  0.1575473E-02 -0.3201299E-01
5771000.  0.2115623E+00  0.1208146E+01  0.1636008E-02 -0.5073832E-01  0.1575473E-02 -0.3201299E-01
5701000.  0.1978501E+00  0.1277193E+01  0.2011366E-02 -0.1767308E-01  0.1746541E-02  0.7027388E-03
5701000.  0.1978501E+00  0.1056608E+01  0.2011366E-02 -0.6031178E-01  0.1746541E-02 -0.5506409E-01
5667333.  0.1923899E+00  0.1023869E+01  0.2346418E-02 -0.6393167E-01  0.2003102E-02 -0.4282302E-01
5633667.  0.1869043E+00  0.1056652E+01  0.2663054E-02 -0.5495554E-01  0.2206075E-02 -0.3433780E-01
5600000.  0.1812467E+00  0.1082415E+01  0.2930508E-02 -0.4659304E-01  0.2367144E-02 -0.2673798E-01
5600000.  0.1812467E+00  0.1082415E+01  0.2930508E-02 -0.4659304E-01  0.2367144E-02 -0.2673798E-01
5563518.  0.1749856E+00  0.1103236E+01  0.3173129E-02 -0.3826728E-01  0.2499060E-02 -0.1949453E-01
5527037.  0.1686251E+00  0.1117330E+01  0.3370107E-02 -0.3064725E-01  0.2592131E-02 -0.1315686E-01
5490556.  0.1622018E+00  0.1125205E+01  0.3525397E-02 -0.2370291E-01  0.2651310E-02 -0.7645606E-02
5454074.  0.1557500E+00  0.1127331E+01  0.3642815E-02 -0.1741242E-01  0.2681148E-02 -0.2894437E-02
5417593.  0.1493011E+00  0.1124340E+01  0.3725957E-02 -0.1172476E-01  0.2685727E-02  0.1189252E-02
5381111.  0.1428827E+00  0.1116652E+01  0.3778198E-02 -0.6615357E-02  0.2668694E-02  0.4662723E-02
5344630.  0.1365210E+00  0.1104751E+01  0.3802761E-02 -0.2050520E-02  0.2633379E-02  0.7587524E-02
5308148.  0.1302379E+00  0.1089144E+01  0.3802632E-02  0.2013640E-02  0.2582705E-02  0.1003448E-01
5271667.  0.1240543E+00  0.1070164E+01  0.3780630E-02  0.5594035E-02  0.2519314E-02  0.1203742E-01
5235185.  0.1179877E+00  0.1048285E+01  0.3739406E-02  0.8734581E-02  0.2445576E-02  0.1365805E-01
5198704.  0.1120539E+00  0.1023896E+01  0.3681371E-02  0.1146892E-01  0.2363535E-02  0.1494308E-01
5162222.  0.1062662E+00  0.9972618E+00  0.3608814E-02  0.1381136E-01  0.2275043E-02  0.1591670E-01
5125741.  0.1006365E+00  0.9688152E+00  0.3523858E-02  0.1580719E-01  0.2181739E-02  0.1663242E-01
5089259.  0.9517402E-01  0.9388293E+00  0.3428402E-02  0.1748027E-01  0.2085001E-02  0.1711855E-01
5052778.  0.8988724E-01  0.9075643E+00  0.3324247E-02  0.1885158E-01  0.1986083E-02  0.1740057E-01
5016296.  0.8478221E-01  0.8753374E+00  0.3213013E-02  0.1995632E-01  0.1886042E-02  0.1751454E-01
4979815.  0.7986414E-01  0.8423517E+00  0.3096178E-02  0.2081186E-01  0.1785787E-02  0.1747940E-01
4943333.  0.7513642E-01  0.8088415E+00  0.2975097E-02  0.2144316E-01  0.1686103E-02  0.1731837E-01
4906852.  0.7060165E-01  0.7750367E+00  0.2850978E-02  0.2187734E-01  0.1587639E-02  0.1705710E-01
4870370.  0.6626086E-01  0.7410723E+00  0.2724907E-02  0.2212629E-01  0.1490935E-02  0.1670508E-01
4833889.  0.6211462E-01  0.7071556E+00  0.2597884E-02  0.2221608E-01  0.1396456E-02  0.1628508E-01
4797407.  0.5816197E-01  0.6734357E+00  0.2470745E-02  0.2216675E-01  0.1304532E-02  0.1581255E-01
4760926.  0.5440175E-01  0.6400030E+00  0.2344277E-02  0.2198607E-01  0.1215458E-02  0.1529273E-01
4724444.  0.5083164E-01  0.6070239E+00  0.2219152E-02  0.2169978E-01  0.1129444E-02  0.1474581E-01
4687963.  0.4744896E-01  0.5745798E+00  0.2095943E-02  0.2131934E-01  0.1046623E-02  0.1417855E-01
4651482.  0.4425035E-01  0.5427459E+00  0.1975161E-02  0.2085520E-01  0.9670948E-03  0.1359793E-01
4615000.  0.4123194E-01  0.5116233E+00  0.1857225E-02  0.2032574E-01  0.8908946E-03  0.1301673E-01
4578518.  0.3838962E-01  0.4812506E+00  0.1742493E-02  0.1973773E-01  0.8180163E-03  0.1243820E-01
4542037.  0.3571900E-01  0.4516878E+00  0.1631272E-02  0.1910270E-01  0.7484297E-03  0.1186941E-01
4505556.  0.3321521E-01  0.4229861E+00  0.1523789E-02  0.1843347E-01  0.6820495E-03  0.1131871E-01
4469074.  0.3087323E-01  0.3951479E+00  0.1420229E-02  0.1773228E-01  0.6187717E-03  0.1078577E-01
4432593.  0.2868813E-01  0.3682194E+00  0.1320749E-02  0.1701136E-01  0.5584767E-03  0.1027882E-01
4396111.  0.2665455E-01  0.3422084E+00  0.1225434E-02  0.1627716E-01  0.5009979E-03  0.9801582E-02
4359630.  0.2476735E-01  0.3171058E+00  0.1134362E-02  0.1553107E-01  0.4461695E-03  0.9354248E-02
4323148.  0.2302120E-01  0.2929305E+00  0.1047570E-02  0.1478245E-01  0.3937996E-03  0.8943240E-02
4286667.  0.2141090E-01  0.2696677E+00  0.9650698E-03  0.1403301E-01  0.3436763E-03  0.8570071E-02
4250185.  0.1993120E-01  0.2473031E+00  0.8868583E-03  0.1328447E-01  0.2955770E-03  0.8236495E-02
4213704.  0.1857701E-01  0.2258348E+00  0.8129199E-03  0.1254145E-01  0.2492647E-03  0.7946804E-02
4177222.  0.1734323E-01  0.2052353E+00  0.7432232E-03  0.1180196E-01  0.2044829E-03  0.7701606E-02
4140741.  0.1622497E-01  0.1854951E+00  0.6777514E-03  0.1106678E-01  0.1609731E-03  0.7503734E-02
4104259.  0.1521728E-01  0.1666012E+00  0.6164736E-03  0.1033588E-01  0.1184493E-03  0.7356944E-02
4067778.  0.1431544E-01  0.1485327E+00  0.5593858E-03  0.9603146E-02  0.7662293E-04  0.7260841E-02
4031296.  0.1351467E-01  0.1312910E+00  0.5065012E-03  0.8866930E-02  0.3518930E-04  0.7220199E-02
3994815.  0.1281028E-01  0.1148760E+00  0.4578562E-03  0.8121246E-02 -0.6176504E-05  0.7237645E-02
3958333.  0.1219750E-01  0.9929419E-01  0.4135325E-03  0.7355693E-02 -0.4781081E-04  0.7314148E-02
3921852.  0.1167149E-01  0.8458017E-01  0.3736683E-03  0.6562402E-02 -0.9006378E-04  0.7454826E-02
3885370.  0.1122713E-01  0.7077794E-01  0.3384579E-03  0.5727056E-02 -0.1333128E-03  0.7661940E-02
3848889.  0.1085904E-01  0.5796318E-01  0.3081933E-03  0.4832393E-02 -0.1779434E-03  0.7938563E-02
3812407.  0.1056123E-01  0.4624627E-01  0.2832648E-03  0.3859167E-02 -0.2243705E-03  0.8289512E-02
3775926.  0.1032703E-01  0.3578091E-01  0.2641994E-03  0.2779793E-02 -0.2730235E-03  0.8716978E-02
3739444.  0.1014867E-01  0.2677978E-01  0.2516920E-03  0.1562778E-02 -0.3243550E-03  0.9225398E-02
3702963.  0.1001701E-01  0.1952761E-01  0.2466380E-03  0.1690457E-03 -0.3788389E-03  0.9818905E-02
3666482.  0.9920985E-02  0.1440544E-01  0.2501911E-03 -0.1452679E-02 -0.4369674E-03  0.1049880E-01
3630000.  0.9847033E-02  0.1191086E-01  0.2638231E-03 -0.3362310E-02 -0.4992482E-03  0.1126915E-01
3630000.  0.9847033E-02  0.1191086E-01  0.2638231E-03 -0.3362310E-02 -0.4992482E-03  0.1126915E-01
3592500.  0.9776291E-02  0.1277468E-01  0.2903007E-03 -0.5706613E-02 -0.5681398E-03  0.1215522E-01
3555000.  0.9688054E-02  0.1803030E-01  0.3319592E-03 -0.8539620E-02 -0.6425269E-03  0.1313635E-01
3517500.  0.9553104E-02  0.2887446E-01  0.3920385E-03 -0.1198980E-01 -0.7229652E-03  0.1421049E-01
3480000.  0.9334153E-02  0.4686755E-01  0.4746313E-03 -0.1621954E-01 -0.8099800E-03  0.1536913E-01
3480000.  0.9334153E-02  0.2015563E+00  0.7150320E-03  0.1576911E-01 -0.8099800E-03 -0.1456535E-01
3409422.  0.7323268E-02  0.1626558E+00  0.5582511E-03  0.1263594E-01 -0.6590349E-03 -0.1267537E-01
3338844.  0.5706109E-02  0.1303210E+00  0.4330165E-03  0.1005912E-01 -0.5291136E-03 -0.1079164E-01
3268266.  0.4414920E-02  0.1036627E+00  0.3336378E-03  0.7954722E-02 -0.4195237E-03 -0.9017827E-02
3197688.  0.3391440E-02  0.8185894E-01  0.2553040E-03  0.6248033E-02 -0.3286888E-03 -0.7412409E-02
3127109.  0.2586073E-02  0.6416553E-01  0.1939797E-03  0.4873555E-02 -0.2545690E-03 -0.6002407E-02
3056531.  0.1957054E-02  0.4991986E-01  0.1463086E-03  0.3774482E-02 -0.1949533E-03 -0.4793703E-02
2985953.  0.1469477E-02  0.3853939E-01  0.1095167E-03  0.2901906E-02 -0.1476440E-03 -0.3778537E-02
2915375.  0.1094466E-02  0.2951941E-01  0.8133199E-04  0.2214204E-02 -0.1105794E-03 -0.2941055E-02
2844797.  0.8083331E-03  0.2242734E-01  0.5990644E-04  0.1676268E-02 -0.8189950E-04 -0.2261246E-02
2774219.  0.5918081E-03  0.1689648E-01  0.4374861E-04  0.1258725E-02 -0.5997625E-04 -0.1717636E-02
2703641.  0.4293521E-03  0.1261909E-01  0.3166407E-04  0.9372014E-03 -0.4341891E-04 -0.1289059E-02
2633062.  0.3085388E-03  0.9339438E-02  0.2270375E-04  0.6916515E-03 -0.3106414E-04 -0.9557437E-03
2562484.  0.2195229E-03  0.6847136E-02  0.1611987E-04  0.5057356E-03 -0.2195725E-04 -0.6999573E-03
2491906.  0.1545640E-03  0.4970535E-02  0.1132764E-04  0.3662210E-03 -0.1532697E-04 -0.5062382E-03
2421328.  0.1076372E-03  0.3571050E-02  0.7873961E-05  0.2625012E-03 -0.1056062E-04 -0.3614484E-03
2350750.  0.7409421E-04  0.2537801E-02  0.5410825E-05  0.1861462E-03 -0.7178625E-05 -0.2546626E-03
2280172.  0.5038396E-04  0.1782927E-02  0.3673364E-05  0.1305126E-03 -0.4811099E-05 -0.1769687E-03
2209594.  0.3382014E-04  0.1237493E-02  0.2461961E-05  0.9041481E-04 -0.3176840E-05 -0.1212236E-03
2139016.  0.2239188E-04  0.8479558E-03  0.1627681E-05  0.6184431E-04 -0.2065157E-05 -0.8179843E-04
2068438.  0.1461030E-04  0.5731657E-03  0.1060590E-05  0.4173344E-04 -0.1320489E-05 -0.5432927E-04
1997859.  0.9385504E-05  0.3818363E-03  0.6804405E-06  0.2775902E-04 -0.8296754E-06 -0.3548717E-04
1927281.  0.5929593E-05  0.2504622E-03  0.4293730E-06  0.1818162E-04 -0.5116774E-06 -0.2277353E-04
1856703.  0.3679907E-05  0.1615835E-03  0.2661689E-06  0.1171351E-04 -0.3093530E-06 -0.1434228E-04
1786125.  0.2240313E-05  0.1024026E-03  0.1618739E-06  0.7413583E-05 -0.1830935E-06 -0.8852798E-05
1715547.  0.1335911E-05  0.6366405E-04  0.9643773E-07  0.4602998E-05 -0.1059165E-06 -0.5347964E-05
1644969.  0.7788830E-06  0.3877139E-04  0.5619033E-07  0.2799024E-05 -0.5977906E-07 -0.3156634E-05
1574391.  0.4430275E-06  0.2309667E-04  0.3196710E-07  0.1663448E-05 -0.3285110E-07 -0.1817058E-05
1503812.  0.2450141E-06  0.1345082E-04  0.1773740E-07  0.9629044E-06 -0.1753765E-07 -0.1017822E-05
1433234.  0.1307670E-06  0.7686337E-05  0.9619090E-08  0.5385514E-06 -0.9072501E-08 -0.5533929E-06
1362656.  0.6558751E-07  0.4412824E-05  0.5187903E-08  0.2824130E-06 -0.4535923E-08 -0.2911777E-06
1292078.  0.2682275E-07  0.2829670E-05  0.3026832E-08  0.1173487E-06 -0.2186083E-08 -0.1478519E-06
1221500. -0.2480373E-08  0.2731499E-05  0.2504120E-08 -0.2597928E-07 -0.1010717E-08 -0.7277481E-07
1221500. -0.2480373E-08 -0.8132648E-08  0.2844457E-11  0.1295176E-07 -0.1010717E-08 -0.7170030E-07
1183328. -0.2272438E-08 -0.5442957E-07 -0.4847634E-10  0.4970190E-08 -0.6560028E-09 -0.4813210E-07
1145156. -0.1890237E-08 -0.6935717E-07 -0.6418437E-10  0.7550643E-09 -0.4194256E-09 -0.3185928E-07
1106984. -0.1474206E-08 -0.6763039E-07 -0.6197892E-10 -0.1211335E-08 -0.2639070E-09 -0.2077452E-07
1068812. -0.1094824E-08 -0.5826112E-07 -0.5218108E-10 -0.1907199E-08 -0.1632381E-09 -0.1333165E-07
1030641. -0.7807385E-09 -0.4646932E-07 -0.4042894E-10 -0.1941699E-08 -0.9913970E-10 -0.8410361E-08
 992469. -0.5371708E-09 -0.3503434E-07 -0.2949890E-10 -0.1677679E-08 -0.5903830E-10 -0.5209156E-08
 954297. -0.3575936E-09 -0.2523436E-07 -0.2050886E-10 -0.1318138E-08 -0.3442240E-10 -0.3163103E-08
 916125. -0.2306660E-09 -0.1748150E-07 -0.1368545E-10 -0.9654607E-09 -0.1962005E-10 -0.1879497E-08
 877953.  0.0000000E+00  0.0000000E+00  0.0000000E+00  0.0000000E+00  0.0000000E+00  0.0000000E+00
 839781.  0.0000000E+00  0.0000000E+00  0.0000000E+00  0.0000000E+00  0.0000000E+00  0.0000000E+00
 801609.  0.0000000E+00  0.0000000E+00  0.0000000E+00  0.0000000E+00  0.0000000E+00  0.0000000E+00
 763438.  0.0000000E+00  0.0000000E+00  0.0000000E+00  0.0000000E+00  0.0000000E+00  0.0000000E+00
 725266.  0.0000000E+00  0.0000000E+00  0.0000000E+00  0.0000000E+00  0.0000000E+00  0.0000000E+00
 687094.  0.0000000E+00  0.0000000E+00  0.0000000E+00  0.0000000E+00  0.0000000E+00  0.0000000E+00
 648922.  0.0000000E+00  0.0000000E+00  0.0000000E+00  0.0000000E+00  0.0000000E+00  0.0000000E+00
 610750.  0.0000000E+00  0.0000000E+00  0.0000000E+00  0.0000000E+00  0.0000000E+00  0.0000000E+00
 572578.  0.0000000E+00  0.0000000E+00  0.0000000E+00  0.0000000E+00  0.0000000E+00  0.0000000E+00
 534406.  0.0000000E+00  0.0000000E+00  0.0000000E+00  0.0000000E+00  0.0000000E+00  0.0000000E+00
 496234.  0.0000000E+00  0.0000000E+00  0.0000000E+00  0.0000000E+00  0.0000000E+00  0.0000000E+00
 458062.  0.0000000E+00  0.0000000E+00  0.0000000E+00  0.0000000E+00  0.0000000E+00  0.0000000E+00
 419891.  0.0000000E+00  0.0000000E+00  0.0000000E+00  0.0000000E+00  0.0000000E+00  0.0000000E+00
 381719.  0.0000000E+00  0.0000000E+00  0.0000000E+00  0.0000000E+00  0.0000000E+00  0.0000000E+00
 343547.  0.0000000E+00  0.0000000E+00  0.0000000E+00  0.0000000E+00  0.0000000E+00  0.0000000E+00
 305375.  0.0000000E+00  0.0000000E+00  0.0000000E+00  0.0000000E+00  0.0000000E+00  0.0000000E+00
 267203.  0.0000000E+00  0.0000000E+00  0.0000000E+00  0.0000000E+00  0.0000000E+00  0.0000000E+00
 229031.  0.0000000E+00  0.0000000E+00  0.0000000E+00  0.0000000E+00  0.0000000E+00  0.0000000E+00
 190859.  0.0000000E+00  0.0000000E+00  0.0000000E+00  0.0000000E+00  0.0000000E+00  0.0000000E+00
 152688.  0.0000000E+00  0.0000000E+00  0.0000000E+00  0.0000000E+00  0.0000000E+00  0.0000000E+00
 114516.  0.0000000E+00  0.0000000E+00  0.0000000E+00  0.0000000E+00  0.0000000E+00  0.0000000E+00
  76344.  0.0000000E+00  0.0000000E+00  0.0000000E+00  0.0000000E+00  0.0000000E+00  0.0000000E+00
  38172.  0.0000000E+00  0.0000000E+00  0.0000000E+00  0.0000000E+00  0.0000000E+00  0.0000000E+00
      0.  0.0000000E+00  0.0000000E+00  0.0000000E+00  0.0000000E+00  0.0000000E+00  0.0000000E+00
