      11       13 S      537        134.27530         22.08298         10.82804        412.79901      185    7
6371000. -0.1376066E-01  0.2814078E+00  0.3782467E-02  0.1754313E-01 -0.2786510E-03  0.2985050E-01
6370000. -0.1380436E-01  0.2754166E+00  0.3779327E-02  0.2247068E-01 -0.2833277E-03  0.2973843E-01
6369000. -0.1384711E-01  0.2693079E+00  0.3775414E-02  0.2739300E-01 -0.2879865E-03  0.2962481E-01
6368000. -0.1388890E-01  0.2630821E+00  0.3770728E-02  0.3230907E-01 -0.2926275E-03  0.2950964E-01
6368000. -0.1388890E-01  0.2630821E+00  0.3770728E-02  0.3230907E-01 -0.2926275E-03  0.2950964E-01
6367000. -0.1392969E-01  0.2567398E+00  0.3765271E-02  0.3721785E-01 -0.2972502E-03  0.2939292E-01
6366000. -0.1396949E-01  0.2502815E+00  0.3759045E-02  0.4211832E-01 -0.3018545E-03  0.2927466E-01
6365000. -0.1400826E-01  0.2437076E+00  0.3752050E-02  0.4700945E-01 -0.3064401E-03  0.2915487E-01
6364000. -0.1404598E-01  0.2370189E+00  0.3744288E-02  0.5189022E-01 -0.3110068E-03  0.2903357E-01
6363000. -0.1408266E-01  0.2302157E+00  0.3735761E-02  0.5675961E-01 -0.3155543E-03  0.2891074E-01
6362000. -0.1411825E-01  0.2232989E+00  0.3726471E-02  0.6161660E-01 -0.3200824E-03  0.2878641E-01
6361000. -0.1415275E-01  0.2162689E+00  0.3716419E-02  0.6646018E-01 -0.3245909E-03  0.2866057E-01
6360000. -0.1418613E-01  0.2091266E+00  0.3705608E-02  0.7128932E-01 -0.3290795E-03  0.2853324E-01
6359000. -0.1421839E-01  0.2018725E+00  0.3694040E-02  0.7610302E-01 -0.3335481E-03  0.2840442E-01
6358000. -0.1424950E-01  0.1945074E+00  0.3681718E-02  0.8090027E-01 -0.3379963E-03  0.2827412E-01
6357000. -0.1427945E-01  0.1870322E+00  0.3668645E-02  0.8568006E-01 -0.3424239E-03  0.2814236E-01
6356000. -0.1430821E-01  0.1794474E+00  0.3654823E-02  0.9044139E-01 -0.3468307E-03  0.2800913E-01
6356000. -0.1430821E-01  0.1779927E+00  0.3654823E-02  0.6172746E-01 -0.3468307E-03  0.3112243E-01
6355000. -0.1433573E-01  0.1726239E+00  0.3644889E-02  0.6484517E-01 -0.3517038E-03  0.3097078E-01
6354000. -0.1436240E-01  0.1671855E+00  0.3634467E-02  0.6795353E-01 -0.3565531E-03  0.3081800E-01
6353000. -0.1438821E-01  0.1616778E+00  0.3623557E-02  0.7105211E-01 -0.3613782E-03  0.3066410E-01
6352000. -0.1441315E-01  0.1561012E+00  0.3612162E-02  0.7414047E-01 -0.3661792E-03  0.3050909E-01
6351000. -0.1443721E-01  0.1504562E+00  0.3600284E-02  0.7721818E-01 -0.3709556E-03  0.3035296E-01
6350000. -0.1446037E-01  0.1447432E+00  0.3587923E-02  0.8028483E-01 -0.3757076E-03  0.3019574E-01
6349000. -0.1448264E-01  0.1389626E+00  0.3575081E-02  0.8333998E-01 -0.3804347E-03  0.3003741E-01
6348000. -0.1450399E-01  0.1331148E+00  0.3561761E-02  0.8638321E-01 -0.3851369E-03  0.2987800E-01
6347000. -0.1452443E-01  0.1272004E+00  0.3547964E-02  0.8941408E-01 -0.3898140E-03  0.2971750E-01
6346600. -0.1453234E-01  0.1248161E+00  0.3542312E-02  0.9062289E-01 -0.3916778E-03  0.2965300E-01
6346600. -0.1453234E-01  0.2038720E+00  0.3542312E-02  0.6707755E-01 -0.3916778E-03  0.3472021E-01
6318800. -0.1513264E-01  0.6444836E-01  0.3115483E-02  0.1271162E+00 -0.5329647E-03  0.2993483E-01
6291000. -0.1504110E-01 -0.1117471E+00  0.2448975E-02  0.1761778E+00 -0.6520789E-03  0.2457123E-01
6291000. -0.1504110E-01 -0.1098190E+00  0.2448975E-02  0.1817501E+00 -0.6520789E-03  0.2457123E-01
6263000. -0.1410491E-01 -0.3196436E+00  0.1565985E-02  0.2170692E+00 -0.7473080E-03  0.1868792E-01
6235000. -0.1221320E-01 -0.5418674E+00  0.5692233E-03  0.2331621E+00 -0.8157446E-03  0.1239689E-01
6207000. -0.9349618E-02 -0.7588518E+00 -0.4533152E-03  0.2287320E+00 -0.8558466E-03  0.5814364E-02
6179000. -0.5577938E-02 -0.9520260E+00 -0.1411874E-02  0.2042795E+00 -0.8666186E-03 -0.9267168E-03
6151000. -0.1042739E-02 -0.1103457E+01 -0.2222780E-02  0.1620518E+00 -0.8476892E-03 -0.7675248E-02
6151000. -0.1042739E-02 -0.9225904E+00 -0.2222780E-02  0.1422227E+00 -0.8476892E-03 -0.7617557E-02
6128500.  0.2319552E-02 -0.9762886E+00 -0.2656983E-02  0.1027537E+00 -0.8140075E-03 -0.1141857E-01
6106000.  0.5814008E-02 -0.9970150E+00 -0.2943370E-02  0.5888410E-01 -0.7673345E-03 -0.1496713E-01
6083500.  0.9320566E-02 -0.9829710E+00 -0.3070401E-02  0.1289641E-01 -0.7086386E-03 -0.1822073E-01
6061000.  0.1271553E-01 -0.9339068E+00 -0.3034705E-02 -0.3288647E-01 -0.6390273E-03 -0.2114313E-01
6038500.  0.1587709E-01 -0.8511319E+00 -0.2841013E-02 -0.7621465E-01 -0.5597250E-03 -0.2370428E-01
6016000.  0.1869069E-01 -0.7374344E+00 -0.2501719E-02 -0.1150181E+00 -0.4720514E-03 -0.2588060E-01
5993500.  0.2105405E-01 -0.5969412E+00 -0.2036069E-02 -0.1474990E+00 -0.3773970E-03 -0.2765528E-01
5971000.  0.2288156E-01 -0.4349258E+00 -0.1469059E-02 -0.1722099E+00 -0.2772014E-03 -0.2901728E-01
5971000.  0.2288156E-01 -0.4040995E+00 -0.1469059E-02 -0.1561004E+00 -0.2772014E-03 -0.3201267E-01
5937667.  0.2435103E-01 -0.1562934E+00 -0.6072216E-03 -0.1703557E+00 -0.1060011E-03 -0.3327228E-01
5904333.  0.2451979E-01  0.9000866E-01  0.2833661E-03 -0.1673431E+00  0.6939078E-04 -0.3363016E-01
5871000.  0.2344224E-01  0.3174673E+00  0.1117585E-02 -0.1492860E+00  0.2445277E-03 -0.3319606E-01
5837667.  0.2125555E-01  0.5119374E+00  0.1824834E-02 -0.1194017E+00  0.4155769E-03 -0.3208721E-01
5804333.  0.1816088E-01  0.6631378E+00  0.2352919E-02 -0.8143795E-01  0.5793174E-03 -0.3041918E-01
5771000.  0.1440278E-01  0.7648960E+00  0.2669688E-02 -0.3926503E-01  0.7331022E-03 -0.2830056E-01
5771000.  0.1440278E-01  0.7649296E+00  0.2669688E-02 -0.3926417E-01  0.7331022E-03 -0.2830056E-01
5701000.  0.5312011E-02  0.8524825E+00  0.2603364E-02  0.5113520E-01  0.1009464E-02 -0.2168322E-01
5701000.  0.5312011E-02  0.7286567E+00  0.2603364E-02  0.3978429E-01  0.1009464E-02 -0.2318049E-01
5667333.  0.1641584E-02  0.6635896E+00  0.2322530E-02  0.6602711E-01  0.1127110E-02 -0.2142603E-01
5633667. -0.1723058E-02  0.6076195E+00  0.1905101E-02  0.9175996E-01  0.1235992E-02 -0.1973720E-01
5600000. -0.4721323E-02  0.5221270E+00  0.1362662E-02  0.1124543E+00  0.1335193E-02 -0.1776937E-01
5600000. -0.4721323E-02  0.5221270E+00  0.1362662E-02  0.1124543E+00  0.1335193E-02 -0.1776937E-01
5563518. -0.7380634E-02  0.4026928E+00  0.6708481E-03  0.1278804E+00  0.1430247E-02 -0.1538882E-01
5527037. -0.9295724E-02  0.2637260E+00 -0.8636327E-04  0.1352008E+00  0.1510994E-02 -0.1277890E-01
5490556. -0.1038167E-01  0.1147208E+00 -0.8613399E-03  0.1340721E+00  0.1576218E-02 -0.9972038E-02
5454074. -0.1060931E-01 -0.3440841E-01 -0.1606002E-02  0.1246828E+00  0.1624882E-02 -0.7000246E-02
5417593. -0.1000609E-01 -0.1739113E+00 -0.2274832E-02  0.1077504E+00  0.1656139E-02 -0.3898096E-02
5381111. -0.8653082E-02 -0.2948919E+00 -0.2827747E-02  0.8441336E-01  0.1669338E-02 -0.6985069E-03
5344630. -0.6678940E-02 -0.3897455E+00 -0.3232200E-02  0.5617739E-01  0.1664019E-02  0.2563524E-02
5308148. -0.4250776E-02 -0.4526424E+00 -0.3465103E-02  0.2479902E-01  0.1639929E-02  0.5851504E-02
5271667. -0.1563575E-02 -0.4798002E+00 -0.3513821E-02 -0.7830763E-02  0.1597025E-02  0.9129022E-02
5235185.  0.1172729E-02 -0.4697066E+00 -0.3376690E-02 -0.3979834E-01  0.1535472E-02  0.1235814E-01
5198704.  0.3745815E-02 -0.4231323E+00 -0.3062788E-02 -0.6928393E-01  0.1455661E-02  0.1550039E-01
5162222.  0.5954406E-02 -0.3430457E+00 -0.2591094E-02 -0.9465656E-01  0.1358195E-02  0.1851757E-01
5125741.  0.7619883E-02 -0.2344319E+00 -0.1989176E-02 -0.1145777E+00  0.1243900E-02  0.2137314E-01
5089259.  0.8597267E-02 -0.1039237E+00 -0.1291241E-02 -0.1280502E+00  0.1113798E-02  0.2403150E-01
5052778.  0.8783314E-02  0.4055882E-01 -0.5362029E-03 -0.1344633E+00  0.9691230E-03  0.2645931E-01
5016296.  0.8122623E-02  0.1903327E+00  0.2348330E-03 -0.1336329E+00  0.8112701E-03  0.2862826E-01
4979815.  0.6610694E-02  0.3363881E+00  0.9807536E-03 -0.1257661E+00  0.6418054E-03  0.3051275E-01
4943333.  0.4294085E-02  0.4699557E+00  0.1662838E-02 -0.1114599E+00  0.4624079E-03  0.3209311E-01
4906852.  0.1267952E-02  0.5829694E+00  0.2246713E-02 -0.9164917E-01  0.2748707E-03  0.3335563E-01
4870370. -0.2329604E-02  0.6684654E+00  0.2704192E-02 -0.6752723E-01  0.8102998E-04  0.3429217E-01
4833889. -0.6324487E-02  0.7210242E+00  0.3014513E-02 -0.4050111E-01 -0.1172297E-03  0.3490117E-01
4797407. -0.1051700E-01  0.7369982E+00  0.3165366E-02 -0.1208379E-01 -0.3180548E-03  0.3518785E-01
4760926. -0.1469147E-01  0.7146502E+00  0.3153200E-02  0.1617974E-01 -0.5196222E-03  0.3516475E-01
4724444. -0.1862878E-01  0.6543505E+00  0.2983226E-02  0.4279350E-01 -0.7202114E-03  0.3484743E-01
4687963. -0.2211711E-01  0.5584152E+00  0.2668886E-02  0.6639098E-01 -0.9181921E-03  0.3426023E-01
4651482. -0.2496364E-01  0.4310248E+00  0.2230916E-02  0.8579896E-01 -0.1112106E-02  0.3343178E-01
4615000. -0.2700428E-01  0.2780044E+00  0.1696056E-02  0.1000964E+00 -0.1300659E-02  0.3239142E-01
4578518. -0.2811209E-01  0.1064952E+00  0.1095560E-02  0.1086417E+00 -0.1482736E-02  0.3117640E-01
4542037. -0.2820405E-01 -0.7539188E-01  0.4634803E-03  0.1111060E+00 -0.1657439E-02  0.2982304E-01
4505556. -0.2724533E-01 -0.2590225E+00 -0.1652030E-03  0.1074780E+00 -0.1824079E-02  0.2836706E-01
4469074. -0.2525111E-01 -0.4355981E+00 -0.7562853E-03  0.9803928E-01 -0.1982195E-02  0.2685061E-01
4432593. -0.2228640E-01 -0.5966598E+00 -0.1277975E-02  0.8336304E-01 -0.2131531E-02  0.2530772E-01
4396111. -0.1846245E-01 -0.7344528E+00 -0.1702518E-02  0.6425556E-01 -0.2272045E-02  0.2377375E-01
4359630. -0.1393269E-01 -0.8422094E+00 -0.2007294E-02  0.4171588E-01 -0.2403883E-02  0.2228434E-01
4323148. -0.8884707E-02 -0.9146554E+00 -0.2175882E-02  0.1688435E-01 -0.2527391E-02  0.2086753E-01
4286667. -0.3532522E-02 -0.9480195E+00 -0.2198607E-02 -0.9023529E-02 -0.2643057E-02  0.1955079E-01
4250185.  0.1893723E-02 -0.9402969E+00 -0.2072841E-02 -0.3477515E-01 -0.2751531E-02  0.1835792E-01
4213704.  0.7157292E-02 -0.8913776E+00 -0.1802929E-02 -0.5918001E-01 -0.2853574E-02  0.1730878E-01
4177222.  0.1202631E-01 -0.8028578E+00 -0.1399760E-02 -0.8114261E-01 -0.2950063E-02  0.1641940E-01
4140741.  0.1628265E-01 -0.6781314E+00 -0.8801467E-03 -0.9971171E-01 -0.3041947E-02  0.1570377E-01
4104259.  0.1973268E-01 -0.5221271E+00 -0.2657704E-03 -0.1141236E+00 -0.3130263E-02  0.1517376E-01
4067778.  0.2221421E-01 -0.3410165E+00  0.4178037E-03 -0.1238122E+00 -0.3216086E-02  0.1483502E-01
4031296.  0.2360404E-01 -0.1420854E+00  0.1142529E-02 -0.1284560E+00 -0.3300545E-02  0.1469829E-01
3994815.  0.2382257E-01  0.6672574E-01  0.1879106E-02 -0.1279609E+00 -0.3384815E-02  0.1477021E-01
3958333.  0.2283677E-01  0.2771615E+00  0.2598404E-02 -0.1224556E+00 -0.3470103E-02  0.1505456E-01
3921852.  0.2066129E-01  0.4809030E+00  0.3272628E-02 -0.1123007E+00 -0.3557655E-02  0.1556343E-01
3885370.  0.1735723E-01  0.6700516E+00  0.3876656E-02 -0.9803575E-01 -0.3648785E-02  0.1630517E-01
3848889.  0.1302951E-01  0.8373433E+00  0.4388864E-02 -0.8036579E-01 -0.3744855E-02  0.1729232E-01
3812407.  0.7821504E-02  0.9765173E+00  0.4792124E-02 -0.6012554E-01 -0.3847327E-02  0.1854356E-01
3775926.  0.1909673E-02  0.1082491E+01  0.5074278E-02 -0.3822751E-01 -0.3957764E-02  0.2007916E-01
3739444. -0.4504992E-02  0.1151601E+01  0.5228592E-02 -0.1563459E-01 -0.4077876E-02  0.2192697E-01
3702963. -0.1120421E-01  0.1181715E+01  0.5253854E-02  0.6687737E-02 -0.4209538E-02  0.2412083E-01
3666482. -0.1796246E-01  0.1172258E+01  0.5154292E-02  0.2781323E-01 -0.4354856E-02  0.2670403E-01
3630000. -0.2455559E-01  0.1124290E+01  0.4939261E-02  0.4688098E-01 -0.4516196E-02  0.2972490E-01
3630000. -0.2455559E-01  0.1124290E+01  0.4939261E-02  0.4688098E-01 -0.4516196E-02  0.2972490E-01
3592500. -0.3093557E-01  0.1037555E+01  0.4612652E-02  0.6353868E-01 -0.4701559E-02  0.3335329E-01
3555000. -0.3670365E-01  0.9172271E+00  0.4198482E-02  0.7653058E-01 -0.4910028E-02  0.3759012E-01
3517500. -0.4167849E-01  0.7690899E+00  0.3719974E-02  0.8532550E-01 -0.5145437E-02  0.4252386E-01
3480000. -0.4571638E-01  0.6001121E+00  0.3202984E-02  0.8955900E-01 -0.5412214E-02  0.4826875E-01
3480000. -0.4571638E-01  0.1629699E+00 -0.1145589E-03 -0.8348460E-01 -0.5412214E-02  0.1948805E+00
3409422. -0.4551613E-01 -0.1896618E+00  0.8341796E-03 -0.8662326E-01 -0.7786642E-02  0.2279870E+00
3338844. -0.4177006E-01 -0.4734805E+00  0.1780052E-02 -0.8311423E-01 -0.1034489E-01  0.2290352E+00
3268266. -0.3533838E-01 -0.6730315E+00  0.2655196E-02 -0.7407425E-01 -0.1276689E-01  0.2045863E+00
3197688. -0.2718253E-01 -0.7851187E+00  0.3406146E-02 -0.6094971E-01 -0.1481106E-01  0.1620884E+00
3127109. -0.1824315E-01 -0.8161855E+00  0.3996321E-02 -0.4530849E-01 -0.1631915E-01  0.1090081E+00
3056531. -0.9350250E-02 -0.7793266E+00  0.4406340E-02 -0.2866707E-01 -0.1721244E-01  0.5214461E-01
2985953. -0.1165406E-02 -0.6913093E+00  0.4632735E-02 -0.1235965E-01 -0.1748155E-01 -0.2849722E-02
2915375.  0.5843493E-02 -0.5699706E+00  0.4685401E-02  0.2544567E-02 -0.1717209E-01 -0.5172377E-01
2844797.  0.1140247E-01 -0.4321922E+00  0.4584393E-02  0.1528332E-01 -0.1636861E-01 -0.9169249E-01
2774219.  0.1541235E-01 -0.2924636E+00  0.4356490E-02  0.2540297E-01 -0.1517878E-01 -0.1213473E+00
2703641.  0.1791728E-01 -0.1620916E+00  0.4031901E-02  0.3273124E-01 -0.1371909E-01 -0.1404581E+00
2633062.  0.1906759E-01 -0.4891845E-01  0.3641378E-02  0.3733364E-01 -0.1210323E-01 -0.1497136E+00
2562484.  0.1908165E-01  0.4254948E-01  0.3213899E-02  0.3945711E-01 -0.1043354E-01 -0.1504403E+00
2491906.  0.1821122E-01  0.1107101E+00  0.2774971E-02  0.3946913E-01 -0.8795326E-02 -0.1443325E+00
2421328.  0.1671240E-01  0.1562733E+00  0.2345618E-02  0.3780346E-01 -0.7254199E-02 -0.1332161E+00
2350750.  0.1482369E-01  0.1815958E+00  0.1941918E-02  0.3491245E-01 -0.5855719E-02 -0.1188619E+00
2280172.  0.1275129E-01  0.1900534E+00  0.1575024E-02  0.3122699E-01 -0.4626774E-02 -0.1028512E+00
2209594.  0.1066102E-01  0.1854700E+00  0.1251565E-02  0.2712979E-01 -0.3578190E-02 -0.8649313E-01
2139016.  0.8676014E-02  0.1716670E+00  0.9742750E-03  0.2293845E-01 -0.2707978E-02 -0.7078894E-01
2068438.  0.6878659E-02  0.1521332E+00  0.7427728E-03  0.1889824E-01 -0.2004776E-02 -0.5643292E-01
1997859.  0.5315505E-02  0.1298210E+00  0.5543574E-03  0.1518219E-01 -0.1451102E-02 -0.4384009E-01
1927281.  0.4003955E-02  0.1070444E+00  0.4047943E-03  0.1189722E-01 -0.1026244E-02 -0.3319137E-01
1856703.  0.2939318E-02  0.8546884E-01  0.2889780E-03  0.9093943E-02 -0.7085245E-03 -0.2448508E-01
1786125.  0.2101872E-02  0.6615994E-01  0.2015037E-03  0.6778368E-02 -0.4770507E-03 -0.1759099E-01
1715547.  0.1462996E-02  0.4967613E-01  0.1370908E-03  0.4923967E-02 -0.3128578E-03 -0.1229892E-01
1644969.  0.9901860E-03  0.3617827E-01  0.9087990E-04  0.3483072E-02 -0.1995590E-03 -0.8359736E-02
1574391.  0.6508395E-03  0.2554226E-01  0.5861061E-04  0.2396615E-02 -0.1235920E-03 -0.5517122E-02
1503812.  0.4148160E-03  0.1746286E-01  0.3670286E-04  0.1601984E-02 -0.7416591E-04 -0.3529891E-02
1433234.  0.2559597E-03  0.1154056E-01  0.2226244E-04  0.1038904E-02 -0.4301238E-04 -0.2185831E-02
1362656.  0.1527445E-03  0.7346166E-02  0.1303067E-04  0.6532807E-03 -0.2401867E-04 -0.1308246E-02
1292078.  0.8835967E-04  0.4463033E-02  0.7301946E-05  0.3997232E-03 -0.1282397E-04 -0.7575953E-03
1221500.  0.5046100E-04  0.2501009E-02  0.3817258E-05  0.2433075E-03 -0.6414257E-05 -0.4298700E-03
1221500.  0.5046100E-04 -0.3663466E-02 -0.3583742E-05 -0.2818822E-03 -0.6414257E-05 -0.4517299E-03
1183328.  0.6884841E-04 -0.2469395E-02 -0.1963642E-05 -0.2560445E-03 -0.4176832E-05 -0.3040625E-03
1145156.  0.8009751E-04 -0.1297682E-02 -0.5460682E-06 -0.2149987E-03 -0.2679927E-05 -0.2019813E-03
1106984.  0.8463394E-04 -0.2429249E-03  0.5930112E-06 -0.1641224E-03 -0.1692083E-05 -0.1322620E-03
1068812.  0.8338813E-04  0.6228191E-03  0.1413989E-05 -0.1099112E-03 -0.1049818E-05 -0.8526653E-04
1030641.  0.7763366E-04  0.1257882E-02  0.1915813E-05 -0.5853160E-04 -0.6389833E-06 -0.5403761E-04
 992469.  0.6879708E-04  0.1652444E-02  0.2130702E-05 -0.1477624E-04 -0.3808256E-06 -0.3360701E-04
 954297.  0.5827801E-04  0.1824453E-02  0.2113977E-05  0.1847064E-04 -0.2217710E-06 -0.2047123E-04
 916125.  0.4730327E-04  0.1812126E-02  0.1932252E-05  0.4030413E-04 -0.1258843E-06 -0.1218533E-04
 877953.  0.3683283E-04  0.1664776E-02  0.1652305E-05  0.5150084E-04 -0.6945913E-07 -0.7069707E-05
 839781.  0.2752033E-04  0.1433975E-02  0.1332533E-05  0.5398397E-04 -0.3713581E-07 -0.3986130E-05
 801609.  0.1972200E-04  0.1166439E-02  0.1017812E-05  0.5024892E-04 -0.1916719E-07 -0.2176613E-05
 763438.  0.1354122E-04  0.8993410E-03  0.7377335E-06  0.4282493E-04 -0.9509623E-08 -0.1146514E-05
 725266.  0.8892518E-05  0.6582532E-03  0.5075956E-06  0.3389831E-04 -0.4511642E-08 -0.5798588E-06
 687094.  0.5572342E-05  0.4573702E-03  0.3312350E-06  0.2509336E-04 -0.2034085E-08 -0.2799341E-06
 648922.  0.3321812E-05  0.3013076E-03  0.2045945E-06  0.1742145E-04 -0.8648083E-09 -0.1281590E-06
 610750.  0.1876567E-05  0.1877524E-03  0.1192518E-06  0.1134651E-04 -0.3432300E-09 -0.5515504E-07
 572578.  0.9998013E-06  0.1102698E-03  0.6531651E-07  0.6920267E-05 -0.1254616E-09 -0.2206181E-07
 534406.  0.4993625E-06  0.6074745E-04  0.3343247E-07  0.3938298E-05 -0.4142361E-10 -0.8077891E-08
 496234.  0.2320644E-06  0.3119193E-04  0.1587830E-07  0.2079948E-05 -0.1196999E-10 -0.2646887E-08
 458062.  0.9939804E-07  0.1480522E-04  0.6933441E-08  0.1011723E-05 -0.2848929E-11 -0.7467058E-09
 419891.  0.3876894E-07  0.6426792E-05  0.2750873E-08  0.4486470E-06 -0.4732530E-12 -0.1677233E-09
 381719.  0.1355479E-07  0.2515590E-05  0.9763913E-09  0.1789023E-06 -0.9669031E-14 -0.2314680E-10
 343547.  0.4160937E-08  0.8713424E-06  0.3037154E-09  0.6297417E-07  0.2883080E-13  0.1829968E-11
 305375.  0.1090201E-08  0.2603024E-06  0.8049866E-10  0.1907618E-07  0.1263850E-13  0.2391595E-11
 267203.  0.2343064E-09  0.6467793E-07  0.1747356E-10  0.4796606E-08  0.3265289E-14  0.8467724E-12
 229031.  0.3896772E-10  0.1267283E-07  0.2930684E-11  0.9493144E-09  0.5646714E-15  0.1846403E-12
 190859.  0.4581081E-11  0.1802390E-08  0.3469622E-12  0.1361419E-09  0.6273796E-16  0.2569848E-13
 152688.  0.3271310E-12  0.1619402E-09  0.2491699E-13  0.1231385E-10  0.3888184E-17  0.2044577E-14
 114516.  0.1067518E-13  0.7081051E-11  0.8166118E-15  0.5411660E-12  0.1000203E-18  0.7041404E-16
  76344.  0.0000000E+00  0.0000000E+00  0.0000000E+00  0.0000000E+00  0.0000000E+00  0.0000000E+00
  38172.  0.0000000E+00  0.0000000E+00  0.0000000E+00  0.0000000E+00  0.0000000E+00  0.0000000E+00
      0.  0.0000000E+00  0.0000000E+00  0.0000000E+00  0.0000000E+00  0.0000000E+00  0.0000000E+00
