      18       13 S      674         98.98378         29.95640          6.45092        284.07321      185    7
6371000.  0.3558584E-02  0.2444475E+00  0.3457147E-02 -0.1014362E-03  0.0000000E+00  0.0000000E+00
6370000.  0.3520007E-02  0.2470650E+00  0.3456498E-02  0.8371933E-02  0.0000000E+00  0.0000000E+00
6369000.  0.3481035E-02  0.2494852E+00  0.3454519E-02  0.1684559E-01  0.0000000E+00  0.0000000E+00
6368000.  0.3441698E-02  0.2517080E+00  0.3451210E-02  0.2531625E-01  0.0000000E+00  0.0000000E+00
6368000.  0.3441698E-02  0.2517080E+00  0.3451210E-02  0.2531625E-01  0.0000000E+00  0.0000000E+00
6367000.  0.3402028E-02  0.2537329E+00  0.3446572E-02  0.3378060E-01  0.0000000E+00  0.0000000E+00
6366000.  0.3362056E-02  0.2555600E+00  0.3440606E-02  0.4223537E-01  0.0000000E+00  0.0000000E+00
6365000.  0.3321812E-02  0.2571889E+00  0.3433314E-02  0.5067724E-01  0.0000000E+00  0.0000000E+00
6364000.  0.3281329E-02  0.2586198E+00  0.3424698E-02  0.5910294E-01  0.0000000E+00  0.0000000E+00
6363000.  0.3240636E-02  0.2598527E+00  0.3414762E-02  0.6750918E-01  0.0000000E+00  0.0000000E+00
6362000.  0.3199766E-02  0.2608879E+00  0.3403507E-02  0.7589270E-01  0.0000000E+00  0.0000000E+00
6361000.  0.3158748E-02  0.2617255E+00  0.3390938E-02  0.8425021E-01  0.0000000E+00  0.0000000E+00
6360000.  0.3117614E-02  0.2623660E+00  0.3377060E-02  0.9257846E-01  0.0000000E+00  0.0000000E+00
6359000.  0.3076396E-02  0.2628098E+00  0.3361878E-02  0.1008742E+00  0.0000000E+00  0.0000000E+00
6358000.  0.3035123E-02  0.2630574E+00  0.3345395E-02  0.1091342E+00  0.0000000E+00  0.0000000E+00
6357000.  0.2993826E-02  0.2631095E+00  0.3327620E-02  0.1173552E+00  0.0000000E+00  0.0000000E+00
6356000.  0.2952537E-02  0.2629667E+00  0.3308557E-02  0.1255341E+00  0.0000000E+00  0.0000000E+00
6356000.  0.2952537E-02  0.2238854E+00  0.3308557E-02  0.7591330E-01  0.0000000E+00  0.0000000E+00
6355000.  0.2917381E-02  0.2240468E+00  0.3296217E-02  0.8132321E-01  0.0000000E+00  0.0000000E+00
6354000.  0.2882210E-02  0.2240850E+00  0.3283029E-02  0.8671422E-01  0.0000000E+00  0.0000000E+00
6353000.  0.2847043E-02  0.2240000E+00  0.3268996E-02  0.9208496E-01  0.0000000E+00  0.0000000E+00
6352000.  0.2811898E-02  0.2237924E+00  0.3254123E-02  0.9743400E-01  0.0000000E+00  0.0000000E+00
6351000.  0.2776796E-02  0.2234624E+00  0.3238411E-02  0.1027599E+00  0.0000000E+00  0.0000000E+00
6350000.  0.2741755E-02  0.2230104E+00  0.3221865E-02  0.1080614E+00  0.0000000E+00  0.0000000E+00
6349000.  0.2706794E-02  0.2224370E+00  0.3204489E-02  0.1133370E+00  0.0000000E+00  0.0000000E+00
6348000.  0.2671933E-02  0.2217426E+00  0.3186288E-02  0.1185854E+00  0.0000000E+00  0.0000000E+00
6347000.  0.2637190E-02  0.2209278E+00  0.3167264E-02  0.1238052E+00  0.0000000E+00  0.0000000E+00
6346600.  0.2623331E-02  0.2205683E+00  0.3159426E-02  0.1258848E+00  0.0000000E+00  0.0000000E+00
6346600.  0.2623331E-02  0.2432583E+00  0.3159426E-02  0.8516485E-01  0.0000000E+00  0.0000000E+00
6318800.  0.1646850E-02  0.1926561E+00  0.2556622E-02  0.1876509E+00  0.0000000E+00  0.0000000E+00
6291000.  0.1032630E-02  0.8015120E-01  0.1562989E-02  0.2619589E+00  0.0000000E+00  0.0000000E+00
6291000.  0.1032630E-02  0.8314740E-01  0.1562989E-02  0.2705578E+00  0.0000000E+00  0.0000000E+00
6263000.  0.1007888E-02 -0.7611255E-01  0.2792235E-03  0.3057815E+00  0.0000000E+00  0.0000000E+00
6235000.  0.1712368E-02 -0.2425828E+00 -0.1053134E-02  0.2923664E+00  0.0000000E+00  0.0000000E+00
6207000.  0.3096165E-02 -0.3791474E+00 -0.2222146E-02  0.2324597E+00  0.0000000E+00  0.0000000E+00
6179000.  0.4951291E-02 -0.4520672E+00 -0.3042106E-02  0.1356817E+00  0.0000000E+00  0.0000000E+00
6151000.  0.6940324E-02 -0.4371205E+00 -0.3383314E-02  0.1755013E-01  0.0000000E+00  0.0000000E+00
6151000.  0.6940324E-02 -0.4043018E+00 -0.3383314E-02  0.1414828E-01  0.0000000E+00  0.0000000E+00
6128500.  0.8260951E-02 -0.3352141E+00 -0.3278910E-02 -0.7257439E-01  0.0000000E+00  0.0000000E+00
6106000.  0.9251483E-02 -0.2183450E+00 -0.2880225E-02 -0.1512405E+00  0.0000000E+00  0.0000000E+00
6083500.  0.9756347E-02 -0.6190296E-01 -0.2228447E-02 -0.2148500E+00  0.0000000E+00  0.0000000E+00
6061000.  0.9656374E-02  0.1218679E+00 -0.1386906E-02 -0.2579519E+00  0.0000000E+00  0.0000000E+00
6038500.  0.8881131E-02  0.3178259E+00 -0.4347661E-03 -0.2770897E+00  0.0000000E+00  0.0000000E+00
6016000.  0.7416759E-02  0.5093166E+00  0.5405164E-03 -0.2710465E+00  0.0000000E+00  0.0000000E+00
5993500.  0.5308679E-02  0.6796771E+00  0.1451223E-02 -0.2408798E+00  0.0000000E+00  0.0000000E+00
5971000.  0.2658966E-02  0.8137243E+00  0.2217176E-02 -0.1897598E+00  0.0000000E+00  0.0000000E+00
5971000.  0.2658966E-02  0.7496340E+00  0.2217176E-02 -0.1689065E+00  0.0000000E+00  0.0000000E+00
5937667. -0.1510322E-02  0.8256894E+00  0.2853562E-02 -0.7206921E-01  0.0000000E+00  0.0000000E+00
5904333. -0.5785348E-02  0.7900197E+00  0.2963936E-02  0.2906998E-01  0.0000000E+00  0.0000000E+00
5871000. -0.9596962E-02  0.6514307E+00  0.2571802E-02  0.1175068E+00  0.0000000E+00  0.0000000E+00
5837667. -0.1246294E-01  0.4334200E+00  0.1778652E-02  0.1807319E+00  0.0000000E+00  0.0000000E+00
5804333. -0.1405099E-01  0.1688609E+00  0.7368735E-03  0.2118799E+00  0.0000000E+00  0.0000000E+00
5771000. -0.1421242E-01 -0.1058418E+00 -0.3802128E-03  0.2097802E+00  0.0000000E+00  0.0000000E+00
5771000. -0.1421242E-01 -0.1058453E+00 -0.3802128E-03  0.2097738E+00  0.0000000E+00  0.0000000E+00
5701000. -0.1015410E-01 -0.6002579E+00 -0.2324858E-02  0.1252778E+00  0.0000000E+00  0.0000000E+00
5701000. -0.1015410E-01 -0.5171397E+00 -0.2324858E-02  0.1009265E+00  0.0000000E+00  0.0000000E+00
5667333. -0.7184255E-02 -0.6004522E+00 -0.2688020E-02  0.3819225E-01  0.0000000E+00  0.0000000E+00
5633667. -0.3863895E-02 -0.6481689E+00 -0.2735564E-02 -0.2028743E-01  0.0000000E+00  0.0000000E+00
5600000. -0.4563847E-03 -0.6300551E+00 -0.2477226E-02 -0.7651211E-01  0.0000000E+00  0.0000000E+00
5600000. -0.4563847E-03 -0.6300551E+00 -0.2477226E-02 -0.7651211E-01  0.0000000E+00  0.0000000E+00
5563518.  0.2928032E-02 -0.5408104E+00 -0.1885855E-02 -0.1278239E+00  0.0000000E+00  0.0000000E+00
5527037.  0.5623789E-02 -0.3924283E+00 -0.1044152E-02 -0.1630680E+00  0.0000000E+00  0.0000000E+00
5490556.  0.7347690E-02 -0.2051783E+00 -0.5710200E-04 -0.1781038E+00  0.0000000E+00  0.0000000E+00
5454074.  0.7946081E-02 -0.3594622E-02  0.9537847E-03 -0.1713482E+00  0.0000000E+00  0.0000000E+00
5417593.  0.7410846E-02  0.1865540E+00  0.1865641E-02 -0.1439258E+00  0.0000000E+00  0.0000000E+00
5381111.  0.5877111E-02  0.3415027E+00  0.2569269E-02 -0.9938513E-01  0.0000000E+00  0.0000000E+00
5344630.  0.3603871E-02  0.4422219E+00  0.2981616E-02 -0.4324247E-01  0.0000000E+00  0.0000000E+00
5308148.  0.9397137E-03  0.4766717E+00  0.3055207E-02  0.1775124E-01  0.0000000E+00  0.0000000E+00
5271667. -0.1720775E-02  0.4410596E+00  0.2782777E-02  0.7642998E-01  0.0000000E+00  0.0000000E+00
5235185. -0.3986380E-02  0.3402255E+00  0.2197236E-02  0.1260657E+00  0.0000000E+00  0.0000000E+00
5198704. -0.5516537E-02  0.1869120E+00  0.1366975E-02  0.1611200E+00  0.0000000E+00  0.0000000E+00
5162222. -0.6062868E-02  0.1851671E-03  0.3871981E-03  0.1778254E+00  0.0000000E+00  0.0000000E+00
5125741. -0.5498963E-02 -0.1968192E+00 -0.6313709E-03  0.1746054E+00  0.0000000E+00  0.0000000E+00
5089259. -0.3835958E-02 -0.3796542E+00 -0.1575563E-02  0.1521344E+00  0.0000000E+00  0.0000000E+00
5052778. -0.1222318E-02 -0.5253115E+00 -0.2342168E-02  0.1132187E+00  0.0000000E+00  0.0000000E+00
5016296.  0.2072679E-02 -0.6149226E+00 -0.2849453E-02  0.6243523E-01  0.0000000E+00  0.0000000E+00
4979815.  0.5688193E-02 -0.6357830E+00 -0.3045531E-02  0.5554473E-02  0.0000000E+00  0.0000000E+00
4943333.  0.9212412E-02 -0.5828404E+00 -0.2913483E-02 -0.5111029E-01  0.0000000E+00  0.0000000E+00
4906852.  0.1222764E-01 -0.4592343E+00 -0.2472413E-02 -0.1014057E+00  0.0000000E+00  0.0000000E+00
4870370.  0.1435725E-01 -0.2759247E+00 -0.1774576E-02 -0.1399962E+00  0.0000000E+00  0.0000000E+00
4833889.  0.1530708E-01 -0.5058901E-01 -0.8991435E-03 -0.1629211E+00  0.0000000E+00  0.0000000E+00
4797407.  0.1489900E-01  0.1943423E+00  0.5702370E-04 -0.1679747E+00  0.0000000E+00  0.0000000E+00
4760926.  0.1309162E-01  0.4339505E+00  0.9897848E-03 -0.1548746E+00  0.0000000E+00  0.0000000E+00
4724444.  0.9986646E-02  0.6435786E+00  0.1799125E-02 -0.1252861E+00  0.0000000E+00  0.0000000E+00
4687963.  0.5820672E-02  0.8012590E+00  0.2399436E-02 -0.8255254E-01  0.0000000E+00  0.0000000E+00
4651482.  0.9424840E-03  0.8900440E+00  0.2728273E-02 -0.3132681E-01  0.0000000E+00  0.0000000E+00
4615000. -0.4221034E-02  0.8998048E+00  0.2752383E-02  0.2293786E-01  0.0000000E+00  0.0000000E+00
4578518. -0.9206471E-02  0.8281189E+00  0.2470622E-02  0.7457200E-01  0.0000000E+00  0.0000000E+00
4542037. -0.1355979E-01  0.6806705E+00  0.1913576E-02  0.1182668E+00  0.0000000E+00  0.0000000E+00
4505556. -0.1688172E-01  0.4706287E+00  0.1139857E-02  0.1496136E+00  0.0000000E+00  0.0000000E+00
4469074. -0.1886660E-01  0.2172910E+00  0.2297642E-03  0.1654985E+00  0.0000000E+00  0.0000000E+00
4432593. -0.1933266E-01 -0.5566377E-01 -0.7230021E-03  0.1644187E+00  0.0000000E+00  0.0000000E+00
4396111. -0.1824054E-01 -0.3226334E+00 -0.1621100E-02  0.1465670E+00  0.0000000E+00  0.0000000E+00
4359630. -0.1569747E-01 -0.5584462E+00 -0.2372934E-02  0.1137765E+00  0.0000000E+00  0.0000000E+00
4323148. -0.1194724E-01 -0.7408861E+00 -0.2901790E-02  0.6932951E-01  0.0000000E+00  0.0000000E+00
4286667. -0.7347876E-02 -0.8527080E+00 -0.3152948E-02  0.1758143E-01  0.0000000E+00  0.0000000E+00
4250185. -0.2337298E-02 -0.8833227E+00 -0.3098730E-02 -0.3646899E-01  0.0000000E+00  0.0000000E+00
4213704.  0.2607101E-02 -0.8298111E+00 -0.2740761E-02 -0.8766845E-01  0.0000000E+00  0.0000000E+00
4177222.  0.7014216E-02 -0.6970815E+00 -0.2109397E-02 -0.1312029E+00  0.0000000E+00  0.0000000E+00
4140741.  0.1046233E-01 -0.4975286E+00 -0.1260582E-02 -0.1630411E+00  0.0000000E+00  0.0000000E+00
4104259.  0.1261976E-01 -0.2497857E+00 -0.2700959E-03 -0.1803032E+00  0.0000000E+00  0.0000000E+00
4067778.  0.1327504E-01  0.2298243E-01  0.7734881E-03 -0.1814683E+00  0.0000000E+00  0.0000000E+00
4031296.  0.1235763E-01  0.2951770E+00  0.1777330E-02 -0.1665373E+00  0.0000000E+00  0.0000000E+00
3994815.  0.9944867E-02  0.5411258E+00  0.2652692E-02 -0.1369565E+00  0.0000000E+00  0.0000000E+00
3958333.  0.6255595E-02  0.7373978E+00  0.3322982E-02 -0.9545652E-01  0.0000000E+00  0.0000000E+00
3921852.  0.1631642E-02  0.8649110E+00  0.3730317E-02 -0.4581313E-01  0.0000000E+00  0.0000000E+00
3885370. -0.3493023E-02  0.9106363E+00  0.3840515E-02  0.7557390E-02  0.0000000E+00  0.0000000E+00
3848889. -0.8629450E-02  0.8687403E+00  0.3645609E-02  0.5997237E-01  0.0000000E+00  0.0000000E+00
3812407. -0.1327800E-01  0.7411507E+00  0.3164154E-02  0.1069209E+00  0.0000000E+00  0.0000000E+00
3775926. -0.1697139E-01  0.5373409E+00  0.2439187E-02  0.1444329E+00  0.0000000E+00  0.0000000E+00
3739444. -0.1931692E-01  0.2735591E+00  0.1534013E-02  0.1694306E+00  0.0000000E+00  0.0000000E+00
3702963. -0.2003086E-01 -0.2856204E-01  0.5264956E-03  0.1799632E+00  0.0000000E+00  0.0000000E+00
3666482. -0.1896463E-01 -0.3438327E+00 -0.4979165E-03  0.1753243E+00  0.0000000E+00  0.0000000E+00
3630000. -0.1611882E-01 -0.6456773E+00 -0.1453513E-02  0.1561240E+00  0.0000000E+00  0.0000000E+00
3630000. -0.1611882E-01 -0.6456773E+00 -0.1453513E-02  0.1561240E+00  0.0000000E+00  0.0000000E+00
3592500. -0.1149959E-01 -0.9147691E+00 -0.2281243E-02  0.1231062E+00  0.0000000E+00  0.0000000E+00
3555000. -0.5480541E-02 -0.1117590E+01 -0.2882276E-02  0.7969148E-01  0.0000000E+00  0.0000000E+00
3517500.  0.1488388E-02 -0.1234860E+01 -0.3206664E-02  0.2981081E-01  0.0000000E+00  0.0000000E+00
3480000.  0.8863761E-02 -0.1254307E+01 -0.3229147E-02 -0.2213906E-01  0.0000000E+00  0.0000000E+00
3480000.  0.8863761E-02 -0.9787288E+00  0.9184605E-03  0.1452960E-01  0.0000000E+00  0.0000000E+00
3409422.  0.1820521E-01 -0.6798262E+00  0.6516895E-03  0.3279358E-01  0.0000000E+00  0.0000000E+00
3338844.  0.2348386E-01 -0.2615340E+00  0.2166976E-03  0.4439559E-01  0.0000000E+00  0.0000000E+00
3268266.  0.2392424E-01  0.1776333E+00 -0.2992968E-03  0.4722153E-01  0.0000000E+00  0.0000000E+00
3197688.  0.1979499E-01  0.5508971E+00 -0.7960220E-03  0.4102636E-01  0.0000000E+00  0.0000000E+00
3127109.  0.1218773E-01  0.7982099E+00 -0.1180083E-02  0.2723454E-01  0.0000000E+00  0.0000000E+00
3056531.  0.2678425E-02  0.8925944E+00 -0.1380964E-02  0.8459158E-02  0.0000000E+00  0.0000000E+00
2985953. -0.7038076E-02  0.8387206E+00 -0.1360863E-02 -0.1211660E-01  0.0000000E+00  0.0000000E+00
2915375. -0.1546302E-01  0.6658378E+00 -0.1117526E-02 -0.3135260E-01  0.0000000E+00  0.0000000E+00
2844797. -0.2151241E-01  0.4178099E+00 -0.6808501E-03 -0.4665488E-01  0.0000000E+00  0.0000000E+00
2774219. -0.2462076E-01  0.1427377E+00 -0.1048511E-03 -0.5630109E-01  0.0000000E+00  0.0000000E+00
2703641. -0.2473720E-01 -0.1158325E+00  0.5428887E-03 -0.5956977E-01  0.0000000E+00  0.0000000E+00
2633062. -0.2223853E-01 -0.3249828E+00  0.1192190E-02 -0.5669066E-01  0.0000000E+00  0.0000000E+00
2562484. -0.1779255E-01 -0.4653490E+00  0.1779848E-02 -0.4865883E-01  0.0000000E+00  0.0000000E+00
2491906. -0.1220479E-01 -0.5312161E+00  0.2256748E-02 -0.3697050E-01  0.0000000E+00  0.0000000E+00
2421328. -0.6277586E-02 -0.5283911E+00  0.2591785E-02 -0.2333533E-01  0.0000000E+00  0.0000000E+00
2350750. -0.7004932E-03 -0.4707998E+00  0.2772737E-02 -0.9412737E-02  0.0000000E+00  0.0000000E+00
2280172.  0.4018231E-02 -0.3766070E+00  0.2804516E-02  0.3390390E-02  0.0000000E+00  0.0000000E+00
2209594.  0.7578337E-02 -0.2646599E+00  0.2705596E-02  0.1404794E-01  0.0000000E+00  0.0000000E+00
2139016.  0.9878726E-02 -0.1516818E+00  0.2503442E-02  0.2196458E-01  0.0000000E+00  0.0000000E+00
2068438.  0.1098315E-01 -0.5049824E-01  0.2229784E-02  0.2695851E-01  0.0000000E+00  0.0000000E+00
1997859.  0.1107175E-01  0.3074867E-01  0.1916364E-02  0.2919332E-01  0.0000000E+00  0.0000000E+00
1927281.  0.1038930E-01  0.8845385E-01  0.1591659E-02  0.2908034E-01  0.0000000E+00  0.0000000E+00
1856703.  0.9198384E-02  0.1228462E+00  0.1278687E-02  0.2717392E-01  0.0000000E+00  0.0000000E+00
1786125.  0.7742874E-02  0.1368828E+00  0.9940023E-03  0.2407217E-01  0.0000000E+00  0.0000000E+00
1715547.  0.6224091E-02  0.1350978E+00  0.7476689E-03  0.2033757E-01  0.0000000E+00  0.0000000E+00
1644969.  0.4789351E-02  0.1225491E+00  0.5439796E-03  0.1644266E-01  0.0000000E+00  0.0000000E+00
1574391.  0.3530914E-02  0.1040087E+00  0.3826375E-03  0.1274045E-01  0.0000000E+00  0.0000000E+00
1503812.  0.2492219E-02  0.8345707E-01  0.2601394E-03  0.9456939E-02  0.0000000E+00  0.0000000E+00
1433234.  0.1678108E-02  0.6387980E-01  0.1711530E-03  0.6699285E-02  0.0000000E+00  0.0000000E+00
1362656.  0.1065569E-02  0.4735125E-01  0.1097495E-03  0.4469363E-02  0.0000000E+00  0.0000000E+00
1292078.  0.6119985E-03  0.3543425E-01  0.7052421E-04  0.2670324E-02  0.0000000E+00  0.0000000E+00
1221500.  0.2564621E-03  0.3009846E-01  0.4979323E-04  0.1078281E-02  0.0000000E+00  0.0000000E+00
1221500.  0.2564621E-03 -0.6031570E-01 -0.6016507E-04 -0.1651438E-02  0.0000000E+00  0.0000000E+00
1183328.  0.5862835E-03 -0.4672189E-01 -0.4106020E-04 -0.4536678E-02  0.0000000E+00  0.0000000E+00
1145156.  0.7849039E-03 -0.1753914E-01 -0.8747719E-05 -0.5965159E-02  0.0000000E+00  0.0000000E+00
1106984.  0.7809764E-03  0.1933634E-01  0.2690940E-04 -0.5654516E-02  0.0000000E+00  0.0000000E+00
1068812.  0.5571768E-03  0.5425863E-01  0.5604409E-04 -0.3871994E-02  0.0000000E+00  0.0000000E+00
1030641.  0.1519196E-03  0.7872336E-01  0.7166887E-04 -0.1273783E-02  0.0000000E+00  0.0000000E+00
 992469. -0.3547418E-03  0.8760424E-01  0.7125890E-04  0.1352625E-02  0.0000000E+00  0.0000000E+00
 954297. -0.8649238E-03  0.8013298E-01  0.5675324E-04  0.3341281E-02  0.0000000E+00  0.0000000E+00
 916125. -0.1288572E-02  0.5952238E-01  0.3326586E-04  0.4316866E-02  0.0000000E+00  0.0000000E+00
 877953. -0.1563437E-02  0.3154713E-01  0.7139224E-05  0.4242441E-02  0.0000000E+00  0.0000000E+00
 839781. -0.1664883E-02  0.2672828E-02 -0.1594205E-04  0.3356836E-02  0.0000000E+00  0.0000000E+00
 801609. -0.1604708E-02 -0.2164750E-01 -0.3223517E-04  0.2045326E-02  0.0000000E+00  0.0000000E+00
 763438. -0.1421435E-02 -0.3806440E-01 -0.4039032E-04  0.6999327E-03  0.0000000E+00  0.0000000E+00
 725266. -0.1166380E-02 -0.4563911E-01 -0.4114854E-04 -0.3868354E-03  0.0000000E+00  0.0000000E+00
 687094. -0.8901101E-03 -0.4545702E-01 -0.3657043E-04 -0.1069793E-02  0.0000000E+00  0.0000000E+00
 648922. -0.6325497E-03 -0.3983453E-01 -0.2915112E-04 -0.1344142E-02  0.0000000E+00  0.0000000E+00
 610750. -0.4182877E-03 -0.3143511E-01 -0.2109974E-04 -0.1300948E-02  0.0000000E+00  0.0000000E+00
 572578. -0.2567476E-03 -0.2256456E-01 -0.1393454E-04 -0.1070557E-02  0.0000000E+00  0.0000000E+00
 534406. -0.1456660E-03 -0.1478141E-01 -0.8398766E-05 -0.7748615E-03  0.0000000E+00  0.0000000E+00
 496234. -0.7592389E-04 -0.8826685E-02 -0.4605338E-05 -0.4996159E-03  0.0000000E+00  0.0000000E+00
 458062. -0.3605293E-04 -0.4782393E-02 -0.2282819E-05 -0.2877388E-03  0.0000000E+00  0.0000000E+00
 419891. -0.1542403E-04 -0.2331952E-02 -0.1013011E-05 -0.1474454E-03  0.0000000E+00  0.0000000E+00
 381719. -0.5856527E-05 -0.1010897E-02 -0.3968545E-06 -0.6658831E-04  0.0000000E+00  0.0000000E+00
 343547. -0.1934274E-05 -0.3828835E-03 -0.1346195E-06 -0.2609356E-04  0.0000000E+00  0.0000000E+00
 305375. -0.5404771E-06 -0.1236283E-03 -0.3848124E-07 -0.8667642E-05  0.0000000E+00  0.0000000E+00
 267203. -0.1228411E-06 -0.3284623E-04 -0.8916105E-08 -0.2357816E-05  0.0000000E+00  0.0000000E+00
 229031. -0.2143126E-07 -0.6812654E-05 -0.1580782E-08 -0.4986434E-06  0.0000000E+00  0.0000000E+00
 190859. -0.2622463E-08 -0.1015924E-05 -0.1960095E-09 -0.7554423E-07  0.0000000E+00  0.0000000E+00
 152688. -0.1934526E-09 -0.9483623E-07 -0.1461263E-10 -0.7140868E-08  0.0000000E+00  0.0000000E+00
 114516. -0.6472928E-11 -0.4270785E-08 -0.4928940E-12 -0.3246431E-09  0.0000000E+00  0.0000000E+00
  76344. -0.5187111E-13 -0.5167361E-10 -0.3972189E-14 -0.3954072E-11  0.0000000E+00  0.0000000E+00
  38172.  0.0000000E+00  0.0000000E+00  0.0000000E+00  0.0000000E+00  0.0000000E+00  0.0000000E+00
      0.  0.0000000E+00  0.0000000E+00  0.0000000E+00  0.0000000E+00  0.0000000E+00  0.0000000E+00
