      19       11 S      685        103.02850         33.78564         10.61855        486.30731      185    7
6371000. -0.2652808E-01  0.1702226E+00  0.2879688E-02  0.2940777E-01 -0.2738035E-04  0.5035432E-01
6370000. -0.2655330E-01  0.1511802E+00  0.2874557E-02  0.3596813E-01 -0.3527906E-04  0.5029020E-01
6369000. -0.2657553E-01  0.1320206E+00  0.2868398E-02  0.4251087E-01 -0.4316729E-04  0.5022075E-01
6368000. -0.2659474E-01  0.1127463E+00  0.2861213E-02  0.4903364E-01 -0.5104420E-04  0.5014599E-01
6368000. -0.2659474E-01  0.1127463E+00  0.2861213E-02  0.4903364E-01 -0.5104420E-04  0.5014599E-01
6367000. -0.2661092E-01  0.9335959E-01  0.2853006E-02  0.5553406E-01 -0.5890897E-04  0.5006593E-01
6366000. -0.2662404E-01  0.7386284E-01  0.2843781E-02  0.6200979E-01 -0.6676075E-04  0.4998056E-01
6365000. -0.2663410E-01  0.5425855E-01  0.2833541E-02  0.6845848E-01 -0.7459871E-04  0.4988989E-01
6364000. -0.2664107E-01  0.3454923E-01  0.2822292E-02  0.7487781E-01 -0.8242203E-04  0.4979394E-01
6363000. -0.2664494E-01  0.1473741E-01  0.2810037E-02  0.8126545E-01 -0.9022987E-04  0.4969271E-01
6362000. -0.2664569E-01 -0.5174275E-02  0.2796782E-02  0.8761909E-01 -0.9802141E-04  0.4958621E-01
6361000. -0.2664331E-01 -0.2518320E-01  0.2782534E-02  0.9393643E-01 -0.1057958E-03  0.4947445E-01
6360000. -0.2663778E-01 -0.4528666E-01  0.2767296E-02  0.1002152E+00 -0.1135523E-03  0.4935744E-01
6359000. -0.2662909E-01 -0.6548194E-01  0.2751076E-02  0.1064531E+00 -0.1212900E-03  0.4923520E-01
6358000. -0.2661722E-01 -0.8576624E-01  0.2733880E-02  0.1126479E+00 -0.1290080E-03  0.4910773E-01
6357000. -0.2660216E-01 -0.1061367E+00  0.2715716E-02  0.1187973E+00 -0.1367057E-03  0.4897505E-01
6356000. -0.2658390E-01 -0.1265906E+00  0.2696590E-02  0.1248992E+00 -0.1443821E-03  0.4883717E-01
6356000. -0.2658390E-01 -0.4666770E-01  0.2696590E-02  0.8702289E-01 -0.1443821E-03  0.5462151E-01
6355000. -0.2657542E-01 -0.6141130E-01  0.2682613E-02  0.9106531E-01 -0.1529452E-03  0.5448885E-01
6354000. -0.2656462E-01 -0.7621102E-01  0.2668003E-02  0.9508272E-01 -0.1614872E-03  0.5435205E-01
6353000. -0.2655149E-01 -0.9106537E-01  0.2652765E-02  0.9907413E-01 -0.1700073E-03  0.5421114E-01
6352000. -0.2653603E-01 -0.1059728E+00  0.2636903E-02  0.1030386E+00 -0.1785051E-03  0.5406611E-01
6351000. -0.2651822E-01 -0.1209319E+00  0.2620421E-02  0.1069751E+00 -0.1869797E-03  0.5391699E-01
6350000. -0.2649806E-01 -0.1359409E+00  0.2603323E-02  0.1108828E+00 -0.1954306E-03  0.5376378E-01
6349000. -0.2647554E-01 -0.1509984E+00  0.2585614E-02  0.1147607E+00 -0.2038572E-03  0.5360650E-01
6348000. -0.2645066E-01 -0.1661028E+00  0.2567298E-02  0.1186078E+00 -0.2122587E-03  0.5344514E-01
6347000. -0.2642340E-01 -0.1812524E+00  0.2548382E-02  0.1224233E+00 -0.2206346E-03  0.5327973E-01
6346600. -0.2641183E-01 -0.1873246E+00  0.2540648E-02  0.1239404E+00 -0.2239776E-03  0.5321243E-01
6346600. -0.2641183E-01 -0.4231454E-01  0.2540648E-02  0.9311894E-01 -0.2239776E-03  0.6242185E-01
6318800. -0.2553684E-01 -0.3635207E+00  0.1969618E-02  0.1650355E+00 -0.4857747E-03  0.5715400E-01
6291000. -0.2321477E-01 -0.7014576E+00  0.1138370E-02  0.2109614E+00 -0.7192509E-03  0.4947499E-01
6291000. -0.2321477E-01 -0.7093878E+00  0.1138370E-02  0.2171447E+00 -0.7192509E-03  0.4947499E-01
6263000. -0.1934808E-01 -0.1045870E+01  0.1410595E-03  0.2305699E+00 -0.9154365E-03  0.3946143E-01
6235000. -0.1408363E-01 -0.1340158E+01 -0.8344004E-03  0.2073933E+00 -0.1063402E-02  0.2760285E-01
6207000. -0.7675275E-02 -0.1561620E+01 -0.1633769E-02  0.1515364E+00 -0.1156053E-02  0.1437644E-01
6179000. -0.5020106E-03 -0.1684565E+01 -0.2131373E-02  0.7190619E-01 -0.1188590E-02  0.3479150E-03
6151000.  0.6961533E-02 -0.1691683E+01 -0.2249241E-02 -0.1897729E-01 -0.1158862E-02 -0.1384876E-01
6151000.  0.6961533E-02 -0.1389860E+01 -0.2249241E-02 -0.1783937E-01 -0.1158862E-02 -0.1423391E-01
6128500.  0.1172672E-01 -0.1299669E+01 -0.2073428E-02 -0.8081291E-01 -0.1092986E-02 -0.2298883E-01
6106000.  0.1608033E-01 -0.1157817E+01 -0.1688071E-02 -0.1356336E+00 -0.9971965E-03 -0.3114152E-01
6083500.  0.1985263E-01 -0.9719530E+00 -0.1130637E-02 -0.1775635E+00 -0.8739481E-03 -0.3851109E-01
6061000.  0.2290536E-01 -0.7521614E+00 -0.4532695E-03 -0.2030853E+00 -0.7262907E-03 -0.4494050E-01
6038500.  0.2513918E-01 -0.5102474E+00  0.2820329E-03 -0.2101664E+00 -0.5577846E-03 -0.5029831E-01
6016000.  0.2649820E-01 -0.2588931E+00  0.1008922E-02 -0.1983858E+00 -0.3724057E-03 -0.5448083E-01
5993500.  0.2697165E-01 -0.1079113E-01  0.1662407E-02 -0.1689213E+00 -0.1744448E-03 -0.5741366E-01
5971000.  0.2659229E-01  0.2221993E+00  0.2184294E-02 -0.1244087E+00  0.3159514E-04 -0.5905076E-01
5971000.  0.2659229E-01  0.2089984E+00  0.2184294E-02 -0.1135721E+00  0.3159514E-04 -0.6253191E-01
5937667.  0.2476217E-01  0.4779712E+00  0.2575797E-02 -0.3454507E-01  0.3618887E-03 -0.6326894E-01
5904333.  0.2173184E-01  0.6663866E+00  0.2541922E-02  0.4674451E-01  0.6890186E-03 -0.6135333E-01
5871000.  0.1793437E-01  0.7717584E+00  0.2104838E-02  0.1177237E+00  0.9996939E-03 -0.5702892E-01
5837667.  0.1378815E-01  0.8016523E+00  0.1344590E-02  0.1690424E+00  0.1282094E-02 -0.5059920E-01
5804333.  0.9651846E-02  0.7708097E+00  0.3797722E-03  0.1953730E+00  0.1526096E-02 -0.4240765E-01
5771000.  0.5795605E-02  0.6979226E+00 -0.6538643E-03  0.1954758E+00  0.1723425E-02 -0.3282362E-01
5771000.  0.5795605E-02  0.6979271E+00 -0.6538643E-03  0.1954692E+00  0.1723425E-02 -0.3282362E-01
5701000. -0.9921221E-03  0.5307021E+00 -0.2546663E-02  0.1329837E+00  0.1957401E-02 -0.9202647E-02
5701000. -0.9921221E-03  0.4220865E+00 -0.2546663E-02  0.1048201E+00  0.1957401E-02 -0.8923003E-02
5667333. -0.2951218E-02  0.3294771E+00 -0.2952603E-02  0.5057456E-01  0.1974545E-02  0.2361923E-02
5633667. -0.4563544E-02  0.2858090E+00 -0.3089036E-02  0.8655085E-03  0.1932839E-02  0.1339869E-01
5600000. -0.6000249E-02  0.2607963E+00 -0.2961203E-02 -0.4880058E-01  0.1833476E-02  0.2412483E-01
5600000. -0.6000249E-02  0.2607963E+00 -0.2961203E-02 -0.4880058E-01  0.1833476E-02  0.2412483E-01
5563518. -0.7467296E-02  0.2551587E+00 -0.2539520E-02 -0.9707903E-01  0.1663683E-02  0.3502545E-01
5527037. -0.8958671E-02  0.2683817E+00 -0.1870129E-02 -0.1345555E+00  0.1434429E-02  0.4484012E-01
5490556. -0.1056322E-01  0.2932314E+00 -0.1026632E-02 -0.1573830E+00  0.1152824E-02  0.5326296E-01
5454074. -0.1232043E-01  0.3199221E+00 -0.9986325E-04 -0.1634382E+00  0.8275908E-03  0.6003737E-01
5417593. -0.1420982E-01  0.3375807E+00  0.8126501E-03 -0.1525410E+00  0.4687929E-03  0.6496078E-01
5381111. -0.1614893E-01  0.3356209E+00  0.1617782E-02 -0.1263452E+00  0.8743619E-04  0.6789537E-01
5344630. -0.1799908E-01  0.3052900E+00  0.2236594E-02 -0.8813461E-01 -0.3048270E-03  0.6876668E-01
5308148. -0.1957985E-01  0.2408705E+00  0.2612714E-02 -0.4239343E-01 -0.6961420E-03  0.6756453E-01
5271667. -0.2068873E-01  0.1405333E+00  0.2717537E-02  0.5736072E-02 -0.1074751E-02  0.6434700E-01
5235185. -0.2112514E-01  0.6757454E-02  0.2552494E-02  0.5101351E-01 -0.1429433E-02  0.5922757E-01
5198704. -0.2071482E-01 -0.1537557E+00  0.2147904E-02  0.8868022E-01 -0.1749738E-02  0.5237653E-01
5162222. -0.1933293E-01 -0.3305856E+00  0.1558747E-02  0.1149439E+00 -0.2026381E-02  0.4401430E-01
5125741. -0.1692247E-01 -0.5106987E+00  0.8580461E-03  0.1273656E+00 -0.2251404E-02  0.3439484E-01
5089259. -0.1350565E-01 -0.6795845E+00  0.1283283E-03  0.1250571E+00 -0.2418427E-02  0.2380400E-01
5052778. -0.9188970E-02 -0.8227037E+00 -0.5472998E-03  0.1087300E+00 -0.2522748E-02  0.1254803E-01
5016296. -0.4157809E-02 -0.9271213E+00 -0.1094252E-02  0.8058432E-01 -0.2561456E-02  0.9389299E-03
4979815.  0.1334912E-02 -0.9825453E+00 -0.1454050E-02  0.4401386E-01 -0.2533428E-02 -0.1070941E-01
4943333.  0.6988615E-02 -0.9826059E+00 -0.1590249E-02  0.3231788E-02 -0.2439311E-02 -0.2209420E-01
4906852.  0.1247858E-01 -0.9254853E+00 -0.1491761E-02 -0.3719077E-01 -0.2281450E-02 -0.3292940E-01
4870370.  0.1748342E-01 -0.8139865E+00 -0.1173528E-02 -0.7281098E-01 -0.2063736E-02 -0.4295599E-01
4833889.  0.2171089E-01 -0.6556140E+00 -0.6745178E-03 -0.9976117E-01 -0.1791493E-02 -0.5194122E-01
4797407.  0.2492364E-01 -0.4616859E+00 -0.5319500E-04 -0.1151367E+00 -0.1471250E-02 -0.5968923E-01
4760926.  0.2695733E-01 -0.2463716E+00  0.6186673E-03 -0.1172525E+00 -0.1110574E-02 -0.6604313E-01
4724444.  0.2773458E-01 -0.2552571E-01  0.1263668E-02 -0.1058158E+00 -0.7178020E-03 -0.7087829E-01
4687963.  0.2726974E-01  0.1848542E+00  0.1806611E-02 -0.8190060E-01 -0.3019047E-03 -0.7411426E-01
4651482.  0.2566597E-01  0.3699860E+00  0.2182160E-02 -0.4782867E-01  0.1278340E-03 -0.7570821E-01
4615000.  0.2310434E-01  0.5176184E+00  0.2341269E-02 -0.6920703E-02  0.5619764E-03 -0.7564982E-01
4578518.  0.1982651E-01  0.6190177E+00  0.2255947E-02  0.3684568E-01  0.9911151E-03 -0.7396810E-01
4542037.  0.1611222E-01  0.6697356E+00  0.1921957E-02  0.7922782E-01  0.1406098E-02 -0.7072142E-01
4505556.  0.1225334E-01  0.6699134E+00  0.1359089E-02  0.1161379E+00  0.1798206E-02 -0.6599572E-01
4469074.  0.8528342E-02  0.6240439E+00  0.6092270E-03  0.1440012E+00  0.2159300E-02 -0.5990600E-01
4432593.  0.5178383E-02  0.5406637E+00 -0.2675748E-03  0.1601191E+00  0.2481924E-02 -0.5258674E-01
4396111.  0.2386197E-02  0.4313076E+00 -0.1198944E-02  0.1628800E+00  0.2759487E-02 -0.4419150E-01
4359630.  0.2629176E-03  0.3093958E+00 -0.2106592E-02  0.1518836E+00  0.2986293E-02 -0.3489078E-01
4323148. -0.1160247E-02  0.1890970E+00 -0.2913698E-02  0.1279988E+00  0.3157684E-02 -0.2486533E-01
4286667. -0.1931516E-02  0.8382005E-01 -0.3551622E-02  0.9321710E-01  0.3270040E-02 -0.1430512E-01
4250185. -0.2170977E-02  0.5047063E-02 -0.3966018E-02  0.5047754E-01  0.3320859E-02 -0.3403980E-02
4213704. -0.2056559E-02 -0.3865406E-01 -0.4121403E-02  0.3394022E-02  0.3308748E-02  0.7641884E-02
4177222. -0.1804608E-02 -0.4253346E-01 -0.4004106E-02 -0.4409672E-01  0.3233431E-02  0.1864039E-01
4140741. -0.1646984E-02 -0.5954116E-02 -0.3623140E-02 -0.8806738E-01  0.3095722E-02  0.2940399E-01
4104259. -0.1807174E-02  0.6753299E-01 -0.3009068E-02 -0.1249621E+00  0.2897471E-02  0.3975610E-01
4067778. -0.2476738E-02  0.1704292E+00 -0.2211161E-02 -0.1518673E+00  0.2641522E-02  0.4953229E-01
4031296. -0.3795135E-02  0.2921675E+00 -0.1292757E-02 -0.1667938E+00  0.2331591E-02  0.5858478E-01
3994815. -0.5834276E-02  0.4199116E+00 -0.3257246E-03 -0.1687920E+00  0.1972218E-02  0.6678448E-01
3958333. -0.8588950E-02  0.5397275E+00  0.6158379E-03 -0.1580078E+00  0.1568581E-02  0.7402521E-01
3921852. -0.1197413E-01  0.6379691E+00  0.1461770E-02 -0.1356900E+00  0.1126450E-02  0.8022183E-01
3885370. -0.1583037E-01  0.7023474E+00  0.2151879E-02 -0.1040049E+00  0.6519548E-03  0.8531724E-01
3848889. -0.1993414E-01  0.7231173E+00  0.2640523E-02 -0.6586515E-01  0.1515317E-03  0.8927897E-01
3812407. -0.2401628E-01  0.6940235E+00  0.2900341E-02 -0.2466749E-01 -0.3683190E-03  0.9209912E-01
3775926. -0.2778249E-01  0.6127927E+00  0.2924010E-02  0.1601931E-01 -0.9010836E-03  0.9380022E-01
3739444. -0.3093833E-01  0.4815119E+00  0.2724479E-02  0.5273796E-01 -0.1440497E-02  0.9442493E-01
3702963. -0.3321318E-01  0.3064953E+00  0.2333486E-02  0.8243348E-01 -0.1980540E-02  0.9403908E-01
3666482. -0.3438395E-01  0.9785137E-01  0.1798494E-02  0.1026956E+00 -0.2515705E-02  0.9273758E-01
3630000. -0.3429450E-01 -0.1312866E+00  0.1178461E-02  0.1119432E+00 -0.3041050E-02  0.9062290E-01
3630000. -0.3429450E-01 -0.1312866E+00  0.1178461E-02  0.1119432E+00 -0.3041050E-02  0.9062290E-01
3592500. -0.3281137E-01 -0.3721314E+00  0.5213091E-03  0.1092928E+00 -0.3566287E-02  0.8773748E-01
3555000. -0.2993722E-01 -0.6010277E+00 -0.8462305E-04  0.9468941E-01 -0.4072781E-02  0.8427957E-01
3517500. -0.2579289E-01 -0.8009982E+00 -0.5726104E-03  0.6952757E-01 -0.4557620E-02  0.8040752E-01
3480000. -0.2059475E-01 -0.9567764E+00 -0.8868072E-03  0.3608027E-01 -0.5018877E-02  0.7629681E-01
3480000. -0.2059475E-01 -0.1161255E+01  0.1180564E-02 -0.3988648E-01 -0.5018877E-02  0.1423439E+00
3409422. -0.6047606E-02 -0.1413478E+01  0.1485816E-02 -0.1409540E-01 -0.6048989E-02  0.3979128E-01
3338844.  0.9577378E-02 -0.1357898E+01  0.1478985E-02  0.1544153E-01 -0.5860977E-02 -0.7345809E-01
3268266.  0.2305239E-01 -0.1036955E+01  0.1152264E-02  0.4268629E-01 -0.4470471E-02 -0.1735916E+00
3197688.  0.3189592E-01 -0.5389860E+00  0.5611429E-03  0.6242983E-01 -0.2135334E-02 -0.2413708E+00
3127109.  0.3474445E-01  0.2674053E-01 -0.1900529E-03  0.7117358E-01  0.7142980E-03 -0.2652895E+00
3056531.  0.3144862E-01  0.5539244E+00 -0.9699306E-03  0.6757130E-01  0.3569930E-02 -0.2427661E+00
2985953.  0.2293056E-01  0.9579695E+00 -0.1644331E-02  0.5243022E-01  0.5941810E-02 -0.1795032E+00
2915375.  0.1087438E-01  0.1187071E+01 -0.2098396E-02  0.2834334E-01  0.7440286E-02 -0.8745527E-01
2844797. -0.2661880E-02  0.1225452E+01 -0.2253127E-02 -0.9223240E-03  0.7830008E-02  0.1797229E-01
2774219. -0.1563107E-01  0.1089794E+01 -0.2074478E-02 -0.3113900E-01  0.7051698E-02  0.1208702E+00
2703641. -0.2631398E-01  0.8209756E+00 -0.1574588E-02 -0.5830145E-01  0.5212981E-02  0.2073887E+00
2633062. -0.3352974E-01  0.4734462E+00 -0.8060840E-03 -0.7918043E-01  0.2554644E-02  0.2675607E+00
2562484. -0.3672555E-01  0.1045125E+00  0.1486381E-03 -0.9167846E-01 -0.5981555E-03  0.2962181E+00
2491906. -0.3595645E-01 -0.2347580E+00  0.1191006E-02 -0.9497245E-01 -0.3890262E-02  0.2930310E+00
2421328. -0.3177794E-01 -0.5058640E+00  0.2220185E-02 -0.8945437E-01 -0.6986667E-02  0.2618096E+00
2350750. -0.2508614E-01 -0.6860808E+00  0.3145463E-02 -0.7651280E-01 -0.9612220E-02  0.2093276E+00
2280172. -0.1693939E-01 -0.7686612E+00  0.3895589E-02 -0.5821593E-01 -0.1157681E-01  0.1439281E+00
2209594. -0.8391305E-02 -0.7606879E+00  0.4424353E-02 -0.3695481E-01 -0.1278509E-01  0.7416190E-01
2139016. -0.3571664E-03 -0.6793585E+00  0.4712220E-02 -0.1510376E-01 -0.1323219E-01  0.7653566E-02
2068438.  0.6474344E-02 -0.5476404E+00  0.4764544E-02  0.5260445E-02 -0.1298877E-01 -0.4969011E-01
1997859.  0.1168089E-01 -0.3899801E+00  0.4607087E-02  0.2255191E-01 -0.1217934E-01 -0.9408176E-01
1927281.  0.1510256E-01 -0.2288413E+00  0.4279995E-02  0.3577082E-01 -0.1095837E-01 -0.1238896E+00
1856703.  0.1680528E-01 -0.8217935E-01  0.3831139E-02  0.4451477E-01 -0.9487465E-02 -0.1393871E+00
1786125.  0.1702271E-01  0.3777202E-01  0.3309831E-02  0.4891083E-01 -0.7916681E-02 -0.1423032E+00
1715547.  0.1609102E-01  0.1246930E+00  0.2761558E-02  0.4950090E-01 -0.6371312E-02 -0.1352879E+00
1644969.  0.1438668E-01  0.1774375E+00  0.2224125E-02  0.4710686E-01 -0.4944681E-02 -0.1213801E+00
1574391.  0.1227634E-01  0.1986679E+00  0.1725301E-02  0.4269852E-01 -0.3696437E-02 -0.1035515E+00
1503812.  0.1008389E-01  0.1931122E+00  0.1281769E-02  0.3729366E-01 -0.2655333E-02 -0.8435877E-01
1433234.  0.8078751E-02  0.1655307E+00  0.8989109E-03  0.3191882E-01 -0.1825261E-02 -0.6570935E-01
1362656.  0.6488632E-02  0.1181825E+00  0.5704433E-03  0.2767266E-01 -0.1193337E-02 -0.4868823E-01
1292078.  0.5547137E-02  0.4687291E-01  0.2764415E-03  0.2599044E-01 -0.7402158E-03 -0.3332348E-01
1221500.  0.5603902E-02 -0.6711444E-01 -0.2370986E-04  0.2935183E-01 -0.4545996E-03 -0.1796739E-01
1221500.  0.5603902E-02  0.3287094E+00  0.6671696E-03 -0.2574860E-01 -0.4545996E-03 -0.2039502E-01
1183328.  0.3221917E-02  0.4532954E+00  0.7632573E-03 -0.4787500E-02 -0.3450150E-03 -0.1629052E-01
1145156.  0.3702515E-03  0.4796291E+00  0.7146833E-03  0.2107553E-01 -0.2581372E-03 -0.1281234E-01
1106984. -0.2289903E-02  0.3891536E+00  0.5183693E-03  0.4316733E-01 -0.1902964E-03 -0.9928394E-02
1068812. -0.4089201E-02  0.1975942E+00  0.2186822E-03  0.5473647E-01 -0.1380858E-03 -0.7584449E-02
1030641. -0.4543098E-02 -0.5085158E-01 -0.1103260E-03  0.5282959E-01 -0.9846886E-04 -0.5712969E-02
 992469. -0.3483738E-02 -0.2974315E+00 -0.3898183E-03  0.3874528E-01 -0.6882988E-04 -0.4241223E-02
 954297. -0.1096258E-02 -0.4858738E+00 -0.5594334E-03  0.1711409E-01 -0.4698908E-04 -0.3098557E-02
 916125.  0.2143000E-02 -0.5772986E+00 -0.5921508E-03 -0.5906579E-02 -0.3116982E-04 -0.2221310E-02
 877953.  0.5600205E-02 -0.5587839E+00 -0.4973832E-03 -0.2462300E-01 -0.1994914E-04 -0.1555382E-02
 839781.  0.8645132E-02 -0.4438832E+00 -0.3132607E-03 -0.3533278E-01 -0.1219756E-04 -0.1056773E-02
 801609.  0.1079293E-01 -0.2659971E+00 -0.9220964E-04 -0.3700064E-01 -0.7021795E-05 -0.6904017E-03
 763438.  0.1179154E-01 -0.6745674E-01  0.1147703E-03 -0.3103694E-01 -0.3716195E-05 -0.4284008E-03
 725266.  0.1164016E-01  0.1120006E+00  0.2703735E-03 -0.2041589E-01 -0.1725560E-05 -0.2479730E-03
 687094.  0.1054522E-01  0.2440360E+00  0.3569577E-03 -0.8544632E-02 -0.6207024E-06 -0.1298128E-03
 648922.  0.8836891E-02  0.3159808E+00  0.3760233E-03  0.1733768E-02 -0.7808332E-07 -0.5780472E-04
 610750.  0.6874713E-02  0.3302474E+00  0.3428182E-03  0.8731212E-02  0.1358598E-06 -0.1798624E-04
 572578.  0.4968508E-02  0.3001108E+00  0.2788520E-03  0.1202768E-01  0.1788482E-06  0.9166725E-06
 534406.  0.3330612E-02  0.2438311E+00  0.2049628E-03  0.1219896E-01  0.1491035E-06  0.7519714E-05
 496234.  0.2063202E-02  0.1791107E+00  0.1367095E-03  0.1034819E-01  0.1008483E-06  0.7920867E-05
 458062.  0.1174102E-02  0.1192966E+00  0.8265181E-04  0.7639611E-02  0.5868240E-07  0.5965380E-05
 419891.  0.6085836E-03  0.7185899E-01  0.4504893E-04  0.4974377E-02  0.2986803E-07  0.3693050E-05
 381719.  0.2839406E-03  0.3885855E-01  0.2192057E-04  0.2859121E-02  0.1329401E-07  0.1950561E-05
 343547.  0.1173131E-03  0.1863219E-01  0.9382417E-05  0.1439471E-02  0.5115569E-08  0.8821812E-06
 305375.  0.4195665E-04  0.7773856E-02  0.3456722E-05  0.6248004E-03  0.1666845E-08  0.3376938E-06
 267203.  0.1257466E-04  0.2744321E-02  0.1062062E-05  0.2277728E-03  0.4446730E-09  0.1065684E-06
 229031.  0.3010000E-05  0.7857212E-03  0.2595168E-06  0.6693597E-04  0.9227470E-10  0.2650327E-07
 190859.  0.5338861E-06  0.1706546E-03  0.4681042E-07  0.1484535E-04  0.1373326E-10  0.4835405E-08
 152688.  0.6186095E-07  0.2511585E-04  0.5496708E-08  0.2220948E-05  0.1276214E-11  0.5711494E-09
 114516.  0.3694633E-08  0.2024477E-05  0.3316334E-09  0.1812423E-06  0.5706154E-13  0.3446754E-10
  76344.  0.6680462E-10  0.5537737E-07  0.6039229E-11  0.5000490E-08  0.6838377E-15  0.6246670E-12
  38172.  0.6688726E-13  0.1114501E-09  0.6072181E-14  0.1011487E-10  0.3390325E-18  0.6213299E-15
      0.  0.0000000E+00  0.0000000E+00  0.0000000E+00  0.0000000E+00  0.0000000E+00  0.0000000E+00
