      10       20 S      518        116.91070         16.70242          9.05417        364.56549      185    7
6371000.  0.5268570E-01 -0.3099868E+00 -0.1627078E-02 -0.5431278E-01 -0.5810749E-04 -0.9813266E-01
6370000.  0.5273198E-01 -0.2795811E+00 -0.1618341E-02 -0.5701092E-01 -0.4271365E-04 -0.9801443E-01
6369000.  0.5277346E-01 -0.2490195E+00 -0.1609182E-02 -0.5968462E-01 -0.2733892E-04 -0.9788920E-01
6368000.  0.5281014E-01 -0.2183057E+00 -0.1599606E-02 -0.6233313E-01 -0.1198440E-04 -0.9775699E-01
6368000.  0.5281014E-01 -0.2183057E+00 -0.1599606E-02 -0.6233313E-01 -0.1198440E-04 -0.9775699E-01
6367000.  0.5284199E-01 -0.1874434E+00 -0.1589616E-02 -0.6495574E-01  0.3348830E-05 -0.9761781E-01
6366000.  0.5286898E-01 -0.1564361E+00 -0.1579216E-02 -0.6755174E-01  0.1865966E-04 -0.9747165E-01
6365000.  0.5289109E-01 -0.1252877E+00 -0.1568411E-02 -0.7012040E-01  0.3394700E-04 -0.9731852E-01
6364000.  0.5290830E-01 -0.9400187E-01 -0.1557205E-02 -0.7266104E-01  0.4920977E-04 -0.9715845E-01
6363000.  0.5292059E-01 -0.6258256E-01 -0.1545603E-02 -0.7517297E-01  0.6444686E-04 -0.9699143E-01
6362000.  0.5292794E-01 -0.3103359E-01 -0.1533608E-02 -0.7765548E-01  0.7965720E-04 -0.9681749E-01
6361000.  0.5293033E-01  0.6411033E-03 -0.1521226E-02 -0.8010792E-01  0.9483968E-04 -0.9663662E-01
6360000.  0.5292773E-01  0.3243756E-01 -0.1508462E-02 -0.8252960E-01  0.1099932E-03 -0.9644884E-01
6359000.  0.5292014E-01  0.6435178E-01 -0.1495320E-02 -0.8491988E-01  0.1251168E-03 -0.9625416E-01
6358000.  0.5290752E-01  0.9637971E-01 -0.1481806E-02 -0.8727811E-01  0.1402092E-03 -0.9605259E-01
6357000.  0.5288988E-01  0.1285173E+00 -0.1467923E-02 -0.8960365E-01  0.1552695E-03 -0.9584415E-01
6356000.  0.5286717E-01  0.1607603E+00 -0.1453679E-02 -0.9189586E-01  0.1702965E-03 -0.9562884E-01
6356000.  0.5286717E-01  0.4198293E-01 -0.1453679E-02 -0.7705177E-01  0.1702965E-03 -0.1071321E+00
6355000.  0.5285874E-01  0.6541994E-01 -0.1441470E-02 -0.7851040E-01  0.1870958E-03 -0.1069237E+00
6354000.  0.5284663E-01  0.8892495E-01 -0.1429034E-02 -0.7994932E-01  0.2038620E-03 -0.1067103E+00
6353000.  0.5283083E-01  0.1124957E+00 -0.1416373E-02 -0.8136830E-01  0.2205943E-03 -0.1064919E+00
6352000.  0.5281131E-01  0.1361300E+00 -0.1403491E-02 -0.8276707E-01  0.2372919E-03 -0.1062684E+00
6351000.  0.5278809E-01  0.1598255E+00 -0.1390392E-02 -0.8414538E-01  0.2539541E-03 -0.1060400E+00
6350000.  0.5276114E-01  0.1835800E+00 -0.1377077E-02 -0.8550301E-01  0.2705800E-03 -0.1058067E+00
6349000.  0.5273046E-01  0.2073912E+00 -0.1363551E-02 -0.8683970E-01  0.2871689E-03 -0.1055683E+00
6348000.  0.5269603E-01  0.2312567E+00 -0.1349817E-02 -0.8815521E-01  0.3037200E-03 -0.1053250E+00
6347000.  0.5265786E-01  0.2551743E+00 -0.1335879E-02 -0.8944932E-01  0.3202325E-03 -0.1050768E+00
6346600.  0.5264154E-01  0.2647554E+00 -0.1330247E-02 -0.8996093E-01  0.3268266E-03 -0.1049761E+00
6346600.  0.5264154E-01  0.3806358E-01 -0.1330247E-02 -0.7833695E-01  0.3268266E-03 -0.1233315E+00
6318800.  0.5137401E-01  0.5478023E+00 -0.9401731E-03 -0.9827870E-01  0.8499396E-03 -0.1159751E+00
6291000.  0.4784261E-01  0.1069952E+01 -0.4926837E-03 -0.1044402E+00  0.1335013E-02 -0.1059173E+00
6291000.  0.4784261E-01  0.1082365E+01 -0.4926837E-03 -0.1063341E+00  0.1335013E-02 -0.1059173E+00
6263000.  0.4194575E-01  0.1593766E+01 -0.3890662E-04 -0.9767729E-01  0.1773178E-02 -0.9305812E-01
6235000.  0.3392658E-01  0.2041883E+01  0.3453174E-03 -0.7503825E-01  0.2149494E-02 -0.7782348E-01
6207000.  0.2414282E-01  0.2391374E+01  0.6043947E-03 -0.4133660E-01  0.2454268E-02 -0.6056798E-01
6179000.  0.1309336E-01  0.2613879E+01  0.6986336E-03 -0.8200514E-03  0.2679560E-02 -0.4173380E-01
6151000.  0.1380930E-02  0.2690948E+01  0.6090689E-03  0.4141714E-01  0.2819548E-02 -0.2184181E-01
6151000.  0.1380930E-02  0.2190572E+01  0.6090689E-03  0.3630922E-01  0.2819548E-02 -0.2191821E-01
6128500. -0.6235287E-02  0.2111184E+01  0.4329580E-03  0.6288318E-01  0.2875228E-02 -0.9624084E-02
6106000. -0.1345362E-01  0.1966443E+01  0.1697848E-03  0.8532639E-01  0.2887700E-02  0.2523100E-02
6083500. -0.2005772E-01  0.1764998E+01 -0.1630194E-03  0.1020881E+00  0.2857771E-02  0.1436102E-01
6061000. -0.2586635E-01  0.1517977E+01 -0.5432215E-03  0.1120123E+00  0.2786806E-02  0.2573936E-01
6038500. -0.3074102E-01  0.1238337E+01 -0.9452975E-03  0.1143988E+00  0.2676672E-02  0.3652041E-01
6016000. -0.3459102E-01  0.9400715E+00 -0.1342103E-02  0.1090323E+00  0.2529703E-02  0.4658009E-01
5993500. -0.3737583E-01  0.6374434E+00 -0.1706590E-02  0.9618010E-01  0.2348643E-02  0.5580928E-01
5971000. -0.3910457E-01  0.3442152E+00 -0.2013468E-02  0.7656270E-01  0.2136598E-02  0.6411240E-01
5971000. -0.3910457E-01  0.2852621E+00 -0.2013468E-02  0.7248797E-01  0.2136598E-02  0.6923152E-01
5937667. -0.3958194E-01 -0.8964448E-01 -0.2301617E-02  0.3661972E-01  0.1744328E-02  0.8035277E-01
5904333. -0.3831949E-01 -0.3771734E+00 -0.2389912E-02 -0.3124717E-02  0.1299592E-02  0.8928741E-01
5871000. -0.3580512E-01 -0.5675538E+00 -0.2270037E-02 -0.4225468E-01  0.8137341E-03  0.9608980E-01
5837667. -0.3254843E-01 -0.6619311E+00 -0.1955487E-02 -0.7698757E-01  0.2976719E-03  0.1008509E+00
5804333. -0.2902887E-01 -0.6702683E+00 -0.1477038E-02 -0.1045252E+00 -0.2382218E-03  0.1036851E+00
5771000. -0.2565647E-01 -0.6088175E+00 -0.8773108E-03 -0.1231610E+00 -0.7841718E-03  0.1047243E+00
5771000. -0.2565647E-01 -0.6088419E+00 -0.8773108E-03 -0.1231561E+00 -0.7841718E-03  0.1047243E+00
5701000. -0.2019691E-01 -0.3588313E+00  0.6212062E-03 -0.1425127E+00 -0.1915606E-02  0.9998594E-01
5701000. -0.2019691E-01 -0.2815362E+00  0.6212062E-03 -0.1078154E+00 -0.1915606E-02  0.1056787E+00
5667333. -0.1903464E-01 -0.1649177E+00  0.1147605E-02 -0.9316292E-01 -0.2463484E-02  0.1016079E+00
5633667. -0.1840238E-01 -0.7667469E-01  0.1619818E-02 -0.8568566E-01 -0.2988502E-02  0.9697273E-01
5600000. -0.1821069E-01  0.1980642E-02  0.2044864E-02 -0.7448115E-01 -0.3486811E-02  0.9148937E-01
5600000. -0.1821069E-01  0.1980642E-02  0.2044864E-02 -0.7448115E-01 -0.3486811E-02  0.9148937E-01
5563518. -0.1841936E-01  0.6665989E-01  0.2428615E-02 -0.5907367E-01 -0.3991735E-02  0.8473366E-01
5527037. -0.1891844E-01  0.1023396E+00  0.2717104E-02 -0.4141933E-01 -0.4455856E-02  0.7726741E-01
5490556. -0.1952628E-01  0.1040904E+00  0.2901105E-02 -0.2279392E-01 -0.4875542E-02  0.6923851E-01
5454074. -0.2004210E-01  0.7016313E-01  0.2978748E-02 -0.4480835E-02 -0.5248012E-02  0.6079708E-01
5417593. -0.2026389E-01  0.1884770E-02  0.2955333E-02  0.1231459E-01 -0.5571302E-02  0.5208810E-01
5381111. -0.2000636E-01 -0.9627781E-01  0.2842588E-02  0.2656507E-01 -0.5844307E-02  0.4325516E-01
5344630. -0.1911731E-01 -0.2173650E+00  0.2657503E-02  0.3747154E-01 -0.6066701E-02  0.3443512E-01
5308148. -0.1748989E-01 -0.3525423E+00  0.2420841E-02  0.4451507E-01 -0.6238931E-02  0.2575242E-01
5271667. -0.1507252E-01 -0.4915353E+00  0.2155523E-02  0.4747069E-01 -0.6362119E-02  0.1732595E-01
5235185. -0.1187335E-01 -0.6238429E+00  0.1884867E-02  0.4641355E-01 -0.6438036E-02  0.9256775E-02
5198704. -0.7960319E-02 -0.7392439E+00  0.1630986E-02  0.4169232E-01 -0.6468983E-02  0.1633300E-02
5162222. -0.3457485E-02 -0.8284035E+00  0.1413294E-02  0.3388585E-01 -0.6457735E-02 -0.5469867E-02
5125741.  0.1462742E-02 -0.8840228E+00  0.1247343E-02  0.2376179E-01 -0.6407444E-02 -0.1199538E-01
5089259.  0.6592334E-02 -0.9007847E+00  0.1143911E-02  0.1220130E-01 -0.6321541E-02 -0.1790225E-01
5052778.  0.1169913E-01 -0.8758899E+00  0.1108563E-02  0.1397959E-03 -0.6203655E-02 -0.2316361E-01
5016296.  0.1654381E-01 -0.8094047E+00  0.1141501E-02 -0.1149961E-01 -0.6057519E-02 -0.2776742E-01
4979815.  0.2089395E-01 -0.7038330E+00  0.1237826E-02 -0.2186795E-01 -0.5886903E-02 -0.3171663E-01
4943333.  0.2453923E-01 -0.5642175E+00  0.1388124E-02 -0.3024193E-01 -0.5695511E-02 -0.3502502E-01
4906852.  0.2730424E-01 -0.3977329E+00  0.1579282E-02 -0.3606334E-01 -0.5486964E-02 -0.3771574E-01
4870370.  0.2905927E-01 -0.2129879E+00  0.1795553E-02 -0.3896748E-01 -0.5264685E-02 -0.3982519E-01
4833889.  0.2972743E-01 -0.1982401E-01  0.2019667E-02 -0.3879549E-01 -0.5031911E-02 -0.4139035E-01
4797407.  0.2928974E-01  0.1715711E+00  0.2234057E-02 -0.3559294E-01 -0.4791622E-02 -0.4245606E-01
4760926.  0.2778510E-01  0.3512153E+00  0.2421950E-02 -0.2959730E-01 -0.4546542E-02 -0.4307384E-01
4724444.  0.2530789E-01  0.5097910E+00  0.2568446E-02 -0.2121169E-01 -0.4299095E-02 -0.4328852E-01
4687963.  0.2200249E-01  0.6393082E+00  0.2661331E-02 -0.1097200E-01 -0.4051458E-02 -0.4315122E-01
4651482.  0.1805415E-01  0.7334598E+00  0.2691761E-02  0.4916074E-03 -0.3805496E-02 -0.4271064E-01
4615000.  0.1367867E-01  0.7879201E+00  0.2654657E-02  0.1250111E-01 -0.3562816E-02 -0.4201012E-01
4578518.  0.9110590E-02  0.8005566E+00  0.2548869E-02  0.2436749E-01 -0.3324786E-02 -0.4109345E-01
4542037.  0.4590312E-02  0.7714705E+00  0.2377123E-02  0.3543551E-01 -0.3092537E-02 -0.3999913E-01
4505556.  0.3511056E-03  0.7029310E+00  0.2145696E-02  0.4512234E-01 -0.2866981E-02 -0.3876150E-01
4469074. -0.3392447E-02  0.5991701E+00  0.1863948E-02  0.5293683E-01 -0.2648840E-02 -0.3741184E-01
4432593. -0.6454751E-02  0.4661292E+00  0.1543723E-02  0.5851477E-01 -0.2438687E-02 -0.3597772E-01
4396111. -0.8688497E-02  0.3110465E+00  0.1198536E-02  0.6162441E-01 -0.2236925E-02 -0.3448310E-01
4359630. -0.9990449E-02  0.1421069E+00  0.8428864E-03  0.6216829E-01 -0.2043851E-02 -0.3294833E-01
4323148. -0.1030587E-01 -0.3208629E-01  0.4913764E-03  0.6019371E-01 -0.1859627E-02 -0.3139336E-01
4286667. -0.9629492E-02 -0.2028823E+00  0.1580209E-03  0.5586803E-01 -0.1684329E-02 -0.2983500E-01
4250185. -0.8004621E-02 -0.3620490E+00 -0.1444801E-03  0.4946890E-01 -0.1517922E-02 -0.2828898E-01
4213704. -0.5519621E-02 -0.5021721E+00 -0.4052614E-03  0.4136640E-01 -0.1360297E-02 -0.2677208E-01
4177222. -0.2302115E-02 -0.6169197E+00 -0.6157858E-03  0.3198893E-01 -0.1211234E-02 -0.2529990E-01
4140741.  0.1487549E-02 -0.7013553E+00 -0.7700774E-03  0.2180796E-01 -0.1070435E-02 -0.2388985E-01
4104259.  0.5665627E-02 -0.7521083E+00 -0.8649253E-03  0.1130528E-01 -0.9374843E-03 -0.2256104E-01
4067778.  0.1003299E-01 -0.7673506E+00 -0.8998319E-03  0.9488201E-03 -0.8118607E-03 -0.2133568E-01
4031296.  0.1438548E-01 -0.7469884E+00 -0.8769073E-03 -0.8824911E-02 -0.6928990E-03 -0.2023719E-01
3994815.  0.1852237E-01 -0.6924382E+00 -0.8006123E-03 -0.1763438E-01 -0.5798001E-03 -0.1929471E-01
3958333.  0.2225544E-01 -0.6064887E+00 -0.6773946E-03 -0.2516639E-01 -0.4715617E-03 -0.1854456E-01
3921852.  0.2541588E-01 -0.4932308E+00 -0.5152989E-03 -0.3118202E-01 -0.3669845E-03 -0.1802401E-01
3885370.  0.2786140E-01 -0.3576584E+00 -0.3234796E-03 -0.3552759E-01 -0.2646094E-03 -0.1778393E-01
3848889.  0.2948019E-01 -0.2054940E+00 -0.1117549E-03 -0.3813106E-01 -0.1626671E-03 -0.1788417E-01
3812407.  0.3019481E-01 -0.4288056E-01  0.1098943E-03 -0.3899940E-01 -0.5901418E-04 -0.1839390E-01
3775926.  0.2996333E-01  0.1239038E+00  0.3317188E-03 -0.3821337E-01  0.4894537E-04 -0.1940622E-01
3739444.  0.2877959E-01  0.2887168E+00  0.5446374E-03 -0.3591482E-01  0.1643978E-03 -0.2102969E-01
3702963.  0.2667171E-01  0.4457781E+00  0.7405055E-03 -0.3229560E-01  0.2912083E-03 -0.2340075E-01
3666482.  0.2369931E-01  0.5898646E+00  0.9124118E-03 -0.2758619E-01  0.4341564E-03 -0.2669886E-01
3630000.  0.1994970E-01  0.7165343E+00  0.1054830E-02 -0.2203746E-01  0.5991530E-03 -0.3114117E-01
3630000.  0.1994970E-01  0.7165343E+00  0.1054830E-02 -0.2203746E-01  0.5991530E-03 -0.3114117E-01
3592500.  0.1540197E-01  0.8247508E+00  0.1166223E-02 -0.1573439E-01  0.7994540E-03 -0.3719976E-01
3555000.  0.1029021E-01  0.9077936E+00  0.1239409E-02 -0.9100136E-02  0.1040799E-02 -0.4516156E-01
3517500.  0.4768482E-02  0.9638255E+00  0.1273213E-02 -0.2394025E-02  0.1335820E-02 -0.5553427E-01
3480000. -0.1001128E-02  0.9919541E+00  0.1267906E-02  0.4154026E-02  0.1700572E-02 -0.6898089E-01
3480000. -0.1001128E-02  0.2027872E+00 -0.9222255E-03 -0.1280177E-03  0.1700572E-02 -0.6577028E-01
3409422. -0.2938054E-02  0.1463020E+00 -0.8996135E-03 -0.3798240E-02  0.2214099E-02 -0.2900693E-01
3338844. -0.4244141E-02  0.9014416E-01 -0.8417183E-03 -0.6485838E-02  0.2384704E-02 -0.3476316E-02
3268266. -0.4959361E-02  0.4041360E-01 -0.7595810E-03 -0.8183676E-02  0.2324430E-02  0.1302774E-01
3197688. -0.5176189E-02  0.5306875E-03 -0.6637021E-03 -0.8989519E-02  0.2121915E-02  0.2252350E-01
3127109. -0.5012001E-02 -0.2833463E-01 -0.5631111E-03 -0.9064061E-02  0.1844570E-02  0.2681833E-01
3056531. -0.4587486E-02 -0.4665047E-01 -0.4648884E-03 -0.8593827E-02  0.1541128E-02  0.2747399E-01
2985953. -0.4011892E-02 -0.5591602E-01 -0.3740354E-03 -0.7762861E-02  0.1244489E-02  0.2578232E-01
2915375. -0.3374675E-02 -0.5812525E-01 -0.2936214E-03 -0.6733912E-02  0.9747799E-03  0.2275887E-01
2844797. -0.2742424E-02 -0.5535665E-01 -0.2250804E-03 -0.5638342E-02  0.7423504E-03  0.1915698E-01
2774219. -0.2159544E-02 -0.4950203E-01 -0.1685834E-03 -0.4572751E-02  0.5505267E-03  0.1549738E-01
2703641. -0.1651269E-02 -0.4211419E-01 -0.1234177E-03 -0.3600641E-02  0.3979766E-03  0.1210723E-01
2633062. -0.1227786E-02 -0.3435336E-01 -0.8832899E-04 -0.2757244E-02  0.2806174E-03  0.9162885E-02
2562484. -0.8885781E-03 -0.2700159E-01 -0.6180198E-04 -0.2055690E-02  0.1930594E-03  0.6731309E-02
2491906. -0.6263099E-03 -0.2051565E-01 -0.4226814E-04 -0.1493261E-02  0.1296028E-03  0.4806222E-02
2421328. -0.4300585E-03 -0.1510008E-01 -0.2824977E-04 -0.1057258E-02  0.8488348E-04  0.3337915E-02
2350750. -0.2876895E-03 -0.1078105E-01 -0.1844280E-04 -0.7297146E-03  0.5422181E-04  0.2255652E-02
2280172. -0.1874539E-03 -0.7472762E-02 -0.1175459E-04 -0.4909158E-03  0.3376359E-04  0.1483251E-02
2209594. -0.1189230E-03 -0.5030385E-02 -0.7308952E-05 -0.3218158E-03  0.2048119E-04  0.9488676E-03
2139016. -0.7341382E-04 -0.3288739E-02 -0.4430007E-05 -0.2054620E-03  0.1209285E-04  0.5902587E-03
2068438. -0.4406431E-04 -0.2087564E-02 -0.2614712E-05 -0.1276658E-03  0.6942703E-05  0.3567991E-03
1997859. -0.2568969E-04 -0.1285828E-02 -0.1501085E-05 -0.7713351E-04  0.3871080E-05  0.2093870E-03
1927281. -0.1453047E-04 -0.7678941E-03 -0.8370893E-06 -0.4526509E-04  0.2093344E-05  0.1191605E-03
1856703. -0.7962102E-05 -0.4441357E-03 -0.4527404E-06 -0.2576679E-04  0.1096101E-05  0.6567061E-04
1786125. -0.4219681E-05 -0.2484438E-03 -0.2370650E-06 -0.1420560E-04  0.5546984E-06  0.3499123E-04
1715547. -0.2158713E-05 -0.1341881E-03 -0.1199342E-06 -0.7571358E-05  0.2707293E-06  0.1799158E-04
1644969. -0.1063669E-05 -0.6983956E-04 -0.5848668E-07 -0.3893119E-05  0.1271224E-06  0.8907151E-05
1574391. -0.5035411E-06 -0.3493941E-04 -0.2741586E-07 -0.1926745E-05  0.5726450E-07  0.4235069E-05
1503812. -0.2284894E-06 -0.1674196E-04 -0.1230698E-07 -0.9158985E-06  0.2466305E-07  0.1928347E-05
1433234. -0.9948281E-07 -0.7618248E-05 -0.5248986E-08 -0.4189049E-06  0.1010959E-07  0.8384375E-06
1362656. -0.4273362E-07 -0.3148516E-05 -0.2049434E-08 -0.1902252E-06  0.3910064E-08  0.3475830E-06
1292078. -0.2224908E-07 -0.7232020E-06 -0.5072306E-09 -0.1072079E-06  0.1390163E-08  0.1375792E-06
1221500. -0.2673382E-07  0.1756425E-05  0.7493008E-09 -0.1433386E-06  0.4253909E-09  0.4780259E-07
1221500. -0.2673382E-07  0.7698923E-06  0.3885805E-09  0.1414628E-06  0.4253909E-09  0.5938379E-07
1183328. -0.2759437E-07 -0.3435548E-06 -0.1942769E-09  0.6060613E-07  0.1775805E-09  0.2714403E-07
1145156. -0.2391429E-07 -0.8030376E-06 -0.4100746E-09  0.1620441E-07  0.6709559E-10  0.1167313E-07
1106984. -0.1870343E-07 -0.8927497E-06 -0.4335079E-09 -0.5490141E-08  0.2118414E-10  0.4601182E-08
1068812. -0.1357954E-07 -0.7982327E-06 -0.3706968E-09 -0.1384949E-07  0.4030752E-11  0.1568741E-08
1030641. -0.9275262E-08 -0.6334274E-06 -0.2816833E-09 -0.1505129E-07 -0.1229450E-11  0.3830628E-09
 992469. -0.5999952E-08 -0.4621401E-06 -0.1967941E-09 -0.1296315E-07 -0.2099475E-11 -0.1301523E-10
 954297. -0.3687884E-08 -0.3149596E-06 -0.1283560E-09 -0.9829342E-08 -0.1667167E-11 -0.1029191E-09
 916125. -0.2156532E-08 -0.2020711E-06 -0.7873736E-10 -0.6807112E-08 -0.1057501E-11 -0.9292074E-10
 877953. -0.1199596E-08 -0.1224909E-06 -0.4557912E-10 -0.4375417E-08 -0.5916606E-12 -0.6216792E-10
 839781. -0.6340513E-09 -0.7024062E-07 -0.2492292E-10 -0.2629892E-08 -0.3022940E-12 -0.3587459E-10
 801609. -0.3178061E-09 -0.3808895E-07 -0.1286512E-10 -0.1482830E-08 -0.1431216E-12 -0.1870944E-10
 763438. -0.1506435E-09 -0.1950052E-07 -0.6257660E-11 -0.7847050E-09 -0.6316874E-13 -0.8984027E-11
 725266. -0.6728425E-10 -0.9400733E-08 -0.2859595E-11 -0.3892384E-09 -0.2602866E-13 -0.4001500E-11
 687094. -0.2819165E-10 -0.4251568E-08 -0.1222825E-11 -0.1804776E-09 -0.9998029E-14 -0.1656849E-11
 648922. -0.1102040E-10 -0.1795309E-08 -0.4868242E-12 -0.7790081E-10 -0.3566475E-14 -0.6365327E-12
 610750. -0.3992584E-11 -0.7036112E-09 -0.1792901E-12 -0.3113005E-10 -0.1174880E-14 -0.2259819E-12
 572578. -0.1329745E-11 -0.2540408E-09 -0.6060214E-13 -0.1143577E-10 -0.3546700E-15 -0.7365820E-13
 534406. -0.4031144E-12 -0.8372485E-10 -0.1861780E-13 -0.3827541E-11 -0.9714224E-16 -0.2184555E-13
 496234. -0.1098774E-12 -0.2490077E-10 -0.5135846E-14 -0.1154152E-11 -0.2383910E-16 -0.5826997E-14
 458062. -0.2651885E-13 -0.6587715E-11 -0.1252950E-14 -0.3091185E-12 -0.5158821E-17 -0.1377322E-14
 419891. -0.5558400E-14 -0.1522282E-11 -0.2651651E-15 -0.7221692E-13 -0.9645920E-18 -0.2829899E-15
 381719. -0.9866526E-15 -0.3000420E-12 -0.4747496E-16 -0.1437288E-13 -0.1517712E-18 -0.4929648E-16
 343547. -0.1434955E-15 -0.4888963E-13 -0.6957259E-17 -0.2362124E-14 -0.1940237E-19 -0.7044071E-17
 305375. -0.1635295E-16 -0.6311518E-14 -0.7979572E-18 -0.3071415E-15 -0.1924076E-20 -0.7833588E-18
 267203.  0.0000000E+00  0.0000000E+00  0.0000000E+00  0.0000000E+00  0.0000000E+00  0.0000000E+00
 229031.  0.0000000E+00  0.0000000E+00  0.0000000E+00  0.0000000E+00  0.0000000E+00  0.0000000E+00
 190859.  0.0000000E+00  0.0000000E+00  0.0000000E+00  0.0000000E+00  0.0000000E+00  0.0000000E+00
 152688.  0.0000000E+00  0.0000000E+00  0.0000000E+00  0.0000000E+00  0.0000000E+00  0.0000000E+00
 114516.  0.0000000E+00  0.0000000E+00  0.0000000E+00  0.0000000E+00  0.0000000E+00  0.0000000E+00
  76344.  0.0000000E+00  0.0000000E+00  0.0000000E+00  0.0000000E+00  0.0000000E+00  0.0000000E+00
  38172.  0.0000000E+00  0.0000000E+00  0.0000000E+00  0.0000000E+00  0.0000000E+00  0.0000000E+00
      0.  0.0000000E+00  0.0000000E+00  0.0000000E+00  0.0000000E+00  0.0000000E+00  0.0000000E+00
