       6       35 S      395        107.54450         10.48506          6.74923        249.29671      185    7
6371000. -0.3334714E-01  0.8076673E+00  0.1578204E-02  0.3492534E-01 -0.2706582E-03  0.7262859E-01
6370000. -0.3347199E-01  0.7830852E+00  0.1572515E-02  0.3755659E-01 -0.2820350E-03  0.7233408E-01
6369000. -0.3359294E-01  0.7580622E+00  0.1566415E-02  0.4017070E-01 -0.2933654E-03  0.7203643E-01
6368000. -0.3370994E-01  0.7326030E+00  0.1559906E-02  0.4276692E-01 -0.3046487E-03  0.7173567E-01
6368000. -0.3370994E-01  0.7326030E+00  0.1559906E-02  0.4276692E-01 -0.3046487E-03  0.7173567E-01
6367000. -0.3382290E-01  0.7067120E+00  0.1552990E-02  0.4534447E-01 -0.3158846E-03  0.7143179E-01
6366000. -0.3393177E-01  0.6803942E+00  0.1545672E-02  0.4790259E-01 -0.3270726E-03  0.7112484E-01
6365000. -0.3403647E-01  0.6536545E+00  0.1537954E-02  0.5044053E-01 -0.3382122E-03  0.7081482E-01
6364000. -0.3413694E-01  0.6264980E+00  0.1529839E-02  0.5295754E-01 -0.3493028E-03  0.7050175E-01
6363000. -0.3423312E-01  0.5989299E+00  0.1521330E-02  0.5545288E-01 -0.3603441E-03  0.7018565E-01
6362000. -0.3432494E-01  0.5709558E+00  0.1512432E-02  0.5792582E-01 -0.3713355E-03  0.6986655E-01
6361000. -0.3441234E-01  0.5425810E+00  0.1503147E-02  0.6037563E-01 -0.3822766E-03  0.6954446E-01
6360000. -0.3449525E-01  0.5138112E+00  0.1493480E-02  0.6280158E-01 -0.3931669E-03  0.6921941E-01
6359000. -0.3457361E-01  0.4846523E+00  0.1483434E-02  0.6520298E-01 -0.4040060E-03  0.6889140E-01
6358000. -0.3464737E-01  0.4551102E+00  0.1473012E-02  0.6757912E-01 -0.4147933E-03  0.6856047E-01
6357000. -0.3471646E-01  0.4251910E+00  0.1462220E-02  0.6992929E-01 -0.4255285E-03  0.6822663E-01
6356000. -0.3478083E-01  0.3949009E+00  0.1451061E-02  0.7225282E-01 -0.4362110E-03  0.6788990E-01
6356000. -0.3478083E-01  0.4242317E+00  0.1451061E-02  0.5800786E-01 -0.4362110E-03  0.7545780E-01
6355000. -0.3484570E-01  0.4023798E+00  0.1441851E-02  0.5935095E-01 -0.4480253E-03  0.7507960E-01
6354000. -0.3490713E-01  0.3803169E+00  0.1432431E-02  0.6067936E-01 -0.4597802E-03  0.7470014E-01
6353000. -0.3496508E-01  0.3580463E+00  0.1422803E-02  0.6199285E-01 -0.4714753E-03  0.7431944E-01
6352000. -0.3501952E-01  0.3355714E+00  0.1412970E-02  0.6329120E-01 -0.4831106E-03  0.7393751E-01
6351000. -0.3507042E-01  0.3128955E+00  0.1402935E-02  0.6457416E-01 -0.4946859E-03  0.7355437E-01
6350000. -0.3511773E-01  0.2900220E+00  0.1392700E-02  0.6584150E-01 -0.5062009E-03  0.7317002E-01
6349000. -0.3516145E-01  0.2669542E+00  0.1382267E-02  0.6709298E-01 -0.5176556E-03  0.7278448E-01
6348000. -0.3520153E-01  0.2436959E+00  0.1371639E-02  0.6832837E-01 -0.5290495E-03  0.7239775E-01
6347000. -0.3523794E-01  0.2202504E+00  0.1360818E-02  0.6954747E-01 -0.5403828E-03  0.7200984E-01
6346600. -0.3525147E-01  0.2108206E+00  0.1356436E-02  0.7003050E-01 -0.5448990E-03  0.7185435E-01
6346600. -0.3525147E-01  0.4651774E+00  0.1356436E-02  0.5921860E-01 -0.5448990E-03  0.8414603E-01
6318800. -0.3613085E-01 -0.7644603E-01  0.1058191E-02  0.7594844E-01 -0.8892873E-03  0.7370788E-01
6291000. -0.3449878E-01 -0.6765637E+00  0.7080328E-03  0.8281387E-01 -0.1188161E-02  0.6327763E-01
6291000. -0.3449878E-01 -0.6788785E+00  0.7080328E-03  0.8439416E-01 -0.1188161E-02  0.6327763E-01
6263000. -0.3014473E-01 -0.1296779E+01  0.3412836E-03  0.8063034E-01 -0.1443038E-02  0.5269495E-01
6235000. -0.2320058E-01 -0.1846404E+01  0.1501801E-04  0.6618454E-01 -0.1651237E-02  0.4204273E-01
6207000. -0.1410834E-01 -0.2264594E+01 -0.2275420E-03  0.4295197E-01 -0.1812578E-02  0.3138699E-01
6179000. -0.3563140E-02 -0.2500525E+01 -0.3539576E-03  0.1389757E-01 -0.1927293E-02  0.2084910E-01
6151000.  0.7555724E-02 -0.2522144E+01 -0.3465680E-03 -0.1728409E-01 -0.1996267E-02  0.1060551E-01
6151000.  0.7555724E-02 -0.2071056E+01 -0.3465680E-03 -0.1618564E-01 -0.1996267E-02  0.1018749E-01
6128500.  0.1462683E-01 -0.1916457E+01 -0.2538113E-03 -0.3600232E-01 -0.2024447E-02  0.5852547E-02
6106000.  0.2097862E-01 -0.1665806E+01 -0.9543378E-04 -0.5314349E-01 -0.2038188E-02  0.2012184E-02
6083500.  0.2629752E-01 -0.1334490E+01  0.1170993E-03 -0.6650995E-01 -0.2039255E-02 -0.1323232E-02
6061000.  0.3033279E-01 -0.9425055E+00  0.3689239E-03 -0.7528430E-01 -0.2029442E-02 -0.4148988E-02
6038500.  0.3291053E-01 -0.5131186E+00  0.6428476E-03 -0.7896990E-01 -0.2010552E-02 -0.6463477E-02
6016000.  0.3394251E-01 -0.7134188E-01  0.9205164E-03 -0.7740647E-01 -0.1984390E-02 -0.8266752E-02
5993500.  0.3342970E-01  0.3576008E+00  0.1183598E-02 -0.7076376E-01 -0.1952762E-02 -0.9559345E-02
5971000.  0.3146026E-01  0.7497718E+00  0.1414909E-02 -0.5951631E-01 -0.1917474E-02 -0.1033857E-01
5971000.  0.3146026E-01  0.7367471E+00  0.1414909E-02 -0.5649133E-01 -0.1917474E-02 -0.1445698E-01
5937667.  0.2640971E-01  0.1168783E+01  0.1659629E-02 -0.3637284E-01 -0.1836567E-02 -0.1636299E-01
5904333.  0.1951126E-01  0.1440043E+01  0.1791018E-02 -0.1366671E-01 -0.1747197E-02 -0.1772479E-01
5871000.  0.1163561E-01  0.1542748E+01  0.1803043E-02  0.8826407E-02 -0.1651735E-02 -0.1871718E-01
5837667.  0.3644261E-02  0.1487296E+01  0.1703008E-02  0.2884773E-01 -0.1551768E-02 -0.1946318E-01
5804333. -0.3693630E-02  0.1297766E+01  0.1508279E-02  0.4481850E-01 -0.1448369E-02 -0.2003658E-01
5771000. -0.9759191E-02  0.1006955E+01  0.1242654E-02  0.5586116E-01 -0.1342346E-02 -0.2046980E-01
5771000. -0.9759191E-02  0.1007050E+01  0.1242654E-02  0.5585974E-01 -0.1342346E-02 -0.2046980E-01
5701000. -0.1663679E-01  0.2102797E+00  0.5502611E-03  0.6675987E-01 -0.1112464E-02 -0.2120211E-01
5701000. -0.1663679E-01  0.2109143E+00  0.5502611E-03  0.5681485E-01 -0.1112464E-02 -0.1651280E-01
5667333. -0.1687113E-01 -0.1144858E+00  0.2661544E-03  0.5092366E-01 -0.1022971E-02 -0.1723075E-01
5633667. -0.1546639E-01 -0.4144371E+00  0.1011856E-04  0.4588134E-01 -0.9316044E-03 -0.1727443E-01
5600000. -0.1255221E-01 -0.6812260E+00 -0.2152845E-03  0.3914029E-01 -0.8409065E-03 -0.1700423E-01
5600000. -0.1255221E-01 -0.6812260E+00 -0.2152845E-03  0.3914029E-01 -0.8409065E-03 -0.1700423E-01
5563518. -0.7944698E-02 -0.9179364E+00 -0.4149962E-03  0.3041080E-01 -0.7451159E-03 -0.1640701E-01
5527037. -0.2165538E-02 -0.1088925E+01 -0.5618191E-03  0.2076859E-01 -0.6534628E-03 -0.1557096E-01
5490556.  0.4386311E-02 -0.1187009E+01 -0.6522327E-03  0.1080537E-01 -0.5671360E-03 -0.1455571E-01
5454074.  0.1128399E-01 -0.1209618E+01 -0.6860300E-03  0.1083336E-02 -0.4870120E-03 -0.1341133E-01
5417593.  0.1809871E-01 -0.1158777E+01 -0.6660678E-03 -0.7894658E-02 -0.4137109E-03 -0.1218006E-01
5381111.  0.2442524E-01 -0.1040309E+01 -0.5978294E-03 -0.1571725E-01 -0.3476135E-03 -0.1090070E-01
5344630.  0.2990084E-01 -0.8633892E+00 -0.4888762E-03 -0.2207323E-01 -0.2889003E-03 -0.9606335E-02
5308148.  0.3422356E-01 -0.6396883E+00 -0.3482272E-03 -0.2676273E-01 -0.2375774E-03 -0.8323722E-02
5271667.  0.3716261E-01 -0.3824355E+00 -0.1857365E-03 -0.2969734E-01 -0.1934927E-03 -0.7082883E-02
5235185.  0.3856603E-01 -0.1056693E+00 -0.1145475E-04 -0.3088935E-01 -0.1563481E-03 -0.5901859E-02
5198704.  0.3836225E-01  0.1766388E+00  0.1648865E-03 -0.3044265E-01 -0.1257556E-03 -0.4798198E-02
5162222.  0.3655775E-01  0.4513159E+00  0.3343984E-03 -0.2853731E-01 -0.1012102E-03 -0.3791472E-02
5125741.  0.3323087E-01  0.7065738E+00  0.4893635E-03 -0.2540576E-01 -0.8214068E-04 -0.2886638E-02
5089259.  0.2852204E-01  0.9324766E+00  0.6235291E-03 -0.2131841E-01 -0.6794009E-04 -0.2092151E-02
5052778.  0.2262307E-01  0.1121205E+01  0.7322383E-03 -0.1656410E-01 -0.5795970E-04 -0.1412727E-02
5016296.  0.1576312E-01  0.1267354E+01  0.8125025E-03 -0.1142940E-01 -0.5154648E-04 -0.8457283E-03
4979815.  0.8196506E-02  0.1367761E+01  0.8629309E-03 -0.6187585E-02 -0.4806244E-04 -0.3890966E-03
4943333.  0.1882566E-03  0.1421575E+01  0.8836324E-03 -0.1084303E-02 -0.4689041E-04 -0.3688110E-04
4906852. -0.7996997E-02  0.1430010E+01  0.8760170E-03  0.3671226E-02 -0.4745625E-04  0.2194320E-03
4870370. -0.1610733E-01  0.1395948E+01  0.8425741E-03  0.7912039E-02 -0.4923955E-04  0.3900881E-03
4833889. -0.2391104E-01  0.1323832E+01  0.7866297E-03  0.1151390E-01 -0.5177782E-04  0.4847088E-03
4797407. -0.3120596E-01  0.1219139E+01  0.7120848E-03  0.1439903E-01 -0.5466617E-04  0.5147878E-03
4760926. -0.3782238E-01  0.1087991E+01  0.6231634E-03  0.1653305E-01 -0.5758007E-04  0.4954161E-03
4724444. -0.4362801E-01  0.9370012E+00  0.5241826E-03  0.1791450E-01 -0.6025536E-04  0.4327713E-03
4687963. -0.4852786E-01  0.7727520E+00  0.4193700E-03  0.1857954E-01 -0.6248001E-04  0.3406472E-03
4651482. -0.5246444E-01  0.6015761E+00  0.3126561E-03  0.1859012E-01 -0.6412355E-04  0.2307694E-03
4615000. -0.5541534E-01  0.4293813E+00  0.2075751E-03  0.1802275E-01 -0.6509423E-04  0.1069054E-03
4578518. -0.5738996E-01  0.2613961E+00  0.1071692E-03  0.1697400E-01 -0.6534602E-04 -0.1841683E-04
4542037. -0.5842553E-01  0.1020846E+00  0.1391258E-04  0.1554273E-01 -0.6489095E-04 -0.1400897E-03
4505556. -0.5858255E-01 -0.4493460E-01 -0.7028452E-04  0.1382690E-01 -0.6374779E-04 -0.2573159E-03
4469074. -0.5793965E-01 -0.1769231E+00 -0.1440957E-03  0.1193049E-01 -0.6197905E-04 -0.3577183E-03
4432593. -0.5658870E-01 -0.2920087E+00 -0.2067350E-03  0.9938817E-02 -0.5967381E-04 -0.4455841E-03
4396111. -0.5462984E-01 -0.3891151E+00 -0.2578902E-03  0.7932315E-02 -0.5690261E-04 -0.5191006E-03
4359630. -0.5216750E-01 -0.4678882E+00 -0.2976957E-03  0.5985307E-02 -0.5377210E-04 -0.5712579E-03
4323148. -0.4930582E-01 -0.5286678E+00 -0.3266436E-03  0.4147351E-02 -0.5038653E-04 -0.6088584E-03
4286667. -0.4614589E-01 -0.5722656E+00 -0.3454899E-03  0.2464222E-02 -0.4683180E-04 -0.6296784E-03
4250185. -0.4278248E-01 -0.5999476E+00 -0.3552233E-03  0.9678440E-03 -0.4320986E-04 -0.6329441E-03
4213704. -0.3930246E-01 -0.6133115E+00 -0.3569582E-03 -0.3271892E-03 -0.3960606E-04 -0.6236028E-03
4177222. -0.3578266E-01 -0.6141178E+00 -0.3518858E-03 -0.1408649E-02 -0.3609778E-04 -0.5992298E-03
4140741. -0.3228971E-01 -0.6042935E+00 -0.3412310E-03 -0.2278523E-02 -0.3276893E-04 -0.5618510E-03
4104259. -0.2887870E-01 -0.5857839E+00 -0.3261750E-03 -0.2947157E-02 -0.2967982E-04 -0.5150865E-03
4067778. -0.2559417E-01 -0.5604624E+00 -0.3078488E-03 -0.3423342E-02 -0.2689923E-04 -0.4539604E-03
4031296. -0.2246959E-01 -0.5301808E+00 -0.2872961E-03 -0.3728475E-02 -0.2450054E-04 -0.3822282E-03
3994815. -0.1952866E-01 -0.4966098E+00 -0.2654359E-03 -0.3883306E-02 -0.2254391E-04 -0.2987421E-03
3958333. -0.1678571E-01 -0.4612451E+00 -0.2430749E-03 -0.3907008E-02 -0.2111247E-04 -0.1984284E-03
3921852. -0.1424715E-01 -0.4254539E+00 -0.2208921E-03 -0.3825435E-02 -0.2030392E-04 -0.8070275E-04
3885370. -0.1191196E-01 -0.3903565E+00 -0.1994238E-03 -0.3660718E-02 -0.2023420E-04  0.6099083E-04
3848889. -0.9773550E-02 -0.3568917E+00 -0.1790848E-03 -0.3435280E-02 -0.2106368E-04  0.2346870E-03
3812407. -0.7820194E-02 -0.3258028E+00 -0.1601499E-03 -0.3174124E-02 -0.2300061E-04  0.4498871E-03
3775926. -0.6036871E-02 -0.2975866E+00 -0.1427580E-03 -0.2900618E-02 -0.2632529E-04  0.7223465E-03
3739444. -0.4406117E-02 -0.2725238E+00 -0.1269018E-03 -0.2642740E-02 -0.3141920E-04  0.1071473E-02
3702963. -0.2909825E-02 -0.2506047E+00 -0.1123986E-03 -0.2434283E-02 -0.3879207E-04  0.1523587E-02
3666482. -0.1530907E-02 -0.2314258E+00 -0.9885020E-04 -0.2317607E-02 -0.4913304E-04  0.2114999E-02
3630000. -0.2558962E-03 -0.2140957E+00 -0.8556768E-04 -0.2353218E-02 -0.6336862E-04  0.2892767E-02
3630000. -0.2558962E-03 -0.2140957E+00 -0.8556768E-04 -0.2353218E-02 -0.6336862E-04  0.2892767E-02
3592500.  0.9528167E-03 -0.1964298E+00 -0.7102561E-04 -0.2640177E-02 -0.8336548E-04  0.3952446E-02
3555000.  0.2050825E-02 -0.1758179E+00 -0.5371770E-04 -0.3321944E-02 -0.1105870E-03  0.5364599E-02
3517500.  0.3006829E-02 -0.1470868E+00 -0.3072507E-04 -0.4616406E-02 -0.1474367E-03  0.7246010E-02
3480000.  0.3750095E-02 -0.1017548E+00  0.2479017E-05 -0.6860937E-02 -0.1970992E-03  0.9746216E-02
3480000.  0.3750095E-02  0.1581052E+00  0.1470105E-03  0.6593776E-02 -0.1970992E-03 -0.2280281E-02
3409422.  0.2316804E-02  0.1037195E+00  0.8831594E-04  0.4163208E-02 -0.1563197E-03 -0.4415283E-02
3338844.  0.1391257E-02  0.6579345E-01  0.5173783E-04  0.2555607E-02 -0.1082460E-03 -0.4047054E-02
3268266.  0.8127229E-03  0.4043589E-01  0.2956466E-04  0.1526530E-02 -0.6900657E-04 -0.3006289E-02
3197688.  0.4620902E-03  0.2411134E-01  0.1648102E-04  0.8877958E-03 -0.4144706E-04 -0.2001818E-02
3127109.  0.2557948E-03  0.1396261E-01  0.8962467E-05  0.5028848E-03 -0.2373592E-04 -0.1239928E-02
3056531.  0.1378782E-03  0.7857519E-02  0.4753840E-05  0.2774904E-03 -0.1304904E-04 -0.7270086E-03
2985953.  0.7236234E-04  0.4298639E-02  0.2458733E-05  0.1491563E-03 -0.6914543E-05 -0.4073208E-03
2915375.  0.3697020E-04  0.2286438E-02  0.1239530E-05  0.7808616E-04 -0.3540144E-05 -0.2192551E-03
2844797.  0.1838061E-04  0.1182328E-02  0.6087814E-06  0.3980230E-04 -0.1753760E-05 -0.1137595E-03
2774219.  0.8888385E-05  0.5942300E-03  0.2911078E-06  0.1974452E-04 -0.8412613E-06 -0.5700073E-04
2703641.  0.4177994E-05  0.2901508E-03  0.1354294E-06  0.9526468E-05 -0.3908476E-06 -0.2761084E-04
2633062.  0.1907471E-05  0.1375580E-03  0.6124379E-07  0.4467295E-05 -0.1758462E-06 -0.1293495E-04
2562484.  0.8451058E-06  0.6327403E-04  0.2689573E-07  0.2034330E-05 -0.7658107E-07 -0.5860473E-05
2491906.  0.3629680E-06  0.2821273E-04  0.1145743E-07  0.8987139E-06 -0.3225938E-07 -0.2566893E-05
2421328.  0.1509422E-06  0.1218098E-04  0.4728555E-08  0.3847206E-06 -0.1313168E-07 -0.1086140E-05
2350750.  0.6069446E-07  0.5086280E-05  0.1887973E-08  0.1593775E-06 -0.5159397E-08 -0.4435513E-06
2280172.  0.2356240E-07  0.2051092E-05  0.7281225E-09  0.6380076E-07 -0.1953798E-08 -0.1746019E-06
2209594.  0.8816098E-08  0.7975167E-06  0.2707644E-09  0.2463889E-07 -0.7119505E-09 -0.6615431E-07
2139016.  0.3173100E-08  0.2984530E-06  0.9689585E-10  0.9162295E-08 -0.2491682E-09 -0.2408346E-07
2068438.  0.1096240E-08  0.1072767E-06  0.3329633E-10  0.3273935E-08 -0.8357559E-10 -0.8407397E-08
1997859.  0.3626491E-09  0.3695067E-07  0.1095966E-10  0.1121494E-08 -0.2680106E-10 -0.2807930E-08
1927281.  0.1145686E-09  0.1216507E-07  0.3446160E-11  0.3673326E-09 -0.8194777E-11 -0.8949047E-09
1856703.  0.3446014E-10  0.3816895E-08  0.1031992E-11  0.1147026E-09 -0.2381710E-11 -0.2713596E-09
1786125.  0.9834621E-11  0.1137575E-08  0.2933099E-12  0.3403309E-10 -0.6556826E-12 -0.7802610E-10
1715547.  0.2652927E-11  0.3208467E-09  0.7881211E-13  0.9559435E-11 -0.1703052E-12 -0.2119468E-10
1644969.  0.6738104E-12  0.8523160E-10  0.1992348E-13  0.2532527E-11 -0.4152604E-13 -0.5418393E-11
1574391.  0.0000000E+00  0.0000000E+00  0.0000000E+00  0.0000000E+00  0.0000000E+00  0.0000000E+00
1503812.  0.0000000E+00  0.0000000E+00  0.0000000E+00  0.0000000E+00  0.0000000E+00  0.0000000E+00
1433234.  0.0000000E+00  0.0000000E+00  0.0000000E+00  0.0000000E+00  0.0000000E+00  0.0000000E+00
1362656.  0.0000000E+00  0.0000000E+00  0.0000000E+00  0.0000000E+00  0.0000000E+00  0.0000000E+00
1292078.  0.0000000E+00  0.0000000E+00  0.0000000E+00  0.0000000E+00  0.0000000E+00  0.0000000E+00
1221500.  0.0000000E+00  0.0000000E+00  0.0000000E+00  0.0000000E+00  0.0000000E+00  0.0000000E+00
1221500.  0.0000000E+00  0.0000000E+00  0.0000000E+00  0.0000000E+00  0.0000000E+00  0.0000000E+00
1183328.  0.0000000E+00  0.0000000E+00  0.0000000E+00  0.0000000E+00  0.0000000E+00  0.0000000E+00
1145156.  0.0000000E+00  0.0000000E+00  0.0000000E+00  0.0000000E+00  0.0000000E+00  0.0000000E+00
1106984.  0.0000000E+00  0.0000000E+00  0.0000000E+00  0.0000000E+00  0.0000000E+00  0.0000000E+00
1068812.  0.0000000E+00  0.0000000E+00  0.0000000E+00  0.0000000E+00  0.0000000E+00  0.0000000E+00
1030641.  0.0000000E+00  0.0000000E+00  0.0000000E+00  0.0000000E+00  0.0000000E+00  0.0000000E+00
 992469.  0.0000000E+00  0.0000000E+00  0.0000000E+00  0.0000000E+00  0.0000000E+00  0.0000000E+00
 954297.  0.0000000E+00  0.0000000E+00  0.0000000E+00  0.0000000E+00  0.0000000E+00  0.0000000E+00
 916125.  0.0000000E+00  0.0000000E+00  0.0000000E+00  0.0000000E+00  0.0000000E+00  0.0000000E+00
 877953.  0.0000000E+00  0.0000000E+00  0.0000000E+00  0.0000000E+00  0.0000000E+00  0.0000000E+00
 839781.  0.0000000E+00  0.0000000E+00  0.0000000E+00  0.0000000E+00  0.0000000E+00  0.0000000E+00
 801609.  0.0000000E+00  0.0000000E+00  0.0000000E+00  0.0000000E+00  0.0000000E+00  0.0000000E+00
 763438.  0.0000000E+00  0.0000000E+00  0.0000000E+00  0.0000000E+00  0.0000000E+00  0.0000000E+00
 725266.  0.0000000E+00  0.0000000E+00  0.0000000E+00  0.0000000E+00  0.0000000E+00  0.0000000E+00
 687094.  0.0000000E+00  0.0000000E+00  0.0000000E+00  0.0000000E+00  0.0000000E+00  0.0000000E+00
 648922.  0.0000000E+00  0.0000000E+00  0.0000000E+00  0.0000000E+00  0.0000000E+00  0.0000000E+00
 610750.  0.0000000E+00  0.0000000E+00  0.0000000E+00  0.0000000E+00  0.0000000E+00  0.0000000E+00
 572578.  0.0000000E+00  0.0000000E+00  0.0000000E+00  0.0000000E+00  0.0000000E+00  0.0000000E+00
 534406.  0.0000000E+00  0.0000000E+00  0.0000000E+00  0.0000000E+00  0.0000000E+00  0.0000000E+00
 496234.  0.0000000E+00  0.0000000E+00  0.0000000E+00  0.0000000E+00  0.0000000E+00  0.0000000E+00
 458062.  0.0000000E+00  0.0000000E+00  0.0000000E+00  0.0000000E+00  0.0000000E+00  0.0000000E+00
 419891.  0.0000000E+00  0.0000000E+00  0.0000000E+00  0.0000000E+00  0.0000000E+00  0.0000000E+00
 381719.  0.0000000E+00  0.0000000E+00  0.0000000E+00  0.0000000E+00  0.0000000E+00  0.0000000E+00
 343547.  0.0000000E+00  0.0000000E+00  0.0000000E+00  0.0000000E+00  0.0000000E+00  0.0000000E+00
 305375.  0.0000000E+00  0.0000000E+00  0.0000000E+00  0.0000000E+00  0.0000000E+00  0.0000000E+00
 267203.  0.0000000E+00  0.0000000E+00  0.0000000E+00  0.0000000E+00  0.0000000E+00  0.0000000E+00
 229031.  0.0000000E+00  0.0000000E+00  0.0000000E+00  0.0000000E+00  0.0000000E+00  0.0000000E+00
 190859.  0.0000000E+00  0.0000000E+00  0.0000000E+00  0.0000000E+00  0.0000000E+00  0.0000000E+00
 152688.  0.0000000E+00  0.0000000E+00  0.0000000E+00  0.0000000E+00  0.0000000E+00  0.0000000E+00
 114516.  0.0000000E+00  0.0000000E+00  0.0000000E+00  0.0000000E+00  0.0000000E+00  0.0000000E+00
  76344.  0.0000000E+00  0.0000000E+00  0.0000000E+00  0.0000000E+00  0.0000000E+00  0.0000000E+00
  38172.  0.0000000E+00  0.0000000E+00  0.0000000E+00  0.0000000E+00  0.0000000E+00  0.0000000E+00
      0.  0.0000000E+00  0.0000000E+00  0.0000000E+00  0.0000000E+00  0.0000000E+00  0.0000000E+00
