      19       10 S      684        106.21600         35.89289         12.37149        657.24597      185    7
6371000.  0.3342123E-01 -0.1286120E+00 -0.2367582E-02 -0.3578882E-01 -0.2387506E-05 -0.6299837E-01
6370000.  0.3343966E-01 -0.1061114E+00 -0.2361565E-02 -0.4087989E-01  0.7497564E-05 -0.6295614E-01
6369000.  0.3345454E-01 -0.8353166E-01 -0.2354750E-02 -0.4595074E-01  0.1737551E-04 -0.6290758E-01
6368000.  0.3346588E-01 -0.6087536E-01 -0.2347141E-02 -0.5099963E-01  0.2724533E-04 -0.6285269E-01
6368000.  0.3346588E-01 -0.6087536E-01 -0.2347141E-02 -0.5099963E-01  0.2724533E-04 -0.6285269E-01
6367000.  0.3347365E-01 -0.3814507E-01 -0.2338741E-02 -0.5602483E-01  0.3710605E-04 -0.6279148E-01
6366000.  0.3347785E-01 -0.1534341E-01 -0.2329555E-02 -0.6102463E-01  0.4695666E-04 -0.6272396E-01
6365000.  0.3347846E-01  0.7526985E-02 -0.2319586E-02 -0.6599732E-01  0.5679618E-04 -0.6265011E-01
6364000.  0.3347548E-01  0.3046344E-01 -0.2308839E-02 -0.7094119E-01  0.6662361E-04 -0.6256998E-01
6363000.  0.3346889E-01  0.5346326E-01 -0.2297318E-02 -0.7585458E-01  0.7643797E-04 -0.6248353E-01
6362000.  0.3345869E-01  0.7652372E-01 -0.2285028E-02 -0.8073579E-01  0.8623827E-04 -0.6239079E-01
6361000.  0.3344487E-01  0.9964207E-01 -0.2271974E-02 -0.8558316E-01  0.9602350E-04 -0.6229177E-01
6360000.  0.3342741E-01  0.1228155E+00 -0.2258163E-02 -0.9039504E-01  0.1057927E-03 -0.6218646E-01
6359000.  0.3340631E-01  0.1460413E+00 -0.2243599E-02 -0.9516979E-01  0.1155449E-03 -0.6207489E-01
6358000.  0.3338156E-01  0.1693165E+00 -0.2228289E-02 -0.9990577E-01  0.1252791E-03 -0.6195707E-01
6357000.  0.3335316E-01  0.1926383E+00 -0.2212239E-02 -0.1046014E+00  0.1349943E-03 -0.6183298E-01
6356000.  0.3332109E-01  0.2160039E+00 -0.2195455E-02 -0.1092550E+00  0.1446895E-03 -0.6170267E-01
6356000.  0.3332109E-01  0.1138597E+00 -0.2195455E-02 -0.8005799E-01  0.1446895E-03 -0.6895295E-01
6355000.  0.3330189E-01  0.1307724E+00 -0.2182646E-02 -0.8314272E-01  0.1555033E-03 -0.6883511E-01
6354000.  0.3328003E-01  0.1477163E+00 -0.2169356E-02 -0.8620440E-01  0.1662982E-03 -0.6871231E-01
6353000.  0.3325551E-01  0.1646902E+00 -0.2155586E-02 -0.8924232E-01  0.1770734E-03 -0.6858455E-01
6352000.  0.3322833E-01  0.1816922E+00 -0.2141342E-02 -0.9225580E-01  0.1878281E-03 -0.6845185E-01
6351000.  0.3319848E-01  0.1987211E+00 -0.2126626E-02 -0.9524415E-01  0.1985617E-03 -0.6831421E-01
6350000.  0.3316595E-01  0.2157751E+00 -0.2111444E-02 -0.9820667E-01  0.2092732E-03 -0.6817164E-01
6349000.  0.3313074E-01  0.2328528E+00 -0.2095798E-02 -0.1011427E+00  0.2199620E-03 -0.6802415E-01
6348000.  0.3309285E-01  0.2499525E+00 -0.2079694E-02 -0.1040516E+00  0.2306273E-03 -0.6787174E-01
6347000.  0.3305227E-01  0.2670727E+00 -0.2063136E-02 -0.1069326E+00  0.2412682E-03 -0.6771444E-01
6346600.  0.3303529E-01  0.2739261E+00 -0.2056386E-02 -0.1080770E+00  0.2455176E-03 -0.6765015E-01
6346600.  0.3303529E-01  0.1137512E+00 -0.2056386E-02 -0.8441096E-01  0.2455176E-03 -0.7916907E-01
6318800.  0.3177189E-01  0.4678339E+00 -0.1565299E-02 -0.1376034E+00  0.5808357E-03 -0.7401197E-01
6291000.  0.2894625E-01  0.8260946E+00 -0.8869836E-03 -0.1692646E+00  0.8870878E-03 -0.6587823E-01
6291000.  0.2894625E-01  0.8360286E+00 -0.8869836E-03 -0.1739113E+00  0.8870878E-03 -0.6587823E-01
6263000.  0.2449703E-01  0.1183176E+01 -0.9950193E-04 -0.1796894E+00  0.1153247E-02 -0.5480391E-01
6235000.  0.1861401E-01  0.1484197E+01  0.6512047E-03 -0.1574484E+00  0.1365257E-02 -0.4131175E-01
6207000.  0.1155509E-01  0.1714451E+01  0.1248546E-02 -0.1108249E+00  0.1513571E-02 -0.2591209E-01
6179000.  0.3678364E-02  0.1853398E+01  0.1600029E-02 -0.4701122E-01  0.1591124E-02 -0.9221251E-02
6151000. -0.4581040E-02  0.1886870E+01  0.1650734E-02  0.2429633E-01  0.1593756E-02  0.8059882E-02
6151000. -0.4581040E-02  0.1537334E+01  0.1650734E-02  0.2214321E-01  0.1593756E-02  0.8313330E-02
6128500. -0.9899910E-02  0.1466706E+01  0.1485519E-02  0.7064292E-01  0.1544743E-02  0.1938261E-01
6106000. -0.1488568E-01  0.1349497E+01  0.1159617E-02  0.1124950E+00  0.1457425E-02  0.2996589E-01
6083500. -0.1938357E-01  0.1191542E+01  0.7029280E-03  0.1441930E+00  0.1333928E-02  0.3983532E-01
6061000. -0.2326262E-01  0.1000422E+01  0.1562009E-03  0.1631385E+00  0.1177142E-02  0.4878495E-01
6038500. -0.2642106E-01  0.7849933E+00 -0.4325286E-03  0.1678258E+00  0.9906442E-03  0.5663365E-01
6016000. -0.2878980E-01  0.5548282E+00 -0.1011983E-02  0.1579311E+00  0.7786017E-03  0.6322826E-01
5993500. -0.3033401E-01  0.3196484E+00 -0.1531828E-02  0.1343045E+00  0.5456686E-03  0.6844632E-01
5971000. -0.3105264E-01  0.8877373E-01 -0.1946679E-02  0.9887435E-01  0.2968778E-03  0.7219603E-01
5971000. -0.3105264E-01  0.7513362E-01 -0.1946679E-02  0.9140299E-01  0.2968778E-03  0.7626108E-01
5937667. -0.3065047E-01 -0.2203171E+00 -0.2263471E-02  0.2835517E-01 -0.1121695E-03  0.7954819E-01
5904333. -0.2884716E-01 -0.4587102E+00 -0.2238644E-02 -0.3744679E-01 -0.5298224E-03  0.7956924E-01
5871000. -0.2596142E-01 -0.6337123E+00 -0.1883804E-02 -0.9634443E-01 -0.9394287E-03  0.7651765E-01
5837667. -0.2232499E-01 -0.7463762E+00 -0.1255673E-02 -0.1409045E+00 -0.1325636E-02  0.7067837E-01
5804333. -0.1824837E-01 -0.8034243E+00 -0.4425058E-03 -0.1665582E+00 -0.1674767E-02  0.6240442E-01
5771000. -0.1399678E-01 -0.8152444E+00  0.4513250E-03 -0.1717257E+00 -0.1975100E-02  0.5209871E-01
5771000. -0.1399678E-01 -0.8152515E+00  0.4513250E-03 -0.1717196E+00 -0.1975100E-02  0.5209871E-01
5701000. -0.5034788E-02 -0.7989358E+00  0.2199572E-02 -0.1329549E+00 -0.2401882E-02  0.2460584E-01
5701000. -0.5034788E-02 -0.6481745E+00  0.2199572E-02 -0.1034619E+00 -0.2401882E-02  0.2602497E-01
5667333. -0.1817012E-02 -0.5792513E+00  0.2627064E-02 -0.5997878E-01 -0.2503973E-02  0.1266691E-01
5633667.  0.1174254E-02 -0.5564021E+00  0.2841584E-02 -0.2097512E-01 -0.2535728E-02 -0.6866818E-03
5600000.  0.4058854E-02 -0.5351124E+00  0.2845011E-02  0.1965475E-01 -0.2496571E-02 -0.1410614E-01
5600000.  0.4058854E-02 -0.5351124E+00  0.2845011E-02  0.1965475E-01 -0.2496571E-02 -0.1410614E-01
5563518.  0.7064897E-02 -0.5154479E+00  0.2610879E-02  0.6137489E-01 -0.2374981E-02 -0.2826009E-01
5527037.  0.9968277E-02 -0.4990271E+00  0.2154476E-02  0.9665267E-01 -0.2174498E-02 -0.4159274E-01
5490556.  0.1278123E-01 -0.4832698E+00  0.1522790E-02  0.1221190E+00 -0.1900988E-02 -0.5370335E-01
5454074.  0.1549601E-01 -0.4639145E+00  0.7790588E-03  0.1355110E+00 -0.1562481E-02 -0.6423611E-01
5417593.  0.1807751E-01 -0.4358387E+00 -0.4236261E-05  0.1359039E+00 -0.1168931E-02 -0.7288641E-01
5381111.  0.2046036E-01 -0.3936420E+00 -0.7532518E-03  0.1237095E+00 -0.7318113E-03 -0.7941572E-01
5344630.  0.2254964E-01 -0.3326539E+00 -0.1400137E-02  0.1006184E+00 -0.2638177E-03 -0.8365075E-01
5308148.  0.2422783E-01 -0.2496502E+00 -0.1889958E-02  0.6937172E-01  0.2216046E-03 -0.8548763E-01
5271667.  0.2536422E-01 -0.1434294E+00 -0.2185606E-02  0.3342081E-01  0.7105840E-03 -0.8489883E-01
5235185.  0.2582829E-01 -0.1523747E-01 -0.2271006E-02 -0.3420874E-02  0.1189332E-02 -0.8192118E-01
5198704.  0.2550383E-01  0.1311452E+00 -0.2151925E-02 -0.3739964E-01  0.1644413E-02 -0.7666047E-01
5162222.  0.2430335E-01  0.2895133E+00 -0.1854539E-02 -0.6519571E-01  0.2063241E-02 -0.6928743E-01
5125741.  0.2218069E-01  0.4517761E+00 -0.1422052E-02 -0.8423931E-01  0.2434300E-02 -0.6002034E-01
5089259.  0.1914001E-01  0.6084778E+00 -0.9095976E-03 -0.9294713E-01  0.2747509E-02 -0.4912727E-01
5052778.  0.1524201E-01  0.7495959E+00 -0.3782996E-03 -0.9084243E-01  0.2994403E-02 -0.3691417E-01
5016296.  0.1060340E-01  0.8655894E+00  0.1113077E-03 -0.7857878E-01  0.3168368E-02 -0.2370960E-01
4979815.  0.5393311E-02  0.9479752E+00  0.5053531E-03 -0.5782368E-01  0.3264709E-02 -0.9862454E-02
4943333. -0.1765330E-03  0.9903334E+00  0.7620456E-03 -0.3107396E-01  0.3280764E-02  0.4273809E-02
4906852. -0.5864464E-02  0.9888633E+00  0.8555982E-03 -0.1383047E-02  0.3215885E-02  0.1834780E-01
4870370. -0.1141551E-01  0.9425734E+00  0.7785477E-03  0.2796208E-01  0.3071402E-02  0.3202144E-01
4833889. -0.1657772E-01  0.8537409E+00  0.5421677E-03  0.5375943E-01  0.2850545E-02  0.4497350E-01
4797407. -0.2112127E-01  0.7275137E+00  0.1750225E-03  0.7321351E-01  0.2558285E-02  0.5691214E-01
4760926. -0.2485247E-01  0.5715191E+00 -0.2800498E-03  0.8418492E-01  0.2201197E-02  0.6757861E-01
4724444. -0.2762815E-01  0.3954816E+00 -0.7704162E-03  0.8540265E-01  0.1787213E-02  0.7674635E-01
4687963. -0.2936399E-01  0.2101979E+00 -0.1238834E-02  0.7655342E-01  0.1325481E-02  0.8423339E-01
4651482. -0.3003899E-01  0.2679373E-01 -0.1629121E-02  0.5830405E-01  0.8260324E-03  0.8989979E-01
4615000. -0.2969472E-01 -0.1441430E+00 -0.1891561E-02  0.3222608E-01  0.2995880E-03  0.9364433E-01
4578518. -0.2842969E-01 -0.2934149E+00 -0.1987632E-02  0.6340461E-03 -0.2426603E-03  0.9541442E-01
4542037. -0.2638962E-01 -0.4138804E+00 -0.1893703E-02 -0.3363343E-01 -0.7893353E-03  0.9519636E-01
4505556. -0.2375372E-01 -0.5009919E+00 -0.1603244E-02 -0.6748729E-01 -0.1329119E-02  0.9301540E-01
4469074. -0.2071935E-01 -0.5529774E+00 -0.1127496E-02 -0.9785082E-01 -0.1850965E-02  0.8894041E-01
4432593. -0.1748583E-01 -0.5710109E+00 -0.4945965E-03 -0.1219596E+00 -0.2344266E-02  0.8306925E-01
4396111. -0.1423764E-01 -0.5588927E+00  0.2529946E-03 -0.1375849E+00 -0.2799124E-02  0.7553339E-01
4359630. -0.1113150E-01 -0.5225855E+00  0.1061929E-02 -0.1432107E+00 -0.3206434E-02  0.6649494E-01
4323148. -0.8284323E-02 -0.4697945E+00  0.1872737E-02 -0.1381988E+00 -0.3558124E-02  0.5613542E-01
4286667. -0.5766508E-02 -0.4090125E+00  0.2624718E-02 -0.1227836E+00 -0.3847185E-02  0.4465884E-01
4250185. -0.3599000E-02 -0.3488251E+00  0.3261089E-02 -0.9806477E-01 -0.4067855E-02  0.3228325E-01
4213704. -0.1755150E-02 -0.2972089E+00  0.3733568E-02 -0.6591083E-01 -0.4215627E-02  0.1923774E-01
4177222. -0.1664156E-03 -0.2606356E+00  0.4006362E-02 -0.2876263E-01 -0.4287340E-02  0.5756654E-02
4140741.  0.1267380E-02 -0.2436900E+00  0.4058836E-02  0.1054871E-01 -0.4281177E-02 -0.7922776E-02
4104259.  0.2666357E-02 -0.2486118E+00  0.3887077E-02  0.4906283E-01 -0.4196669E-02 -0.2156810E-01
4067778.  0.4155682E-02 -0.2749905E+00  0.3503961E-02  0.8391775E-01 -0.4034671E-02 -0.3495283E-01
4031296.  0.5851538E-02 -0.3200789E+00  0.2937831E-02  0.1126012E+00 -0.3797283E-02 -0.4786251E-01
3994815.  0.7847540E-02 -0.3788241E+00  0.2230022E-02  0.1331299E+00 -0.3487822E-02 -0.6009752E-01
3958333.  0.1020294E-01 -0.4443361E+00  0.1431298E-02  0.1441937E+00 -0.3110654E-02 -0.7147893E-01
3921852.  0.1293406E-01 -0.5086887E+00  0.5977570E-03  0.1452791E+00 -0.2671159E-02 -0.8184613E-01
3885370.  0.1601017E-01 -0.5633846E+00 -0.2139005E-03  0.1366508E+00 -0.2175511E-02 -0.9106683E-01
3848889.  0.1935196E-01 -0.6002251E+00 -0.9505906E-03  0.1193344E+00 -0.1630625E-02 -0.9903321E-01
3812407.  0.2283636E-01 -0.6120896E+00 -0.1567189E-02  0.9502799E-01 -0.1043898E-02 -0.1056642E+00
3775926.  0.2630337E-01 -0.5934296E+00 -0.2029696E-02  0.6591774E-01 -0.4231628E-03 -0.1109115E+00
3739444.  0.2956777E-01 -0.5409509E+00 -0.2317743E-02  0.3452823E-01  0.2236131E-03 -0.1147515E+00
3702963.  0.3243231E-01 -0.4538869E+00 -0.2425829E-02  0.3500899E-02  0.8883314E-03 -0.1171886E+00
3666482.  0.3470314E-01 -0.3341234E+00 -0.2363384E-02 -0.2462863E-01  0.1563079E-02 -0.1182623E+00
3630000.  0.3620485E-01 -0.1861967E+00 -0.2153643E-02 -0.4760197E-01  0.2240212E-02 -0.1180269E+00
3630000.  0.3620485E-01 -0.1861967E+00 -0.2153643E-02 -0.4760197E-01  0.2240212E-02 -0.1180269E+00
3592500.  0.3679715E-01 -0.1206643E-01 -0.1821327E-02 -0.6396147E-01  0.2931077E-02 -0.1165136E+00
3555000.  0.3632154E-01  0.1749295E+00 -0.1417679E-02 -0.7168393E-01  0.3609515E-02 -0.1138250E+00
3517500.  0.3473407E-01  0.3638259E+00 -0.9955291E-03 -0.7022167E-01  0.4268982E-02 -0.1100918E+00
3480000.  0.3205771E-01  0.5429679E+00 -0.6086430E-03 -0.5980384E-01  0.4903784E-02 -0.1054713E+00
3480000.  0.3205771E-01  0.8193025E+00 -0.9072836E-03  0.6036729E-01  0.4903784E-02 -0.2082799E+00
3409422.  0.1996135E-01  0.1320360E+01 -0.1474288E-02  0.4007373E-01  0.6801777E-02 -0.1272147E+00
3338844.  0.3893658E-02  0.1528604E+01 -0.1761831E-02  0.1080516E-01  0.7603951E-02 -0.1424518E-01
3268266. -0.1277173E-01  0.1431572E+01 -0.1702183E-02 -0.2157134E-01  0.7089095E-02  0.1064058E+00
3197688. -0.2686434E-01  0.1075958E+01 -0.1295110E-02 -0.5094150E-01  0.5306519E-02  0.2109489E+00
3127109. -0.3597688E-01  0.5492926E+00 -0.6041722E-03 -0.7206655E-01  0.2545785E-02  0.2804097E+00
3056531. -0.3879541E-01 -0.4226476E-01  0.2578039E-03 -0.8140163E-01 -0.7339107E-03  0.3034903E+00
2985953. -0.3518492E-01 -0.5953869E+00  0.1150304E-02 -0.7752395E-01 -0.3996724E-02  0.2776628E+00
2915375. -0.2605836E-01 -0.1026507E+01  0.1929074E-02 -0.6115548E-01 -0.6725300E-02  0.2085809E+00
2844797. -0.1309300E-01 -0.1282383E+01  0.2468387E-02 -0.3484253E-01 -0.8502053E-02  0.1082108E+00
2774219.  0.1631963E-02 -0.1343758E+01  0.2678320E-02 -0.2394838E-02 -0.9064968E-02 -0.7798949E-02
2703641.  0.1600355E-01 -0.1222958E+01  0.2515039E-02  0.3179188E-01 -0.8332646E-02 -0.1229507E+00
2633062.  0.2818999E-01 -0.9569666E+00  0.1983484E-02  0.6341407E-01 -0.6399103E-02 -0.2224484E+00
2562484.  0.3686229E-01 -0.5979854E+00  0.1133066E-02  0.8883411E-01 -0.3503751E-02 -0.2951067E+00
2491906.  0.4130797E-01 -0.2033965E+00  0.4780203E-04  0.1054890E+00  0.1565397E-04 -0.3344523E+00
2421328.  0.4143652E-01  0.1732037E+00 -0.1166890E-02  0.1120973E+00  0.3777188E-02 -0.3389627E+00
2350750.  0.3769754E-01  0.4888127E+00 -0.2398622E-02  0.1086682E+00  0.7407504E-02 -0.3115755E+00
2280172.  0.3093836E-01  0.7150588E+00 -0.3541581E-02  0.9634104E-01  0.1058591E-01 -0.2586547E+00
2209594.  0.2223264E-01  0.8394461E+00 -0.4507579E-02  0.7710405E-01  0.1307512E-01 -0.1886581E+00
2139016.  0.1270911E-01  0.8641568E+00 -0.5233561E-02  0.5344702E-01  0.1473668E-01 -0.1107498E+00
2068438.  0.3404000E-02  0.8031044E+00 -0.5685175E-02  0.2800265E-01  0.1553172E-01 -0.3355550E-01
1997859. -0.4847275E-02  0.6779019E+00 -0.5856508E-02  0.3225792E-02  0.1550939E-01  0.3578851E-01
1927281. -0.1147179E-01  0.5137019E+00 -0.5766688E-02 -0.1885221E-01  0.1478676E-01  0.9221866E-01
1856703. -0.1617676E-01  0.3352797E+00 -0.5454199E-02 -0.3678710E-01  0.1352439E-01  0.1329605E+00
1786125. -0.1892768E-01  0.1641031E+00 -0.4969948E-02 -0.4978311E-01  0.1190130E-01  0.1574043E+00
1715547. -0.1990004E-01  0.1639373E-01 -0.4370128E-02 -0.5767241E-01  0.1009289E-01  0.1667388E+00
1644969. -0.1941604E-01 -0.9761915E-01 -0.3709672E-02 -0.6083279E-01  0.8253800E-02  0.1634309E+00
1574391. -0.1787895E-01 -0.1733966E+00 -0.3036859E-02 -0.6006460E-01  0.6506894E-02  0.1506546E+00
1503812. -0.1571581E-01 -0.2109248E+00 -0.2389354E-02 -0.5646383E-01  0.4938482E-02  0.1317445E+00
1433234. -0.1333728E-01 -0.2128134E+00 -0.1791521E-02 -0.5132921E-01  0.3599339E-02  0.1097226E+00
1362656. -0.1112240E-01 -0.1816231E+00 -0.1252297E-02 -0.4615265E-01  0.2510321E-02  0.8689047E-01
1292078. -0.9439660E-02 -0.1158497E+00 -0.7623637E-03 -0.4279063E-01  0.1672686E-02  0.6440796E-01
1221500. -0.8727489E-02 -0.2714722E-02 -0.2875301E-03 -0.4402246E-01  0.1084133E-02  0.4159158E-01
1221500. -0.8727489E-02 -0.2274701E+00 -0.7825465E-03  0.4143858E-01  0.1084133E-02  0.4537236E-01
1183328. -0.6779403E-02 -0.4171561E+00 -0.9979974E-03  0.2744615E-01  0.8386515E-03  0.3678558E-01
1145156. -0.3859499E-02 -0.5419275E+00 -0.1082613E-02 -0.8380962E-03  0.6408257E-03  0.2945182E-01
1106984. -0.5121175E-03 -0.5542695E+00 -0.9789366E-03 -0.3361320E-01  0.4834022E-03  0.2328275E-01
1068812.  0.2523591E-02 -0.4382544E+00 -0.6918711E-03 -0.6044305E-01  0.3597135E-03  0.1817200E-01
1030641.  0.4520687E-02 -0.2136801E+00 -0.2825606E-03 -0.7345976E-01  0.2637726E-03  0.1400066E-01
 992469.  0.4964276E-02  0.7038268E-01  0.1540352E-03 -0.6944977E-01  0.1903193E-03  0.1064373E-01
 954297.  0.3686434E-02  0.3499668E+00  0.5191462E-03 -0.5029868E-01  0.1348491E-03  0.7977641E-02
 916125.  0.9030203E-03  0.5638734E+00  0.7381057E-03 -0.2186792E-01  0.9357543E-04  0.5886318E-02
 877953. -0.2851865E-02  0.6692437E+00  0.7780477E-03  0.8153474E-02  0.6337380E-04  0.4265518E-02
 839781. -0.6867500E-02  0.6508688E+00  0.6516422E-03  0.3262713E-01  0.4170165E-04  0.3025389E-02
 801609. -0.1042975E-01  0.5223163E+00  0.4078138E-03  0.4682683E-01  0.2651091E-04  0.2090627E-02
 763438. -0.1297733E-01  0.3194821E+00  0.1141141E-03  0.4931669E-01  0.1616398E-04  0.1399284E-02
 725266. -0.1420350E-01  0.8926338E-01 -0.1629209E-03  0.4174979E-01  0.9359470E-05  0.9003680E-03
 687094. -0.1408391E-01 -0.1228772E+00 -0.3734795E-03  0.2784720E-01  0.5075719E-05  0.5514593E-03
 648922. -0.1283600E-01 -0.2830592E+00 -0.4927869E-03  0.1200648E-01  0.2522159E-05  0.3174609E-03
 610750. -0.1083050E-01 -0.3744747E+00 -0.5211610E-03 -0.1976028E-02  0.1102398E-05  0.1684472E-03
 572578. -0.8485848E-02 -0.3976361E+00 -0.4776731E-03 -0.1172472E-01  0.3838158E-06  0.7970459E-04
 534406. -0.6174818E-02 -0.3663356E+00 -0.3906572E-03 -0.1651352E-01  0.6712921E-07  0.3136482E-04
 496234. -0.4163433E-02 -0.3012832E+00 -0.2884670E-03 -0.1698214E-01 -0.4168771E-07  0.8127425E-05
 458062. -0.2589360E-02 -0.2236308E+00 -0.1929460E-03 -0.1455623E-01 -0.5802119E-07 -0.1005171E-05
 419891. -0.1474902E-02 -0.1501339E+00 -0.1166239E-03 -0.1082438E-01 -0.4318995E-07 -0.3208854E-05
 381719. -0.7615664E-03 -0.9080637E-01 -0.6324508E-04 -0.7070071E-02 -0.2473925E-07 -0.2720263E-05
 343547. -0.3513949E-03 -0.4902102E-01 -0.3039654E-04 -0.4051785E-02 -0.1165412E-07 -0.1641727E-05
 305375. -0.1419870E-03 -0.2325372E-01 -0.1270687E-04 -0.2015351E-02 -0.4558213E-08 -0.7874876E-06
 267203. -0.4880568E-04 -0.9461650E-02 -0.4492943E-05 -0.8517667E-03 -0.1454288E-08 -0.3045551E-06
 229031. -0.1366946E-04 -0.3182003E-02 -0.1288045E-05 -0.2953110E-03 -0.3638171E-09 -0.9267357E-07
 190859. -0.2916353E-05 -0.8338268E-03 -0.2800510E-06 -0.7928086E-04 -0.6656165E-10 -0.2098488E-07
 152688. -0.4231813E-06 -0.1540408E-03 -0.4125029E-07 -0.1492500E-04 -0.7869458E-11 -0.3173823E-08
 114516. -0.3374700E-07 -0.1660744E-04 -0.3327092E-08 -0.1631969E-05 -0.4751113E-12 -0.2597189E-09
  76344. -0.9162098E-09 -0.6829075E-06 -0.9104947E-10 -0.6776877E-07 -0.8614703E-14 -0.7140570E-11
  38172. -0.1835789E-11 -0.2752343E-08 -0.1832929E-12 -0.2747099E-09 -0.8586297E-17 -0.1429425E-13
      0.  0.0000000E+00  0.0000000E+00  0.0000000E+00  0.0000000E+00  0.0000000E+00  0.0000000E+00
