       5       34 S      350        118.31850          9.80653          6.28642        235.65340      185    7
6371000. -0.1398394E-01  0.1208277E+01  0.2559992E-02  0.1654393E-01 -0.9735580E-03  0.6044497E-01
6370000. -0.1417289E-01  0.1199263E+01  0.2557131E-02  0.1992007E-01 -0.9830180E-03  0.6009334E-01
6369000. -0.1436039E-01  0.1189717E+01  0.2553740E-02  0.2328989E-01 -0.9924226E-03  0.5974153E-01
6368000. -0.1454634E-01  0.1179640E+01  0.2549820E-02  0.2665261E-01 -0.1001772E-02  0.5938955E-01
6368000. -0.1454634E-01  0.1179640E+01  0.2549820E-02  0.2665261E-01 -0.1001772E-02  0.5938955E-01
6367000. -0.1473067E-01  0.1169035E+01  0.2545373E-02  0.3000743E-01 -0.1011066E-02  0.5903742E-01
6366000. -0.1491330E-01  0.1157902E+01  0.2540400E-02  0.3335354E-01 -0.1020305E-02  0.5868518E-01
6365000. -0.1509414E-01  0.1146244E+01  0.2534903E-02  0.3669015E-01 -0.1029489E-02  0.5833283E-01
6364000. -0.1527310E-01  0.1134063E+01  0.2528883E-02  0.4001648E-01 -0.1038617E-02  0.5798040E-01
6363000. -0.1545012E-01  0.1121359E+01  0.2522342E-02  0.4333173E-01 -0.1047690E-02  0.5762791E-01
6362000. -0.1562510E-01  0.1108137E+01  0.2515281E-02  0.4663512E-01 -0.1056708E-02  0.5727538E-01
6361000. -0.1579796E-01  0.1094398E+01  0.2507702E-02  0.4992586E-01 -0.1065670E-02  0.5692285E-01
6360000. -0.1596863E-01  0.1080145E+01  0.2499609E-02  0.5320317E-01 -0.1074577E-02  0.5657032E-01
6359000. -0.1613702E-01  0.1065380E+01  0.2491002E-02  0.5646628E-01 -0.1083429E-02  0.5621782E-01
6358000. -0.1630305E-01  0.1050105E+01  0.2481883E-02  0.5971440E-01 -0.1092225E-02  0.5586537E-01
6357000. -0.1646664E-01  0.1034325E+01  0.2472257E-02  0.6294678E-01 -0.1100966E-02  0.5551300E-01
6356000. -0.1662772E-01  0.1018042E+01  0.2462124E-02  0.6616265E-01 -0.1109652E-02  0.5516073E-01
6356000. -0.1662772E-01  0.9243010E+00  0.2462124E-02  0.4752064E-01 -0.1109652E-02  0.5877873E-01
6355000. -0.1677191E-01  0.9129986E+00  0.2454522E-02  0.4933924E-01 -0.1118843E-02  0.5833036E-01
6354000. -0.1691431E-01  0.9014168E+00  0.2446636E-02  0.5114952E-01 -0.1127963E-02  0.5788267E-01
6353000. -0.1705487E-01  0.8895571E+00  0.2438466E-02  0.5295123E-01 -0.1137014E-02  0.5743566E-01
6352000. -0.1719355E-01  0.8774210E+00  0.2430014E-02  0.5474409E-01 -0.1145994E-02  0.5698933E-01
6351000. -0.1733030E-01  0.8650103E+00  0.2421281E-02  0.5652783E-01 -0.1154904E-02  0.5654372E-01
6350000. -0.1746508E-01  0.8523265E+00  0.2412269E-02  0.5830222E-01 -0.1163744E-02  0.5609881E-01
6349000. -0.1759785E-01  0.8393713E+00  0.2402979E-02  0.6006698E-01 -0.1172515E-02  0.5565462E-01
6348000. -0.1772857E-01  0.8261464E+00  0.2393413E-02  0.6182184E-01 -0.1181215E-02  0.5521116E-01
6347000. -0.1785718E-01  0.8126537E+00  0.2383572E-02  0.6356657E-01 -0.1189847E-02  0.5476845E-01
6346600. -0.1790803E-01  0.8071821E+00  0.2379559E-02  0.6426156E-01 -0.1193280E-02  0.5459158E-01
6346600. -0.1790803E-01  0.1037679E+01  0.2379559E-02  0.5000159E-01 -0.1193280E-02  0.6083585E-01
6318800. -0.2173401E-01  0.6941790E+00  0.2101451E-02  0.7651128E-01 -0.1431132E-02  0.4833085E-01
6291000. -0.2379761E-01  0.2352042E+00  0.1721679E-02  0.9627741E-01 -0.1616283E-02  0.3666296E-01
6291000. -0.2379761E-01  0.2534112E+00  0.1721679E-02  0.9868768E-01 -0.1616283E-02  0.3666296E-01
6263000. -0.2370439E-01 -0.3060337E+00  0.1257366E-02  0.1109792E+00 -0.1753376E-02  0.2583600E-01
6235000. -0.2105677E-01 -0.8999684E+00  0.7610588E-03  0.1131532E+00 -0.1844304E-02  0.1564289E-01
6207000. -0.1582569E-01 -0.1472130E+01  0.2777599E-03  0.1051263E+00 -0.1891717E-02  0.6026691E-02
6179000. -0.8232023E-02 -0.1965948E+01 -0.1492776E-03  0.8777345E-01 -0.1898087E-02 -0.3035708E-02
6151000.  0.1264002E-02 -0.2329973E+01 -0.4826359E-03  0.6285627E-01 -0.1865871E-02 -0.1152546E-01
6151000.  0.1264002E-02 -0.1926063E+01 -0.4826359E-03  0.5502966E-01 -0.1865871E-02 -0.1159539E-01
6128500.  0.8292182E-02 -0.2039304E+01 -0.6421845E-03  0.3508148E-01 -0.1819315E-02 -0.1466886E-01
6106000.  0.1556021E-01 -0.2061276E+01 -0.7293801E-03  0.1424431E-01 -0.1762970E-02 -0.1714047E-01
6083500.  0.2274198E-01 -0.1990623E+01 -0.7430721E-03 -0.6361106E-02 -0.1698946E-02 -0.1901898E-01
6061000.  0.2951491E-01 -0.1830682E+01 -0.6859762E-03 -0.2567466E-01 -0.1629318E-02 -0.2031644E-01
6038500.  0.3557611E-01 -0.1589185E+01 -0.5643714E-03 -0.4274655E-01 -0.1556115E-02 -0.2104654E-01
6016000.  0.4065701E-01 -0.1277731E+01 -0.3876326E-03 -0.5677905E-01 -0.1481313E-02 -0.2122377E-01
5993500.  0.4453581E-01 -0.9110987E+00 -0.1676367E-03 -0.6715758E-01 -0.1406839E-02 -0.2086294E-01
5971000.  0.4704741E-01 -0.5064603E+00  0.8192445E-04 -0.7347119E-01 -0.1334572E-02 -0.1997566E-01
5971000.  0.4704741E-01 -0.4580301E+00  0.8192445E-04 -0.7089775E-01 -0.1334572E-02 -0.2613457E-01
5937667.  0.4788359E-01  0.1357048E+00  0.4581530E-03 -0.7160486E-01 -0.1201691E-02 -0.2454175E-01
5904333.  0.4569727E-01  0.6896637E+00  0.8186948E-03 -0.6515266E-01 -0.1078773E-02 -0.2236939E-01
5871000.  0.4080692E-01  0.1163678E+01  0.1130394E-02 -0.5324432E-01 -0.9681903E-03 -0.1986551E-01
5837667.  0.3370899E-01  0.1529953E+01  0.1369596E-02 -0.3775287E-01 -0.8711278E-03 -0.1722984E-01
5804333.  0.2501228E-01  0.1773167E+01  0.1522376E-02 -0.2049579E-01 -0.7878734E-03 -0.1460519E-01
5771000.  0.1537610E-01  0.1889383E+01  0.1583802E-02 -0.3076414E-02 -0.7181270E-03 -0.1207633E-01
5771000.  0.1537610E-01  0.1889503E+01  0.1583802E-02 -0.3076811E-02 -0.7181270E-03 -0.1207633E-01
5701000. -0.5438012E-02  0.1810799E+01  0.1418057E-02  0.3265887E-01 -0.6202550E-03 -0.5525174E-02
5701000. -0.5438012E-02  0.1584295E+01  0.1418057E-02  0.2742639E-01 -0.6202550E-03 -0.3992394E-02
5667333. -0.1317356E-01  0.1353658E+01  0.1258814E-02  0.3252717E-01 -0.5968568E-03 -0.4993217E-02
5633667. -0.1982108E-01  0.1161097E+01  0.1075314E-02  0.3683928E-01 -0.5675587E-03 -0.6013798E-02
5600000. -0.2537178E-01  0.9338378E+00  0.8716700E-03  0.3999138E-01 -0.5339457E-03 -0.6666622E-02
5600000. -0.2537178E-01  0.9338378E+00  0.8716700E-03  0.3999138E-01 -0.5339457E-03 -0.6666622E-02
5563518. -0.2994432E-01  0.6593206E+00  0.6365624E-03  0.4185706E-01 -0.4943993E-03 -0.7104876E-02
5527037. -0.3288962E-01  0.3676011E+00  0.3953419E-03  0.4213627E-01 -0.4529791E-03 -0.7332086E-02
5490556. -0.3414480E-01  0.7100193E-01  0.1568826E-03  0.4091248E-01 -0.4107304E-03 -0.7401407E-02
5454074. -0.3371574E-01 -0.2188035E+00 -0.7061676E-04  0.3833587E-01 -0.3684479E-03 -0.7349180E-02
5417593. -0.3167217E-01 -0.4912877E+00 -0.2799557E-03  0.3460865E-01 -0.3267349E-03 -0.7207066E-02
5381111. -0.2813974E-01 -0.7374372E+00 -0.4652219E-03  0.2996754E-01 -0.2860491E-03 -0.6992239E-02
5344630. -0.2329113E-01 -0.9499994E+00 -0.6219011E-03  0.2466901E-01 -0.2467705E-03 -0.6718372E-02
5308148. -0.1733437E-01 -0.1123707E+01 -0.7469809E-03  0.1897218E-01 -0.2091955E-03 -0.6398202E-02
5271667. -0.1050308E-01 -0.1255114E+01 -0.8388998E-03  0.1312842E-01 -0.1735754E-03 -0.6037023E-02
5235185. -0.3044023E-02 -0.1342823E+01 -0.8974953E-03  0.7368810E-02 -0.1401203E-03 -0.5643035E-02
5198704.  0.4792322E-02 -0.1387141E+01 -0.9238404E-03  0.1895459E-02 -0.1089994E-03 -0.5223110E-02
5162222.  0.1276227E-01 -0.1389840E+01 -0.9200725E-03 -0.3123710E-02 -0.8034123E-04 -0.4783552E-02
5125741.  0.2063588E-01 -0.1354209E+01 -0.8891920E-03 -0.7555731E-02 -0.5424528E-04 -0.4329382E-02
5089259.  0.2820579E-01 -0.1284456E+01 -0.8348392E-03 -0.1130955E-01 -0.3077363E-04 -0.3868185E-02
5052778.  0.3529009E-01 -0.1185557E+01 -0.7610731E-03 -0.1433050E-01 -0.9944330E-05 -0.3407487E-02
5016296.  0.4173799E-01 -0.1063053E+01 -0.6721649E-03 -0.1659690E-01  0.8256434E-05 -0.2950875E-02
4979815.  0.4743022E-01 -0.9226331E+00 -0.5724168E-03 -0.1812198E-01  0.2387489E-04 -0.2507159E-02
4943333.  0.5228087E-01 -0.7699949E+00 -0.4659716E-03 -0.1894275E-01  0.3700377E-04 -0.2081381E-02
4906852.  0.5623561E-01 -0.6106411E+00 -0.3567155E-03 -0.1911645E-01  0.4774716E-04 -0.1675301E-02
4870370.  0.5927087E-01 -0.4496111E+00 -0.2481274E-03 -0.1872210E-01  0.5624952E-04 -0.1299499E-02
4833889.  0.6139023E-01 -0.2914719E+00 -0.1432320E-03 -0.1784176E-01  0.6268264E-04 -0.9519783E-03
4797407.  0.6262190E-01 -0.1401444E+00 -0.4455398E-04 -0.1656583E-01  0.6720770E-04 -0.6345805E-03
4760926.  0.6301443E-01  0.1133529E-02  0.4592153E-04 -0.1499292E-01  0.7002873E-04 -0.3567461E-03
4724444.  0.6263294E-01  0.1298380E+00  0.1267400E-03 -0.1320589E-01  0.7134954E-04 -0.1097299E-03
4687963.  0.6155509E-01  0.2441096E+00  0.1969184E-03 -0.1129175E-01  0.7135300E-04  0.1021904E-03
4651482.  0.5986719E-01  0.3427770E+00  0.2559655E-03 -0.9329376E-02  0.7025103E-04  0.2773051E-03
4615000.  0.5766036E-01  0.4252917E+00  0.3037860E-03 -0.7380173E-02  0.6823106E-04  0.4232182E-03
4578518.  0.5502753E-01  0.4916073E+00  0.3406294E-03 -0.5504513E-02  0.6546748E-04  0.5366080E-03
4542037.  0.5206043E-01  0.5421819E+00  0.3670519E-03 -0.3746404E-02  0.6214181E-04  0.6209931E-03
4505556.  0.4884686E-01  0.5778547E+00  0.3838158E-03 -0.2136283E-02  0.5839646E-04  0.6830360E-03
4469074.  0.4546906E-01  0.5997236E+00  0.3918600E-03 -0.7041444E-03  0.5437334E-04  0.7181778E-03
4432593.  0.4200237E-01  0.6091766E+00  0.3922379E-03  0.5406140E-03  0.5020589E-04  0.7349247E-03
4396111.  0.3851348E-01  0.6076961E+00  0.3860371E-03  0.1592415E-02  0.4598602E-04  0.7360603E-03
4359630.  0.3506080E-01  0.5968301E+00  0.3743781E-03  0.2448016E-02  0.4181132E-04  0.7197753E-03
4323148.  0.3169322E-01  0.5782040E+00  0.3583521E-03  0.3119653E-02  0.3776120E-04  0.6933652E-03
4286667.  0.2845095E-01  0.5533476E+00  0.3389842E-03  0.3617123E-02  0.3388933E-04  0.6573844E-03
4250185.  0.2536522E-01  0.5237361E+00  0.3172345E-03  0.3954422E-02  0.3024980E-04  0.6127770E-03
4213704.  0.2245938E-01  0.4907619E+00  0.2939635E-03  0.4151733E-02  0.2687972E-04  0.5635811E-03
4177222.  0.1974898E-01  0.4556435E+00  0.2699252E-03  0.4225011E-02  0.2380627E-04  0.5090362E-03
4140741.  0.1724318E-01  0.4195001E+00  0.2457767E-03  0.4194028E-02  0.2105785E-04  0.4505994E-03
4104259.  0.1494487E-01  0.3832895E+00  0.2220542E-03  0.4078731E-02  0.1864871E-04  0.3902976E-03
4067778.  0.1285227E-01  0.3477993E+00  0.1991992E-03  0.3893977E-02  0.1659793E-04  0.3253138E-03
4031296.  0.1095909E-01  0.3137169E+00  0.1775564E-03  0.3658125E-02  0.1492889E-04  0.2571379E-03
3994815.  0.9255793E-02  0.2815688E+00  0.1573740E-03  0.3386123E-02  0.1366136E-04  0.1845515E-03
3958333.  0.7730042E-02  0.2517502E+00  0.1388247E-03  0.3089624E-02  0.1283069E-04  0.1042003E-03
3921852.  0.6367619E-02  0.2245777E+00  0.1220116E-03  0.2781896E-02  0.1248527E-04  0.1462449E-04
3885370.  0.5152707E-02  0.2002396E+00  0.1069680E-03  0.2472943E-02  0.1268955E-04 -0.8869891E-04
3848889.  0.4068797E-02  0.1788455E+00  0.9367536E-04  0.2172156E-02  0.1353796E-04 -0.2113134E-03
3812407.  0.3098837E-02  0.1604259E+00  0.8205647E-04  0.1889855E-02  0.1515887E-04 -0.3598772E-03
3775926.  0.2226009E-02  0.1449095E+00  0.7197813E-04  0.1636023E-02  0.1772777E-04 -0.5442760E-03
3739444.  0.1434055E-02  0.1321345E+00  0.6324114E-04  0.1423816E-02  0.2148361E-04 -0.7766972E-03
3702963.  0.7080916E-03  0.1218023E+00  0.5555902E-04  0.1271106E-02  0.2674450E-04 -0.1073054E-02
3666482.  0.3545330E-04  0.1134045E+00  0.4852344E-04  0.1203128E-02  0.3393412E-04 -0.1454262E-02
3630000. -0.5928477E-03  0.1061433E+00  0.4154641E-04  0.1258420E-02  0.4361135E-04 -0.1946796E-02
3630000. -0.5928477E-03  0.1061433E+00  0.4154641E-04  0.1258420E-02  0.4361135E-04 -0.1946796E-02
3592500. -0.1195651E-02  0.9850011E-01  0.3352652E-04  0.1505582E-02  0.5692020E-04 -0.2604359E-02
3555000. -0.1747742E-02  0.8844335E-01  0.2325562E-04  0.2043534E-02  0.7465882E-04 -0.3460385E-02
3517500. -0.2225111E-02  0.7235238E-01  0.8603785E-05  0.3025750E-02  0.9815412E-04 -0.4570476E-02
3480000. -0.2576383E-02  0.4437610E-01 -0.1369658E-04  0.4691631E-02  0.1290878E-03 -0.5999316E-02
3480000. -0.2576383E-02 -0.1131091E+00 -0.9853273E-04 -0.4534610E-02  0.1290878E-03  0.2263105E-02
3409422. -0.1564114E-02 -0.7224344E-01 -0.5850866E-04 -0.2812753E-02  0.9800633E-04  0.3018553E-02
3338844. -0.9260961E-03 -0.4484598E-01 -0.3396419E-04 -0.1702063E-02  0.6650953E-04  0.2570380E-02
3268266. -0.5350109E-03 -0.2708814E-01 -0.1927610E-04 -0.1005270E-02  0.4197856E-04  0.1854214E-02
3197688. -0.3016448E-03 -0.1593369E-01 -0.1069539E-04 -0.5796643E-03  0.2510386E-04  0.1217705E-02
3127109. -0.1659920E-03 -0.9131892E-02 -0.5800739E-05 -0.3263662E-03  0.1436632E-04  0.7495171E-03
3056531. -0.8914850E-04 -0.5100886E-02 -0.3074489E-05 -0.1794165E-03  0.7913436E-05  0.4386882E-03
2985953. -0.4671803E-04 -0.2777194E-02 -0.1591852E-05 -0.9628764E-04  0.4210347E-05  0.2461169E-03
2915375. -0.2388113E-04 -0.1473689E-02 -0.8047671E-06 -0.5043131E-04  0.2168345E-05  0.1329802E-03
2844797. -0.1190223E-04 -0.7619705E-03 -0.3970350E-06 -0.2576736E-04  0.1082267E-05  0.6939477E-04
2774219. -0.5780372E-05 -0.3837360E-03 -0.1910238E-06 -0.1283651E-04  0.5238487E-06  0.3503386E-04
2703641. -0.2733614E-05 -0.1881294E-03 -0.8955897E-07 -0.6230826E-05  0.2459330E-06  0.1712617E-04
2633062. -0.1257809E-05 -0.8972512E-04 -0.4087944E-07 -0.2944592E-05  0.1119653E-06  0.8109360E-05
2562484. -0.5625879E-06 -0.4159700E-04 -0.1814889E-07 -0.1353648E-05  0.4940955E-07  0.3719133E-05
2491906. -0.2443402E-06 -0.1872758E-04 -0.7828012E-08 -0.6046953E-06  0.2111939E-07  0.1651354E-05
2421328. -0.1029208E-06 -0.8178929E-05 -0.3276148E-08 -0.2621873E-06  0.8735377E-08  0.7093729E-06
2350750. -0.4198800E-07 -0.3460678E-05 -0.1328551E-08 -0.1101954E-06  0.3492245E-08  0.2945274E-06
2280172. -0.1656531E-07 -0.1416638E-05 -0.5212171E-09 -0.4482845E-07  0.1347565E-08  0.1180507E-06
2209594. -0.6309395E-08 -0.5601366E-06 -0.1974840E-09 -0.1762256E-07  0.5010945E-09  0.4561137E-07
2139016. -0.2315607E-08 -0.2135430E-06 -0.7212415E-10 -0.6682081E-08  0.1792324E-09  0.1695913E-07
2068438. -0.8171662E-09 -0.7833517E-07 -0.2533577E-10 -0.2438888E-08  0.6153672E-10  0.6056349E-08
1997859. -0.2766236E-09 -0.2758791E-07 -0.8539777E-11 -0.8548856E-09  0.2023212E-10  0.2072624E-08
1927281. -0.8959101E-10 -0.9304253E-08 -0.2754691E-11 -0.2870510E-09  0.6353233E-11  0.6780244E-09
1856703. -0.2767838E-10 -0.2996403E-08 -0.8478314E-12 -0.9206417E-10  0.1899695E-11  0.2114129E-09
1786125. -0.8129621E-11 -0.9185007E-09 -0.2481422E-12 -0.2811260E-10  0.5390576E-12  0.6262778E-10
1715547. -0.2261695E-11 -0.2670122E-09 -0.6880098E-13 -0.8143703E-11  0.1446005E-12  0.1756164E-10
1644969. -0.5937484E-12 -0.7327168E-10 -0.1798575E-13 -0.2229949E-11  0.3648863E-13  0.4644663E-11
1574391.  0.0000000E+00  0.0000000E+00  0.0000000E+00  0.0000000E+00  0.0000000E+00  0.0000000E+00
1503812.  0.0000000E+00  0.0000000E+00  0.0000000E+00  0.0000000E+00  0.0000000E+00  0.0000000E+00
1433234.  0.0000000E+00  0.0000000E+00  0.0000000E+00  0.0000000E+00  0.0000000E+00  0.0000000E+00
1362656.  0.0000000E+00  0.0000000E+00  0.0000000E+00  0.0000000E+00  0.0000000E+00  0.0000000E+00
1292078.  0.0000000E+00  0.0000000E+00  0.0000000E+00  0.0000000E+00  0.0000000E+00  0.0000000E+00
1221500.  0.0000000E+00  0.0000000E+00  0.0000000E+00  0.0000000E+00  0.0000000E+00  0.0000000E+00
1221500.  0.0000000E+00  0.0000000E+00  0.0000000E+00  0.0000000E+00  0.0000000E+00  0.0000000E+00
1183328.  0.0000000E+00  0.0000000E+00  0.0000000E+00  0.0000000E+00  0.0000000E+00  0.0000000E+00
1145156.  0.0000000E+00  0.0000000E+00  0.0000000E+00  0.0000000E+00  0.0000000E+00  0.0000000E+00
1106984.  0.0000000E+00  0.0000000E+00  0.0000000E+00  0.0000000E+00  0.0000000E+00  0.0000000E+00
1068812.  0.0000000E+00  0.0000000E+00  0.0000000E+00  0.0000000E+00  0.0000000E+00  0.0000000E+00
1030641.  0.0000000E+00  0.0000000E+00  0.0000000E+00  0.0000000E+00  0.0000000E+00  0.0000000E+00
 992469.  0.0000000E+00  0.0000000E+00  0.0000000E+00  0.0000000E+00  0.0000000E+00  0.0000000E+00
 954297.  0.0000000E+00  0.0000000E+00  0.0000000E+00  0.0000000E+00  0.0000000E+00  0.0000000E+00
 916125.  0.0000000E+00  0.0000000E+00  0.0000000E+00  0.0000000E+00  0.0000000E+00  0.0000000E+00
 877953.  0.0000000E+00  0.0000000E+00  0.0000000E+00  0.0000000E+00  0.0000000E+00  0.0000000E+00
 839781.  0.0000000E+00  0.0000000E+00  0.0000000E+00  0.0000000E+00  0.0000000E+00  0.0000000E+00
 801609.  0.0000000E+00  0.0000000E+00  0.0000000E+00  0.0000000E+00  0.0000000E+00  0.0000000E+00
 763438.  0.0000000E+00  0.0000000E+00  0.0000000E+00  0.0000000E+00  0.0000000E+00  0.0000000E+00
 725266.  0.0000000E+00  0.0000000E+00  0.0000000E+00  0.0000000E+00  0.0000000E+00  0.0000000E+00
 687094.  0.0000000E+00  0.0000000E+00  0.0000000E+00  0.0000000E+00  0.0000000E+00  0.0000000E+00
 648922.  0.0000000E+00  0.0000000E+00  0.0000000E+00  0.0000000E+00  0.0000000E+00  0.0000000E+00
 610750.  0.0000000E+00  0.0000000E+00  0.0000000E+00  0.0000000E+00  0.0000000E+00  0.0000000E+00
 572578.  0.0000000E+00  0.0000000E+00  0.0000000E+00  0.0000000E+00  0.0000000E+00  0.0000000E+00
 534406.  0.0000000E+00  0.0000000E+00  0.0000000E+00  0.0000000E+00  0.0000000E+00  0.0000000E+00
 496234.  0.0000000E+00  0.0000000E+00  0.0000000E+00  0.0000000E+00  0.0000000E+00  0.0000000E+00
 458062.  0.0000000E+00  0.0000000E+00  0.0000000E+00  0.0000000E+00  0.0000000E+00  0.0000000E+00
 419891.  0.0000000E+00  0.0000000E+00  0.0000000E+00  0.0000000E+00  0.0000000E+00  0.0000000E+00
 381719.  0.0000000E+00  0.0000000E+00  0.0000000E+00  0.0000000E+00  0.0000000E+00  0.0000000E+00
 343547.  0.0000000E+00  0.0000000E+00  0.0000000E+00  0.0000000E+00  0.0000000E+00  0.0000000E+00
 305375.  0.0000000E+00  0.0000000E+00  0.0000000E+00  0.0000000E+00  0.0000000E+00  0.0000000E+00
 267203.  0.0000000E+00  0.0000000E+00  0.0000000E+00  0.0000000E+00  0.0000000E+00  0.0000000E+00
 229031.  0.0000000E+00  0.0000000E+00  0.0000000E+00  0.0000000E+00  0.0000000E+00  0.0000000E+00
 190859.  0.0000000E+00  0.0000000E+00  0.0000000E+00  0.0000000E+00  0.0000000E+00  0.0000000E+00
 152688.  0.0000000E+00  0.0000000E+00  0.0000000E+00  0.0000000E+00  0.0000000E+00  0.0000000E+00
 114516.  0.0000000E+00  0.0000000E+00  0.0000000E+00  0.0000000E+00  0.0000000E+00  0.0000000E+00
  76344.  0.0000000E+00  0.0000000E+00  0.0000000E+00  0.0000000E+00  0.0000000E+00  0.0000000E+00
  38172.  0.0000000E+00  0.0000000E+00  0.0000000E+00  0.0000000E+00  0.0000000E+00  0.0000000E+00
      0.  0.0000000E+00  0.0000000E+00  0.0000000E+00  0.0000000E+00  0.0000000E+00  0.0000000E+00
