       2       30 S      194        160.32829          8.18611          6.36499        182.14160      185    7
6371000. -0.5427920E-01 -0.1601729E+01 -0.4497656E-02  0.4978155E-01  0.4106184E-02 -0.2493384E-01
6370000. -0.5402634E-01 -0.1620200E+01 -0.4505255E-02  0.4705050E-01  0.4110089E-02 -0.2481109E-01
6369000. -0.5377060E-01 -0.1638335E+01 -0.4512426E-02  0.4430905E-01  0.4113974E-02 -0.2469211E-01
6368000. -0.5351205E-01 -0.1656132E+01 -0.4519165E-02  0.4155755E-01  0.4117840E-02 -0.2457690E-01
6368000. -0.5351205E-01 -0.1656132E+01 -0.4519165E-02  0.4155755E-01  0.4117840E-02 -0.2457690E-01
6367000. -0.5325072E-01 -0.1673590E+01 -0.4525471E-02  0.3879629E-01  0.4121689E-02 -0.2446549E-01
6366000. -0.5298669E-01 -0.1690706E+01 -0.4531343E-02  0.3602562E-01  0.4125521E-02 -0.2435789E-01
6365000. -0.5271999E-01 -0.1707478E+01 -0.4536780E-02  0.3324587E-01  0.4129336E-02 -0.2425412E-01
6364000. -0.5245069E-01 -0.1723905E+01 -0.4541779E-02  0.3045736E-01  0.4133135E-02 -0.2415418E-01
6363000. -0.5217884E-01 -0.1739986E+01 -0.4546341E-02  0.2766042E-01  0.4136919E-02 -0.2405811E-01
6362000. -0.5190449E-01 -0.1755719E+01 -0.4550462E-02  0.2485539E-01  0.4140687E-02 -0.2396590E-01
6361000. -0.5162770E-01 -0.1771101E+01 -0.4554143E-02  0.2204261E-01  0.4144442E-02 -0.2387759E-01
6360000. -0.5134851E-01 -0.1786132E+01 -0.4557381E-02  0.1922240E-01  0.4148183E-02 -0.2379317E-01
6359000. -0.5106701E-01 -0.1800810E+01 -0.4560177E-02  0.1639511E-01  0.4151911E-02 -0.2371268E-01
6358000. -0.5078322E-01 -0.1815134E+01 -0.4562528E-02  0.1356106E-01  0.4155627E-02 -0.2363612E-01
6357000. -0.5049722E-01 -0.1829102E+01 -0.4564433E-02  0.1072060E-01  0.4159331E-02 -0.2356351E-01
6356000. -0.5020904E-01 -0.1842713E+01 -0.4565893E-02  0.7874073E-02  0.4163024E-02 -0.2349487E-01
6356000. -0.5020904E-01 -0.1566302E+01 -0.4565893E-02  0.2288860E-01  0.4163024E-02 -0.1256996E-01
6355000. -0.4996234E-01 -0.1577185E+01 -0.4569374E-02  0.2145982E-01  0.4164979E-02 -0.1233090E-01
6354000. -0.4971394E-01 -0.1587890E+01 -0.4572629E-02  0.2002706E-01  0.4166896E-02 -0.1209438E-01
6353000. -0.4946387E-01 -0.1598417E+01 -0.4575660E-02  0.1859044E-01  0.4168776E-02 -0.1186042E-01
6352000. -0.4921217E-01 -0.1608763E+01 -0.4578465E-02  0.1715005E-01  0.4170619E-02 -0.1162901E-01
6351000. -0.4895886E-01 -0.1618929E+01 -0.4581044E-02  0.1570600E-01  0.4172427E-02 -0.1140017E-01
6350000. -0.4870396E-01 -0.1628914E+01 -0.4583395E-02  0.1425839E-01  0.4174198E-02 -0.1117389E-01
6349000. -0.4844751E-01 -0.1638717E+01 -0.4585520E-02  0.1280732E-01  0.4175934E-02 -0.1095018E-01
6348000. -0.4818954E-01 -0.1648337E+01 -0.4587416E-02  0.1135289E-01  0.4177636E-02 -0.1072905E-01
6347000. -0.4793007E-01 -0.1657775E+01 -0.4589084E-02  0.9895211E-02  0.4179303E-02 -0.1051050E-01
6346600. -0.4782587E-01 -0.1661498E+01 -0.4589686E-02  0.9311253E-02  0.4179960E-02 -0.1042380E-01
6346600. -0.4782587E-01 -0.1810271E+01 -0.4589686E-02  0.2038606E-01  0.4179960E-02  0.6252382E-02
6318800. -0.3947285E-01 -0.2005359E+01 -0.4636450E-02  0.7519324E-03  0.4135411E-02  0.1397579E-01
6291000. -0.3044502E-01 -0.2118083E+01 -0.4594261E-02 -0.2024577E-01  0.4059558E-02  0.2062295E-01
6291000. -0.3044502E-01 -0.2180952E+01 -0.4594261E-02 -0.2193985E-01  0.4059558E-02  0.2062295E-01
6263000. -0.2078756E-01 -0.2196821E+01 -0.4445222E-02 -0.4587482E-01  0.3957502E-02  0.2566259E-01
6235000. -0.1128756E-01 -0.2109087E+01 -0.4191903E-02 -0.6921446E-01  0.3835281E-02  0.2981915E-01
6207000. -0.2399454E-02 -0.1918948E+01 -0.3839283E-02 -0.9088796E-01  0.3696512E-02  0.3321408E-01
6179000.  0.5438210E-02 -0.1632460E+01 -0.3396946E-02 -0.1098803E+00  0.3544274E-02  0.3596830E-01
6151000.  0.1182406E-01 -0.1260441E+01 -0.2878725E-02 -0.1252805E+00  0.3381122E-02  0.3819954E-01
6151000.  0.1182406E-01 -0.1237313E+01 -0.2878725E-02 -0.1118510E+00  0.3381122E-02  0.3754537E-01
6128500.  0.1569340E-01 -0.9505059E+00 -0.2474797E-02 -0.1165075E+00  0.3245234E-02  0.3935429E-01
6106000.  0.1851671E-01 -0.6462051E+00 -0.2058570E-02 -0.1188160E+00  0.3103520E-02  0.4085125E-01
6083500.  0.2024600E-01 -0.3322294E+00 -0.1638308E-02 -0.1188009E+00  0.2957019E-02  0.4206957E-01
6061000.  0.2086082E-01 -0.1632161E-01 -0.1222095E-02 -0.1165410E+00  0.2806663E-02  0.4303956E-01
6038500.  0.2036768E-01  0.2940265E+00 -0.8176421E-03 -0.1121658E+00  0.2653278E-02  0.4379000E-01
6016000.  0.1879886E-01  0.5917317E+00 -0.4321270E-03 -0.1058484E+00  0.2497590E-02  0.4434810E-01
5993500.  0.1621071E-01  0.8702727E+00 -0.7204887E-04 -0.9779810E-01  0.2340232E-02  0.4473972E-01
5971000.  0.1268141E-01  0.1123819E+01  0.2568876E-03 -0.8825447E-01  0.2181747E-02  0.4499074E-01
5971000.  0.1268141E-01  0.1023897E+01  0.2568876E-03 -0.7999223E-01  0.2181747E-02  0.4333063E-01
5937667.  0.6622391E-02  0.1280077E+01  0.6340466E-03 -0.6408860E-01  0.1957417E-02  0.4233985E-01
5904333. -0.5858109E-03  0.1463080E+01  0.9273476E-03 -0.4808090E-01  0.1739537E-02  0.4086797E-01
5871000. -0.8563113E-02  0.1574767E+01  0.1138365E-02 -0.3275042E-01  0.1530536E-02  0.3895623E-01
5837667. -0.1694883E-01  0.1620275E+01  0.1272236E-02 -0.1866927E-01  0.1332577E-02  0.3665618E-01
5804333. -0.2541558E-01  0.1607016E+01  0.1336570E-02 -0.6216624E-02  0.1147534E-02  0.3402710E-01
5771000. -0.3367790E-01  0.1543764E+01  0.1340501E-02  0.4397731E-02  0.9769718E-03  0.3113419E-01
5771000. -0.3367790E-01  0.1543852E+01  0.1340501E-02  0.4398849E-02  0.9769718E-03  0.3113419E-01
5701000. -0.4970720E-01  0.1346761E+01  0.1203277E-02  0.1971360E-01  0.6788361E-03  0.2314877E-01
5701000. -0.4970720E-01  0.1175604E+01  0.1203277E-02  0.2751850E-01  0.6788361E-03  0.3715944E-01
5667333. -0.5535490E-01  0.9742936E+00  0.1046640E-02  0.3088106E-01  0.5007043E-03  0.3037035E-01
5633667. -0.6010808E-01  0.8283672E+00  0.8841097E-03  0.3033002E-01  0.3555295E-03  0.2479628E-01
5600000. -0.6410254E-01  0.6830416E+00  0.7260536E-03  0.2948357E-01  0.2371117E-03  0.2014401E-01
5600000. -0.6410254E-01  0.6830416E+00  0.7260536E-03  0.2948357E-01  0.2371117E-03  0.2014401E-01
5563518. -0.6756863E-01  0.5282669E+00  0.5607966E-03  0.2817414E-01  0.1341677E-03  0.1594413E-01
5527037. -0.7016250E-01  0.3788028E+00  0.4040354E-03  0.2652860E-01  0.5312234E-04  0.1247410E-01
5490556. -0.7192081E-01  0.2367393E+00  0.2575004E-03  0.2461407E-01 -0.9851447E-05  0.9614795E-02
5454074. -0.7289106E-01  0.1037914E+00  0.1225252E-03  0.2250014E-01 -0.5797363E-04  0.7270404E-02
5417593. -0.7312947E-01 -0.1867852E-01  0.9443060E-07  0.2024368E-01 -0.9391702E-04  0.5348067E-02
5381111. -0.7269906E-01 -0.1296690E+00 -0.1091626E-03  0.1790812E-01 -0.1199029E-03  0.3782687E-02
5344630. -0.7166765E-01 -0.2285211E+00 -0.2049504E-03  0.1554795E-01 -0.1378089E-03  0.2516076E-02
5308148. -0.7010577E-01 -0.3149066E+00 -0.2872586E-03  0.1320722E-01 -0.1491782E-03  0.1492556E-02
5271667. -0.6808527E-01 -0.3887337E+00 -0.3563386E-03  0.1093528E-01 -0.1553099E-03  0.6811212E-03
5235185. -0.6567744E-01 -0.4502257E+00 -0.4126818E-03  0.8762095E-02 -0.1573030E-03  0.4028434E-04
5198704. -0.6295197E-01 -0.4997811E+00 -0.4569258E-03  0.6715211E-02 -0.1560374E-03 -0.4601108E-03
5162222. -0.5997558E-01 -0.5379498E+00 -0.4898880E-03  0.4824348E-02 -0.1522756E-03 -0.8354259E-03
5125741. -0.5681149E-01 -0.5655061E+00 -0.5124887E-03  0.3097717E-02 -0.1466495E-03 -0.1115410E-02
5089259. -0.5351798E-01 -0.5832627E+00 -0.5257013E-03  0.1547386E-02 -0.1396564E-03 -0.1314419E-02
5052778. -0.5014884E-01 -0.5921164E+00 -0.5305636E-03  0.1812438E-03 -0.1317294E-03 -0.1444381E-02
5016296. -0.4675202E-01 -0.5930544E+00 -0.5281196E-03 -0.1005015E-02 -0.1232127E-03 -0.1522379E-02
4979815. -0.4337034E-01 -0.5870252E+00 -0.5193985E-03 -0.2011544E-02 -0.1143807E-03 -0.1555647E-02
4943333. -0.4004069E-01 -0.5750124E+00 -0.5054121E-03 -0.2845975E-02 -0.1054652E-03 -0.1553464E-02
4906852. -0.3679473E-01 -0.5579784E+00 -0.4871108E-03 -0.3520204E-02 -0.9663654E-04 -0.1526226E-02
4870370. -0.3365851E-01 -0.5368016E+00 -0.4653909E-03 -0.4041610E-02 -0.8803220E-04 -0.1475766E-02
4833889. -0.3065336E-01 -0.5123684E+00 -0.4410867E-03 -0.4425945E-02 -0.7976317E-04 -0.1410665E-02
4797407. -0.2779545E-01 -0.4854685E+00 -0.4149365E-03 -0.4687859E-02 -0.7189473E-04 -0.1335843E-02
4760926. -0.2509704E-01 -0.4568015E+00 -0.3876158E-03 -0.4837502E-02 -0.6448472E-04 -0.1251287E-02
4724444. -0.2256610E-01 -0.4270517E+00 -0.3597145E-03 -0.4893193E-02 -0.5756879E-04 -0.1164036E-02
4687963. -0.2020733E-01 -0.3967777E+00 -0.3317328E-03 -0.4867618E-02 -0.5115751E-04 -0.1075006E-02
4651482. -0.1802223E-01 -0.3664718E+00 -0.3041024E-03 -0.4772890E-02 -0.4525950E-04 -0.9852952E-03
4615000. -0.1600962E-01 -0.3365739E+00 -0.2771752E-03 -0.4623811E-02 -0.3986759E-04 -0.8984542E-03
4578518. -0.1416623E-01 -0.3074217E+00 -0.2512333E-03 -0.4430393E-02 -0.3496543E-04 -0.8141994E-03
4542037. -0.1248697E-01 -0.2793082E+00 -0.2265008E-03 -0.4203608E-02 -0.3053606E-04 -0.7337545E-03
4505556. -0.1096514E-01 -0.2524616E+00 -0.2031357E-03 -0.3954124E-02 -0.2655141E-04 -0.6588150E-03
4469074. -0.9593013E-02 -0.2270326E+00 -0.1812485E-03 -0.3688414E-02 -0.2298360E-04 -0.5881242E-03
4432593. -0.8362143E-02 -0.2031523E+00 -0.1609090E-03 -0.3415132E-02 -0.1980481E-04 -0.5232095E-03
4396111. -0.7263381E-02 -0.1808861E+00 -0.1421398E-03 -0.3140465E-02 -0.1698024E-04 -0.4642261E-03
4359630. -0.6287461E-02 -0.1602594E+00 -0.1249386E-03 -0.2868471E-02 -0.1447897E-04 -0.4103387E-03
4323148. -0.5424905E-02 -0.1412792E+00 -0.1092736E-03 -0.2604475E-02 -0.1226936E-04 -0.3624086E-03
4286667. -0.4666417E-02 -0.1239106E+00 -0.9509055E-04 -0.2351362E-02 -0.1031794E-04 -0.3200720E-03
4250185. -0.4002879E-02 -0.1080989E+00 -0.8232008E-04 -0.2111401E-02 -0.8593764E-05 -0.2830579E-03
4213704. -0.3425594E-02 -0.9377692E-01 -0.7088020E-04 -0.1886985E-02 -0.7065430E-05 -0.2516758E-03
4177222. -0.2926256E-02 -0.8085304E-01 -0.6067883E-04 -0.1678814E-02 -0.5701546E-05 -0.2255564E-03
4140741. -0.2497154E-02 -0.6923333E-01 -0.5162122E-04 -0.1487745E-02 -0.4472116E-05 -0.2047954E-03
4104259. -0.2131089E-02 -0.5881309E-01 -0.4360706E-04 -0.1314232E-02 -0.3345217E-05 -0.1897216E-03
4067778. -0.1821537E-02 -0.4947978E-01 -0.3653801E-04 -0.1157643E-02 -0.2289017E-05 -0.1801464E-03
4031296. -0.1562568E-02 -0.4112411E-01 -0.3031732E-04 -0.1017806E-02 -0.1270329E-05 -0.1767332E-03
3994815. -0.1348922E-02 -0.3363283E-01 -0.2485128E-04 -0.8939066E-03 -0.2521738E-06 -0.1800420E-03
3958333. -0.1175964E-02 -0.2689310E-01 -0.2005237E-04 -0.7845320E-03  0.8054548E-06 -0.1906751E-03
3921852. -0.1039701E-02 -0.2079978E-01 -0.1584109E-04 -0.6884455E-03  0.1948013E-05 -0.2099457E-03
3885370. -0.9367226E-03 -0.1525027E-01 -0.1214658E-04 -0.6036042E-03  0.3228918E-05 -0.2392427E-03
3848889. -0.8641874E-03 -0.1015348E-01 -0.8911888E-05 -0.5274088E-03  0.4710597E-05 -0.2804612E-03
3812407. -0.8197267E-03 -0.5432598E-02 -0.6096127E-05 -0.4565916E-03  0.6468513E-05 -0.3361675E-03
3775926. -0.8013604E-03 -0.1033099E-02 -0.3681692E-05 -0.3863303E-03  0.8593785E-05 -0.4093521E-03
3739444. -0.8073237E-03  0.3064894E-02 -0.1682946E-05 -0.3101079E-03  0.1119733E-04 -0.5039219E-03
3702963. -0.8358277E-03  0.6828763E-02 -0.1591098E-06 -0.2185850E-03  0.1441467E-04 -0.6245941E-03
3666482. -0.8846773E-03  0.1014313E-01  0.7651034E-06 -0.9794653E-04  0.1841034E-04 -0.7767684E-03
3630000. -0.9506854E-03  0.1276751E-01  0.8697999E-06  0.7164093E-04  0.2338308E-04 -0.9669567E-03
3630000. -0.9506854E-03  0.1276751E-01  0.8697999E-06  0.7164093E-04  0.2338308E-04 -0.9669567E-03
3592500. -0.1031045E-02  0.1428424E-01 -0.2561355E-06  0.3281521E-03  0.2976261E-04 -0.1209268E-02
3555000. -0.1114950E-02  0.1380165E-01 -0.3247853E-05  0.7152055E-03  0.3772667E-04 -0.1506590E-02
3517500. -0.1187044E-02  0.9992742E-02 -0.9069159E-05  0.1304039E-02  0.4761935E-04 -0.1865452E-02
3480000. -0.1221941E-02  0.7174726E-03 -0.1920200E-04  0.2201910E-02  0.5981329E-04 -0.2288476E-02
3480000. -0.1221941E-02 -0.5329535E-01 -0.4794887E-04 -0.2148470E-02  0.5981329E-04  0.1630269E-02
3409422. -0.7468687E-03 -0.3380587E-01 -0.2894101E-04 -0.1341219E-02  0.4250332E-04  0.1444438E-02
3338844. -0.4482456E-03 -0.2102740E-01 -0.1717244E-04 -0.8224242E-03  0.2836617E-04  0.1100602E-02
3268266. -0.2641485E-03 -0.1282848E-01 -0.1001502E-04 -0.4953556E-03  0.1805895E-04  0.7692618E-03
3197688. -0.1528206E-03 -0.7677202E-02 -0.5739334E-05 -0.2930326E-03  0.1106271E-04  0.5066881E-03
3127109. -0.8677931E-04 -0.4506650E-02 -0.3230829E-05 -0.1702178E-03  0.6554754E-05  0.3188327E-03
3056531. -0.4835287E-04 -0.2594608E-02 -0.1785841E-05 -0.9706648E-04  0.3768630E-05  0.1931522E-03
2985953. -0.2642563E-04 -0.1464686E-02 -0.9688119E-06 -0.5431840E-04  0.2106776E-05  0.1131790E-03
2915375. -0.1415853E-04 -0.8104394E-03 -0.5155477E-06 -0.2981559E-04  0.1146561E-05  0.6432925E-04
2844797. -0.7432895E-05 -0.4393458E-03 -0.2689450E-06 -0.1604464E-04  0.6078797E-06  0.3553004E-04
2774219. -0.3820891E-05 -0.2332208E-03 -0.1374428E-06 -0.8459441E-05  0.3140523E-06  0.1908866E-04
2703641. -0.1921854E-05 -0.1211507E-03 -0.6875561E-07 -0.4366916E-05  0.1581015E-06  0.9980899E-05
2633062. -0.9450687E-06 -0.6154028E-04 -0.3363905E-07 -0.2205381E-05  0.7753369E-07  0.5079533E-05
2562484. -0.4539435E-06 -0.3054307E-04 -0.1608137E-07 -0.1088666E-05  0.3702146E-07  0.2515719E-05
2491906. -0.2127580E-06 -0.1479689E-04 -0.7503837E-08 -0.5247779E-06  0.1719946E-07  0.1211948E-05
2421328. -0.9718983E-07 -0.6989936E-05 -0.3413648E-08 -0.2467461E-06  0.7767611E-08  0.5675339E-06
2350750. -0.4321732E-07 -0.3215927E-05 -0.1512067E-08 -0.1130297E-06  0.3406484E-08  0.2581051E-06
2280172. -0.1868052E-07 -0.1439116E-05 -0.6512131E-09 -0.5037529E-07  0.1448864E-08  0.1138733E-06
2209594. -0.7836841E-08 -0.6254659E-06 -0.2722664E-09 -0.2181103E-07  0.5967941E-09  0.4867457E-07
2139016. -0.3185423E-08 -0.2635843E-06 -0.1103138E-09 -0.9159023E-08  0.2376753E-09  0.2012707E-07
2068438. -0.1252098E-08 -0.1075110E-06 -0.4323104E-10 -0.3723384E-08  0.9134792E-10  0.8037172E-08
1997859. -0.4749273E-09 -0.4235609E-07 -0.1635152E-10 -0.1462339E-08  0.3381046E-10  0.3093193E-08
1927281. -0.1734276E-09 -0.1608185E-07 -0.5955205E-11 -0.5536054E-09  0.1202341E-10  0.1144803E-08
1856703. -0.6080760E-10 -0.5869567E-08 -0.2082829E-11 -0.2015032E-09  0.4097000E-11  0.4064130E-09
1786125. -0.2041079E-10 -0.2053479E-08 -0.6974906E-12 -0.7031572E-10  0.1333714E-11  0.1379975E-09
1715547. -0.6536980E-11 -0.6864302E-09 -0.2228948E-12 -0.2344848E-10  0.4133754E-12  0.4467149E-10
1644969. -0.1990110E-11 -0.2184497E-09 -0.6771749E-13 -0.7445496E-11  0.1215180E-12  0.1373543E-10
1574391. -0.5734809E-12 -0.6591072E-10 -0.1947476E-13 -0.2241889E-11  0.3373155E-13  0.3994820E-11
1503812. -0.1557339E-12 -0.1875620E-10 -0.5273459E-14 -0.6374471E-12  0.8792178E-14  0.1094372E-11
1433234.  0.0000000E+00  0.0000000E+00  0.0000000E+00  0.0000000E+00  0.0000000E+00  0.0000000E+00
1362656.  0.0000000E+00  0.0000000E+00  0.0000000E+00  0.0000000E+00  0.0000000E+00  0.0000000E+00
1292078.  0.0000000E+00  0.0000000E+00  0.0000000E+00  0.0000000E+00  0.0000000E+00  0.0000000E+00
1221500.  0.0000000E+00  0.0000000E+00  0.0000000E+00  0.0000000E+00  0.0000000E+00  0.0000000E+00
1221500.  0.0000000E+00  0.0000000E+00  0.0000000E+00  0.0000000E+00  0.0000000E+00  0.0000000E+00
1183328.  0.0000000E+00  0.0000000E+00  0.0000000E+00  0.0000000E+00  0.0000000E+00  0.0000000E+00
1145156.  0.0000000E+00  0.0000000E+00  0.0000000E+00  0.0000000E+00  0.0000000E+00  0.0000000E+00
1106984.  0.0000000E+00  0.0000000E+00  0.0000000E+00  0.0000000E+00  0.0000000E+00  0.0000000E+00
1068812.  0.0000000E+00  0.0000000E+00  0.0000000E+00  0.0000000E+00  0.0000000E+00  0.0000000E+00
1030641.  0.0000000E+00  0.0000000E+00  0.0000000E+00  0.0000000E+00  0.0000000E+00  0.0000000E+00
 992469.  0.0000000E+00  0.0000000E+00  0.0000000E+00  0.0000000E+00  0.0000000E+00  0.0000000E+00
 954297.  0.0000000E+00  0.0000000E+00  0.0000000E+00  0.0000000E+00  0.0000000E+00  0.0000000E+00
 916125.  0.0000000E+00  0.0000000E+00  0.0000000E+00  0.0000000E+00  0.0000000E+00  0.0000000E+00
 877953.  0.0000000E+00  0.0000000E+00  0.0000000E+00  0.0000000E+00  0.0000000E+00  0.0000000E+00
 839781.  0.0000000E+00  0.0000000E+00  0.0000000E+00  0.0000000E+00  0.0000000E+00  0.0000000E+00
 801609.  0.0000000E+00  0.0000000E+00  0.0000000E+00  0.0000000E+00  0.0000000E+00  0.0000000E+00
 763438.  0.0000000E+00  0.0000000E+00  0.0000000E+00  0.0000000E+00  0.0000000E+00  0.0000000E+00
 725266.  0.0000000E+00  0.0000000E+00  0.0000000E+00  0.0000000E+00  0.0000000E+00  0.0000000E+00
 687094.  0.0000000E+00  0.0000000E+00  0.0000000E+00  0.0000000E+00  0.0000000E+00  0.0000000E+00
 648922.  0.0000000E+00  0.0000000E+00  0.0000000E+00  0.0000000E+00  0.0000000E+00  0.0000000E+00
 610750.  0.0000000E+00  0.0000000E+00  0.0000000E+00  0.0000000E+00  0.0000000E+00  0.0000000E+00
 572578.  0.0000000E+00  0.0000000E+00  0.0000000E+00  0.0000000E+00  0.0000000E+00  0.0000000E+00
 534406.  0.0000000E+00  0.0000000E+00  0.0000000E+00  0.0000000E+00  0.0000000E+00  0.0000000E+00
 496234.  0.0000000E+00  0.0000000E+00  0.0000000E+00  0.0000000E+00  0.0000000E+00  0.0000000E+00
 458062.  0.0000000E+00  0.0000000E+00  0.0000000E+00  0.0000000E+00  0.0000000E+00  0.0000000E+00
 419891.  0.0000000E+00  0.0000000E+00  0.0000000E+00  0.0000000E+00  0.0000000E+00  0.0000000E+00
 381719.  0.0000000E+00  0.0000000E+00  0.0000000E+00  0.0000000E+00  0.0000000E+00  0.0000000E+00
 343547.  0.0000000E+00  0.0000000E+00  0.0000000E+00  0.0000000E+00  0.0000000E+00  0.0000000E+00
 305375.  0.0000000E+00  0.0000000E+00  0.0000000E+00  0.0000000E+00  0.0000000E+00  0.0000000E+00
 267203.  0.0000000E+00  0.0000000E+00  0.0000000E+00  0.0000000E+00  0.0000000E+00  0.0000000E+00
 229031.  0.0000000E+00  0.0000000E+00  0.0000000E+00  0.0000000E+00  0.0000000E+00  0.0000000E+00
 190859.  0.0000000E+00  0.0000000E+00  0.0000000E+00  0.0000000E+00  0.0000000E+00  0.0000000E+00
 152688.  0.0000000E+00  0.0000000E+00  0.0000000E+00  0.0000000E+00  0.0000000E+00  0.0000000E+00
 114516.  0.0000000E+00  0.0000000E+00  0.0000000E+00  0.0000000E+00  0.0000000E+00  0.0000000E+00
  76344.  0.0000000E+00  0.0000000E+00  0.0000000E+00  0.0000000E+00  0.0000000E+00  0.0000000E+00
  38172.  0.0000000E+00  0.0000000E+00  0.0000000E+00  0.0000000E+00  0.0000000E+00  0.0000000E+00
      0.  0.0000000E+00  0.0000000E+00  0.0000000E+00  0.0000000E+00  0.0000000E+00  0.0000000E+00
