       2       21 S      185        219.81560          8.47014          8.75960        408.77490      185    7
6371000. -0.5603317E-02 -0.1330144E+00 -0.7563791E-03  0.4846938E-02  0.6392470E-03 -0.3496887E-02
6370000. -0.5582361E-02 -0.1340105E+00 -0.7571200E-03  0.4593437E-02  0.6397948E-03 -0.3483703E-02
6369000. -0.5561249E-02 -0.1349913E+00 -0.7578211E-03  0.4339355E-02  0.6403406E-03 -0.3470735E-02
6368000. -0.5539985E-02 -0.1359566E+00 -0.7584822E-03  0.4084705E-02  0.6408843E-03 -0.3457984E-02
6368000. -0.5539985E-02 -0.1359566E+00 -0.7584822E-03  0.4084705E-02  0.6408843E-03 -0.3457984E-02
6367000. -0.5518570E-02 -0.1369065E+00 -0.7591033E-03  0.3829507E-02  0.6414261E-03 -0.3445450E-02
6366000. -0.5497008E-02 -0.1378409E+00 -0.7596843E-03  0.3573775E-02  0.6419659E-03 -0.3433135E-02
6365000. -0.5475299E-02 -0.1387597E+00 -0.7602252E-03  0.3317526E-02  0.6425039E-03 -0.3421038E-02
6364000. -0.5453449E-02 -0.1396629E+00 -0.7607258E-03  0.3060776E-02  0.6430399E-03 -0.3409162E-02
6363000. -0.5431457E-02 -0.1405504E+00 -0.7611860E-03  0.2803543E-02  0.6435741E-03 -0.3397505E-02
6362000. -0.5409327E-02 -0.1414222E+00 -0.7616058E-03  0.2545841E-02  0.6441065E-03 -0.3386070E-02
6361000. -0.5387062E-02 -0.1422783E+00 -0.7619852E-03  0.2287689E-02  0.6446371E-03 -0.3374857E-02
6360000. -0.5364664E-02 -0.1431185E+00 -0.7623239E-03  0.2029102E-02  0.6451659E-03 -0.3363867E-02
6359000. -0.5342135E-02 -0.1439429E+00 -0.7626221E-03  0.1770096E-02  0.6456931E-03 -0.3353100E-02
6358000. -0.5319478E-02 -0.1447514E+00 -0.7628796E-03  0.1510690E-02  0.6462185E-03 -0.3342557E-02
6357000. -0.5296695E-02 -0.1455439E+00 -0.7630963E-03  0.1250898E-02  0.6467424E-03 -0.3332239E-02
6356000. -0.5273789E-02 -0.1463204E+00 -0.7632723E-03  0.9907380E-03  0.6472646E-03 -0.3322146E-02
6356000. -0.5273789E-02 -0.1255190E+00 -0.7632723E-03  0.2390213E-02  0.6472646E-03 -0.2174631E-02
6355000. -0.5254039E-02 -0.1261399E+00 -0.7636369E-03  0.2255287E-02  0.6476041E-03 -0.2150785E-02
6354000. -0.5234192E-02 -0.1267526E+00 -0.7639802E-03  0.2120128E-02  0.6479398E-03 -0.2127090E-02
6353000. -0.5214249E-02 -0.1273571E+00 -0.7643024E-03  0.1984742E-02  0.6482719E-03 -0.2103545E-02
6352000. -0.5194212E-02 -0.1279534E+00 -0.7646033E-03  0.1849135E-02  0.6486002E-03 -0.2080152E-02
6351000. -0.5174082E-02 -0.1285414E+00 -0.7648828E-03  0.1713310E-02  0.6489248E-03 -0.2056910E-02
6350000. -0.5153860E-02 -0.1291211E+00 -0.7651411E-03  0.1577274E-02  0.6492459E-03 -0.2033819E-02
6349000. -0.5133548E-02 -0.1296926E+00 -0.7653780E-03  0.1441032E-02  0.6495633E-03 -0.2010881E-02
6348000. -0.5113147E-02 -0.1302558E+00 -0.7655934E-03  0.1304589E-02  0.6498772E-03 -0.1988095E-02
6347000. -0.5092659E-02 -0.1308106E+00 -0.7657876E-03  0.1167949E-02  0.6501874E-03 -0.1965461E-02
6346600. -0.5084439E-02 -0.1310302E+00 -0.7658591E-03  0.1113240E-02  0.6503105E-03 -0.1956450E-02
6346600. -0.5084439E-02 -0.1455276E+00 -0.7658591E-03  0.2159915E-02  0.6503105E-03 -0.1835807E-03
6318800. -0.4421666E-02 -0.1576428E+00 -0.7710480E-03  0.1999974E-03  0.6494224E-03  0.5778757E-03
6291000. -0.3714263E-02 -0.1659270E+00 -0.7674756E-03 -0.1848493E-02  0.6453758E-03  0.1264873E-02
6291000. -0.3714263E-02 -0.1713029E+00 -0.7674756E-03 -0.2036295E-02  0.6453758E-03  0.1264873E-02
6263000. -0.2951181E-02 -0.1751673E+00 -0.7534306E-03 -0.4357977E-02  0.6385554E-03  0.1826893E-02
6235000. -0.2181682E-02 -0.1741953E+00 -0.7291861E-03 -0.6668468E-02  0.6294192E-03  0.2319616E-02
6207000. -0.1427285E-02 -0.1682869E+00 -0.6949149E-03 -0.8911469E-02  0.6182610E-03  0.2747781E-02
6179000. -0.7096753E-03 -0.1574683E+00 -0.6510363E-03 -0.1103133E-01  0.6053539E-03  0.3116370E-02
6151000. -0.5013720E-04 -0.1418960E+00 -0.5982106E-03 -0.1297438E-01  0.5909484E-03  0.3430539E-02
6151000. -0.5013720E-04 -0.1369251E+00 -0.5982106E-03 -0.1144754E-01  0.5909484E-03  0.3433312E-02
6128500.  0.4114315E-03 -0.1242040E+00 -0.5562474E-03 -0.1229234E-01  0.5783035E-03  0.3722543E-02
6106000.  0.8252742E-03 -0.1099346E+00 -0.5115626E-03 -0.1298796E-01  0.5646896E-03  0.3982353E-02
6083500.  0.1186338E-02 -0.9435326E-01 -0.4646907E-03 -0.1353038E-01  0.5502075E-03  0.4214566E-02
6061000.  0.1490418E-02 -0.7770390E-01 -0.4161767E-03 -0.1391777E-01  0.5349515E-03  0.4420873E-02
6038500.  0.1734181E-02 -0.6023522E-01 -0.3665681E-03 -0.1415058E-01  0.5190103E-03  0.4602894E-02
6016000.  0.1915175E-02 -0.4219795E-01 -0.3164068E-03 -0.1423130E-01  0.5024669E-03  0.4762158E-02
5993500.  0.2031834E-02 -0.2384013E-01 -0.2662229E-03 -0.1416424E-01  0.4853990E-03  0.4900086E-02
5971000.  0.2083453E-02 -0.5404335E-02 -0.2165280E-03 -0.1395558E-01  0.4678797E-03  0.5018090E-02
5971000.  0.2083453E-02 -0.8445485E-02 -0.2165280E-03 -0.1268849E-01  0.4678797E-03  0.4745348E-02
5937667.  0.2066832E-02  0.1448762E-01 -0.1524195E-03 -0.1178627E-01  0.4426886E-03  0.4877031E-02
5904333.  0.1935491E-02  0.3534333E-01 -0.9346985E-04 -0.1072612E-01  0.4169206E-03  0.4965866E-02
5871000.  0.1701153E-02  0.5382203E-01 -0.4035377E-04 -0.9565995E-02  0.3907962E-03  0.5013929E-02
5837667.  0.1376743E-02  0.6975501E-01  0.6541892E-05 -0.8355955E-02  0.3645215E-03  0.5023809E-02
5804333.  0.9757678E-03  0.8308331E-01  0.4707052E-04 -0.7137964E-02  0.3382876E-03  0.4998628E-02
5771000.  0.5118379E-03  0.9383579E-01  0.8128046E-04 -0.5946042E-02  0.3122702E-03  0.4941961E-02
5771000.  0.5118379E-03  0.9383892E-01  0.8128046E-04 -0.5945864E-02  0.3122702E-03  0.4941961E-02
5701000. -0.6409285E-03  0.1144431E+00  0.1351922E-03 -0.3864747E-02  0.2586951E-03  0.4807379E-02
5701000. -0.6409285E-03  0.9784614E-01  0.1351922E-03 -0.2868437E-02  0.2586951E-03  0.4988034E-02
5667333. -0.1153095E-02  0.9686349E-01  0.1478326E-03 -0.2013490E-02  0.2331837E-03  0.4654895E-02
5633667. -0.1673415E-02  0.1003702E+00  0.1572413E-03 -0.1576978E-02  0.2095167E-03  0.4307486E-02
5600000. -0.2211407E-02  0.1030143E+00  0.1644869E-03 -0.1166084E-02  0.1876201E-03  0.3982082E-02
5600000. -0.2211407E-02  0.1030143E+00  0.1644869E-03 -0.1166084E-02  0.1876201E-03  0.3982082E-02
5563518. -0.2807264E-02  0.1049505E+00  0.1699877E-03 -0.7623746E-03  0.1657844E-03  0.3647585E-02
5527037. -0.3411666E-02  0.1060207E+00  0.1733021E-03 -0.4027156E-03  0.1458119E-03  0.3331295E-02
5490556. -0.4019948E-02  0.1063216E+00  0.1746859E-03 -0.8811006E-04  0.1276010E-03  0.3032212E-02
5454074. -0.4627999E-02  0.1059524E+00  0.1743975E-03  0.1812939E-03  0.1110546E-03  0.2749506E-02
5417593. -0.5232280E-02  0.1050294E+00  0.1726971E-03  0.4050715E-03  0.9608460E-04  0.2481589E-02
5381111. -0.5829963E-02  0.1036604E+00  0.1698435E-03  0.5843231E-03  0.8260776E-04  0.2227735E-02
5344630. -0.6418783E-02  0.1019590E+00  0.1660882E-03  0.7201408E-03  0.7054690E-04  0.1986862E-02
5308148. -0.6997209E-02  0.1000429E+00  0.1616772E-03  0.8136521E-03  0.5983231E-04  0.1757274E-02
5271667. -0.7564287E-02  0.9801973E-01  0.1568457E-03  0.8674132E-03  0.5040057E-04  0.1538750E-02
5235185. -0.8119767E-02  0.9600551E-01  0.1518168E-03  0.8827880E-03  0.4219291E-04  0.1329266E-02
5198704. -0.8663992E-02  0.9411192E-01  0.1468054E-03  0.8618361E-03  0.3516307E-04  0.1127394E-02
5162222. -0.9197978E-02  0.9244130E-01  0.1420096E-03  0.8077822E-03  0.2926717E-04  0.9328733E-03
5125741. -0.9723289E-02  0.9110541E-01  0.1376160E-03  0.7216336E-03  0.2447133E-04  0.7428093E-03
5089259. -0.1024217E-01  0.9020764E-01  0.1338017E-03  0.6059147E-03  0.2075400E-04  0.5560323E-03
5052778. -0.1075739E-01  0.8984864E-01  0.1307284E-03  0.4631162E-03  0.1809956E-04  0.3711786E-03
5016296. -0.1127237E-01  0.9013359E-01  0.1285483E-03  0.2941428E-03  0.1650553E-04  0.1852483E-03
4979815. -0.1179104E-01  0.9116229E-01  0.1274050E-03  0.1013973E-03  0.1598282E-04 -0.3264646E-05
4943333. -0.1231799E-01  0.9303778E-01  0.1274304E-03 -0.1140181E-03  0.1655291E-04 -0.1970631E-03
4906852. -0.1285835E-01  0.9586747E-01  0.1287537E-03 -0.3516913E-03  0.1825722E-04 -0.3998370E-03
4870370. -0.1341791E-01  0.9975644E-01  0.1314964E-03 -0.6095803E-03  0.2115212E-04 -0.6133867E-03
4833889. -0.1400302E-01  0.1048204E+00  0.1357749E-03 -0.8883823E-03  0.2531220E-04 -0.8426995E-03
4797407. -0.1462081E-01  0.1111826E+00  0.1417113E-03 -0.1188323E-02  0.3084199E-04 -0.1092218E-02
4760926. -0.1527902E-01  0.1189666E+00  0.1494207E-03 -0.1507817E-02  0.3786437E-04 -0.1365028E-02
4724444. -0.1598624E-01  0.1283192E+00  0.1590230E-03 -0.1849795E-02  0.4653518E-04 -0.1669131E-02
4687963. -0.1675185E-01  0.1393942E+00  0.1706483E-03 -0.2214340E-02  0.5704984E-04 -0.2009976E-02
4651482. -0.1758619E-01  0.1523591E+00  0.1844257E-03 -0.2601929E-02  0.6963688E-04 -0.2394547E-02
4615000. -0.1850068E-01  0.1674105E+00  0.2004980E-03 -0.3016038E-02  0.8457748E-04 -0.2833504E-02
4578518. -0.1950782E-01  0.1847565E+00  0.2190176E-03 -0.3456746E-02  0.1022077E-03 -0.3335544E-02
4542037. -0.2062138E-01  0.2046343E+00  0.2401413E-03 -0.3926520E-02  0.1229214E-03 -0.3913215E-02
4505556. -0.2185667E-01  0.2273189E+00  0.2640482E-03 -0.4428884E-02  0.1471977E-03 -0.4582202E-02
4469074. -0.2323060E-01  0.2530980E+00  0.2909213E-03 -0.4962452E-02  0.1755974E-03 -0.5356013E-02
4432593. -0.2476176E-01  0.2823134E+00  0.3209486E-03 -0.5531598E-02  0.2087796E-03 -0.6256938E-02
4396111. -0.2647100E-01  0.3153434E+00  0.3543414E-03 -0.6137033E-02  0.2475409E-03 -0.7307901E-02
4359630. -0.2838118E-01  0.3525849E+00  0.3912937E-03 -0.6775223E-02  0.2928034E-03 -0.8533034E-02
4323148. -0.3051784E-01  0.3945134E+00  0.4320027E-03 -0.7448637E-02  0.3456656E-03 -0.9967910E-02
4286667. -0.3290912E-01  0.4416219E+00  0.4766534E-03 -0.8150801E-02  0.4074277E-03 -0.1164840E-01
4250185. -0.3558631E-01  0.4944459E+00  0.5253869E-03 -0.8873080E-02  0.4796182E-03 -0.1361798E-01
4213704. -0.3858368E-01  0.5535815E+00  0.5782959E-03 -0.9607106E-02  0.5640436E-03 -0.1593192E-01
4177222. -0.4193924E-01  0.6196195E+00  0.6353895E-03 -0.1032985E-01  0.6628445E-03 -0.1864880E-01
4140741. -0.4569407E-01  0.6931807E+00  0.6965286E-03 -0.1101619E-01  0.7785253E-03 -0.2184270E-01
4104259. -0.4989332E-01  0.7749022E+00  0.7614168E-03 -0.1163019E-01  0.9140790E-03 -0.2560348E-01
4067778. -0.5458498E-01  0.8652909E+00  0.8294621E-03 -0.1210854E-01  0.1073000E-02 -0.3002392E-01
4031296. -0.5982038E-01  0.9648466E+00  0.8997031E-03 -0.1238299E-01  0.1259428E-02 -0.3523187E-01
3994815. -0.6565271E-01  0.1073856E+01  0.9706915E-03 -0.1234832E-01  0.1478259E-02 -0.4136737E-01
3958333. -0.7213638E-01  0.1192246E+01  0.1040241E-02 -0.1185234E-01  0.1735247E-02 -0.4858722E-01
3921852. -0.7932381E-01  0.1319616E+01  0.1105208E-02 -0.1071209E-01  0.2037158E-02 -0.5709611E-01
3885370. -0.8726399E-01  0.1454817E+01  0.1161184E-02 -0.8659112E-02  0.2392012E-02 -0.6711435E-01
3848889. -0.9599566E-01  0.1595698E+01  0.1201958E-02 -0.5336286E-02  0.2809150E-02 -0.7890282E-01
3812407. -0.1055429E+00  0.1738847E+01  0.1219003E-02 -0.2792629E-03  0.3299621E-02 -0.9277768E-01
3775926. -0.1159032E+00  0.1878667E+01  0.1200616E-02  0.7162854E-02  0.3876292E-02 -0.1090765E+00
3739444. -0.1270360E+00  0.2006916E+01  0.1130820E-02  0.1783720E-01  0.4554217E-02 -0.1282115E+00
3702963. -0.1388421E+00  0.2111489E+01  0.9880339E-03  0.3287923E-01  0.5350915E-02 -0.1506456E+00
3666482. -0.1511383E+00  0.2174580E+01  0.7430119E-03  0.5383935E-01  0.6286658E-02 -0.1768663E+00
3630000. -0.1636199E+00  0.2171206E+01  0.3563243E-03  0.8274719E-01  0.7384804E-02 -0.2074594E+00
3630000. -0.1636199E+00  0.2171206E+01  0.3563243E-03  0.8274719E-01  0.7384804E-02 -0.2074594E+00
3592500. -0.1761393E+00  0.2060785E+01 -0.2446916E-03  0.1236536E+00  0.8710945E-02 -0.2440733E+00
3555000. -0.1875619E+00  0.1787768E+01 -0.1129313E-02  0.1798838E+00  0.1026965E-01 -0.2865958E+00
3517500. -0.1967176E+00  0.1275489E+01 -0.2402862E-02  0.2568533E+00  0.1209772E-01 -0.3357075E+00
3480000. -0.2018983E+00  0.4158782E+00 -0.4207975E-02  0.3619210E+00  0.1423563E-01 -0.3919539E+00
3480000. -0.2018983E+00 -0.5926165E+01 -0.1139538E-01 -0.3485725E+00  0.1423563E-01  0.2555308E+00
3409422. -0.1448939E+00 -0.4425291E+01 -0.8072005E-02 -0.2555801E+00  0.1138527E-01  0.2525015E+00
3338844. -0.1026277E+00 -0.3255806E+01 -0.5650039E-02 -0.1850066E+00  0.8739849E-02  0.2223458E+00
3268266. -0.7174458E-01 -0.2360966E+01 -0.3907390E-02 -0.1322232E+00  0.6493273E-02  0.1826384E+00
3197688. -0.4950000E-01 -0.1687877E+01 -0.2669402E-02 -0.9330019E-01  0.4692832E-02  0.1428993E+00
3127109. -0.3370245E-01 -0.1189774E+01 -0.1801089E-02 -0.6499448E-01  0.3310074E-02  0.1076973E+00
3056531. -0.2264046E-01 -0.8269429E+00 -0.1199883E-02 -0.4469227E-01  0.2283562E-02  0.7870177E-01
2985953. -0.1500272E-01 -0.5666844E+00 -0.7890134E-03 -0.3032902E-01  0.1543039E-02  0.5599629E-01
2915375. -0.9803592E-02 -0.3828215E+00 -0.5119311E-03 -0.2030656E-01  0.1022183E-02  0.3889412E-01
2844797. -0.6315005E-02 -0.2548829E+00 -0.3275959E-03 -0.1340990E-01  0.6642134E-03  0.2641867E-01
2774219. -0.4008223E-02 -0.1672023E+00 -0.2066616E-03 -0.8730874E-02  0.4234794E-03  0.1756795E-01
2703641. -0.2505583E-02 -0.1080280E+00 -0.1284532E-03 -0.5601919E-02  0.2649258E-03  0.1144465E-01
2633062. -0.1541709E-02 -0.6871059E-01 -0.7862048E-04 -0.3540276E-02  0.1626006E-03  0.7306249E-02
2562484. -0.9331872E-03 -0.4300126E-01 -0.4735366E-04 -0.2202491E-02  0.9788256E-04  0.4571217E-02
2491906. -0.5552693E-03 -0.2646320E-01 -0.2804662E-04 -0.1347973E-02  0.5776707E-04  0.2802519E-02
2421328. -0.3245421E-03 -0.1600327E-01 -0.1632185E-04 -0.8109996E-03  0.3340399E-04  0.1683057E-02
2350750. -0.1861646E-03 -0.9502611E-02 -0.9324738E-05 -0.4792725E-03  0.1891270E-04  0.9896097E-03
2280172. -0.1047048E-03 -0.5535620E-02 -0.5224654E-05 -0.2779548E-03  0.1047569E-04  0.5693223E-03
2209594. -0.5767918E-04 -0.3160494E-02 -0.2867897E-05 -0.1580375E-03  0.5671039E-05  0.3202044E-03
2139016. -0.3108442E-04 -0.1766587E-02 -0.1540407E-05 -0.8799459E-04  0.2997150E-05  0.1758934E-03
2068438. -0.1636700E-04 -0.9655562E-03 -0.8085349E-06 -0.4792074E-04  0.1544428E-05  0.9426090E-04
1997859. -0.8407387E-05 -0.5153316E-03 -0.4141046E-06 -0.2548940E-04  0.7748351E-06  0.4921546E-04
1927281. -0.4206500E-05 -0.2681687E-03 -0.2066173E-06 -0.1322215E-04  0.3778627E-06  0.2499867E-04
1856703. -0.2046234E-05 -0.1358302E-03 -0.1002468E-06 -0.6677266E-05  0.1787876E-06  0.1233196E-04
1786125. -0.9657814E-06 -0.6683695E-04 -0.4719892E-07 -0.3276499E-05  0.8190599E-07  0.5896623E-05
1715547. -0.4412610E-06 -0.3188081E-04 -0.2151551E-07 -0.1558799E-05  0.3624474E-07  0.2726914E-05
1644969. -0.1946611E-06 -0.1470527E-04 -0.9471136E-08 -0.7172488E-06  0.1545124E-07  0.1216584E-05
1574391. -0.8266954E-07 -0.6541054E-05 -0.4014306E-08 -0.3182945E-06  0.6326290E-08  0.5221154E-06
1503812. -0.3368051E-07 -0.2797264E-05 -0.1632923E-08 -0.1357752E-06  0.2479066E-08  0.2148347E-06
1433234. -0.1310042E-07 -0.1147257E-05 -0.6356597E-09 -0.5541023E-07  0.9261522E-09  0.8443065E-07
1362656. -0.4800044E-08 -0.4539345E-06 -0.2377485E-09 -0.2133169E-07  0.3284625E-09  0.3154613E-07
1292078. -0.1497151E-08 -0.1891926E-06 -0.9192275E-10 -0.6929431E-08  0.1102123E-09  0.1114339E-07
1221500.  0.1847939E-09 -0.1466682E-06 -0.6160913E-10  0.1284721E-08  0.3486841E-10  0.3749066E-08
1221500.  0.1847939E-09  0.3654669E-09 -0.6348456E-12 -0.9671441E-09  0.3486841E-10  0.3669012E-08
1183328.  0.1591493E-09  0.6728319E-08  0.2590191E-11 -0.2203469E-09  0.1835828E-10  0.2000089E-08
1145156.  0.1155412E-09  0.7265293E-08  0.2928887E-11  0.5623860E-10  0.9446096E-11  0.1066454E-08
1106984.  0.7592987E-10  0.5809988E-08  0.2321654E-11  0.1254903E-09  0.4743134E-11  0.5554438E-09
1068812.  0.4647844E-10  0.4041002E-08  0.1578463E-11  0.1156692E-09  0.2320486E-11  0.2821359E-09
1030641.  0.2687599E-10  0.2572886E-08  0.9766939E-12  0.8411952E-10  0.1104421E-11  0.1394535E-09
 992469.  0.0000000E+00  0.0000000E+00  0.0000000E+00  0.0000000E+00  0.0000000E+00  0.0000000E+00
 954297.  0.0000000E+00  0.0000000E+00  0.0000000E+00  0.0000000E+00  0.0000000E+00  0.0000000E+00
 916125.  0.0000000E+00  0.0000000E+00  0.0000000E+00  0.0000000E+00  0.0000000E+00  0.0000000E+00
 877953.  0.0000000E+00  0.0000000E+00  0.0000000E+00  0.0000000E+00  0.0000000E+00  0.0000000E+00
 839781.  0.0000000E+00  0.0000000E+00  0.0000000E+00  0.0000000E+00  0.0000000E+00  0.0000000E+00
 801609.  0.0000000E+00  0.0000000E+00  0.0000000E+00  0.0000000E+00  0.0000000E+00  0.0000000E+00
 763438.  0.0000000E+00  0.0000000E+00  0.0000000E+00  0.0000000E+00  0.0000000E+00  0.0000000E+00
 725266.  0.0000000E+00  0.0000000E+00  0.0000000E+00  0.0000000E+00  0.0000000E+00  0.0000000E+00
 687094.  0.0000000E+00  0.0000000E+00  0.0000000E+00  0.0000000E+00  0.0000000E+00  0.0000000E+00
 648922.  0.0000000E+00  0.0000000E+00  0.0000000E+00  0.0000000E+00  0.0000000E+00  0.0000000E+00
 610750.  0.0000000E+00  0.0000000E+00  0.0000000E+00  0.0000000E+00  0.0000000E+00  0.0000000E+00
 572578.  0.0000000E+00  0.0000000E+00  0.0000000E+00  0.0000000E+00  0.0000000E+00  0.0000000E+00
 534406.  0.0000000E+00  0.0000000E+00  0.0000000E+00  0.0000000E+00  0.0000000E+00  0.0000000E+00
 496234.  0.0000000E+00  0.0000000E+00  0.0000000E+00  0.0000000E+00  0.0000000E+00  0.0000000E+00
 458062.  0.0000000E+00  0.0000000E+00  0.0000000E+00  0.0000000E+00  0.0000000E+00  0.0000000E+00
 419891.  0.0000000E+00  0.0000000E+00  0.0000000E+00  0.0000000E+00  0.0000000E+00  0.0000000E+00
 381719.  0.0000000E+00  0.0000000E+00  0.0000000E+00  0.0000000E+00  0.0000000E+00  0.0000000E+00
 343547.  0.0000000E+00  0.0000000E+00  0.0000000E+00  0.0000000E+00  0.0000000E+00  0.0000000E+00
 305375.  0.0000000E+00  0.0000000E+00  0.0000000E+00  0.0000000E+00  0.0000000E+00  0.0000000E+00
 267203.  0.0000000E+00  0.0000000E+00  0.0000000E+00  0.0000000E+00  0.0000000E+00  0.0000000E+00
 229031.  0.0000000E+00  0.0000000E+00  0.0000000E+00  0.0000000E+00  0.0000000E+00  0.0000000E+00
 190859.  0.0000000E+00  0.0000000E+00  0.0000000E+00  0.0000000E+00  0.0000000E+00  0.0000000E+00
 152688.  0.0000000E+00  0.0000000E+00  0.0000000E+00  0.0000000E+00  0.0000000E+00  0.0000000E+00
 114516.  0.0000000E+00  0.0000000E+00  0.0000000E+00  0.0000000E+00  0.0000000E+00  0.0000000E+00
  76344.  0.0000000E+00  0.0000000E+00  0.0000000E+00  0.0000000E+00  0.0000000E+00  0.0000000E+00
  38172.  0.0000000E+00  0.0000000E+00  0.0000000E+00  0.0000000E+00  0.0000000E+00  0.0000000E+00
      0.  0.0000000E+00  0.0000000E+00  0.0000000E+00  0.0000000E+00  0.0000000E+00  0.0000000E+00
