       5       31 S      347        125.35160         10.13788          6.36438        242.10170      185    7
6371000. -0.1698731E-01  0.1102217E+01  0.2792708E-02  0.1978002E-01 -0.9687733E-03  0.6303484E-01
6370000. -0.1715957E-01  0.1092639E+01  0.2789340E-02  0.2313476E-01 -0.9786411E-03  0.6270136E-01
6369000. -0.1733029E-01  0.1082620E+01  0.2785446E-02  0.2648279E-01 -0.9884567E-03  0.6236729E-01
6368000. -0.1749941E-01  0.1072162E+01  0.2781027E-02  0.2982339E-01 -0.9982196E-03  0.6203265E-01
6368000. -0.1749941E-01  0.1072162E+01  0.2781027E-02  0.2982339E-01 -0.9982196E-03  0.6203265E-01
6367000. -0.1766684E-01  0.1061267E+01  0.2776084E-02  0.3315584E-01 -0.1007930E-02  0.6169746E-01
6366000. -0.1783254E-01  0.1049935E+01  0.2770619E-02  0.3647943E-01 -0.1017588E-02  0.6136174E-01
6365000. -0.1799642E-01  0.1038170E+01  0.2764633E-02  0.3979346E-01 -0.1027193E-02  0.6102550E-01
6364000. -0.1815842E-01  0.1025971E+01  0.2758128E-02  0.4309721E-01 -0.1036745E-02  0.6068877E-01
6363000. -0.1831847E-01  0.1013341E+01  0.2751105E-02  0.4638998E-01 -0.1046244E-02  0.6035157E-01
6362000. -0.1847651E-01  0.1000283E+01  0.2743565E-02  0.4967106E-01 -0.1055691E-02  0.6001391E-01
6361000. -0.1863246E-01  0.9867968E+00  0.2735512E-02  0.5293976E-01 -0.1065084E-02  0.5967580E-01
6360000. -0.1878626E-01  0.9728859E+00  0.2726947E-02  0.5619537E-01 -0.1074424E-02  0.5933728E-01
6359000. -0.1893785E-01  0.9585521E+00  0.2717872E-02  0.5943719E-01 -0.1083711E-02  0.5899836E-01
6358000. -0.1908715E-01  0.9437978E+00  0.2708289E-02  0.6266454E-01 -0.1092945E-02  0.5865906E-01
6357000. -0.1923411E-01  0.9286254E+00  0.2698201E-02  0.6587673E-01 -0.1102126E-02  0.5831940E-01
6356000. -0.1937865E-01  0.9130374E+00  0.2687610E-02  0.6907307E-01 -0.1111253E-02  0.5797939E-01
6356000. -0.1937865E-01  0.8331417E+00  0.2687610E-02  0.5046001E-01 -0.1111253E-02  0.6219596E-01
6355000. -0.1950857E-01  0.8222419E+00  0.2679545E-02  0.5229605E-01 -0.1120982E-02  0.6176947E-01
6354000. -0.1963676E-01  0.8111079E+00  0.2671193E-02  0.5412396E-01 -0.1130644E-02  0.6134324E-01
6353000. -0.1976318E-01  0.7997409E+00  0.2662555E-02  0.5594349E-01 -0.1140239E-02  0.6091730E-01
6352000. -0.1988780E-01  0.7881423E+00  0.2653632E-02  0.5775439E-01 -0.1149767E-02  0.6049165E-01
6351000. -0.2001058E-01  0.7763134E+00  0.2644425E-02  0.5955644E-01 -0.1159229E-02  0.6006630E-01
6350000. -0.2013149E-01  0.7642556E+00  0.2634936E-02  0.6134938E-01 -0.1168623E-02  0.5964127E-01
6349000. -0.2025049E-01  0.7519702E+00  0.2625167E-02  0.6313297E-01 -0.1177951E-02  0.5921656E-01
6348000. -0.2036754E-01  0.7394586E+00  0.2615118E-02  0.6490700E-01 -0.1187213E-02  0.5879217E-01
6347000. -0.2048261E-01  0.7267225E+00  0.2604791E-02  0.6667121E-01 -0.1196407E-02  0.5836813E-01
6346600. -0.2052807E-01  0.7215654E+00  0.2600583E-02  0.6737410E-01 -0.1200067E-02  0.5819861E-01
6346600. -0.2052807E-01  0.9384691E+00  0.2600583E-02  0.5302948E-01 -0.1200067E-02  0.6535646E-01
6318800. -0.2396787E-01  0.6193098E+00  0.2306594E-02  0.8077727E-01 -0.1458779E-02  0.5332713E-01
6291000. -0.2578588E-01  0.1994561E+00  0.1905278E-02  0.1019137E+00 -0.1666318E-02  0.4189117E-01
6291000. -0.2578588E-01  0.2162720E+00  0.1905278E-02  0.1044734E+00 -0.1666318E-02  0.4189117E-01
6263000. -0.2563588E-01 -0.2940078E+00  0.1412122E-02  0.1183532E+00 -0.1826488E-02  0.3107833E-01
6235000. -0.2314998E-01 -0.8393205E+00  0.8795871E-03  0.1222861E+00 -0.1940171E-02  0.2073001E-01
6207000. -0.1827483E-01 -0.1373366E+01  0.3521768E-03  0.1160578E+00 -0.2009339E-02  0.1081824E-01
6179000. -0.1116438E-01 -0.1848776E+01 -0.1265683E-03  0.1003191E+00 -0.2035897E-02  0.1341489E-02
6151000. -0.2175638E-02 -0.2221197E+01 -0.5177970E-03  0.7653977E-01 -0.2021814E-02 -0.7667763E-02
6151000. -0.2175638E-02 -0.1832637E+01 -0.5177970E-03  0.6746966E-01 -0.2021814E-02 -0.7547394E-02
6128500.  0.4562042E-02 -0.1970591E+01 -0.7216957E-03  0.4767615E-01 -0.1988573E-02 -0.1118216E-01
6106000.  0.1165146E-01 -0.2031015E+01 -0.8528801E-03  0.2646744E-01 -0.1943507E-02 -0.1424333E-01
6083500.  0.1881228E-01 -0.2010832E+01 -0.9082272E-03  0.4904457E-02 -0.1888644E-02 -0.1673103E-01
6061000.  0.2575991E-01 -0.1910696E+01 -0.8883239E-03 -0.1598043E-01 -0.1826002E-02 -0.1864941E-01
6038500.  0.3221849E-01 -0.1734870E+01 -0.7972856E-03 -0.3522868E-01 -0.1757581E-02 -0.2000538E-01
6016000.  0.3793316E-01 -0.1490914E+01 -0.6424224E-03 -0.5199572E-01 -0.1685351E-02 -0.2080795E-01
5993500.  0.4268096E-01 -0.1189260E+01 -0.4337774E-03 -0.6558294E-01 -0.1611248E-02 -0.2106811E-01
5971000.  0.4628008E-01 -0.8426839E+00 -0.1835672E-03 -0.7546142E-01 -0.1537169E-02 -0.2079576E-01
5971000.  0.4628008E-01 -0.7716454E+00 -0.1835672E-03 -0.7260973E-01 -0.1537169E-02 -0.2685421E-01
5937667.  0.4891478E-01 -0.2336287E+00  0.2136788E-03 -0.7789060E-01 -0.1399088E-02 -0.2578210E-01
5904333.  0.4874232E-01  0.2945570E+00  0.6182291E-03 -0.7558481E-01 -0.1268699E-02 -0.2395396E-01
5871000.  0.4591522E-01  0.7755945E+00  0.9936980E-03 -0.6703209E-01 -0.1149338E-02 -0.2160470E-01
5837667.  0.4075902E-01  0.1180889E+01  0.1311573E-02 -0.5384978E-01 -0.1043184E-02 -0.1893497E-01
5804333.  0.3372407E-01  0.1491269E+01  0.1552055E-02 -0.3772164E-01 -0.9514852E-03 -0.1610041E-01
5771000.  0.2533745E-01  0.1696718E+01  0.1703944E-02 -0.2023668E-01 -0.8748053E-03 -0.1320819E-01
5771000.  0.2533745E-01  0.1696825E+01  0.1703944E-02 -0.2023687E-01 -0.8748053E-03 -0.1320819E-01
5701000.  0.5421628E-02  0.1849025E+01  0.1713099E-02  0.1876082E-01 -0.7731002E-03 -0.5020935E-02
5701000.  0.5421628E-02  0.1615308E+01  0.1713099E-02  0.1396362E-01 -0.7731002E-03 -0.6549097E-02
5667333. -0.2739513E-02  0.1482160E+01  0.1618538E-02  0.2150159E-01 -0.7382562E-03 -0.6827375E-02
5633667. -0.1031479E-01  0.1383229E+01  0.1486558E-02  0.2842434E-01 -0.7004591E-03 -0.7426734E-02
5600000. -0.1726738E-01  0.1240221E+01  0.1319857E-02  0.3445236E-01 -0.6602529E-03 -0.7764461E-02
5600000. -0.1726738E-01  0.1240221E+01  0.1319857E-02  0.3445236E-01 -0.6602529E-03 -0.7764461E-02
5563518. -0.2382295E-01  0.1042840E+01  0.1107183E-02  0.3957333E-01 -0.6151433E-03 -0.7965650E-02
5527037. -0.2914356E-01  0.8105831E+00  0.8696833E-03  0.4310843E-01 -0.5692696E-03 -0.8039078E-02
5490556. -0.3305868E-01  0.5536737E+00  0.6166457E-03  0.4499694E-01 -0.5232522E-03 -0.8020435E-02
5454074. -0.3545742E-01  0.2826903E+00  0.3574719E-03  0.4525897E-01 -0.4775494E-03 -0.7932390E-02
5417593. -0.3628932E-01  0.8129531E-02  0.1012534E-03  0.4398816E-01 -0.4324993E-03 -0.7795325E-02
5381111. -0.3556256E-01 -0.2601279E+00 -0.1436591E-03  0.4133735E-01 -0.3883543E-03 -0.7616528E-02
5344630. -0.3333955E-01 -0.5130988E+00 -0.3699017E-03  0.3750581E-01 -0.3453421E-03 -0.7401367E-02
5308148. -0.2973036E-01 -0.7430775E+00 -0.5713739E-03  0.3272388E-01 -0.3036478E-03 -0.7155890E-02
5271667. -0.2488586E-01 -0.9436783E+00 -0.7433299E-03  0.2724069E-01 -0.2634554E-03 -0.6877093E-02
5235185. -0.1898832E-01 -0.1110175E+01 -0.8824897E-03  0.2130946E-01 -0.2249456E-03 -0.6568562E-02
5198704. -0.1224316E-01 -0.1239381E+01 -0.9869903E-03  0.1517607E-01 -0.1882833E-03 -0.6232030E-02
5162222. -0.4869208E-02 -0.1329582E+01 -0.1056346E-02  0.9070158E-02 -0.1536300E-03 -0.5866883E-02
5125741.  0.2908859E-02 -0.1380704E+01 -0.1091315E-02  0.3197726E-02 -0.1211414E-03 -0.5476878E-02
5089259.  0.1087045E-01 -0.1393890E+01 -0.1093747E-02 -0.2267845E-02 -0.9094818E-04 -0.5065606E-02
5052778.  0.1880388E-01 -0.1371426E+01 -0.1066392E-02 -0.7185470E-02 -0.6316072E-04 -0.4637523E-02
5016296.  0.2651461E-01 -0.1316645E+01 -0.1012708E-02 -0.1144919E-01 -0.3786376E-04 -0.4196343E-02
4979815.  0.3382825E-01 -0.1233517E+01 -0.9366546E-03 -0.1499038E-01 -0.1511422E-04 -0.3749246E-02
4943333.  0.4059564E-01 -0.1126575E+01 -0.8424844E-03 -0.1777245E-01  0.5072729E-05 -0.3301568E-02
4906852.  0.4669390E-01 -0.1000683E+01 -0.7345828E-03 -0.1978916E-01  0.2270027E-04 -0.2856820E-02
4870370.  0.5202881E-01 -0.8607203E+00 -0.6172656E-03 -0.2106578E-01  0.3781754E-04 -0.2425815E-02
4833889.  0.5653358E-01 -0.7115823E+00 -0.4946647E-03 -0.2164430E-01  0.5050814E-04 -0.2009201E-02
4797407.  0.6016934E-01 -0.5578956E+00 -0.3706026E-03 -0.2158747E-01  0.6086141E-04 -0.1611231E-02
4760926.  0.6292218E-01 -0.4039059E+00 -0.2484930E-03 -0.2097697E-01  0.6902095E-04 -0.1243410E-02
4724444.  0.6480171E-01 -0.2534421E+00 -0.1312753E-03 -0.1989172E-01  0.7514475E-04 -0.8997356E-03
4687963.  0.6583773E-01 -0.1098030E+00 -0.2141554E-04 -0.1842417E-01  0.7938505E-04 -0.5872601E-03
4651482.  0.6607742E-01  0.2429689E-01  0.7917083E-04 -0.1666711E-01  0.8193958E-04 -0.3103437E-03
4615000.  0.6558178E-01  0.1467186E+00  0.1690655E-03 -0.1470300E-01  0.8299384E-04 -0.6320030E-04
4578518.  0.6442248E-01  0.2558796E+00  0.2473292E-03 -0.1261863E-01  0.8273327E-04  0.1480246E-03
4542037.  0.6267866E-01  0.3507695E+00  0.3134912E-03 -0.1048766E-01  0.8136447E-04  0.3252033E-03
4505556.  0.6043364E-01  0.4308881E+00  0.3674637E-03 -0.8371796E-02  0.7906040E-04  0.4741684E-03
4469074.  0.5777237E-01  0.4961629E+00  0.4095201E-03 -0.6333950E-02  0.7600534E-04  0.5874312E-03
4432593.  0.5477909E-01  0.5469723E+00  0.4402275E-03 -0.4413859E-02  0.7238272E-04  0.6740087E-03
4396111.  0.5153463E-01  0.5839915E+00  0.4603604E-03 -0.2646365E-02  0.6833261E-04  0.7359614E-03
4359630.  0.4811564E-01  0.6081482E+00  0.4708882E-03 -0.1062401E-02  0.6401067E-04  0.7695805E-03
4323148.  0.4459222E-01  0.6206399E+00  0.4728954E-03  0.3283944E-03  0.5955493E-04  0.7836621E-03
4286667.  0.4102776E-01  0.6227392E+00  0.4675176E-03  0.1515523E-02  0.5507410E-04  0.7779975E-03
4250185.  0.3747766E-01  0.6158286E+00  0.4559337E-03  0.2496816E-02  0.5068265E-04  0.7531553E-03
4213704.  0.3398956E-01  0.6013504E+00  0.4392980E-03  0.3281498E-02  0.4647435E-04  0.7143687E-03
4177222.  0.3060265E-01  0.5806864E+00  0.4187172E-03  0.3876104E-02  0.4253217E-04  0.6599202E-03
4140741.  0.2734855E-01  0.5552220E+00  0.3952422E-03  0.4295825E-02  0.3894376E-04  0.5915839E-03
4104259.  0.2425077E-01  0.5262557E+00  0.3698173E-03  0.4559409E-02  0.3577724E-04  0.5121164E-03
4067778.  0.2132618E-01  0.4949572E+00  0.3432991E-03  0.4680966E-02  0.3311102E-04  0.4165876E-03
4031296.  0.1858470E-01  0.4624452E+00  0.3164372E-03  0.4683047E-02  0.3103248E-04  0.3070868E-03
3994815.  0.1603061E-01  0.4296795E+00  0.2898572E-03  0.4585576E-02  0.2962513E-04  0.1811984E-03
3958333.  0.1366282E-01  0.3974806E+00  0.2640801E-03  0.4405682E-02  0.2900120E-04  0.3280129E-04
3921852.  0.1147604E-01  0.3665873E+00  0.2395166E-03  0.4165445E-02  0.2929728E-04 -0.1409801E-03
3885370.  0.9460991E-02  0.3375638E+00  0.2164561E-03  0.3883482E-02  0.3068026E-04 -0.3484733E-03
3848889.  0.7605746E-02  0.3108549E+00  0.1950852E-03  0.3579012E-02  0.3337197E-04 -0.5998392E-03
3812407.  0.5895969E-02  0.2867751E+00  0.1754684E-03  0.3274303E-02  0.3765622E-04 -0.9071720E-03
3775926.  0.4316243E-02  0.2654552E+00  0.1575450E-03  0.2991868E-02  0.4390214E-04 -0.1288344E-02
3739444.  0.2850695E-02  0.2468580E+00  0.1411082E-03  0.2760303E-02  0.5259299E-04 -0.1765115E-02
3702963.  0.1484475E-02  0.2307013E+00  0.1257668E-03  0.2616225E-02  0.6435249E-04 -0.2365635E-02
3666482.  0.2052084E-03  0.2163493E+00  0.1108894E-03  0.2607738E-02  0.7999070E-04 -0.3126695E-02
3630000. -0.9946391E-03  0.2027190E+00  0.9551435E-04  0.2803424E-02  0.1005545E-03 -0.4094483E-02
3630000. -0.9946391E-03  0.2027190E+00  0.9551435E-04  0.2803424E-02  0.1005545E-03 -0.4094483E-02
3592500. -0.2144405E-02  0.1875506E+00  0.7768068E-04  0.3320603E-02  0.1282421E-03 -0.5366169E-02
3555000. -0.3194218E-02  0.1681110E+00  0.5549679E-04  0.4312871E-02  0.1644299E-03 -0.6997511E-02
3517500. -0.4105584E-02  0.1394947E+00  0.2553060E-04  0.6011588E-02  0.2115161E-03 -0.9087460E-02
3480000. -0.4803542E-02  0.9401821E-01 -0.1732520E-04  0.8762352E-02  0.2725408E-03 -0.1175538E-01
3480000. -0.4803542E-02 -0.1849317E+00 -0.2060093E-03 -0.8413349E-02  0.2725408E-03  0.3649500E-02
3409422. -0.3097662E-02 -0.1260500E+00 -0.1296443E-03 -0.5544644E-02  0.2176057E-03  0.5647390E-02
3338844. -0.1950336E-02 -0.8352302E-01 -0.7987134E-04 -0.3568519E-02  0.1561488E-03  0.5222745E-02
3268266. -0.1199572E-02 -0.5388222E-01 -0.4817906E-04 -0.2244273E-02  0.1045446E-03  0.4049109E-02
3197688. -0.7210019E-03 -0.3387801E-01 -0.2845528E-04 -0.1379770E-02  0.6647643E-04  0.2849913E-02
3127109. -0.4235579E-03 -0.2077479E-01 -0.1645358E-04 -0.8294160E-03  0.4053394E-04  0.1879093E-02
3056531. -0.2432048E-03 -0.1243102E-01 -0.9312617E-05 -0.4875366E-03  0.2383521E-04  0.1178695E-02
2985953. -0.1364777E-03 -0.7259874E-02 -0.5157798E-05 -0.2802042E-03  0.1356342E-04  0.7093886E-03
2915375. -0.7483036E-04 -0.4138334E-02 -0.2794262E-05 -0.1574292E-03  0.7485105E-05  0.4116987E-03
2844797. -0.4007412E-04 -0.2302215E-02 -0.1480022E-05 -0.8643691E-04  0.4011061E-05  0.2311084E-03
2774219. -0.2095143E-04 -0.1249607E-02 -0.7659724E-06 -0.4635819E-04  0.2088572E-05  0.1257178E-03
2703641. -0.1068737E-04 -0.6615007E-03 -0.3870837E-06 -0.2427315E-04  0.1057000E-05  0.6634038E-04
2633062. -0.5315268E-05 -0.3413304E-03 -0.1908529E-06 -0.1239953E-04  0.5198653E-06  0.3397540E-04
2562484. -0.2575300E-05 -0.1715617E-03 -0.9173086E-07 -0.6174957E-05  0.2483963E-06  0.1688850E-04
2491906. -0.1214405E-05 -0.8392802E-04 -0.4293521E-07 -0.2995126E-05  0.1152309E-06  0.8145803E-05
2421328. -0.5567572E-06 -0.3992275E-04 -0.1954805E-07 -0.1413518E-05  0.5185660E-07  0.3810213E-05
2350750. -0.2478600E-06 -0.1844515E-04 -0.8646453E-08 -0.6483176E-06  0.2261531E-07  0.1726969E-05
2280172. -0.1070022E-06 -0.8266969E-05 -0.3710276E-08 -0.2886057E-06  0.9546176E-08  0.7576817E-06
2209594. -0.4472604E-07 -0.3589174E-05 -0.1542157E-08 -0.1245126E-06  0.3894579E-08  0.3213682E-06
2139016. -0.1807033E-07 -0.1507055E-05 -0.6197949E-09 -0.5197534E-07  0.1533125E-08  0.1315771E-06
2068438. -0.7043342E-08 -0.6108934E-06 -0.2403929E-09 -0.2095349E-07  0.5812500E-09  0.5191130E-07
1997859. -0.2642790E-08 -0.2385695E-06 -0.8978482E-10 -0.8141203E-08  0.2117791E-09  0.1969579E-07
1927281. -0.9523331E-09 -0.8955654E-07 -0.3221465E-10 -0.3041591E-08  0.7397805E-10  0.7170297E-08
1856703. -0.3286882E-09 -0.3223229E-07 -0.1107366E-10 -0.1089836E-08  0.2470771E-10  0.2498171E-08
1786125. -0.1083267E-09 -0.1109018E-07 -0.3635766E-11 -0.3734239E-09  0.7865653E-11  0.8305241E-09
1715547. -0.3397525E-10 -0.3635956E-08 -0.1136267E-11 -0.1219534E-09  0.2378463E-11  0.2625899E-09
1644969. -0.1010163E-10 -0.1131671E-08 -0.3367150E-12 -0.3781988E-10  0.6804545E-12  0.7865950E-10
1574391. -0.2834852E-11 -0.3329650E-09 -0.9419372E-13 -0.1109059E-10  0.1833475E-12  0.2222825E-10
1503812. -0.7474756E-12 -0.9211566E-10 -0.2473886E-13 -0.3061977E-11  0.4626569E-13  0.5899397E-11
1433234.  0.0000000E+00  0.0000000E+00  0.0000000E+00  0.0000000E+00  0.0000000E+00  0.0000000E+00
1362656.  0.0000000E+00  0.0000000E+00  0.0000000E+00  0.0000000E+00  0.0000000E+00  0.0000000E+00
1292078.  0.0000000E+00  0.0000000E+00  0.0000000E+00  0.0000000E+00  0.0000000E+00  0.0000000E+00
1221500.  0.0000000E+00  0.0000000E+00  0.0000000E+00  0.0000000E+00  0.0000000E+00  0.0000000E+00
1221500.  0.0000000E+00  0.0000000E+00  0.0000000E+00  0.0000000E+00  0.0000000E+00  0.0000000E+00
1183328.  0.0000000E+00  0.0000000E+00  0.0000000E+00  0.0000000E+00  0.0000000E+00  0.0000000E+00
1145156.  0.0000000E+00  0.0000000E+00  0.0000000E+00  0.0000000E+00  0.0000000E+00  0.0000000E+00
1106984.  0.0000000E+00  0.0000000E+00  0.0000000E+00  0.0000000E+00  0.0000000E+00  0.0000000E+00
1068812.  0.0000000E+00  0.0000000E+00  0.0000000E+00  0.0000000E+00  0.0000000E+00  0.0000000E+00
1030641.  0.0000000E+00  0.0000000E+00  0.0000000E+00  0.0000000E+00  0.0000000E+00  0.0000000E+00
 992469.  0.0000000E+00  0.0000000E+00  0.0000000E+00  0.0000000E+00  0.0000000E+00  0.0000000E+00
 954297.  0.0000000E+00  0.0000000E+00  0.0000000E+00  0.0000000E+00  0.0000000E+00  0.0000000E+00
 916125.  0.0000000E+00  0.0000000E+00  0.0000000E+00  0.0000000E+00  0.0000000E+00  0.0000000E+00
 877953.  0.0000000E+00  0.0000000E+00  0.0000000E+00  0.0000000E+00  0.0000000E+00  0.0000000E+00
 839781.  0.0000000E+00  0.0000000E+00  0.0000000E+00  0.0000000E+00  0.0000000E+00  0.0000000E+00
 801609.  0.0000000E+00  0.0000000E+00  0.0000000E+00  0.0000000E+00  0.0000000E+00  0.0000000E+00
 763438.  0.0000000E+00  0.0000000E+00  0.0000000E+00  0.0000000E+00  0.0000000E+00  0.0000000E+00
 725266.  0.0000000E+00  0.0000000E+00  0.0000000E+00  0.0000000E+00  0.0000000E+00  0.0000000E+00
 687094.  0.0000000E+00  0.0000000E+00  0.0000000E+00  0.0000000E+00  0.0000000E+00  0.0000000E+00
 648922.  0.0000000E+00  0.0000000E+00  0.0000000E+00  0.0000000E+00  0.0000000E+00  0.0000000E+00
 610750.  0.0000000E+00  0.0000000E+00  0.0000000E+00  0.0000000E+00  0.0000000E+00  0.0000000E+00
 572578.  0.0000000E+00  0.0000000E+00  0.0000000E+00  0.0000000E+00  0.0000000E+00  0.0000000E+00
 534406.  0.0000000E+00  0.0000000E+00  0.0000000E+00  0.0000000E+00  0.0000000E+00  0.0000000E+00
 496234.  0.0000000E+00  0.0000000E+00  0.0000000E+00  0.0000000E+00  0.0000000E+00  0.0000000E+00
 458062.  0.0000000E+00  0.0000000E+00  0.0000000E+00  0.0000000E+00  0.0000000E+00  0.0000000E+00
 419891.  0.0000000E+00  0.0000000E+00  0.0000000E+00  0.0000000E+00  0.0000000E+00  0.0000000E+00
 381719.  0.0000000E+00  0.0000000E+00  0.0000000E+00  0.0000000E+00  0.0000000E+00  0.0000000E+00
 343547.  0.0000000E+00  0.0000000E+00  0.0000000E+00  0.0000000E+00  0.0000000E+00  0.0000000E+00
 305375.  0.0000000E+00  0.0000000E+00  0.0000000E+00  0.0000000E+00  0.0000000E+00  0.0000000E+00
 267203.  0.0000000E+00  0.0000000E+00  0.0000000E+00  0.0000000E+00  0.0000000E+00  0.0000000E+00
 229031.  0.0000000E+00  0.0000000E+00  0.0000000E+00  0.0000000E+00  0.0000000E+00  0.0000000E+00
 190859.  0.0000000E+00  0.0000000E+00  0.0000000E+00  0.0000000E+00  0.0000000E+00  0.0000000E+00
 152688.  0.0000000E+00  0.0000000E+00  0.0000000E+00  0.0000000E+00  0.0000000E+00  0.0000000E+00
 114516.  0.0000000E+00  0.0000000E+00  0.0000000E+00  0.0000000E+00  0.0000000E+00  0.0000000E+00
  76344.  0.0000000E+00  0.0000000E+00  0.0000000E+00  0.0000000E+00  0.0000000E+00  0.0000000E+00
  38172.  0.0000000E+00  0.0000000E+00  0.0000000E+00  0.0000000E+00  0.0000000E+00  0.0000000E+00
      0.  0.0000000E+00  0.0000000E+00  0.0000000E+00  0.0000000E+00  0.0000000E+00  0.0000000E+00
