       7        1 S      401        448.16089         59.54733          7.08638        248.38741      185    7
6371000. -0.3260959E-01 -0.1123402E+00 -0.1753451E+00 -0.1427355E+00 -0.1668493E-09  0.6149405E-01
6370000. -0.3259186E-01 -0.1135531E+00 -0.1753210E+00 -0.1642270E+00 -0.9657877E-05  0.6156444E-01
6369000. -0.3257394E-01 -0.1147611E+00 -0.1752935E+00 -0.1857225E+00 -0.1932661E-04  0.6163451E-01
6368000. -0.3255583E-01 -0.1159640E+00 -0.1752627E+00 -0.2072216E+00 -0.2900632E-04  0.6170426E-01
6368000. -0.3255583E-01 -0.1159640E+00 -0.1752627E+00 -0.2072216E+00 -0.2900632E-04  0.6170426E-01
6367000. -0.3253753E-01 -0.1171620E+00 -0.1752285E+00 -0.2287239E+00 -0.3869694E-04  0.6177368E-01
6366000. -0.3251905E-01 -0.1183549E+00 -0.1751909E+00 -0.2502289E+00 -0.4839844E-04  0.6184278E-01
6365000. -0.3250038E-01 -0.1195429E+00 -0.1751499E+00 -0.2717362E+00 -0.5811077E-04  0.6191155E-01
6364000. -0.3248153E-01 -0.1207258E+00 -0.1751056E+00 -0.2932456E+00 -0.6783385E-04  0.6198001E-01
6363000. -0.3246249E-01 -0.1219037E+00 -0.1750579E+00 -0.3147564E+00 -0.7756767E-04  0.6204813E-01
6362000. -0.3244326E-01 -0.1230765E+00 -0.1750068E+00 -0.3362683E+00 -0.8731214E-04  0.6211593E-01
6361000. -0.3242385E-01 -0.1242443E+00 -0.1749523E+00 -0.3577810E+00 -0.9706723E-04  0.6218341E-01
6360000. -0.3240426E-01 -0.1254071E+00 -0.1748945E+00 -0.3792939E+00 -0.1068329E-03  0.6225056E-01
6359000. -0.3238448E-01 -0.1265647E+00 -0.1748332E+00 -0.4008068E+00 -0.1166091E-03  0.6231739E-01
6358000. -0.3236452E-01 -0.1277173E+00 -0.1747686E+00 -0.4223191E+00 -0.1263957E-03  0.6238388E-01
6357000. -0.3234439E-01 -0.1288648E+00 -0.1747006E+00 -0.4438304E+00 -0.1361928E-03  0.6245006E-01
6356000. -0.3232407E-01 -0.1300072E+00 -0.1746293E+00 -0.4653404E+00 -0.1460002E-03  0.6251590E-01
6356000. -0.3232407E-01 -0.1098546E+00 -0.1746293E+00 -0.3374210E+00 -0.1460002E-03  0.6954924E-01
6355000. -0.3230676E-01 -0.1107071E+00 -0.1745752E+00 -0.3518762E+00 -0.1569229E-03  0.6962895E-01
6354000. -0.3228932E-01 -0.1115564E+00 -0.1745188E+00 -0.3663316E+00 -0.1678582E-03  0.6970841E-01
6353000. -0.3227174E-01 -0.1124023E+00 -0.1744602E+00 -0.3807871E+00 -0.1788060E-03  0.6978761E-01
6352000. -0.3225403E-01 -0.1132451E+00 -0.1743993E+00 -0.3952425E+00 -0.1897661E-03  0.6986655E-01
6351000. -0.3223619E-01 -0.1140845E+00 -0.1743361E+00 -0.4096976E+00 -0.2007387E-03  0.6994523E-01
6350000. -0.3221822E-01 -0.1149208E+00 -0.1742707E+00 -0.4241523E+00 -0.2117235E-03  0.7002365E-01
6349000. -0.3220011E-01 -0.1157537E+00 -0.1742030E+00 -0.4386062E+00 -0.2227206E-03  0.7010181E-01
6348000. -0.3218188E-01 -0.1165833E+00 -0.1741330E+00 -0.4530594E+00 -0.2337300E-03  0.7017970E-01
6347000. -0.3216352E-01 -0.1174097E+00 -0.1740608E+00 -0.4675115E+00 -0.2447516E-03  0.7025734E-01
6346600. -0.3215614E-01 -0.1177393E+00 -0.1740312E+00 -0.4732920E+00 -0.2491637E-03  0.7028832E-01
6346600. -0.3215614E-01 -0.1260752E+00 -0.1740312E+00 -0.3658056E+00 -0.2491637E-03  0.8150069E-01
6318800. -0.3156890E-01 -0.1427719E+00 -0.1717495E+00 -0.6795738E+00 -0.6097826E-03  0.8375808E-01
6291000. -0.3091296E-01 -0.1575480E+00 -0.1681062E+00 -0.9894406E+00 -0.9798624E-03  0.8583559E-01
6291000. -0.3091296E-01 -0.1628329E+00 -0.1681062E+00 -0.1027080E+01 -0.9798624E-03  0.8583559E-01
6263000. -0.3016835E-01 -0.1756538E+00 -0.1628879E+00 -0.1346233E+01 -0.1361226E-02  0.8767916E-01
6235000. -0.2937227E-01 -0.1862504E+00 -0.1562871E+00 -0.1655806E+01 -0.1750252E-02  0.8932106E-01
6207000. -0.2853457E-01 -0.1945836E+00 -0.1483514E+00 -0.1953281E+01 -0.2146038E-02  0.9075438E-01
6179000. -0.2766526E-01 -0.2006386E+00 -0.1391394E+00 -0.2236244E+01 -0.2547653E-02  0.9197297E-01
6151000. -0.2677432E-01 -0.2044238E+00 -0.1287199E+00 -0.2502376E+01 -0.2954143E-02  0.9297203E-01
6151000. -0.2677432E-01 -0.1811307E+00 -0.1287199E+00 -0.2201777E+01 -0.2954143E-02  0.9445333E-01
6128500. -0.2613549E-01 -0.1804363E+00 -0.1206594E+00 -0.2360922E+01 -0.3289837E-02  0.9563506E-01
6106000. -0.2550146E-01 -0.1784177E+00 -0.1120587E+00 -0.2507607E+01 -0.3629502E-02  0.9670172E-01
6083500. -0.2487681E-01 -0.1751385E+00 -0.1029627E+00 -0.2641376E+01 -0.3972729E-02  0.9765227E-01
6061000. -0.2426587E-01 -0.1706660E+00 -0.9341772E-01 -0.2761822E+01 -0.4319108E-02  0.9848632E-01
6038500. -0.2367272E-01 -0.1650724E+00 -0.8347134E-01 -0.2868628E+01 -0.4668225E-02  0.9920303E-01
6016000. -0.2310119E-01 -0.1584335E+00 -0.7317221E-01 -0.2961550E+01 -0.5019665E-02  0.9980167E-01
5993500. -0.2255483E-01 -0.1508278E+00 -0.6256975E-01 -0.3040384E+01 -0.5373011E-02  0.1002821E+00
5971000. -0.2203692E-01 -0.1423377E+00 -0.5171391E-01 -0.3105030E+01 -0.5727844E-02  0.1006437E+00
5971000. -0.2203692E-01 -0.1307967E+00 -0.5171391E-01 -0.2766447E+01 -0.5727844E-02  0.1035286E+00
5937667. -0.2138989E-01 -0.1164309E+00 -0.3730489E-01 -0.2737505E+01 -0.6271777E-02  0.1043611E+00
5904333. -0.2081943E-01 -0.1015666E+00 -0.2310833E-01 -0.2685591E+01 -0.6819513E-02  0.1049758E+00
5871000. -0.2032750E-01 -0.8645286E-01 -0.9237261E-02 -0.2613734E+01 -0.7369882E-02  0.1053749E+00
5837667. -0.1991483E-01 -0.7130719E-01  0.4211894E-02 -0.2524767E+01 -0.7921781E-02  0.1055610E+00
5804333. -0.1958106E-01 -0.5631943E-01  0.1715703E-01 -0.2421338E+01 -0.8474119E-02  0.1055363E+00
5771000. -0.1932494E-01 -0.4165343E-01  0.2952812E-01 -0.2305871E+01 -0.9025766E-02  0.1053039E+00
5771000. -0.1932494E-01 -0.4164898E-01  0.2952812E-01 -0.2305794E+01 -0.9025766E-02  0.1053039E+00
5701000. -0.1900494E-01 -0.1656123E-01  0.5428108E-01 -0.2188732E+01 -0.1017155E-01  0.1030960E+00
5701000. -0.1900494E-01 -0.6295077E-02  0.5428108E-01 -0.1707470E+01 -0.1017155E-01  0.1084528E+00
5667333. -0.1900239E-01  0.4579720E-02  0.6264181E-01 -0.1489800E+01 -0.1074079E-01  0.1070039E+00
5633667. -0.1904779E-01  0.1240883E-01  0.7030239E-01 -0.1419321E+01 -0.1130254E-01  0.1055924E+00
5600000. -0.1913346E-01  0.1999393E-01  0.7760644E-01 -0.1341856E+01 -0.1185637E-01  0.1039828E+00
5600000. -0.1913346E-01  0.1999393E-01  0.7760644E-01 -0.1341856E+01 -0.1185637E-01  0.1039828E+00
5563518. -0.1927057E-01  0.2782106E-01  0.8503231E-01 -0.1250569E+01 -0.1244630E-01  0.1020216E+00
5527037. -0.1945106E-01  0.3513196E-01  0.9191535E-01 -0.1152437E+01 -0.1302433E-01  0.9983470E-01
5490556. -0.1967172E-01  0.4183801E-01  0.9821840E-01 -0.1048081E+01 -0.1358920E-01  0.9742610E-01
5454074. -0.1992886E-01  0.4785492E-01  0.1039076E+00 -0.9381008E+00 -0.1413968E-01  0.9480112E-01
5417593. -0.2021823E-01  0.5308320E-01  0.1089528E+00 -0.8233311E+00 -0.1467449E-01  0.9196153E-01
5381111. -0.2053511E-01  0.5745226E-01  0.1133287E+00 -0.7044130E+00 -0.1519246E-01  0.8891299E-01
5344630. -0.2087436E-01  0.6088493E-01  0.1170135E+00 -0.5820848E+00 -0.1569237E-01  0.8566047E-01
5308148. -0.2123041E-01  0.6330324E-01  0.1199899E+00 -0.4571146E+00 -0.1617309E-01  0.8220679E-01
5271667. -0.2159727E-01  0.6465709E-01  0.1222447E+00 -0.3301698E+00 -0.1663346E-01  0.7856040E-01
5235185. -0.2196868E-01  0.6488058E-01  0.1237689E+00 -0.2020177E+00 -0.1707242E-01  0.7472444E-01
5198704. -0.2233799E-01  0.6391873E-01  0.1245574E+00 -0.7338077E-01 -0.1748888E-01  0.7070449E-01
5162222. -0.2269836E-01  0.6174495E-01  0.1246096E+00  0.5506854E-01 -0.1788183E-01  0.6650956E-01
5125741. -0.2304266E-01  0.5830417E-01  0.1239285E+00  0.1826012E+00 -0.1825024E-01  0.6214276E-01
5089259. -0.2336357E-01  0.5357318E-01  0.1225213E+00  0.3085553E+00 -0.1859319E-01  0.5761159E-01
5052778. -0.2365367E-01  0.4753798E-01  0.1203991E+00  0.4322571E+00 -0.1890974E-01  0.5292427E-01
5016296. -0.2390540E-01  0.4016734E-01  0.1175764E+00  0.5530888E+00 -0.1919901E-01  0.4808542E-01
4979815. -0.2411111E-01  0.3146598E-01  0.1140717E+00  0.6704136E+00 -0.1946016E-01  0.4310410E-01
4943333. -0.2426318E-01  0.2143130E-01  0.1099064E+00  0.7836527E+00 -0.1969239E-01  0.3798725E-01
4906852. -0.2435396E-01  0.1005940E-01  0.1051058E+00  0.8922677E+00 -0.1989495E-01  0.3274097E-01
4870370. -0.2437587E-01 -0.2616312E-02  0.9969778E-01  0.9956815E+00 -0.2006713E-01  0.2737558E-01
4833889. -0.2432149E-01 -0.1658883E-01  0.9371373E-01  0.1093438E+01 -0.2020825E-01  0.2189694E-01
4797407. -0.2418343E-01 -0.3183356E-01  0.8718694E-01  0.1185097E+01 -0.2031770E-01  0.1631229E-01
4760926. -0.2395459E-01 -0.4829181E-01  0.8015426E-01  0.1270133E+01 -0.2039489E-01  0.1063316E-01
4724444. -0.2362806E-01 -0.6594695E-01  0.7265405E-01  0.1348272E+01 -0.2043930E-01  0.4863622E-02
4687963. -0.2319716E-01 -0.8473878E-01  0.6472728E-01  0.1419117E+01 -0.2045043E-01 -0.9862250E-03
4651482. -0.2265556E-01 -0.1046026E+00  0.5641666E-01  0.1482311E+01 -0.2042787E-01 -0.6907301E-02
4615000. -0.2199722E-01 -0.1254969E+00  0.4776623E-01  0.1537679E+01 -0.2037120E-01 -0.1289394E-01
4578518. -0.2121650E-01 -0.1473352E+00  0.3882193E-01  0.1584900E+01 -0.2028009E-01 -0.1893569E-01
4542037. -0.2030822E-01 -0.1700477E+00  0.2963127E-01  0.1623805E+01 -0.2015425E-01 -0.2502458E-01
4505556. -0.1926753E-01 -0.1935686E+00  0.2024175E-01  0.1654322E+01 -0.1999343E-01 -0.3115419E-01
4469074. -0.1809008E-01 -0.2177854E+00  0.1070192E-01  0.1676192E+01 -0.1979741E-01 -0.3731352E-01
4432593. -0.1677218E-01 -0.2426299E+00  0.1061765E-02  0.1689473E+01 -0.1956606E-01 -0.4349637E-01
4396111. -0.1531038E-01 -0.2680111E+00 -0.8630102E-02  0.1694135E+01 -0.1929924E-01 -0.4969506E-01
4359630. -0.1370207E-01 -0.2938000E+00 -0.1832336E-01  0.1690062E+01 -0.1899692E-01 -0.5589940E-01
4323148. -0.1194503E-01 -0.3199272E+00 -0.2796907E-01  0.1677464E+01 -0.1865906E-01 -0.6210377E-01
4286667. -0.1003776E-01 -0.3462720E+00 -0.3751804E-01  0.1656360E+01 -0.1828570E-01 -0.6829950E-01
4250185. -0.7979244E-02 -0.3727152E+00 -0.4692222E-01  0.1626842E+01 -0.1787690E-01 -0.7447888E-01
4213704. -0.5769293E-02 -0.3991678E+00 -0.5613374E-01  0.1589187E+01 -0.1743279E-01 -0.8063499E-01
4177222. -0.3408116E-02 -0.4254907E+00 -0.6510676E-01  0.1543481E+01 -0.1695350E-01 -0.8676033E-01
4140741. -0.8969177E-03 -0.4515755E+00 -0.7379542E-01  0.1490013E+01 -0.1643925E-01 -0.9284756E-01
4104259.  0.1762817E-02 -0.4773228E+00 -0.8215678E-01  0.1429114E+01 -0.1589026E-01 -0.9889045E-01
4067778.  0.4568537E-02 -0.5025693E+00 -0.9014820E-01  0.1360936E+01 -0.1530682E-01 -0.1048821E+00
4031296.  0.7517267E-02 -0.5272319E+00 -0.9772971E-01  0.1285940E+01 -0.1468922E-01 -0.1108159E+00
3994815.  0.1060519E-01 -0.5511883E+00 -0.1048630E+00  0.1204487E+01 -0.1403784E-01 -0.1166855E+00
3958333.  0.1382796E-01 -0.5742826E+00 -0.1115121E+00  0.1116846E+01 -0.1335303E-01 -0.1224866E+00
3921852.  0.1718023E-01 -0.5964354E+00 -0.1176428E+00  0.1023562E+01 -0.1263523E-01 -0.1282112E+00
3885370.  0.2065643E-01 -0.6175088E+00 -0.1232242E+00  0.9250100E+00 -0.1188486E-01 -0.1338558E+00
3848889.  0.2424978E-01 -0.6373727E+00 -0.1282271E+00  0.8216227E+00 -0.1110243E-01 -0.1394155E+00
3812407.  0.2795333E-01 -0.6559438E+00 -0.1326256E+00  0.7139481E+00 -0.1028840E-01 -0.1448835E+00
3775926.  0.3175905E-01 -0.6730705E+00 -0.1363961E+00  0.6024011E+00 -0.9443345E-02 -0.1502587E+00
3739444.  0.3565857E-01 -0.6886595E+00 -0.1395181E+00  0.4875204E+00 -0.8567768E-02 -0.1555352E+00
3702963.  0.3964265E-01 -0.7026196E+00 -0.1419740E+00  0.3698600E+00 -0.7662302E-02 -0.1607067E+00
3666482.  0.4370162E-01 -0.7148010E+00 -0.1437493E+00  0.2498726E+00 -0.6727513E-02 -0.1657770E+00
3630000.  0.4782522E-01 -0.7251433E+00 -0.1448324E+00  0.1281520E+00 -0.5763978E-02 -0.1707362E+00
3630000.  0.4782522E-01 -0.7251433E+00 -0.1448324E+00  0.1281520E+00 -0.5763978E-02 -0.1707362E+00
3592500.  0.5211969E-01 -0.7337201E+00 -0.1452152E+00  0.1761304E-02 -0.4744288E-02 -0.1757216E+00
3555000.  0.5645828E-01 -0.7401204E+00 -0.1448517E+00 -0.1253192E+00 -0.3695593E-02 -0.1805906E+00
3517500.  0.6082798E-01 -0.7442787E+00 -0.1437398E+00 -0.2524779E+00 -0.2618610E-02 -0.1853333E+00
3480000.  0.6521527E-01 -0.7460826E+00 -0.1418805E+00 -0.3791400E+00 -0.1514071E-02 -0.1899540E+00
3480000.  0.6521527E-01 -0.8622521E+00  0.1090274E-01  0.9925600E-01 -0.1514071E-02 -0.3990984E+00
3409422.  0.7432818E-01 -0.7821900E+00  0.9684108E-02  0.1206940E+00  0.3309163E-02 -0.4708388E+00
3338844.  0.8253020E-01 -0.6979870E+00  0.8230156E-02  0.1417225E+00  0.8898096E-02 -0.5372348E+00
3268266.  0.8978141E-01 -0.6106985E+00  0.6546012E-02  0.1622343E+00  0.1519033E-01 -0.5977247E+00
3197688.  0.9605301E-01 -0.5212841E+00  0.4637972E-02  0.1821286E+00  0.2211771E-01 -0.6518301E+00
3127109.  0.1013264E+00 -0.4306099E+00  0.2513346E-02  0.2013164E+00  0.2960735E-01 -0.6991542E+00
3056531.  0.1055920E+00 -0.3394671E+00  0.1804844E-03  0.2197154E+00  0.3758205E-01 -0.7393761E+00
2985953.  0.1088486E+00 -0.2485702E+00 -0.2351485E-02  0.2372512E+00  0.4596185E-01 -0.7722526E+00
2915375.  0.1111026E+00 -0.1585703E+00 -0.5072622E-02  0.2538568E+00  0.5466432E-01 -0.7976094E+00
2844797.  0.1123674E+00 -0.7005813E-01 -0.7972280E-02  0.2694714E+00  0.6360552E-01 -0.8153402E+00
2774219.  0.1126623E+00  0.1642807E-01 -0.1103917E-01  0.2840389E+00  0.7270069E-01 -0.8254038E+00
2703641.  0.1120127E+00  0.1003998E+00 -0.1426141E-01  0.2975118E+00  0.8186495E-01 -0.8278205E+00
2633062.  0.1104487E+00  0.1814187E+00 -0.1762669E-01  0.3098472E+00  0.9101406E-01 -0.8226668E+00
2562484.  0.1080055E+00  0.2590802E+00 -0.2112207E-01  0.3210010E+00  0.1000646E+00 -0.8100759E+00
2491906.  0.1047223E+00  0.3330244E+00 -0.2473432E-01  0.3309421E+00  0.1089353E+00 -0.7902333E+00
2421328.  0.1006420E+00  0.4029269E+00 -0.2844986E-01  0.3396452E+00  0.1175471E+00 -0.7633703E+00
2350750.  0.9581099E-01  0.4685049E+00 -0.3225482E-01  0.3470789E+00  0.1258237E+00 -0.7297640E+00
2280172.  0.9027869E-01  0.5295015E+00 -0.3613498E-01  0.3532231E+00  0.1336921E+00 -0.6897343E+00
2209594.  0.8409708E-01  0.5856963E+00 -0.4007601E-01  0.3580624E+00  0.1410830E+00 -0.6436379E+00
2139016.  0.7732045E-01  0.6368970E+00 -0.4406336E-01  0.3615868E+00  0.1479316E+00 -0.5918669E+00
2068438.  0.7000497E-01  0.6829529E+00 -0.4808245E-01  0.3637862E+00  0.1541771E+00 -0.5348434E+00
1997859.  0.6220833E-01  0.7237284E+00 -0.5211854E-01  0.3646501E+00  0.1597639E+00 -0.4730178E+00
1927281.  0.5398975E-01  0.7591352E+00 -0.5615680E-01  0.3641854E+00  0.1646414E+00 -0.4068660E+00
1856703.  0.4540901E-01  0.7891015E+00 -0.6018253E-01  0.3623903E+00  0.1687643E+00 -0.3368815E+00
1786125.  0.3652659E-01  0.8135996E+00 -0.6418100E-01  0.3592633E+00  0.1720930E+00 -0.2635752E+00
1715547.  0.2740308E-01  0.8326293E+00 -0.6813751E-01  0.3548211E+00  0.1745937E+00 -0.1874697E+00
1644969.  0.1809892E-01  0.8462225E+00 -0.7203757E-01  0.3490660E+00  0.1762382E+00 -0.1090954E+00
1574391.  0.8673986E-02  0.8544472E+00 -0.7586659E-01  0.3420015E+00  0.1770044E+00 -0.2898642E-01
1503812. -0.8129407E-03  0.8574124E+00 -0.7961023E-01  0.3336392E+00  0.1768760E+00  0.5232573E-01
1433234. -0.1030412E-01  0.8552685E+00 -0.8325396E-01  0.3239774E+00  0.1758426E+00  0.1343129E+00
1362656. -0.1974416E-01  0.8482171E+00 -0.8678350E-01  0.3130200E+00  0.1738996E+00  0.2164632E+00
1292078. -0.2908007E-01  0.8365196E+00 -0.9018435E-01  0.3007352E+00  0.1710479E+00  0.2982832E+00
1221500. -0.3826215E-01  0.8205099E+00 -0.9344161E-01  0.2871016E+00  0.1672938E+00  0.3793078E+00
1221500. -0.3826215E-01  0.9537113E+00 -0.6562367E-01 -0.1427099E+00  0.1672938E+00  0.3958832E+00
1183328. -0.4408879E-01  0.9911572E+00 -0.6500100E-01 -0.6337787E-01  0.1648039E+00  0.4351544E+00
1145156. -0.5013788E-01  0.1027877E+01 -0.6488392E-01  0.2581015E-01  0.1620803E+00  0.4739195E+00
1106984. -0.5640342E-01  0.1063315E+01 -0.6532689E-01  0.1233020E+00  0.1591261E+00  0.5121093E+00
1068812. -0.6287604E-01  0.1096904E+01 -0.6637464E-01  0.2273924E+00  0.1559449E+00  0.5496581E+00
1030641. -0.6954277E-01  0.1128076E+01 -0.6806124E-01  0.3362520E+00  0.1525410E+00  0.5864983E+00
 992469. -0.7638784E-01  0.1156280E+01 -0.7040965E-01  0.4479713E+00  0.1489185E+00  0.6225682E+00
 954297. -0.8339161E-01  0.1180964E+01 -0.7343108E-01  0.5605756E+00  0.1450824E+00  0.6578059E+00
 916125. -0.9053145E-01  0.1201616E+01 -0.7712485E-01  0.6720688E+00  0.1410378E+00  0.6921494E+00
 877953. -0.9778169E-01  0.1217741E+01 -0.8147836E-01  0.7804742E+00  0.1367902E+00  0.7255419E+00
 839781. -0.1051138E+00  0.1228885E+01 -0.8646725E-01  0.8838460E+00  0.1323456E+00  0.7579274E+00
 801609. -0.1124968E+00  0.1234637E+01 -0.9205578E-01  0.9803295E+00  0.1277101E+00  0.7892514E+00
 763438. -0.1198970E+00  0.1234629E+01 -0.9819713E-01  0.1068155E+01  0.1228903E+00  0.8194622E+00
 725266. -0.1272792E+00  0.1228552E+01 -0.1048349E+00  0.1145710E+01  0.1178929E+00  0.8485122E+00
 687094. -0.1346062E+00  0.1216151E+01 -0.1119028E+00  0.1211518E+01  0.1127250E+00  0.8763516E+00
 648922. -0.1418395E+00  0.1197228E+01 -0.1193265E+00  0.1264292E+01  0.1073940E+00  0.9029388E+00
 610750. -0.1489394E+00  0.1171655E+01 -0.1270246E+00  0.1302946E+01  0.1019076E+00  0.9282296E+00
 572578. -0.1558661E+00  0.1139366E+01 -0.1349098E+00  0.1326609E+01  0.9627365E-01  0.9521842E+00
 534406. -0.1625792E+00  0.1100362E+01 -0.1428902E+00  0.1334637E+01  0.9050027E-01  0.9747664E+00
 496234. -0.1690386E+00  0.1054710E+01 -0.1508708E+00  0.1326624E+01  0.8459578E-01  0.9959416E+00
 458062. -0.1752049E+00  0.1002548E+01 -0.1587549E+00  0.1302409E+01  0.7856873E-01  0.1015676E+01
 419891. -0.1810395E+00  0.9440777E+00 -0.1664452E+00  0.1262073E+01  0.7242798E-01  0.1033941E+01
 381719. -0.1865056E+00  0.8795651E+00 -0.1738466E+00  0.1205942E+01  0.6618211E-01  0.1050708E+01
 343547. -0.1915680E+00  0.8093374E+00 -0.1808656E+00  0.1134570E+01  0.5984034E-01  0.1065954E+01
 305375. -0.1961934E+00  0.7337856E+00 -0.1874134E+00  0.1048761E+01  0.5341183E-01  0.1079654E+01
 267203. -0.2003512E+00  0.6533496E+00 -0.1934062E+00  0.9495107E+00  0.4690592E-01  0.1091790E+01
 229031. -0.2040137E+00  0.5685241E+00 -0.1987670E+00  0.8380332E+00  0.4033202E-01  0.1102344E+01
 190859. -0.2071562E+00  0.4798465E+00 -0.2034267E+00  0.7157102E+00  0.3369967E-01  0.1111299E+01
 152688. -0.2097572E+00  0.3878995E+00 -0.2073247E+00  0.5840989E+00  0.2701866E-01  0.1118643E+01
 114516. -0.2117990E+00  0.2932897E+00 -0.2104107E+00  0.4448819E+00  0.2029833E-01  0.1124367E+01
  76344. -0.2132676E+00  0.1966591E+00 -0.2126442E+00  0.2998578E+00  0.1354858E-01  0.1128462E+01
  38172. -0.2141529E+00  0.9867072E-01 -0.2139961E+00  0.1509137E+00  0.6779165E-02  0.1130932E+01
      0. -0.2144485E+00  0.0000000E+00 -0.2144481E+00  0.0000000E+00  0.0000000E+00  0.1131723E+01
