       1       23 S      119        227.95100          7.47271          5.82572        155.33980      185    7
6371000.  0.1251087E+00  0.7316765E+00  0.3823771E-02 -0.1212849E+00 -0.7838702E-02 -0.4779689E-01
6370000.  0.1249921E+00  0.7538317E+00  0.3842732E-02 -0.1203127E+00 -0.7831226E-02 -0.4746537E-01
6369000.  0.1248721E+00  0.7759200E+00  0.3861539E-02 -0.1193289E+00 -0.7823802E-02 -0.4713087E-01
6368000.  0.1247485E+00  0.7979402E+00  0.3880191E-02 -0.1183336E+00 -0.7816431E-02 -0.4679339E-01
6368000.  0.1247485E+00  0.7979402E+00  0.3880191E-02 -0.1183336E+00 -0.7816431E-02 -0.4679339E-01
6367000.  0.1246216E+00  0.8198912E+00  0.3898686E-02 -0.1173268E+00 -0.7809113E-02 -0.4645292E-01
6366000.  0.1244912E+00  0.8417719E+00  0.3917022E-02 -0.1163087E+00 -0.7801848E-02 -0.4610946E-01
6365000.  0.1243573E+00  0.8635812E+00  0.3935197E-02 -0.1152792E+00 -0.7794638E-02 -0.4576299E-01
6364000.  0.1242201E+00  0.8853179E+00  0.3953211E-02 -0.1142384E+00 -0.7787482E-02 -0.4541351E-01
6363000.  0.1240794E+00  0.9069809E+00  0.3971059E-02 -0.1131864E+00 -0.7780382E-02 -0.4506101E-01
6362000.  0.1239353E+00  0.9285691E+00  0.3988741E-02 -0.1121232E+00 -0.7773337E-02 -0.4470548E-01
6361000.  0.1237879E+00  0.9500813E+00  0.4006256E-02 -0.1110488E+00 -0.7766348E-02 -0.4434692E-01
6360000.  0.1236371E+00  0.9715167E+00  0.4023602E-02 -0.1099634E+00 -0.7759416E-02 -0.4398532E-01
6359000.  0.1234829E+00  0.9928738E+00  0.4040776E-02 -0.1088670E+00 -0.7752540E-02 -0.4362066E-01
6358000.  0.1233254E+00  0.1014152E+01  0.4057777E-02 -0.1077597E+00 -0.7745722E-02 -0.4325296E-01
6357000.  0.1231646E+00  0.1035349E+01  0.4074603E-02 -0.1066414E+00 -0.7738962E-02 -0.4288218E-01
6356000.  0.1230004E+00  0.1056466E+01  0.4091254E-02 -0.1055123E+00 -0.7732261E-02 -0.4250833E-01
6356000.  0.1230004E+00  0.8660737E+00  0.4091254E-02 -0.1109341E+00 -0.7732261E-02 -0.6927180E-01
6355000.  0.1228632E+00  0.8822298E+00  0.4108625E-02 -0.1104212E+00 -0.7721409E-02 -0.6899983E-01
6354000.  0.1227235E+00  0.8983502E+00  0.4125917E-02 -0.1099022E+00 -0.7710600E-02 -0.6872657E-01
6353000.  0.1225812E+00  0.9144343E+00  0.4143126E-02 -0.1093773E+00 -0.7699834E-02 -0.6845198E-01
6352000.  0.1224364E+00  0.9304816E+00  0.4160252E-02 -0.1088465E+00 -0.7689111E-02 -0.6817606E-01
6351000.  0.1222891E+00  0.9464915E+00  0.4177295E-02 -0.1083097E+00 -0.7678432E-02 -0.6789882E-01
6350000.  0.1221393E+00  0.9624635E+00  0.4194253E-02 -0.1077670E+00 -0.7667797E-02 -0.6762025E-01
6349000.  0.1219869E+00  0.9783970E+00  0.4211125E-02 -0.1072184E+00 -0.7657205E-02 -0.6734034E-01
6348000.  0.1218321E+00  0.9942913E+00  0.4227911E-02 -0.1066640E+00 -0.7646657E-02 -0.6705909E-01
6347000.  0.1216748E+00  0.1010146E+01  0.4244609E-02 -0.1061036E+00 -0.7636154E-02 -0.6677651E-01
6346600.  0.1216112E+00  0.1016477E+01  0.4251264E-02 -0.1058779E+00 -0.7631965E-02 -0.6666309E-01
6346600.  0.1216112E+00  0.1022925E+01  0.4251264E-02 -0.1097545E+00 -0.7631965E-02 -0.1090671E+00
6318800.  0.1163458E+00  0.1388722E+01  0.4716485E-02 -0.1029899E+00 -0.7169546E-02 -0.1028789E+00
6291000.  0.1095123E+00  0.1740405E+01  0.5145886E-02 -0.9335663E-01 -0.6734185E-02 -0.9665681E-01
6291000.  0.1095123E+00  0.1788866E+01  0.5145886E-02 -0.9287383E-01 -0.6734185E-02 -0.9665681E-01
6263000.  0.1008989E+00  0.2125942E+01  0.5524129E-02 -0.7877544E-01 -0.6324508E-02 -0.8974336E-01
6235000.  0.9087554E-01  0.2429104E+01  0.5834309E-02 -0.6194870E-01 -0.5945677E-02 -0.8261072E-01
6207000.  0.7960888E-01  0.2690458E+01  0.6065118E-02 -0.4271430E-01 -0.5598772E-02 -0.7520618E-01
6179000.  0.6729888E-01  0.2902737E+01  0.6206788E-02 -0.2145234E-01 -0.5285101E-02 -0.6747906E-01
6151000.  0.5417574E-01  0.3059484E+01  0.6251342E-02  0.1404034E-02 -0.5006185E-02 -0.5938186E-01
6151000.  0.5417574E-01  0.2738049E+01  0.6251342E-02 -0.4883637E-02 -0.5006185E-02 -0.6237916E-01
6128500.  0.4439810E-01  0.2794896E+01  0.6247159E-02  0.7246277E-02 -0.4791353E-02 -0.5929122E-01
6106000.  0.3446690E-01  0.2825032E+01  0.6200299E-02  0.1926036E-01 -0.4587330E-02 -0.5625791E-01
6083500.  0.2447603E-01  0.2828769E+01  0.6111421E-02  0.3101962E-01 -0.4393921E-02 -0.5328141E-01
6061000.  0.1451777E-01  0.2806664E+01  0.5981654E-02  0.4239552E-01 -0.4210921E-02 -0.5036239E-01
6038500.  0.4682050E-02  0.2759533E+01  0.5812562E-02  0.5327193E-01 -0.4038132E-02 -0.4749878E-01
6016000. -0.4944555E-02  0.2688419E+01  0.5606094E-02  0.6354552E-01 -0.3875364E-02 -0.4468648E-01
5993500. -0.1427946E-01  0.2594553E+01  0.5364543E-02  0.7312586E-01 -0.3722446E-02 -0.4191932E-01
5971000. -0.2324477E-01  0.2479355E+01  0.5090496E-02  0.8193685E-01 -0.3579232E-02 -0.3918924E-01
5971000. -0.2324477E-01  0.2340387E+01  0.5090496E-02  0.7624085E-01 -0.3579232E-02 -0.3614631E-01
5937667. -0.3492582E-01  0.2121982E+01  0.4676456E-02  0.8159389E-01 -0.3395161E-02 -0.3429076E-01
5904333. -0.4542813E-01  0.1890997E+01  0.4240985E-02  0.8448107E-01 -0.3219686E-02 -0.3285050E-01
5871000. -0.5470482E-01  0.1654722E+01  0.3796156E-02  0.8523278E-01 -0.3050765E-02 -0.3177978E-01
5837667. -0.6274509E-01  0.1419306E+01  0.3352238E-02  0.8419015E-01 -0.2886581E-02 -0.3103186E-01
5804333. -0.6956734E-01  0.1189802E+01  0.2917720E-02  0.8168957E-01 -0.2725558E-02 -0.3056267E-01
5771000. -0.7521304E-01  0.9702297E+00  0.2499408E-02  0.7805171E-01 -0.2566359E-02 -0.3032970E-01
5771000. -0.7521304E-01  0.9703209E+00  0.2499408E-02  0.7805196E-01 -0.2566359E-02 -0.3032970E-01
5701000. -0.8359526E-01  0.5618522E+00  0.1697457E-02  0.6748137E-01 -0.2211933E-02 -0.3432366E-01
5701000. -0.8359526E-01  0.5204004E+00  0.1697457E-02  0.7334390E-01 -0.2211933E-02 -0.1076117E-01
5667333. -0.8584379E-01  0.3383931E+00  0.1322112E-02  0.6829864E-01 -0.2144939E-02 -0.1434327E-01
5633667. -0.8722855E-01  0.1887547E+00  0.9798780E-03  0.6106548E-01 -0.2063306E-02 -0.1636326E-01
5600000. -0.8786387E-01  0.5415652E-01  0.6754475E-03  0.5427547E-01 -0.1972869E-02 -0.1779192E-01
5600000. -0.8786387E-01  0.5415652E-01  0.6754475E-03  0.5427547E-01 -0.1972869E-02 -0.1779192E-01
5563518. -0.8779492E-01 -0.7546308E-01  0.3846647E-03  0.4736437E-01 -0.1867907E-02 -0.1878183E-01
5527037. -0.8703054E-01 -0.1888784E+00  0.1321071E-03  0.4092772E-01 -0.1758656E-02 -0.1930773E-01
5490556. -0.8566128E-01 -0.2868656E+00 -0.8495921E-04  0.3496886E-01 -0.1647508E-02 -0.1945697E-01
5454074. -0.8377310E-01 -0.3702689E+00 -0.2692871E-03  0.2949003E-01 -0.1536416E-02 -0.1929949E-01
5417593. -0.8144683E-01 -0.4400578E+00 -0.4235790E-03  0.2447769E-01 -0.1426922E-02 -0.1891032E-01
5381111. -0.7875764E-01 -0.4971635E+00 -0.5504928E-03  0.1992506E-01 -0.1320198E-02 -0.1833802E-01
5344630. -0.7577552E-01 -0.5425771E+00 -0.6526209E-03  0.1581827E-01 -0.1217173E-02 -0.1762772E-01
5308148. -0.7256426E-01 -0.5773254E+00 -0.7324563E-03  0.1213531E-01 -0.1118493E-02 -0.1682446E-01
5271667. -0.6918243E-01 -0.6023458E+00 -0.7923887E-03  0.8864433E-02 -0.1024634E-02 -0.1594920E-01
5235185. -0.6568266E-01 -0.6186579E+00 -0.8347094E-03  0.5978593E-02 -0.9359109E-03 -0.1503488E-01
5198704. -0.6211222E-01 -0.6272115E+00 -0.8615460E-03  0.3453796E-02 -0.8524787E-03 -0.1410389E-01
5162222. -0.5851287E-01 -0.6288704E+00 -0.8749255E-03  0.1274113E-02 -0.7744083E-03 -0.1316405E-01
5125741. -0.5492160E-01 -0.6245702E+00 -0.8767337E-03 -0.5927105E-03 -0.7016907E-03 -0.1223799E-01
5089259. -0.5136998E-01 -0.6151149E+00 -0.8686918E-03 -0.2169385E-02 -0.6342140E-03 -0.1133332E-01
5052778. -0.4788556E-01 -0.6012667E+00 -0.8524037E-03 -0.3477507E-02 -0.5718473E-03 -0.1045550E-01
5016296. -0.4449107E-01 -0.5837823E+00 -0.8293224E-03 -0.4546037E-02 -0.5144015E-03 -0.9615006E-02
4979815. -0.4120566E-01 -0.5633044E+00 -0.8007609E-03 -0.5395202E-02 -0.4616598E-03 -0.8813073E-02
4943333. -0.3804450E-01 -0.5404546E+00 -0.7679088E-03 -0.6048692E-02 -0.4133920E-03 -0.8052924E-02
4906852. -0.3501967E-01 -0.5158052E+00 -0.7318154E-03 -0.6530888E-02 -0.3693452E-03 -0.7339102E-02
4870370. -0.3213993E-01 -0.4898271E+00 -0.6934114E-03 -0.6858490E-02 -0.3292618E-03 -0.6668051E-02
4833889. -0.2941168E-01 -0.4629949E+00 -0.6535215E-03 -0.7054072E-02 -0.2928922E-03 -0.6042969E-02
4797407. -0.2683848E-01 -0.4357017E+00 -0.6128404E-03 -0.7136814E-02 -0.2599676E-03 -0.5463710E-02
4760926. -0.2442219E-01 -0.4082690E+00 -0.5719808E-03 -0.7119596E-02 -0.2302426E-03 -0.4925647E-02
4724444. -0.2216252E-01 -0.3810253E+00 -0.5314564E-03 -0.7022262E-02 -0.2034732E-03 -0.4431251E-02
4687963. -0.2005778E-01 -0.3542112E+00 -0.4916879E-03 -0.6857758E-02 -0.1794174E-03 -0.3977321E-02
4651482. -0.1810485E-01 -0.3280324E+00 -0.4530269E-03 -0.6637709E-02 -0.1578527E-03 -0.3561074E-02
4615000. -0.1629950E-01 -0.3026779E+00 -0.4157494E-03 -0.6376052E-02 -0.1385624E-03 -0.3182481E-02
4578518. -0.1463666E-01 -0.2782734E+00 -0.3800687E-03 -0.6081359E-02 -0.1213408E-03 -0.2837938E-02
4542037. -0.1311061E-01 -0.2549325E+00 -0.3461486E-03 -0.5763167E-02 -0.1059999E-03 -0.2525664E-02
4505556. -0.1171495E-01 -0.2327389E+00 -0.3140945E-03 -0.5430706E-02 -0.9235631E-04 -0.2244632E-02
4469074. -0.1044297E-01 -0.2117315E+00 -0.2839732E-03 -0.5088743E-02 -0.8024208E-04 -0.1990953E-02
4432593. -0.9287798E-02 -0.1919548E+00 -0.2558201E-03 -0.4744769E-02 -0.6950399E-04 -0.1764000E-02
4396111. -0.8242292E-02 -0.1734160E+00 -0.2296288E-03 -0.4403746E-02 -0.5999269E-04 -0.1561869E-02
4359630. -0.7299457E-02 -0.1561027E+00 -0.2053763E-03 -0.4068511E-02 -0.5157525E-04 -0.1381773E-02
4323148. -0.6452247E-02 -0.1400037E+00 -0.1830144E-03 -0.3743786E-02 -0.4412714E-04 -0.1223059E-02
4286667. -0.5693852E-02 -0.1250819E+00 -0.1624771E-03 -0.3431680E-02 -0.3753121E-04 -0.1083846E-02
4250185. -0.5017618E-02 -0.1112929E+00 -0.1436865E-03 -0.3133903E-02 -0.3168060E-04 -0.9625158E-03
4213704. -0.4417220E-02 -0.9859087E-01 -0.1265548E-03 -0.2852648E-02 -0.2647531E-04 -0.8583234E-03
4177222. -0.3886578E-02 -0.8691310E-01 -0.1109852E-03 -0.2588189E-02 -0.2182105E-04 -0.7697832E-03
4140741. -0.3420026E-02 -0.7620069E-01 -0.9688050E-04 -0.2341273E-02 -0.1763115E-04 -0.6961226E-03
4104259. -0.3012191E-02 -0.6638879E-01 -0.8413770E-04 -0.2112303E-02 -0.1382103E-04 -0.6369509E-03
4067778. -0.2658141E-02 -0.5740690E-01 -0.7265748E-04 -0.1900304E-02 -0.1031115E-04 -0.5912038E-03
4031296. -0.2353291E-02 -0.4919070E-01 -0.6234263E-04 -0.1705109E-02 -0.7024410E-05 -0.5590254E-03
3994815. -0.2093463E-02 -0.4167295E-01 -0.5309981E-04 -0.1525677E-02 -0.3883177E-05 -0.5403630E-03
3958333. -0.1874838E-02 -0.3478726E-01 -0.4484372E-04 -0.1360117E-02 -0.8105455E-06 -0.5351019E-03
3921852. -0.1693973E-02 -0.2847640E-01 -0.3749957E-04 -0.1206906E-02  0.2272167E-05 -0.5440429E-03
3885370. -0.1547728E-02 -0.2268533E-01 -0.3100339E-04 -0.1063348E-02  0.5448269E-05 -0.5678060E-03
3848889. -0.1433266E-02 -0.1737047E-01 -0.2530972E-04 -0.9260825E-03  0.8805068E-05 -0.6074177E-03
3812407. -0.1347948E-02 -0.1250158E-01 -0.2039306E-04 -0.7911000E-03  0.1243793E-04 -0.6644493E-03
3775926. -0.1289268E-02 -0.8066716E-02 -0.1625640E-04 -0.6526117E-03  0.1645072E-04 -0.7404559E-03
3739444. -0.1254711E-02 -0.4081229E-02 -0.1293949E-04 -0.5033861E-03  0.2095825E-04 -0.8376148E-03
3702963. -0.1241575E-02 -0.5974733E-03 -0.1053005E-04 -0.3337812E-03  0.2608848E-04 -0.9583873E-03
3666482. -0.1246714E-02  0.2279019E-02 -0.9181152E-05 -0.1304409E-03  0.3198346E-04 -0.1105171E-02
3630000. -0.1266181E-02  0.4369007E-02 -0.9133549E-05  0.1241276E-03  0.3880060E-04 -0.1280888E-02
3630000. -0.1266181E-02  0.4369007E-02 -0.9133549E-05  0.1241276E-03  0.3880060E-04 -0.1280888E-02
3592500. -0.1295576E-02  0.5396713E-02 -0.1081968E-04  0.4647226E-03  0.4695084E-04 -0.1494177E-02
3555000. -0.1326575E-02  0.4818368E-02 -0.1483017E-04  0.9208722E-03  0.5645944E-04 -0.1742739E-02
3517500. -0.1347781E-02  0.1926608E-02 -0.2198271E-04  0.1542010E-02  0.6753786E-04 -0.2027549E-02
3480000. -0.1342696E-02 -0.4324314E-02 -0.3343981E-04  0.2396917E-02  0.8039557E-04 -0.2346710E-02
3480000. -0.1342696E-02 -0.4618912E-01 -0.6620520E-04 -0.2335845E-02  0.8039557E-04  0.1959296E-02
3409422. -0.9113054E-03 -0.3241425E-01 -0.4451716E-04 -0.1619223E-02  0.6011392E-04  0.1681316E-02
3338844. -0.6105378E-03 -0.2243414E-01 -0.2957171E-04 -0.1108358E-02  0.4337124E-04  0.1339242E-02
3268266. -0.4037155E-03 -0.1531437E-01 -0.1940213E-04 -0.7490870E-03  0.3037610E-04  0.1013413E-02
3197688. -0.2634375E-03 -0.1031107E-01 -0.1257004E-04 -0.4998040E-03  0.2073102E-04  0.7374247E-03
3127109. -0.1695962E-03 -0.6846747E-02 -0.8039053E-05 -0.3291494E-03  0.1382115E-04  0.5196665E-03
3056531. -0.1076889E-03 -0.4483077E-02 -0.5073515E-05 -0.2138977E-03  0.9016065E-05  0.3562181E-03
2985953. -0.6742011E-04 -0.2893846E-02 -0.3158446E-05 -0.1371195E-03  0.5760975E-05  0.2381836E-03
2915375. -0.4160037E-04 -0.1840990E-02 -0.1938673E-05 -0.8667832E-04  0.3607952E-05  0.1556340E-03
2844797. -0.2528682E-04 -0.1153837E-02 -0.1172697E-05 -0.5400752E-04  0.2215426E-05  0.9949421E-04
2774219. -0.1513404E-04 -0.7121402E-03 -0.6986772E-06 -0.3315277E-04  0.1333911E-05  0.6227229E-04
2703641. -0.8913040E-05 -0.4326089E-03 -0.4097417E-06 -0.2003863E-04  0.7874539E-06  0.3817222E-04
2633062. -0.5162041E-05 -0.2585128E-03 -0.2363688E-06 -0.1191872E-04  0.4556489E-06  0.2291846E-04
2562484. -0.2937887E-05 -0.1518624E-03 -0.1340292E-06 -0.6971338E-05  0.2583250E-06  0.1347576E-04
2491906. -0.1641786E-05 -0.8763565E-04 -0.7464125E-07 -0.4006774E-05  0.1434123E-06  0.7757193E-05
2421328. -0.9000838E-06 -0.4963883E-04 -0.4078845E-07 -0.2261004E-05  0.7790904E-07  0.4369385E-05
2350750. -0.4836269E-06 -0.2757278E-04 -0.2184964E-07 -0.1251511E-05  0.4138199E-07  0.2406650E-05
2280172. -0.2544085E-06 -0.1500450E-04 -0.1146109E-07 -0.6788131E-06  0.2147031E-07  0.1295177E-05
2209594. -0.1308668E-06 -0.7990252E-05 -0.5879753E-08 -0.3603760E-06  0.1086896E-07  0.6803730E-06
2139016. -0.6574041E-07 -0.4158723E-05 -0.2946234E-08 -0.1870280E-06  0.5361833E-08  0.3484788E-06
2068438. -0.3220376E-07 -0.2112627E-05 -0.1439834E-08 -0.9475442E-07  0.2573927E-08  0.1738006E-06
1997859. -0.1535832E-07 -0.1045874E-05 -0.6851434E-09 -0.4679071E-07  0.1200424E-08  0.8427983E-07
1927281. -0.7118192E-08 -0.5037283E-06 -0.3168814E-09 -0.2248269E-07  0.5429405E-09  0.3967072E-07
1856703. -0.3199672E-08 -0.2355810E-06 -0.1421596E-09 -0.1049126E-07  0.2376618E-09  0.1809073E-07
1786125. -0.1391783E-08 -0.1067532E-06 -0.6172157E-10 -0.4744212E-08  0.1004519E-09  0.7975189E-08
1715547. -0.5843422E-09 -0.4675967E-07 -0.2586876E-10 -0.2073990E-08  0.4089031E-10  0.3390461E-08
1644969. -0.2361292E-09 -0.1974381E-07 -0.1043633E-10 -0.8741177E-09  0.1598333E-10  0.1386105E-08
1574391. -0.9153931E-10 -0.8011626E-08 -0.4039659E-11 -0.3540847E-09  0.5979224E-11  0.5432147E-09
1503812. -0.3391612E-10 -0.3113386E-08 -0.1494777E-11 -0.1373583E-09  0.2132487E-11  0.2033272E-09
1433234. -0.1195338E-10 -0.1154744E-08 -0.5267841E-12 -0.5079503E-10  0.7219556E-12  0.7238567E-10
1362656. -0.3965127E-11 -0.4094857E-09 -0.1769072E-12 -0.1771228E-10  0.2308907E-12  0.2438786E-10
1292078. -0.1143133E-11 -0.1487516E-09 -0.5998435E-13 -0.5341136E-11  0.6944651E-13  0.7728763E-11
1221500.  0.8716271E-13 -0.1010725E-09 -0.3548044E-13  0.6394146E-12  0.1956686E-13  0.2312590E-11
1221500.  0.8716271E-13  0.3399172E-12 -0.2640753E-15 -0.4559935E-12  0.1956686E-13  0.2274830E-11
1183328.  0.7258847E-13  0.3641646E-11  0.1157586E-14 -0.8138658E-13  0.9634316E-14  0.1158827E-11
1145156.  0.4995207E-13  0.3626520E-11  0.1210011E-14  0.3784909E-13  0.4627864E-14  0.5761634E-12
1106984.  0.0000000E+00  0.0000000E+00  0.0000000E+00  0.0000000E+00  0.0000000E+00  0.0000000E+00
1068812.  0.0000000E+00  0.0000000E+00  0.0000000E+00  0.0000000E+00  0.0000000E+00  0.0000000E+00
1030641.  0.0000000E+00  0.0000000E+00  0.0000000E+00  0.0000000E+00  0.0000000E+00  0.0000000E+00
 992469.  0.0000000E+00  0.0000000E+00  0.0000000E+00  0.0000000E+00  0.0000000E+00  0.0000000E+00
 954297.  0.0000000E+00  0.0000000E+00  0.0000000E+00  0.0000000E+00  0.0000000E+00  0.0000000E+00
 916125.  0.0000000E+00  0.0000000E+00  0.0000000E+00  0.0000000E+00  0.0000000E+00  0.0000000E+00
 877953.  0.0000000E+00  0.0000000E+00  0.0000000E+00  0.0000000E+00  0.0000000E+00  0.0000000E+00
 839781.  0.0000000E+00  0.0000000E+00  0.0000000E+00  0.0000000E+00  0.0000000E+00  0.0000000E+00
 801609.  0.0000000E+00  0.0000000E+00  0.0000000E+00  0.0000000E+00  0.0000000E+00  0.0000000E+00
 763438.  0.0000000E+00  0.0000000E+00  0.0000000E+00  0.0000000E+00  0.0000000E+00  0.0000000E+00
 725266.  0.0000000E+00  0.0000000E+00  0.0000000E+00  0.0000000E+00  0.0000000E+00  0.0000000E+00
 687094.  0.0000000E+00  0.0000000E+00  0.0000000E+00  0.0000000E+00  0.0000000E+00  0.0000000E+00
 648922.  0.0000000E+00  0.0000000E+00  0.0000000E+00  0.0000000E+00  0.0000000E+00  0.0000000E+00
 610750.  0.0000000E+00  0.0000000E+00  0.0000000E+00  0.0000000E+00  0.0000000E+00  0.0000000E+00
 572578.  0.0000000E+00  0.0000000E+00  0.0000000E+00  0.0000000E+00  0.0000000E+00  0.0000000E+00
 534406.  0.0000000E+00  0.0000000E+00  0.0000000E+00  0.0000000E+00  0.0000000E+00  0.0000000E+00
 496234.  0.0000000E+00  0.0000000E+00  0.0000000E+00  0.0000000E+00  0.0000000E+00  0.0000000E+00
 458062.  0.0000000E+00  0.0000000E+00  0.0000000E+00  0.0000000E+00  0.0000000E+00  0.0000000E+00
 419891.  0.0000000E+00  0.0000000E+00  0.0000000E+00  0.0000000E+00  0.0000000E+00  0.0000000E+00
 381719.  0.0000000E+00  0.0000000E+00  0.0000000E+00  0.0000000E+00  0.0000000E+00  0.0000000E+00
 343547.  0.0000000E+00  0.0000000E+00  0.0000000E+00  0.0000000E+00  0.0000000E+00  0.0000000E+00
 305375.  0.0000000E+00  0.0000000E+00  0.0000000E+00  0.0000000E+00  0.0000000E+00  0.0000000E+00
 267203.  0.0000000E+00  0.0000000E+00  0.0000000E+00  0.0000000E+00  0.0000000E+00  0.0000000E+00
 229031.  0.0000000E+00  0.0000000E+00  0.0000000E+00  0.0000000E+00  0.0000000E+00  0.0000000E+00
 190859.  0.0000000E+00  0.0000000E+00  0.0000000E+00  0.0000000E+00  0.0000000E+00  0.0000000E+00
 152688.  0.0000000E+00  0.0000000E+00  0.0000000E+00  0.0000000E+00  0.0000000E+00  0.0000000E+00
 114516.  0.0000000E+00  0.0000000E+00  0.0000000E+00  0.0000000E+00  0.0000000E+00  0.0000000E+00
  76344.  0.0000000E+00  0.0000000E+00  0.0000000E+00  0.0000000E+00  0.0000000E+00  0.0000000E+00
  38172.  0.0000000E+00  0.0000000E+00  0.0000000E+00  0.0000000E+00  0.0000000E+00  0.0000000E+00
      0.  0.0000000E+00  0.0000000E+00  0.0000000E+00  0.0000000E+00  0.0000000E+00  0.0000000E+00
