       2       11 S      175        388.03299          8.97059          6.66096        175.27071      185    7
6371000. -0.1686388E+00 -0.9846955E+00 -0.2151413E-01  0.1471246E+00  0.2549265E-01  0.1210141E-01
6370000. -0.1684834E+00 -0.9942749E+00 -0.2153704E-01  0.1447197E+00  0.2549076E-01  0.1202537E-01
6369000. -0.1683266E+00 -0.1003815E+01 -0.2155956E-01  0.1423089E+00  0.2548888E-01  0.1194745E-01
6368000. -0.1681683E+00 -0.1013317E+01 -0.2158171E-01  0.1398921E+00  0.2548701E-01  0.1186764E-01
6368000. -0.1681683E+00 -0.1013317E+01 -0.2158171E-01  0.1398921E+00  0.2548701E-01  0.1186764E-01
6367000. -0.1680085E+00 -0.1022779E+01 -0.2160348E-01  0.1374695E+00  0.2548515E-01  0.1178594E-01
6366000. -0.1678472E+00 -0.1032202E+01 -0.2162486E-01  0.1350410E+00  0.2548331E-01  0.1170236E-01
6365000. -0.1676845E+00 -0.1041585E+01 -0.2164587E-01  0.1326068E+00  0.2548148E-01  0.1161687E-01
6364000. -0.1675203E+00 -0.1050929E+01 -0.2166649E-01  0.1301668E+00  0.2547966E-01  0.1152949E-01
6363000. -0.1673546E+00 -0.1060233E+01 -0.2168673E-01  0.1277212E+00  0.2547786E-01  0.1144021E-01
6362000. -0.1671874E+00 -0.1069497E+01 -0.2170659E-01  0.1252699E+00  0.2547607E-01  0.1134902E-01
6361000. -0.1670188E+00 -0.1078721E+01 -0.2172606E-01  0.1228130E+00  0.2547430E-01  0.1125593E-01
6360000. -0.1668488E+00 -0.1087904E+01 -0.2174514E-01  0.1203507E+00  0.2547254E-01  0.1116092E-01
6359000. -0.1666773E+00 -0.1097047E+01 -0.2176384E-01  0.1178828E+00  0.2547079E-01  0.1106400E-01
6358000. -0.1665044E+00 -0.1106149E+01 -0.2178214E-01  0.1154095E+00  0.2546906E-01  0.1096517E-01
6357000. -0.1663301E+00 -0.1115211E+01 -0.2180007E-01  0.1129308E+00  0.2546735E-01  0.1086442E-01
6356000. -0.1661543E+00 -0.1124231E+01 -0.2181760E-01  0.1104468E+00  0.2546565E-01  0.1076174E-01
6356000. -0.1661543E+00 -0.9575166E+00 -0.2181760E-01  0.1240159E+00  0.2546565E-01  0.4691500E-01
6355000. -0.1660035E+00 -0.9644547E+00 -0.2183696E-01  0.1226543E+00  0.2545829E-01  0.4692598E-01
6354000. -0.1658516E+00 -0.9713715E+00 -0.2185610E-01  0.1212895E+00  0.2545092E-01  0.4693575E-01
6353000. -0.1656986E+00 -0.9782670E+00 -0.2187503E-01  0.1199216E+00  0.2544355E-01  0.4694429E-01
6352000. -0.1655445E+00 -0.9851409E+00 -0.2189375E-01  0.1185505E+00  0.2543619E-01  0.4695161E-01
6351000. -0.1653893E+00 -0.9919932E+00 -0.2191225E-01  0.1171763E+00  0.2542881E-01  0.4695771E-01
6350000. -0.1652331E+00 -0.9988239E+00 -0.2193053E-01  0.1157991E+00  0.2542144E-01  0.4696258E-01
6349000. -0.1650758E+00 -0.1005633E+01 -0.2194860E-01  0.1144188E+00  0.2541407E-01  0.4696622E-01
6348000. -0.1649174E+00 -0.1012420E+01 -0.2196645E-01  0.1130354E+00  0.2540670E-01  0.4696862E-01
6347000. -0.1647579E+00 -0.1019185E+01 -0.2198408E-01  0.1116490E+00  0.2539933E-01  0.4696980E-01
6346600. -0.1646939E+00 -0.1021885E+01 -0.2199108E-01  0.1110936E+00  0.2539638E-01  0.4696992E-01
6346600. -0.1646939E+00 -0.1115058E+01 -0.2199108E-01  0.1215404E+00  0.2539638E-01  0.1043963E+00
6318800. -0.1594864E+00 -0.1270313E+01 -0.2247247E-01  0.9882713E-01  0.2493795E-01  0.1056259E+00
6291000. -0.1536216E+00 -0.1416097E+01 -0.2285120E-01  0.7450558E-01  0.2447545E-01  0.1062549E+00
6291000. -0.1536216E+00 -0.1464634E+01 -0.2285120E-01  0.7200546E-01  0.2447545E-01  0.1062549E+00
6263000. -0.1468780E+00 -0.1602037E+01 -0.2310596E-01  0.4368097E-01  0.2400940E-01  0.1057191E+00
6235000. -0.1395604E+00 -0.1725601E+01 -0.2323314E-01  0.1398612E-01  0.2354721E-01  0.1044954E+00
6207000. -0.1317327E+00 -0.1833910E+01 -0.2322720E-01 -0.1686404E-01  0.2309194E-01  0.1025631E+00
6179000. -0.1234650E+00 -0.1925645E+01 -0.2308355E-01 -0.4864053E-01  0.2264676E-01  0.9990296E-01
6151000. -0.1148327E+00 -0.1999588E+01 -0.2279866E-01 -0.8110005E-01  0.2221490E-01  0.9649936E-01
6151000. -0.1148327E+00 -0.1836349E+01 -0.2279866E-01 -0.5905729E-01  0.2221490E-01  0.1028525E+00
6128500. -0.1082859E+00 -0.1869760E+01 -0.2255737E-01 -0.7753272E-01  0.2185195E-01  0.1026426E+00
6106000. -0.1016381E+00 -0.1893561E+01 -0.2225145E-01 -0.9564983E-01  0.2149026E-01  0.1021344E+00
6083500. -0.9492305E-01 -0.1907866E+01 -0.2188228E-01 -0.1133412E+00  0.2113089E-01  0.1013294E+00
6061000. -0.8817403E-01 -0.1912805E+01 -0.2145147E-01 -0.1305430E+00  0.2077489E-01  0.1002304E+00
6038500. -0.8142386E-01 -0.1908549E+01 -0.2096087E-01 -0.1471977E+00  0.2042329E-01  0.9883697E-01
6016000. -0.7470465E-01 -0.1895302E+01 -0.2041248E-01 -0.1632536E+00  0.2007712E-01  0.9714818E-01
5993500. -0.6804777E-01 -0.1873283E+01 -0.1980853E-01 -0.1786623E+00  0.1973745E-01  0.9516371E-01
5971000. -0.6148377E-01 -0.1842743E+01 -0.1915136E-01 -0.1933834E+00  0.1940531E-01  0.9288014E-01
5971000. -0.6148377E-01 -0.1749317E+01 -0.1915136E-01 -0.1671029E+00  0.1940531E-01  0.1009289E+00
5937667. -0.5251431E-01 -0.1677814E+01 -0.1825385E-01 -0.1755489E+00  0.1887931E-01  0.1001050E+00
5904333. -0.4394000E-01 -0.1598505E+01 -0.1731868E-01 -0.1815296E+00  0.1835816E-01  0.9907460E-01
5871000. -0.3579724E-01 -0.1513242E+01 -0.1635814E-01 -0.1853035E+00  0.1784293E-01  0.9784894E-01
5837667. -0.2811254E-01 -0.1423668E+01 -0.1538308E-01 -0.1871232E+00  0.1733460E-01  0.9643587E-01
5804333. -0.2090438E-01 -0.1331229E+01 -0.1440304E-01 -0.1872333E+00  0.1683413E-01  0.9483945E-01
5771000. -0.1418480E-01 -0.1237186E+01 -0.1342642E-01 -0.1858630E+00  0.1634250E-01  0.9306198E-01
5771000. -0.1418480E-01 -0.1237292E+01 -0.1342642E-01 -0.1858570E+00  0.1634250E-01  0.9306198E-01
5701000. -0.1535670E-02 -0.1061347E+01 -0.1134007E-01 -0.1933540E+00  0.1534857E-01  0.8759136E-01
5701000. -0.1535670E-02 -0.9524025E+00 -0.1134007E-01 -0.1547467E+00  0.1534857E-01  0.8802421E-01
5667333.  0.3203113E-02 -0.8507325E+00 -0.1056714E-01 -0.1401229E+00  0.1488368E-01  0.8798483E-01
5633667.  0.7535323E-02 -0.7917738E+00 -0.9838239E-02 -0.1365723E+00  0.1441876E-01  0.8792912E-01
5600000.  0.1156433E-01 -0.7326365E+00 -0.9125735E-02 -0.1328912E+00  0.1395488E-01  0.8759783E-01
5600000.  0.1156433E-01 -0.7326365E+00 -0.9125735E-02 -0.1328912E+00  0.1395488E-01  0.8759783E-01
5563518.  0.1557665E-01 -0.6688457E+00 -0.8376827E-02 -0.1286409E+00  0.1345492E-01  0.8698037E-01
5527037.  0.1922502E-01 -0.6055974E+00 -0.7652889E-02 -0.1241833E+00  0.1295922E-01  0.8611638E-01
5490556.  0.2251341E-01 -0.5431487E+00 -0.6954994E-02 -0.1195483E+00  0.1246912E-01  0.8502852E-01
5454074.  0.2544714E-01 -0.4817266E+00 -0.6284073E-02 -0.1147610E+00  0.1198583E-01  0.8373679E-01
5417593.  0.2803252E-01 -0.4215402E+00 -0.5640922E-02 -0.1098611E+00  0.1151048E-01  0.8226445E-01
5381111.  0.3027735E-01 -0.3627797E+00 -0.5026074E-02 -0.1048733E+00  0.1104402E-01  0.8062830E-01
5344630.  0.3219013E-01 -0.3056124E+00 -0.4439989E-02 -0.9982602E-01  0.1058737E-01  0.7884579E-01
5308148.  0.3378051E-01 -0.2501710E+00 -0.3882885E-02 -0.9474937E-01  0.1014129E-01  0.7693595E-01
5271667.  0.3505866E-01 -0.1965948E+00 -0.3354904E-02 -0.8966342E-01  0.9706499E-02  0.7490918E-01
5235185.  0.3603563E-01 -0.1449778E+00 -0.2855994E-02 -0.8459509E-01  0.9283595E-02  0.7278276E-01
5198704.  0.3672282E-01 -0.9540017E-01 -0.2386013E-02 -0.7956695E-01  0.8873127E-02  0.7057016E-01
5162222.  0.3713220E-01 -0.4794752E-01 -0.1944659E-02 -0.7459529E-01  0.8475554E-02  0.6827767E-01
5125741.  0.3727600E-01 -0.2649211E-02 -0.1531569E-02 -0.6970241E-01  0.8091306E-02  0.6592158E-01
5089259.  0.3716668E-01  0.4045695E-01 -0.1146222E-02 -0.6490389E-01  0.7720703E-02  0.6350935E-01
5052778.  0.3681690E-01  0.8134079E-01 -0.7880579E-03 -0.6021444E-01  0.7364069E-02  0.6104775E-01
5016296.  0.3623931E-01  0.1200228E+00 -0.4563893E-03 -0.5564839E-01  0.7021635E-02  0.5854756E-01
4979815.  0.3544658E-01  0.1564963E+00 -0.1504946E-03 -0.5121716E-01  0.6693627E-02  0.5601304E-01
4943333.  0.3445122E-01  0.1907908E+00  0.1304447E-03 -0.4693096E-01  0.6380208E-02  0.5345010E-01
4906852.  0.3326564E-01  0.2229553E+00  0.3872703E-03 -0.4279871E-01  0.6081536E-02  0.5086615E-01
4870370.  0.3190190E-01  0.2530135E+00  0.6208976E-03 -0.3882717E-01  0.5797713E-02  0.4826094E-01
4833889.  0.3037193E-01  0.2810415E+00  0.8322516E-03 -0.3502215E-01  0.5528862E-02  0.4564079E-01
4797407.  0.2868706E-01  0.3071115E+00  0.1022308E-02 -0.3138719E-01  0.5275041E-02  0.4300826E-01
4760926.  0.2685848E-01  0.3312680E+00  0.1192041E-02 -0.2792560E-01  0.5036345E-02  0.4036106E-01
4724444.  0.2489671E-01  0.3536274E+00  0.1342454E-02 -0.2463779E-01  0.4812830E-02  0.3770385E-01
4687963.  0.2281194E-01  0.3742639E+00  0.1474534E-02 -0.2152366E-01  0.4604570E-02  0.3503473E-01
4651482.  0.2061374E-01  0.3932598E+00  0.1589277E-02 -0.1858184E-01  0.4411633E-02  0.3235143E-01
4615000.  0.1831111E-01  0.4107374E+00  0.1687662E-02 -0.1580858E-01  0.4234096E-02  0.2965404E-01
4578518.  0.1591257E-01  0.4267752E+00  0.1770639E-02 -0.1319989E-01  0.4072056E-02  0.2693791E-01
4542037.  0.1342613E-01  0.4414814E+00  0.1839136E-02 -0.1075004E-01  0.3925635E-02  0.2419948E-01
4505556.  0.1085899E-01  0.4549750E+00  0.1894040E-02 -0.8451237E-02  0.3794968E-02  0.2143492E-01
4469074.  0.8217827E-02  0.4673269E+00  0.1936195E-02 -0.6295250E-02  0.3680221E-02  0.1863637E-01
4432593.  0.5508980E-02  0.4786638E+00  0.1966389E-02 -0.4271878E-02  0.3581613E-02  0.1579805E-01
4396111.  0.2737797E-02  0.4890837E+00  0.1985349E-02 -0.2369009E-02  0.3499388E-02  0.1291168E-01
4359630. -0.9048612E-04  0.4986503E+00  0.1993726E-02 -0.5734177E-03  0.3433854E-02  0.9967459E-02
4323148. -0.2971476E-02  0.5074823E+00  0.1992092E-02  0.1130025E-02  0.3385368E-02  0.6954637E-02
4286667. -0.5901012E-02  0.5156413E+00  0.1980927E-02  0.2758932E-02  0.3354360E-02  0.3861397E-02
4250185. -0.8875546E-02  0.5231837E+00  0.1960601E-02  0.4332979E-02  0.3341326E-02  0.6739413E-03
4213704. -0.1189161E-01  0.5301836E+00  0.1931369E-02  0.5873627E-02  0.3346852E-02 -0.2623504E-02
4177222. -0.1494632E-01  0.5366498E+00  0.1893348E-02  0.7406996E-02  0.3371613E-02 -0.6047273E-02
4140741. -0.1803648E-01  0.5426037E+00  0.1846504E-02  0.8960761E-02  0.3416385E-02 -0.9616754E-02
4104259. -0.2115939E-01  0.5480479E+00  0.1790628E-02  0.1056669E-01  0.3482071E-02 -0.1335469E-01
4067778. -0.2431172E-01  0.5528978E+00  0.1725316E-02  0.1226374E-01  0.3569686E-02 -0.1728096E-01
4031296. -0.2749009E-01  0.5571025E+00  0.1649930E-02  0.1409176E-01  0.3680396E-02 -0.2142551E-01
3994815. -0.3069033E-01  0.5605326E+00  0.1563591E-02  0.1609934E-01  0.3815530E-02 -0.2581694E-01
3958333. -0.3390754E-01  0.5629684E+00  0.1465100E-02  0.1834500E-01  0.3976585E-02 -0.3048357E-01
3921852. -0.3713529E-01  0.5641959E+00  0.1352929E-02  0.2088975E-01  0.4165243E-02 -0.3546617E-01
3885370. -0.4036589E-01  0.5638632E+00  0.1225146E-02  0.2381057E-01  0.4383429E-02 -0.4080141E-01
3848889. -0.4358897E-01  0.5615266E+00  0.1079357E-02  0.2719567E-01  0.4633267E-02 -0.4653163E-01
3812407. -0.4679184E-01  0.5566665E+00  0.9126187E-03  0.3114432E-01  0.4917185E-02 -0.5271010E-01
3775926. -0.4995785E-01  0.5485510E+00  0.7213707E-03  0.3578003E-01  0.5237865E-02 -0.5938368E-01
3739444. -0.5306616E-01  0.5363266E+00  0.5012772E-03  0.4124207E-01  0.5598334E-02 -0.6661551E-01
3702963. -0.5609018E-01  0.5189341E+00  0.2471652E-03  0.4769475E-01  0.6001967E-02 -0.7447384E-01
3666482. -0.5899654E-01  0.4949833E+00 -0.4720771E-04  0.5533982E-01  0.6452535E-02 -0.8302127E-01
3630000. -0.6174332E-01  0.4628679E+00 -0.3893159E-03  0.6440618E-01  0.6954246E-02 -0.9234737E-01
3630000. -0.6174332E-01  0.4628679E+00 -0.3893159E-03  0.6440618E-01  0.6954246E-02 -0.9234737E-01
3592500. -0.6434506E-01  0.4191652E+00 -0.8001053E-03  0.7550222E-01  0.7528185E-02 -0.1028291E+00
3555000. -0.6665121E-01  0.3619282E+00 -0.1282362E-02  0.8875475E-01  0.8166744E-02 -0.1143237E+00
3517500. -0.6857270E-01  0.2878425E+00 -0.1850001E-02  0.1045928E+00  0.8876250E-02 -0.1269566E+00
3480000. -0.6999853E-01  0.1927398E+00 -0.2519725E-02  0.1235366E+00  0.9663758E-02 -0.1408489E+00
3480000. -0.6999853E-01 -0.9653555E+00 -0.7587207E-02 -0.1141373E+00  0.9663758E-02  0.8363533E-01
3409422. -0.5986131E-01 -0.8650436E+00 -0.6403131E-02 -0.9982439E-01  0.8693038E-02  0.9047737E-01
3338844. -0.5082253E-01 -0.7674332E+00 -0.5371136E-02 -0.8669049E-01  0.7680539E-02  0.9150921E-01
3268266. -0.4284075E-01 -0.6744871E+00 -0.4477946E-02 -0.7476566E-01  0.6680429E-02  0.8850120E-01
3197688. -0.3585633E-01 -0.5875506E+00 -0.3710188E-02 -0.6404187E-01  0.5729478E-02  0.8283578E-01
3127109. -0.2979752E-01 -0.5074696E+00 -0.3054713E-02 -0.5448496E-01  0.4850969E-02  0.7557363E-01
3056531. -0.2458574E-01 -0.4346892E+00 -0.2498897E-02 -0.4604109E-01  0.4057982E-02  0.6751167E-01
2985953. -0.2013908E-01 -0.3693370E+00 -0.2030768E-02 -0.3864143E-01  0.3355960E-02  0.5923245E-01
2915375. -0.1637566E-01 -0.3113028E+00 -0.1639187E-02 -0.3220805E-01  0.2744896E-02  0.5114657E-01
2844797. -0.1321587E-01 -0.2602993E+00 -0.1313903E-02 -0.2665836E-01  0.2221012E-02  0.4352930E-01
2774219. -0.1058401E-01 -0.2159142E+00 -0.1045593E-02 -0.2190781E-01  0.1778090E-02  0.3655107E-01
2703641. -0.8409448E-02 -0.1776534E+00 -0.8258728E-03 -0.1787234E-01  0.1408484E-02  0.3030263E-01
2633062. -0.6627279E-02 -0.1449750E+00 -0.6472712E-03 -0.1447061E-01  0.1103883E-02  0.2481562E-01
2562484. -0.5178810E-02 -0.1173185E+00 -0.5032039E-03 -0.1162557E-01  0.8558862E-03  0.2007995E-01
2491906. -0.4011498E-02 -0.9412289E-01 -0.3879073E-03 -0.9264804E-02  0.6563594E-03  0.1605656E-01
2421328. -0.3078958E-02 -0.7484503E-01 -0.2963913E-03 -0.7321666E-02  0.4977169E-03  0.1268816E-01
2350750. -0.2340669E-02 -0.5897001E-01 -0.2243704E-03 -0.5735619E-02  0.3730701E-03  0.9907331E-02
2280172. -0.1761624E-02 -0.4601919E-01 -0.1681963E-03 -0.4452131E-02  0.2763042E-03  0.7642591E-02
2209594. -0.1311890E-02 -0.3555513E-01 -0.1247914E-03 -0.3422728E-02  0.2020986E-03  0.5822656E-02
2139016. -0.9661413E-03 -0.2718388E-01 -0.9158221E-04 -0.2604768E-02  0.1459065E-03  0.4379549E-02
2068438. -0.7031724E-03 -0.2055560E-01 -0.6643700E-04 -0.1961137E-02  0.1039063E-03  0.3250529E-02
1997859. -0.5054103E-03 -0.1536347E-01 -0.4760595E-04 -0.1459845E-02  0.7293637E-04  0.2379257E-02
1927281. -0.3584577E-03 -0.1134210E-01 -0.3366800E-04 -0.1073618E-02  0.5042250E-04  0.1716316E-02
1856703. -0.2506341E-03 -0.8264408E-02 -0.2347946E-04 -0.7794254E-03  0.3429814E-04  0.1219193E-02
1786125. -0.1725787E-03 -0.5938640E-02 -0.1613062E-04 -0.5580313E-03  0.2293082E-04  0.8520500E-03
1715547. -0.1168746E-03 -0.4204970E-02 -0.1090597E-04 -0.3935323E-03  0.1505041E-04  0.5852085E-03
1644969. -0.7771504E-04 -0.2932030E-02 -0.7249765E-05 -0.2729164E-03  0.9684318E-05  0.3945203E-03
1574391. -0.5060594E-04 -0.2013659E-02 -0.4736426E-05 -0.1856230E-03  0.6099985E-05  0.2606834E-03
1503812. -0.3210233E-04 -0.1366186E-02 -0.3045775E-05 -0.1231061E-03  0.3755051E-05  0.1685390E-03
1433234. -0.1957050E-04 -0.9268326E-03 -0.1943348E-05 -0.7836193E-04  0.2255320E-05  0.1064071E-03
1362656. -0.1095412E-04 -0.6544526E-03 -0.1266449E-05 -0.4529927E-04  0.1319532E-05  0.6546493E-04
1292078. -0.4507092E-05 -0.5361495E-03 -0.9192861E-06 -0.1769598E-04  0.7508267E-06  0.3922387E-04
1221500.  0.1617540E-05 -0.6087984E-03 -0.8851023E-06  0.1304653E-04  0.4132340E-06  0.2312842E-04
1221500.  0.1617540E-05  0.3771915E-06 -0.1478166E-08 -0.8444343E-05  0.4132340E-06  0.2242769E-04
1183328.  0.1544750E-05  0.2175700E-04  0.3562504E-07 -0.4238925E-05  0.2967735E-06  0.1669342E-04
1145156.  0.1378273E-05  0.3235633E-04  0.5235228E-07 -0.1557787E-05  0.2105519E-06  0.1228473E-04
1106984.  0.1171145E-05  0.3584998E-04  0.5643312E-07  0.4747223E-07  0.1474587E-06  0.8932131E-05
1068812.  0.9574318E-06  0.3493369E-04  0.5324729E-07  0.9165739E-06  0.1018579E-06  0.6411924E-05
1030641.  0.7574609E-06  0.3153013E-04  0.4641156E-07  0.1301607E-05  0.6933161E-07  0.4540534E-05
 992469.  0.5819008E-06  0.2696226E-04  0.3824828E-07  0.1385147E-05  0.4645339E-07  0.3168812E-05
 954297.  0.4349355E-06  0.2209867E-04  0.3015586E-07  0.1295559E-05  0.3060201E-07  0.2177221E-05
 916125.  0.3165994E-06  0.1747191E-04  0.2289308E-07  0.1119880E-05  0.1979507E-07  0.1470994E-05
 877953.  0.2245001E-06  0.1337360E-04  0.1679404E-07  0.9143958E-06  0.1255431E-07  0.9759719E-06
 839781.  0.1550279E-06  0.9929314E-05  0.1192640E-07  0.7130167E-06  0.7793342E-08  0.6349190E-06
 801609.  0.1041704E-06  0.7156307E-05  0.8204241E-08  0.5340806E-06  0.4726212E-08  0.4042934E-06
 763438.  0.6802693E-07  0.5006393E-05  0.5465536E-08  0.3854221E-06  0.2793873E-08  0.2514820E-06
 725266.  0.4309886E-07  0.3396893E-05  0.3522492E-08  0.2682872E-06  0.1605770E-08  0.1524515E-06
 687094.  0.2643303E-07  0.2232267E-05  0.2192623E-08  0.1801141E-06  0.8946603E-09  0.8982715E-07
 648922.  0.1565048E-07  0.1417844E-05  0.1315076E-08  0.1164895E-06  0.4815247E-09  0.5128127E-07
 610750.  0.8915187E-08  0.8680480E-06  0.7576433E-09  0.7242977E-07  0.2493309E-09  0.2825934E-07
 572578.  0.4865614E-08  0.5104700E-06  0.4176291E-09  0.4316453E-07  0.1235931E-09  0.1496502E-07
 534406.  0.2531104E-08  0.2870661E-06  0.2191643E-09  0.2455548E-07  0.5830322E-10  0.7574601E-08
 496234.  0.1247014E-08  0.1535145E-06  0.1088146E-09  0.1326402E-07  0.2598463E-10  0.3640350E-08
 458062.  0.5772315E-09  0.7751592E-07  0.5071186E-10  0.6756593E-08  0.1084302E-10  0.1647676E-08
 419891.  0.2485302E-09  0.3662332E-07  0.2196135E-10  0.3216895E-08  0.4188537E-11  0.6951225E-09
 381719.  0.9826036E-10  0.1600322E-07  0.8725163E-11  0.1413634E-08  0.1476147E-11  0.2696319E-09
 343547.  0.0000000E+00  0.0000000E+00  0.0000000E+00  0.0000000E+00  0.0000000E+00  0.0000000E+00
 305375.  0.0000000E+00  0.0000000E+00  0.0000000E+00  0.0000000E+00  0.0000000E+00  0.0000000E+00
 267203.  0.0000000E+00  0.0000000E+00  0.0000000E+00  0.0000000E+00  0.0000000E+00  0.0000000E+00
 229031.  0.0000000E+00  0.0000000E+00  0.0000000E+00  0.0000000E+00  0.0000000E+00  0.0000000E+00
 190859.  0.0000000E+00  0.0000000E+00  0.0000000E+00  0.0000000E+00  0.0000000E+00  0.0000000E+00
 152688.  0.0000000E+00  0.0000000E+00  0.0000000E+00  0.0000000E+00  0.0000000E+00  0.0000000E+00
 114516.  0.0000000E+00  0.0000000E+00  0.0000000E+00  0.0000000E+00  0.0000000E+00  0.0000000E+00
  76344.  0.0000000E+00  0.0000000E+00  0.0000000E+00  0.0000000E+00  0.0000000E+00  0.0000000E+00
  38172.  0.0000000E+00  0.0000000E+00  0.0000000E+00  0.0000000E+00  0.0000000E+00  0.0000000E+00
      0.  0.0000000E+00  0.0000000E+00  0.0000000E+00  0.0000000E+00  0.0000000E+00  0.0000000E+00
