      22       10 S      718         95.79684         39.79669         22.93240         86.57774      185    7
6371000. -0.4544776E-02  0.1167460E-01  0.1874687E-03  0.4732245E-02  0.0000000E+00  0.0000000E+00
6370000. -0.4546314E-02  0.7927029E-02  0.1866869E-03  0.5229522E-02  0.0000000E+00  0.0000000E+00
6369000. -0.4547264E-02  0.4171315E-02  0.1858272E-03  0.5723439E-02  0.0000000E+00  0.0000000E+00
6368000. -0.4547624E-02  0.4079737E-03  0.1848903E-03  0.6213788E-02  0.0000000E+00  0.0000000E+00
6368000. -0.4547624E-02  0.4079737E-03  0.1848903E-03  0.6213788E-02  0.0000000E+00  0.0000000E+00
6367000. -0.4547392E-02 -0.3362476E-02  0.1838768E-03  0.6700363E-02  0.0000000E+00  0.0000000E+00
6366000. -0.4546568E-02 -0.7139509E-02  0.1827872E-03  0.7182958E-02  0.0000000E+00  0.0000000E+00
6365000. -0.4545150E-02 -0.1092260E-01  0.1816221E-03  0.7661370E-02  0.0000000E+00  0.0000000E+00
6364000. -0.4543139E-02 -0.1471122E-01  0.1803823E-03  0.8135398E-02  0.0000000E+00  0.0000000E+00
6363000. -0.4540532E-02 -0.1850483E-01  0.1790685E-03  0.8604840E-02  0.0000000E+00  0.0000000E+00
6362000. -0.4537330E-02 -0.2230290E-01  0.1776813E-03  0.9069502E-02  0.0000000E+00  0.0000000E+00
6361000. -0.4533530E-02 -0.2610489E-01  0.1762216E-03  0.9529188E-02  0.0000000E+00  0.0000000E+00
6360000. -0.4529134E-02 -0.2991025E-01  0.1746902E-03  0.9983703E-02  0.0000000E+00  0.0000000E+00
6359000. -0.4524141E-02 -0.3371844E-01  0.1730878E-03  0.1043286E-01  0.0000000E+00  0.0000000E+00
6358000. -0.4518549E-02 -0.3752891E-01  0.1714153E-03  0.1087646E-01  0.0000000E+00  0.0000000E+00
6357000. -0.4512359E-02 -0.4134111E-01  0.1696737E-03  0.1131434E-01  0.0000000E+00  0.0000000E+00
6356000. -0.4505571E-02 -0.4515449E-01  0.1678638E-03  0.1174629E-01  0.0000000E+00  0.0000000E+00
6356000. -0.4505571E-02 -0.2704489E-01  0.1678638E-03  0.8946950E-02  0.0000000E+00  0.0000000E+00
6355000. -0.4501109E-02 -0.2980987E-01  0.1664370E-03  0.9233062E-02  0.0000000E+00  0.0000000E+00
6354000. -0.4496213E-02 -0.3257629E-01  0.1649655E-03  0.9515824E-02  0.0000000E+00  0.0000000E+00
6353000. -0.4490883E-02 -0.3534384E-01  0.1634499E-03  0.9795153E-02  0.0000000E+00  0.0000000E+00
6352000. -0.4485118E-02 -0.3811224E-01  0.1618908E-03  0.1007097E-01  0.0000000E+00  0.0000000E+00
6351000. -0.4478918E-02 -0.4088120E-01  0.1602886E-03  0.1034320E-01  0.0000000E+00  0.0000000E+00
6350000. -0.4472284E-02 -0.4365041E-01  0.1586440E-03  0.1061177E-01  0.0000000E+00  0.0000000E+00
6349000. -0.4465215E-02 -0.4641957E-01  0.1569576E-03  0.1087659E-01  0.0000000E+00  0.0000000E+00
6348000. -0.4457712E-02 -0.4918840E-01  0.1552298E-03  0.1113761E-01  0.0000000E+00  0.0000000E+00
6347000. -0.4449774E-02 -0.5195659E-01  0.1534614E-03  0.1139473E-01  0.0000000E+00  0.0000000E+00
6346600. -0.4446478E-02 -0.5306361E-01  0.1527428E-03  0.1149648E-01  0.0000000E+00  0.0000000E+00
6346600. -0.4446478E-02 -0.2786128E-01  0.1527428E-03  0.9261589E-02  0.0000000E+00  0.0000000E+00
6318800. -0.4202614E-02 -0.8391773E-01  0.1019725E-03  0.1359431E-01  0.0000000E+00  0.0000000E+00
6291000. -0.3716861E-02 -0.1380848E+00  0.3814169E-04  0.1516812E-01  0.0000000E+00  0.0000000E+00
6291000. -0.3716861E-02 -0.1398061E+00  0.3814169E-04  0.1553920E-01  0.0000000E+00  0.0000000E+00
6263000. -0.2990959E-02 -0.1891766E+00 -0.2796398E-04  0.1402295E-01  0.0000000E+00  0.0000000E+00
6235000. -0.2068798E-02 -0.2284894E+00 -0.8091811E-04  0.9657764E-02  0.0000000E+00  0.0000000E+00
6207000. -0.1002337E-02 -0.2543494E+00 -0.1099223E-03  0.3303730E-02  0.0000000E+00  0.0000000E+00
6179000.  0.1435857E-03 -0.2643462E+00 -0.1088308E-03 -0.3814345E-02  0.0000000E+00  0.0000000E+00
6151000.  0.1296232E-02 -0.2573336E+00 -0.7728752E-04 -0.1032647E-01  0.0000000E+00  0.0000000E+00
6151000.  0.1296232E-02 -0.2084710E+00 -0.7728752E-04 -0.9254968E-02  0.0000000E+00  0.0000000E+00
6128500.  0.2002322E-02 -0.1902997E+00 -0.3827542E-04 -0.1262878E-01  0.0000000E+00  0.0000000E+00
6106000.  0.2633221E-02 -0.1660816E+00  0.1024212E-04 -0.1458861E-01  0.0000000E+00  0.0000000E+00
6083500.  0.3169744E-02 -0.1370788E+00  0.6284251E-04 -0.1491886E-01  0.0000000E+00  0.0000000E+00
6061000.  0.3597461E-02 -0.1047064E+00  0.1136385E-03 -0.1357351E-01  0.0000000E+00  0.0000000E+00
6038500.  0.3907074E-02 -0.7043992E-01  0.1568831E-03 -0.1067663E-01  0.0000000E+00  0.0000000E+00
6016000.  0.4094464E-02 -0.3572198E-01  0.1875460E-03 -0.6506077E-02  0.0000000E+00  0.0000000E+00
5993500.  0.4160424E-02 -0.1879811E-02  0.2018065E-03 -0.1462765E-02  0.0000000E+00  0.0000000E+00
5971000.  0.4110129E-02  0.2994289E-01  0.1974172E-03  0.3970776E-02  0.0000000E+00  0.0000000E+00
5971000.  0.4110129E-02  0.2754509E-01  0.1974172E-03  0.3073401E-02  0.0000000E+00  0.0000000E+00
5937667.  0.3862022E-02  0.6584427E-01  0.1630906E-03  0.9847774E-02  0.0000000E+00  0.0000000E+00
5904333.  0.3436902E-02  0.9512945E-01  0.9739512E-04  0.1490181E-01  0.0000000E+00  0.0000000E+00
5871000.  0.2882255E-02  0.1154474E+00  0.1145866E-04  0.1750596E-01  0.0000000E+00  0.0000000E+00
5837667.  0.2243042E-02  0.1276457E+00 -0.8108503E-04  0.1742949E-01  0.0000000E+00  0.0000000E+00
5804333.  0.1558440E-02  0.1330276E+00 -0.1666209E-03  0.1489628E-01  0.0000000E+00  0.0000000E+00
5771000.  0.8603750E-03  0.1330400E+00 -0.2336589E-03  0.1047588E-01  0.0000000E+00  0.0000000E+00
5771000.  0.8603750E-03  0.1330404E+00 -0.2336589E-03  0.1047550E-01  0.0000000E+00  0.0000000E+00
5701000. -0.5989529E-03  0.1300849E+00 -0.2858847E-03 -0.1439424E-02  0.0000000E+00  0.0000000E+00
5701000. -0.5989529E-03  0.1060953E+00 -0.2858847E-03 -0.1065627E-02  0.0000000E+00  0.0000000E+00
5667333. -0.1121565E-02  0.9310978E-01 -0.2675905E-03 -0.5702998E-02  0.0000000E+00  0.0000000E+00
5633667. -0.1594835E-02  0.8633310E-01 -0.2263086E-03 -0.9842452E-02  0.0000000E+00  0.0000000E+00
5600000. -0.2030679E-02  0.7830934E-01 -0.1655272E-03 -0.1294049E-01  0.0000000E+00  0.0000000E+00
5600000. -0.2030679E-02  0.7830934E-01 -0.1655272E-03 -0.1294049E-01  0.0000000E+00  0.0000000E+00
5563518. -0.2450471E-02  0.6801569E-01 -0.8535096E-04 -0.1478024E-01  0.0000000E+00  0.0000000E+00
5527037. -0.2805930E-02  0.5579067E-01  0.4131616E-06 -0.1488401E-01  0.0000000E+00  0.0000000E+00
5490556. -0.3085133E-02  0.4133747E-01  0.8188937E-04 -0.1331069E-01  0.0000000E+00  0.0000000E+00
5454074. -0.3274732E-02  0.2448022E-01  0.1501521E-03 -0.1032895E-01  0.0000000E+00  0.0000000E+00
5417593. -0.3360986E-02  0.5274484E-02  0.1983242E-03 -0.6377816E-02  0.0000000E+00  0.0000000E+00
5381111. -0.3331294E-02 -0.1593064E-01  0.2223703E-03 -0.1996877E-02  0.0000000E+00  0.0000000E+00
5344630. -0.3176011E-02 -0.3845188E-01  0.2214658E-03  0.2242975E-02  0.0000000E+00  0.0000000E+00
5308148. -0.2890281E-02 -0.6130142E-01  0.1979622E-03  0.5816141E-02  0.0000000E+00  0.0000000E+00
5271667. -0.2475722E-02 -0.8322873E-01  0.1569339E-03  0.8306927E-02  0.0000000E+00  0.0000000E+00
5235185. -0.1941497E-02 -0.1028602E+00  0.1053950E-03  0.9459120E-02  0.0000000E+00  0.0000000E+00
5198704. -0.1304769E-02 -0.1188095E+00  0.5130716E-04  0.9201676E-02  0.0000000E+00  0.0000000E+00
5162222. -0.5903261E-03 -0.1298080E+00  0.2495529E-05  0.7649971E-02  0.0000000E+00  0.0000000E+00
5125741.  0.1705265E-03 -0.1348950E+00 -0.3436494E-04  0.5086778E-02  0.0000000E+00  0.0000000E+00
5089259.  0.9420817E-03 -0.1334749E+00 -0.5459826E-04  0.1917343E-02  0.0000000E+00  0.0000000E+00
5052778.  0.1686416E-02 -0.1254163E+00 -0.5607071E-04 -0.1384299E-02  0.0000000E+00  0.0000000E+00
5016296.  0.2366416E-02 -0.1111007E+00 -0.3941179E-04 -0.4338218E-02  0.0000000E+00  0.0000000E+00
4979815.  0.2948399E-02 -0.9136324E-01 -0.7870290E-05 -0.6519285E-02  0.0000000E+00  0.0000000E+00
4943333.  0.3404748E-02 -0.6745245E-01  0.3315863E-04 -0.7609822E-02  0.0000000E+00  0.0000000E+00
4906852.  0.3715862E-02 -0.4091323E-01  0.7685832E-04 -0.7437084E-02  0.0000000E+00  0.0000000E+00
4870370.  0.3871496E-02 -0.1343215E-01  0.1158914E-03 -0.5991908E-02  0.0000000E+00  0.0000000E+00
4833889.  0.3871150E-02  0.1329192E-01  0.1433361E-03 -0.3428256E-02  0.0000000E+00  0.0000000E+00
4797407.  0.3723674E-02  0.3771817E-01  0.1535748E-03 -0.4148072E-04  0.0000000E+00  0.0000000E+00
4760926.  0.3446024E-02  0.5857888E-01  0.1430025E-03  0.3767373E-02  0.0000000E+00  0.0000000E+00
4724444.  0.3061316E-02  0.7499675E-01  0.1104931E-03  0.7542526E-02  0.0000000E+00  0.0000000E+00
4687963.  0.2596507E-02  0.8652227E-01  0.5756662E-04  0.1082509E-01  0.0000000E+00  0.0000000E+00
4651482.  0.2079822E-02  0.9315236E-01 -0.1175335E-04  0.1320754E-01  0.0000000E+00  0.0000000E+00
4615000.  0.1538258E-02  0.9530637E-01 -0.9137672E-04  0.1438176E-01  0.0000000E+00  0.0000000E+00
4578518.  0.9954824E-03  0.9372068E-01 -0.1738046E-03  0.1416968E-01  0.0000000E+00  0.0000000E+00
4542037.  0.4702266E-03  0.8936769E-01 -0.2509483E-03  0.1254577E-01  0.0000000E+00  0.0000000E+00
4505556. -0.2474528E-04  0.8332107E-01 -0.3150215E-03  0.9637589E-02  0.0000000E+00  0.0000000E+00
4469074. -0.4827206E-03  0.7660405E-01 -0.3593648E-03  0.5708286E-02  0.0000000E+00  0.0000000E+00
4432593. -0.9024868E-03  0.7011051E-01 -0.3791537E-03  0.1130621E-02  0.0000000E+00  0.0000000E+00
4396111. -0.1287310E-02  0.6447471E-01 -0.3719089E-03 -0.3657837E-02  0.0000000E+00  0.0000000E+00
4359630. -0.1643127E-02  0.6000949E-01 -0.3377364E-03 -0.8199533E-02  0.0000000E+00  0.0000000E+00
4323148. -0.1976812E-02  0.5671216E-01 -0.2792941E-03 -0.1206797E-01  0.0000000E+00  0.0000000E+00
4286667. -0.2294222E-02  0.5424805E-01 -0.2014979E-03 -0.1490904E-01  0.0000000E+00  0.0000000E+00
4250185. -0.2598544E-02  0.5202223E-01 -0.1109871E-03 -0.1647800E-01  0.0000000E+00  0.0000000E+00
4213704. -0.2889006E-02  0.4927373E-01 -0.1543452E-04 -0.1666386E-01  0.0000000E+00  0.0000000E+00
4177222. -0.3160244E-02  0.4516656E-01  0.7725641E-04 -0.1549382E-01  0.0000000E+00  0.0000000E+00
4140741. -0.3402179E-02  0.3892308E-01  0.1597239E-03 -0.1313175E-01  0.0000000E+00  0.0000000E+00
4104259. -0.3600734E-02  0.2992895E-01  0.2258963E-03 -0.9855716E-02  0.0000000E+00  0.0000000E+00
4067778. -0.3738986E-02  0.1782972E-01  0.2715330E-03 -0.6024756E-02  0.0000000E+00  0.0000000E+00
4031296. -0.3798921E-02  0.2598931E-02  0.2946083E-03 -0.2044219E-02  0.0000000E+00  0.0000000E+00
3994815. -0.3763387E-02 -0.1542785E-01  0.2954351E-03  0.1680690E-02  0.0000000E+00  0.0000000E+00
3958333. -0.3618204E-02 -0.3555493E-01  0.2765476E-03  0.4785974E-02  0.0000000E+00  0.0000000E+00
3921852. -0.3354072E-02 -0.5678798E-01  0.2423642E-03  0.6983540E-02  0.0000000E+00  0.0000000E+00
3885370. -0.2968084E-02 -0.7789207E-01  0.1986584E-03  0.8090757E-02  0.0000000E+00  0.0000000E+00
3848889. -0.2464872E-02 -0.9750684E-01  0.1519137E-03  0.8045549E-02  0.0000000E+00  0.0000000E+00
3812407. -0.1856815E-02 -0.1142865E+00  0.1086049E-03  0.6910751E-02  0.0000000E+00  0.0000000E+00
3775926. -0.1163837E-02 -0.1269839E+00  0.7451562E-04  0.4864145E-02  0.0000000E+00  0.0000000E+00
3739444. -0.4122415E-03 -0.1346171E+00  0.5412270E-04  0.2178694E-02  0.0000000E+00  0.0000000E+00
3702963.  0.3669295E-03 -0.1365449E+00  0.5013975E-04 -0.8073677E-03  0.0000000E+00  0.0000000E+00
3666482.  0.1140075E-02 -0.1325088E+00  0.6324001E-04 -0.3726240E-02  0.0000000E+00  0.0000000E+00
3630000.  0.1873474E-02 -0.1227280E+00  0.9199631E-04 -0.6218080E-02  0.0000000E+00  0.0000000E+00
3630000.  0.1873474E-02 -0.1227280E+00  0.9199631E-04 -0.6218080E-02  0.0000000E+00  0.0000000E+00
3592500.  0.2552992E-02 -0.1073431E+00  0.1343051E-03 -0.8002394E-02  0.0000000E+00  0.0000000E+00
3555000.  0.3128669E-02 -0.8766250E-01  0.1841443E-03 -0.8742123E-02  0.0000000E+00  0.0000000E+00
3517500.  0.3579383E-02 -0.6514484E-01  0.2348680E-03 -0.8288218E-02  0.0000000E+00  0.0000000E+00
3480000.  0.3893217E-02 -0.4143684E-01  0.2793155E-03 -0.6616140E-02  0.0000000E+00  0.0000000E+00
3480000.  0.3893217E-02 -0.1037820E+00  0.7398749E-04  0.6990775E-02  0.0000000E+00  0.0000000E+00
3409422.  0.4457934E-02  0.3234167E-02 -0.1296847E-04  0.8354726E-02  0.0000000E+00  0.0000000E+00
3338844.  0.3844420E-02  0.1042396E+00 -0.1029777E-03  0.7533026E-02  0.0000000E+00  0.0000000E+00
3268266.  0.2262017E-02  0.1748292E+00 -0.1725567E-03  0.4746570E-02  0.0000000E+00  0.0000000E+00
3197688.  0.1373237E-03  0.2007610E+00 -0.2033791E-03  0.6791338E-03  0.0000000E+00  0.0000000E+00
3127109. -0.2011336E-02  0.1797370E+00 -0.1863814E-03 -0.3718108E-02  0.0000000E+00  0.0000000E+00
3056531. -0.3701697E-02  0.1201627E+00 -0.1234484E-03 -0.7458654E-02  0.0000000E+00  0.0000000E+00
2985953. -0.4588990E-02  0.3775576E-01 -0.2657735E-04 -0.9734683E-02  0.0000000E+00  0.0000000E+00
2915375. -0.4522984E-02 -0.4882310E-01  0.8501516E-04 -0.1006965E-01  0.0000000E+00  0.0000000E+00
2844797. -0.3556552E-02 -0.1222127E+00  0.1890300E-03 -0.8387746E-02  0.0000000E+00  0.0000000E+00
2774219. -0.1912004E-02 -0.1696161E+00  0.2645089E-03 -0.4997562E-02  0.0000000E+00  0.0000000E+00
2703641.  0.8097519E-04 -0.1846176E+00  0.2956652E-03 -0.5050977E-03  0.0000000E+00  0.0000000E+00
2633062.  0.2058975E-02 -0.1674656E+00  0.2744748E-03  0.4318417E-02  0.0000000E+00  0.0000000E+00
2562484.  0.3693921E-02 -0.1240489E+00  0.2016956E-03  0.8682936E-02  0.0000000E+00  0.0000000E+00
2491906.  0.4745820E-02 -0.6400394E-01  0.8631170E-04  0.1191297E-01  0.0000000E+00  0.0000000E+00
2421328.  0.5091776E-02  0.1539768E-02 -0.5631658E-04  0.1354562E-01  0.0000000E+00  0.0000000E+00
2350750.  0.4730396E-02  0.6210176E-01 -0.2071378E-03  0.1338167E-01  0.0000000E+00  0.0000000E+00
2280172.  0.3764811E-02  0.1095173E+00 -0.3463826E-03  0.1148714E-01  0.0000000E+00  0.0000000E+00
2209594.  0.2370867E-02  0.1389270E+00 -0.4563085E-03  0.8152001E-02  0.0000000E+00  0.0000000E+00
2139016.  0.7583782E-03  0.1490466E+00 -0.5233020E-03  0.3817974E-02  0.0000000E+00  0.0000000E+00
2068438. -0.8670514E-03  0.1418183E+00 -0.5390807E-03 -0.1009516E-02  0.0000000E+00  0.0000000E+00
1997859. -0.2335689E-02  0.1216179E+00 -0.5008982E-03 -0.5850358E-02  0.0000000E+00  0.0000000E+00
1927281. -0.3535231E-02  0.9428103E-01 -0.4108221E-03 -0.1032784E-01  0.0000000E+00  0.0000000E+00
1856703. -0.4421678E-02  0.6615034E-01 -0.2742210E-03 -0.1423109E-01  0.0000000E+00  0.0000000E+00
1786125. -0.5020757E-02  0.4339103E-01 -0.9766800E-04 -0.1756030E-01  0.0000000E+00  0.0000000E+00
1715547. -0.5424055E-02  0.3173002E-01  0.1136112E-03 -0.2056516E-01  0.0000000E+00  0.0000000E+00
1644969. -0.5785483E-02  0.3681538E-01  0.3587629E-03 -0.2379663E-01  0.0000000E+00  0.0000000E+00
1574391. -0.6326276E-02  0.6545342E-01  0.6451400E-03 -0.2820999E-01  0.0000000E+00  0.0000000E+00
1503812. -0.7360815E-02  0.1282605E+00  0.9938849E-03 -0.3539297E-01  0.0000000E+00  0.0000000E+00
1433234. -0.9364707E-02  0.2449490E+00  0.1449326E-02 -0.4806548E-01  0.0000000E+00  0.0000000E+00
1362656. -0.1312832E-01  0.4551612E+00  0.2096831E-02 -0.7117442E-01  0.0000000E+00  0.0000000E+00
1292078. -0.2009004E-01  0.8418688E+00  0.3099108E-02 -0.1143230E+00  0.0000000E+00  0.0000000E+00
1221500. -0.3307162E-01  0.1585028E+01  0.4774410E-02 -0.1973599E+00  0.0000000E+00  0.0000000E+00
1221500. -0.3307162E-01 -0.1069003E+02 -0.2103396E-01  0.6278501E-01  0.0000000E+00  0.0000000E+00
1183328.  0.3126560E-01 -0.1008972E+02 -0.1788430E-01 -0.1088699E+01  0.0000000E+00  0.0000000E+00
1145156.  0.7988832E-01 -0.5564405E+01 -0.8743016E-02 -0.1867840E+01  0.0000000E+00  0.0000000E+00
1106984.  0.9292686E-01  0.1437720E+01  0.3125338E-02 -0.1969179E+01  0.0000000E+00  0.0000000E+00
1068812.  0.6264404E-01  0.8443933E+01  0.1341688E-01 -0.1360461E+01  0.0000000E+00  0.0000000E+00
1030641. -0.3038971E-02  0.1286680E+02  0.1847038E-01 -0.2780327E+00  0.0000000E+00  0.0000000E+00
 992469. -0.8276116E-01  0.1294493E+02  0.1659526E-01  0.8809938E+00  0.0000000E+00  0.0000000E+00
 954297. -0.1487433E+00  0.8361343E+01  0.8567478E-02  0.1717455E+01  0.0000000E+00  0.0000000E+00
 916125. -0.1759966E+00  0.3304402E+00 -0.2812070E-02  0.1974180E+01  0.0000000E+00  0.0000000E+00
 877953. -0.1503879E+00 -0.8849774E+01 -0.1383956E-01  0.1612394E+01  0.0000000E+00  0.0000000E+00
 839781. -0.7287005E-01 -0.1658611E+02 -0.2122568E-01  0.8003925E+00  0.0000000E+00  0.0000000E+00
 801609.  0.4129307E-01 -0.2082024E+02 -0.2311443E-01 -0.1696244E+00  0.0000000E+00  0.0000000E+00
 763438.  0.1676605E+00 -0.2061402E+02 -0.1948599E-01 -0.9961261E+00  0.0000000E+00  0.0000000E+00
 725266.  0.2800746E+00 -0.1631993E+02 -0.1189542E-01 -0.1468224E+01  0.0000000E+00  0.0000000E+00
 687094.  0.3578032E+00 -0.9328354E+01 -0.2745583E-02 -0.1517679E+01  0.0000000E+00  0.0000000E+00
 648922.  0.3902560E+00 -0.1530811E+01  0.5578758E-02 -0.1213422E+01  0.0000000E+00  0.0000000E+00
 610750.  0.3781451E+00  0.5286663E+01  0.1139876E-01 -0.7113867E+00  0.0000000E+00  0.0000000E+00
 572578.  0.3313339E+00  0.9914132E+01  0.1406034E-01 -0.1864212E+00  0.0000000E+00  0.0000000E+00
 534406.  0.2646137E+00  0.1192733E+02  0.1386216E-01  0.2260397E+00  0.0000000E+00  0.0000000E+00
 496234.  0.1930701E+00  0.1162144E+02  0.1171164E-01  0.4606099E+00  0.0000000E+00  0.0000000E+00
 458062.  0.1284886E+00  0.9749531E+01  0.8692964E-02  0.5212708E+00  0.0000000E+00  0.0000000E+00
 419891.  0.7759576E-01  0.7194343E+01  0.5713406E-02  0.4581209E+00  0.0000000E+00  0.0000000E+00
 381719.  0.4214898E-01  0.4694230E+01  0.3319662E-02  0.3362882E+00  0.0000000E+00  0.0000000E+00
 343547.  0.2031992E-01  0.2696602E+01  0.1689985E-02  0.2104319E+00  0.0000000E+00  0.0000000E+00
 305375.  0.8526965E-02  0.1346701E+01  0.7413989E-03  0.1121281E+00  0.0000000E+00  0.0000000E+00
 267203.  0.3027320E-02  0.5718547E+00  0.2729541E-03  0.5006799E-01  0.0000000E+00  0.0000000E+00
 229031.  0.8713571E-03  0.1992140E+00  0.8092188E-04  0.1814237E-01  0.0000000E+00  0.0000000E+00
 190859.  0.1901537E-03  0.5372151E-01  0.1808400E-04  0.5045275E-02  0.0000000E+00  0.0000000E+00
 152688.  0.2809882E-04  0.1015293E-01  0.2722582E-05  0.9763432E-03  0.0000000E+00  0.0000000E+00
 114516.  0.2272255E-05  0.1113703E-02  0.2232827E-06  0.1089946E-03  0.0000000E+00  0.0000000E+00
  76344.  0.6230223E-07  0.4635590E-04  0.6182447E-08  0.4592018E-05  0.0000000E+00  0.0000000E+00
  38172.  0.1255705E-09  0.1881819E-06  0.1253301E-10  0.1877414E-07  0.0000000E+00  0.0000000E+00
      0.  0.0000000E+00  0.0000000E+00  0.0000000E+00  0.0000000E+00  0.0000000E+00  0.0000000E+00
