       6       20 S      380        149.30930         13.07816          8.09977        309.77319      185    7
6371000.  0.8426487E-01 -0.9721646E-01 -0.1875557E-03 -0.8445243E-01 -0.6786819E-03 -0.1446515E+00
6370000.  0.8427773E-01 -0.6664471E-01 -0.1742832E-03 -0.8466285E-01 -0.6559808E-03 -0.1446048E+00
6369000.  0.8428580E-01 -0.3605131E-01 -0.1609794E-03 -0.8485050E-01 -0.6332875E-03 -0.1445521E+00
6368000.  0.8428905E-01 -0.5438812E-02 -0.1476479E-03 -0.8501532E-01 -0.6106030E-03 -0.1444935E+00
6368000.  0.8428905E-01 -0.5438812E-02 -0.1476479E-03 -0.8501532E-01 -0.6106030E-03 -0.1444935E+00
6367000.  0.8428750E-01  0.2519022E-01 -0.1342923E-03 -0.8515728E-01 -0.5879281E-03 -0.1444290E+00
6366000.  0.8428114E-01  0.5583322E-01 -0.1209163E-03 -0.8527633E-01 -0.5652638E-03 -0.1443585E+00
6365000.  0.8426997E-01  0.8648761E-01 -0.1075234E-03 -0.8537245E-01 -0.5426111E-03 -0.1442820E+00
6364000.  0.8425399E-01  0.1171508E+00 -0.9411717E-04 -0.8544562E-01 -0.5199708E-03 -0.1441996E+00
6363000.  0.8423319E-01  0.1478203E+00 -0.8070129E-04 -0.8549581E-01 -0.4973438E-03 -0.1441113E+00
6362000.  0.8420759E-01  0.1784935E+00 -0.6727932E-04 -0.8552302E-01 -0.4747313E-03 -0.1440170E+00
6361000.  0.8417717E-01  0.2091677E+00 -0.5385489E-04 -0.8552722E-01 -0.4521340E-03 -0.1439168E+00
6360000.  0.8414192E-01  0.2398405E+00 -0.4043161E-04 -0.8550839E-01 -0.4295529E-03 -0.1438107E+00
6359000.  0.8410187E-01  0.2705092E+00 -0.2701309E-04 -0.8546656E-01 -0.4069889E-03 -0.1436986E+00
6358000.  0.8405700E-01  0.3011713E+00 -0.1360294E-04 -0.8540169E-01 -0.3844430E-03 -0.1435806E+00
6357000.  0.8400733E-01  0.3318241E+00 -0.2047850E-06 -0.8531382E-01 -0.3619161E-03 -0.1434566E+00
6356000.  0.8395284E-01  0.3624651E+00  0.1317778E-04 -0.8520293E-01 -0.3394090E-03 -0.1433267E+00
6356000.  0.8395284E-01  0.2221967E+00  0.1317778E-04 -0.8478069E-01 -0.3394090E-03 -0.1615939E+00
6355000.  0.8391619E-01  0.2447805E+00  0.2647851E-04 -0.8469488E-01 -0.3140529E-03 -0.1614932E+00
6354000.  0.8387600E-01  0.2673586E+00  0.3976464E-04 -0.8459454E-01 -0.2887129E-03 -0.1613886E+00
6353000.  0.8383226E-01  0.2899296E+00  0.5303388E-04 -0.8447967E-01 -0.2633896E-03 -0.1612800E+00
6352000.  0.8378498E-01  0.3124923E+00  0.6628394E-04 -0.8435029E-01 -0.2380837E-03 -0.1611675E+00
6351000.  0.8373416E-01  0.3350450E+00  0.7951257E-04 -0.8420639E-01 -0.2127957E-03 -0.1610510E+00
6350000.  0.8367980E-01  0.3575863E+00  0.9271747E-04 -0.8404800E-01 -0.1875263E-03 -0.1609307E+00
6349000.  0.8362191E-01  0.3801149E+00  0.1058964E-03 -0.8387512E-01 -0.1622762E-03 -0.1608063E+00
6348000.  0.8356048E-01  0.4026293E+00  0.1190470E-03 -0.8368778E-01 -0.1370458E-03 -0.1606781E+00
6347000.  0.8349552E-01  0.4251280E+00  0.1321671E-03 -0.8348598E-01 -0.1118359E-03 -0.1605459E+00
6346600.  0.8346854E-01  0.4341228E+00  0.1374061E-03 -0.8340122E-01 -0.1017578E-03 -0.1604920E+00
6346600.  0.8346854E-01  0.2469492E+00  0.1374061E-03 -0.8348253E-01 -0.1017578E-03 -0.1895962E+00
6318800.  0.8135907E-01  0.7184836E+00  0.4858795E-03 -0.7485791E-01  0.7186553E-03 -0.1861176E+00
6291000.  0.7722546E-01  0.1171362E+01  0.7791026E-03 -0.5828188E-01  0.1519706E-02 -0.1807200E+00
6291000.  0.7722546E-01  0.1189445E+01  0.7791026E-03 -0.5759378E-01  0.1519706E-02 -0.1807200E+00
6263000.  0.7105023E-01  0.1612251E+01  0.9801955E-03 -0.3281686E-01  0.2297980E-02 -0.1731163E+00
6235000.  0.6314220E-01  0.1975027E+01  0.1059203E-02 -0.2351922E-02  0.3038485E-02 -0.1635451E+00
6207000.  0.5380180E-01  0.2261711E+01  0.9955800E-03  0.3171312E-01  0.3732772E-02 -0.1521041E+00
6179000.  0.4339143E-01  0.2460320E+01  0.7786652E-03  0.6699187E-01  0.4372922E-02 -0.1389369E+00
6151000.  0.3231578E-01  0.2563709E+01  0.4086635E-03  0.1009537E+00  0.4951748E-02 -0.1242316E+00
6151000.  0.3231578E-01  0.2075196E+01  0.4086635E-03  0.8463295E-01  0.4951748E-02 -0.1260195E+00
6128500.  0.2502671E-01  0.2045040E+01  0.7392155E-04  0.1045331E+00  0.5382164E-02 -0.1176739E+00
6106000.  0.1792359E-01  0.1970548E+01 -0.3264025E-03  0.1216532E+00  0.5782562E-02 -0.1090330E+00
6083500.  0.1115532E-01  0.1856248E+01 -0.7812972E-03  0.1353390E+00  0.6152039E-02 -0.1001766E+00
6061000.  0.4852892E-02  0.1707736E+01 -0.1277677E-02  0.1450730E+00  0.6489974E-02 -0.9118324E-01
6038500. -0.8740720E-03  0.1531482E+01 -0.1800897E-02  0.1504906E+00  0.6796017E-02 -0.8212849E-01
6016000. -0.5939930E-02  0.1334546E+01 -0.2335302E-02  0.1513870E+00  0.7070083E-02 -0.7308576E-01
5993500. -0.1028468E-01  0.1124353E+01 -0.2864800E-02  0.1477172E+00  0.7312338E-02 -0.6412581E-01
5971000. -0.1387484E-01  0.9084538E+00 -0.3373420E-02  0.1395952E+00  0.7523198E-02 -0.5531703E-01
5971000. -0.1387484E-01  0.7744708E+00 -0.3373420E-02  0.1254509E+00  0.7523198E-02 -0.5350070E-01
5937667. -0.1709972E-01  0.4634133E+00 -0.3977648E-02  0.1047066E+00  0.7770045E-02 -0.4098921E-01
5904333. -0.1878909E-01  0.1895792E+00 -0.4462227E-02  0.8003061E-01  0.7953535E-02 -0.2929214E-01
5871000. -0.1916627E-01 -0.3686366E-01 -0.4811550E-02  0.5331305E-01  0.8078098E-02 -0.1847464E-01
5837667. -0.1849579E-01 -0.2103127E+00 -0.5019551E-02  0.2627628E-01  0.8148470E-02 -0.8583474E-02
5804333. -0.1706063E-01 -0.3291992E+00 -0.5088531E-02  0.3913254E-03  0.8169593E-02  0.3464537E-03
5771000. -0.1514290E-01 -0.3953506E+00 -0.5027722E-02 -0.2316780E-01  0.8146569E-02  0.8288551E-02
5771000. -0.1514290E-01 -0.3954622E+00 -0.5027722E-02 -0.2316668E-01  0.8146569E-02  0.8288551E-02
5701000. -0.1086740E-01 -0.3499509E+00 -0.4518596E-02 -0.6790393E-01  0.7982219E-02  0.2085622E-01
5701000. -0.1086740E-01 -0.3846366E+00 -0.4518596E-02 -0.5217055E-01  0.7982219E-02  0.2391934E-01
5667333. -0.8940734E-02 -0.3412254E+00 -0.4230646E-02 -0.5696441E-01  0.7838524E-02  0.3031380E-01
5633667. -0.7296723E-02 -0.2776560E+00 -0.3911776E-02 -0.6387621E-01  0.7663242E-02  0.3590015E-01
5600000. -0.6035256E-02 -0.1975392E+00 -0.3559647E-02 -0.6896138E-01  0.7460505E-02  0.4069830E-01
5600000. -0.6035256E-02 -0.1975392E+00 -0.3559647E-02 -0.6896138E-01  0.7460505E-02  0.4069830E-01
5563518. -0.5185877E-02 -0.9722038E-01 -0.3154437E-02 -0.7216898E-01  0.7214600E-02  0.4504559E-01
5527037. -0.4938733E-02  0.1185878E-01 -0.2737654E-02 -0.7301594E-01  0.6946208E-02  0.4856453E-01
5490556. -0.5327635E-02  0.1239871E+00 -0.2322578E-02 -0.7159458E-01  0.6659899E-02  0.5131291E-01
5454074. -0.6353884E-02  0.2335698E+00 -0.1921744E-02 -0.6807306E-01  0.6359915E-02  0.5334767E-01
5417593. -0.7987997E-02  0.3354929E+00 -0.1546511E-02 -0.6270220E-01  0.6050199E-02  0.5472432E-01
5381111. -0.1017244E-01  0.4250342E+00 -0.1206632E-02 -0.5577386E-01  0.5734340E-02  0.5549941E-01
5344630. -0.1282437E-01  0.4982153E+00 -0.9101011E-03 -0.4762432E-01  0.5415643E-02  0.5572782E-01
5308148. -0.1584100E-01  0.5519246E+00 -0.6628601E-03 -0.3861593E-01  0.5097067E-02  0.5546320E-01
5271667. -0.1910340E-01  0.5837801E+00 -0.4688071E-03 -0.2911019E-01  0.4781292E-02  0.5476116E-01
5235185. -0.2248238E-01  0.5924773E+00 -0.3297318E-03 -0.1947176E-01  0.4470661E-02  0.5367219E-01
5198704. -0.2584359E-01  0.5775933E+00 -0.2454058E-03 -0.1004265E-01  0.4167260E-02  0.5224753E-01
5162222. -0.2905276E-01  0.5394957E+00 -0.2137360E-03 -0.1128858E-02  0.3872842E-02  0.5054004E-01
5125741. -0.3198035E-01  0.4795608E+00 -0.2309607E-03  0.6992911E-02  0.3588914E-02  0.4859343E-01
5089259. -0.3450693E-01  0.3997893E+00 -0.2918813E-03  0.1409962E-01  0.3316698E-02  0.4645518E-01
5052778. -0.3652602E-01  0.3028279E+00 -0.3901623E-03  0.2001780E-01  0.3057172E-02  0.4417026E-01
5016296. -0.3794830E-01  0.1918856E+00 -0.5186261E-03  0.2462480E-01  0.2811054E-02  0.4177612E-01
4979815. -0.3870360E-01  0.7048987E-01 -0.6695415E-03  0.2785412E-01  0.2578866E-02  0.3931338E-01
4943333. -0.3874284E-01 -0.5757693E-01 -0.8349581E-03  0.2968937E-01  0.2360888E-02  0.3681617E-01
4906852. -0.3803896E-01 -0.1884204E+00 -0.1006950E-02  0.3016133E-01  0.2157246E-02  0.3431354E-01
4870370. -0.3658701E-01 -0.3182158E+00 -0.1177919E-02  0.2934635E-01  0.1967864E-02  0.3183796E-01
4833889. -0.3440378E-01 -0.4432673E+00 -0.1340789E-02  0.2735539E-01  0.1792533E-02  0.2941058E-01
4797407. -0.3152619E-01 -0.5601707E+00 -0.1489226E-02  0.2432983E-01  0.1630913E-02  0.2705189E-01
4760926. -0.2801006E-01 -0.6658459E+00 -0.1617767E-02  0.2043661E-01  0.1482550E-02  0.2478378E-01
4724444. -0.2392716E-01 -0.7577015E+00 -0.1721959E-02  0.1585472E-01  0.1346890E-02  0.2261569E-01
4687963. -0.1936320E-01 -0.8335927E+00 -0.1798389E-02  0.1077335E-01  0.1223331E-02  0.2056024E-01
4651482. -0.1441440E-01 -0.8919028E+00 -0.1844750E-02  0.5383527E-02  0.1111198E-02  0.1862591E-01
4615000. -0.9184472E-02 -0.9316006E+00 -0.1859807E-02 -0.1305496E-03  0.1009784E-02  0.1681549E-01
4578518. -0.3781956E-02 -0.9521371E+00 -0.1843355E-02 -0.5593398E-02  0.9183750E-03  0.1513191E-01
4542037.  0.1683037E-02 -0.9535233E+00 -0.1796155E-02 -0.1084487E-01  0.8362465E-03  0.1357445E-01
4505556.  0.7102290E-02 -0.9362774E+00 -0.1719829E-02 -0.1574516E-01  0.7626823E-03  0.1213989E-01
4469074.  0.1237161E-01 -0.9012929E+00 -0.1616737E-02 -0.2017470E-01  0.6969925E-03  0.1082246E-01
4432593.  0.1739286E-01 -0.8499387E+00 -0.1489866E-02 -0.2403741E-01  0.6385258E-03  0.9616601E-02
4396111.  0.2207720E-01 -0.7838657E+00 -0.1342670E-02 -0.2726265E-01  0.5866626E-03  0.8513621E-02
4359630.  0.2634538E-01 -0.7049664E+00 -0.1178954E-02 -0.2980316E-01  0.5408516E-03  0.7501567E-02
4323148.  0.3013023E-01 -0.6153784E+00 -0.1002709E-02 -0.3163450E-01  0.5005923E-03  0.6572520E-02
4286667.  0.3337668E-01 -0.5173202E+00 -0.8180217E-03 -0.3275555E-01  0.4654481E-03  0.5712826E-02
4250185.  0.3604287E-01 -0.4130657E+00 -0.6289033E-03 -0.3318452E-01  0.4350620E-03  0.4908416E-02
4213704.  0.3809977E-01 -0.3049065E+00 -0.4392384E-03 -0.3295549E-01  0.4091489E-03  0.4148416E-02
4177222.  0.3953145E-01 -0.1950336E+00 -0.2526436E-03 -0.3211993E-01  0.3875035E-03  0.3414561E-02
4140741.  0.4033409E-01 -0.8554606E-01 -0.7243208E-04 -0.3073834E-01  0.3700226E-03  0.2692160E-02
4104259.  0.4051555E-01  0.2163138E-01  0.9846983E-04 -0.2887906E-01  0.3566743E-03  0.1967417E-02
4067778.  0.4009413E-01  0.1247499E+00  0.2575400E-03 -0.2662029E-01  0.3475468E-03  0.1214608E-02
4031296.  0.3909750E-01  0.2223032E+00  0.4027135E-03 -0.2403620E-01  0.3428439E-03  0.4194094E-03
3994815.  0.3756136E-01  0.3129973E+00  0.5323364E-03 -0.2120327E-01  0.3428671E-03 -0.4410765E-03
3958333.  0.3552809E-01  0.3957711E+00  0.6452131E-03 -0.1819776E-01  0.3480817E-03 -0.1398212E-02
3921852.  0.3304554E-01  0.4698305E+00  0.7405375E-03 -0.1508403E-01  0.3591077E-03 -0.2475724E-02
3885370.  0.3016525E-01  0.5345767E+00  0.8178712E-03 -0.1192290E-01  0.3767368E-03 -0.3711383E-02
3848889.  0.2694198E-01  0.5896143E+00  0.8770925E-03 -0.8765606E-02  0.4019947E-03 -0.5147536E-02
3812407.  0.2343170E-01  0.6347632E+00  0.9183332E-03 -0.5647579E-02  0.4361585E-03 -0.6830861E-02
3775926.  0.1969159E-01  0.6699208E+00  0.9419007E-03 -0.2596398E-02  0.4808175E-03 -0.8824993E-02
3739444.  0.1577857E-01  0.6951337E+00  0.9482143E-03  0.3789917E-03  0.5379565E-03 -0.1120243E-01
3702963.  0.1174954E-01  0.7104868E+00  0.9376907E-03  0.3286873E-02  0.6100124E-03 -0.1405278E-01
3666482.  0.7660816E-02  0.7159846E+00  0.9106595E-03  0.6150591E-02  0.7000136E-03 -0.1749124E-01
3630000.  0.3568692E-02  0.7116204E+00  0.8672444E-03  0.9019048E-02  0.8117140E-03 -0.2165664E-01
3630000.  0.3568692E-02  0.7116204E+00  0.8672444E-03  0.9019048E-02  0.8117140E-03 -0.2165664E-01
3592500. -0.5809620E-03  0.6965671E+00  0.8053094E-03  0.1204717E-01  0.9540403E-03 -0.2688114E-01
3555000. -0.4609158E-02  0.6702203E+00  0.7250552E-03  0.1526504E-01  0.1130500E-02 -0.3329941E-01
3517500. -0.8446630E-02  0.6315299E+00  0.6249451E-03  0.1882264E-01  0.1348978E-02 -0.4121565E-01
3480000. -0.1201582E-01  0.5786897E+00  0.5024234E-03  0.2291774E-01  0.1619383E-02 -0.5101549E-01
3480000. -0.1201582E-01 -0.1463553E+00 -0.1082992E-02 -0.1999629E-01  0.1619383E-02 -0.1248093E-01
3409422. -0.1033557E-01 -0.1545489E+00 -0.8740692E-03 -0.1766980E-01  0.1636501E-02  0.7371019E-02
3338844. -0.8637078E-02 -0.1504153E+00 -0.6921869E-03 -0.1515476E-01  0.1492425E-02  0.1733143E-01
3268266. -0.7032630E-02 -0.1382243E+00 -0.5382258E-03 -0.1265766E-01  0.1275506E-02  0.2102726E-01
3197688. -0.5591178E-02 -0.1215100E+00 -0.4111481E-03 -0.1031993E-01  0.1040183E-02  0.2100239E-01
3127109. -0.4347008E-02 -0.1029891E+00 -0.3086643E-03 -0.8227573E-02  0.8174683E-03  0.1898199E-01
3056531. -0.3308792E-02 -0.8459143E-01 -0.2277920E-03 -0.6422354E-02  0.6227902E-03  0.1608739E-01
2985953. -0.2467679E-02 -0.6756197E-01 -0.1652754E-03 -0.4912942E-02  0.4616863E-03  0.1300672E-01
2915375. -0.1804218E-02 -0.5259581E-01 -0.1178980E-03 -0.3685470E-02  0.3338443E-03  0.1012768E-01
2844797. -0.1293668E-02 -0.3997552E-01 -0.8268023E-04 -0.2712286E-02  0.2358441E-03  0.7638021E-02
2774219. -0.9098451E-03 -0.2969845E-01 -0.5699322E-04 -0.1958744E-02  0.1629423E-03  0.5599270E-02
2703641. -0.6276757E-03 -0.2158276E-01 -0.3860664E-04 -0.1388216E-02  0.1101627E-03  0.3999064E-02
2633062. -0.4246956E-03 -0.1535042E-01 -0.2569035E-04 -0.9654957E-03  0.7290442E-04  0.2786727E-02
2562484. -0.2817732E-03 -0.1068768E-01 -0.1678683E-04 -0.6588541E-03  0.4723015E-04  0.1896407E-02
2491906. -0.1832512E-03 -0.7284662E-02 -0.1076548E-04 -0.4410040E-03  0.2994755E-04  0.1260879E-02
2421328. -0.1167663E-03 -0.4860021E-02 -0.6771794E-05 -0.2894221E-03  0.1857953E-04  0.8191899E-03
2350750. -0.7285506E-04 -0.3172759E-02 -0.4175199E-05 -0.1861366E-03  0.1127261E-04  0.5200154E-03
2280172. -0.4448049E-04 -0.2025849E-02 -0.2521196E-05 -0.1172372E-03  0.6684165E-05  0.3224204E-03
2209594. -0.2655154E-04 -0.1264398E-02 -0.1489694E-05 -0.7226073E-04  0.3870386E-05  0.1951506E-03
2139016. -0.1548123E-04 -0.7707923E-03 -0.8604025E-06 -0.4354688E-04  0.2186399E-05  0.1152237E-03
2068438. -0.8807244E-05 -0.4585318E-03 -0.4851946E-06 -0.2563218E-04  0.1203610E-05  0.6630414E-04
1997859. -0.4882535E-05 -0.2658929E-03 -0.2667884E-06 -0.1471889E-04  0.6448489E-06  0.3714348E-04
1927281. -0.2633960E-05 -0.1501095E-03 -0.1428304E-06 -0.8234740E-05  0.3357448E-06  0.2023057E-04
1856703. -0.1380461E-05 -0.8238306E-04 -0.7432779E-07 -0.4481723E-05  0.1695905E-06  0.1069678E-04
1786125. -0.7016006E-06 -0.4388018E-04 -0.3752687E-07 -0.2368687E-05  0.8294634E-07  0.5480936E-05
1715547. -0.3450623E-06 -0.2263943E-04 -0.1834304E-07 -0.1213329E-05  0.3919617E-07  0.2716032E-05
1644969. -0.1638349E-06 -0.1128960E-04 -0.8659561E-08 -0.6010014E-06  0.1785068E-07  0.1298623E-05
1574391. -0.7488654E-07 -0.5428052E-05 -0.3937785E-08 -0.2871093E-06  0.7812579E-08  0.5974967E-06
1503812. -0.3283467E-07 -0.2510275E-05 -0.1720118E-08 -0.1318226E-06  0.3275389E-08  0.2637105E-06
1433234. -0.1371745E-07 -0.1116977E-05 -0.7213724E-09 -0.5777242E-07  0.1310962E-08  0.1112281E-06
1362656. -0.5304340E-08 -0.4895170E-06 -0.2958194E-09 -0.2341829E-07  0.4996947E-09  0.4459905E-07
1292078. -0.1449691E-08 -0.2552615E-06 -0.1392190E-09 -0.6462508E-08  0.1820587E-09  0.1688444E-07
1221500.  0.1370138E-08 -0.3074573E-06 -0.1423562E-09  0.7887706E-08  0.6388304E-10  0.6307832E-08
1221500.  0.1370138E-08 -0.1359528E-07 -0.1016763E-10 -0.7199286E-08  0.6388304E-10  0.5714282E-08
1183328.  0.1276237E-08  0.3630975E-07  0.1657261E-10 -0.2315248E-08  0.3685792E-10  0.3469638E-08
1145156.  0.1008519E-08  0.4891962E-07  0.2284758E-10 -0.9812609E-10  0.2067607E-10  0.2043714E-08
1106984.  0.7228025E-09  0.4480644E-07  0.2050839E-10  0.7192511E-09  0.1127320E-10  0.1168403E-08
1068812.  0.4826279E-09  0.3498497E-07  0.1554242E-10  0.8677176E-09  0.5969713E-11  0.6482729E-09
1030641.  0.3041351E-09  0.2478081E-07  0.1063967E-10  0.7446070E-09  0.3067144E-11  0.3488809E-09
 992469.  0.1820721E-09  0.1633094E-07  0.6757824E-11  0.5486594E-09  0.1526748E-11  0.1819324E-09
 954297.  0.1038931E-09  0.1013418E-07  0.4032969E-11  0.3668041E-09  0.7350323E-12  0.9180417E-10
 916125.  0.5658519E-10  0.5956866E-08  0.2275377E-11  0.2275970E-09  0.3415320E-12  0.4474844E-10
 877953.  0.2942473E-10  0.3325358E-08  0.1217004E-11  0.1324293E-09  0.1527768E-12  0.2101778E-10
 839781.  0.1460333E-10  0.1765619E-08  0.6181380E-12  0.7240032E-10  0.6569627E-13  0.9454233E-11
 801609.  0.0000000E+00  0.0000000E+00  0.0000000E+00  0.0000000E+00  0.0000000E+00  0.0000000E+00
 763438.  0.0000000E+00  0.0000000E+00  0.0000000E+00  0.0000000E+00  0.0000000E+00  0.0000000E+00
 725266.  0.0000000E+00  0.0000000E+00  0.0000000E+00  0.0000000E+00  0.0000000E+00  0.0000000E+00
 687094.  0.0000000E+00  0.0000000E+00  0.0000000E+00  0.0000000E+00  0.0000000E+00  0.0000000E+00
 648922.  0.0000000E+00  0.0000000E+00  0.0000000E+00  0.0000000E+00  0.0000000E+00  0.0000000E+00
 610750.  0.0000000E+00  0.0000000E+00  0.0000000E+00  0.0000000E+00  0.0000000E+00  0.0000000E+00
 572578.  0.0000000E+00  0.0000000E+00  0.0000000E+00  0.0000000E+00  0.0000000E+00  0.0000000E+00
 534406.  0.0000000E+00  0.0000000E+00  0.0000000E+00  0.0000000E+00  0.0000000E+00  0.0000000E+00
 496234.  0.0000000E+00  0.0000000E+00  0.0000000E+00  0.0000000E+00  0.0000000E+00  0.0000000E+00
 458062.  0.0000000E+00  0.0000000E+00  0.0000000E+00  0.0000000E+00  0.0000000E+00  0.0000000E+00
 419891.  0.0000000E+00  0.0000000E+00  0.0000000E+00  0.0000000E+00  0.0000000E+00  0.0000000E+00
 381719.  0.0000000E+00  0.0000000E+00  0.0000000E+00  0.0000000E+00  0.0000000E+00  0.0000000E+00
 343547.  0.0000000E+00  0.0000000E+00  0.0000000E+00  0.0000000E+00  0.0000000E+00  0.0000000E+00
 305375.  0.0000000E+00  0.0000000E+00  0.0000000E+00  0.0000000E+00  0.0000000E+00  0.0000000E+00
 267203.  0.0000000E+00  0.0000000E+00  0.0000000E+00  0.0000000E+00  0.0000000E+00  0.0000000E+00
 229031.  0.0000000E+00  0.0000000E+00  0.0000000E+00  0.0000000E+00  0.0000000E+00  0.0000000E+00
 190859.  0.0000000E+00  0.0000000E+00  0.0000000E+00  0.0000000E+00  0.0000000E+00  0.0000000E+00
 152688.  0.0000000E+00  0.0000000E+00  0.0000000E+00  0.0000000E+00  0.0000000E+00  0.0000000E+00
 114516.  0.0000000E+00  0.0000000E+00  0.0000000E+00  0.0000000E+00  0.0000000E+00  0.0000000E+00
  76344.  0.0000000E+00  0.0000000E+00  0.0000000E+00  0.0000000E+00  0.0000000E+00  0.0000000E+00
  38172.  0.0000000E+00  0.0000000E+00  0.0000000E+00  0.0000000E+00  0.0000000E+00  0.0000000E+00
      0.  0.0000000E+00  0.0000000E+00  0.0000000E+00  0.0000000E+00  0.0000000E+00  0.0000000E+00
