       7       14 S      414        176.55991         15.63606         14.92445         89.28752      185    7
6371000. -0.2834095E-06 -0.9214360E-05 -0.1142994E-06  0.1691102E-06  0.2011096E-07  0.2327797E-06
6370000. -0.2819578E-06 -0.9283427E-05 -0.1143195E-06  0.8763708E-07  0.2007414E-07  0.2363919E-06
6369000. -0.2804954E-06 -0.9350309E-05 -0.1143269E-06  0.6108003E-08  0.2003675E-07  0.2399889E-06
6368000. -0.2790226E-06 -0.9414998E-05 -0.1143214E-06 -0.7546757E-07  0.1999880E-07  0.2435706E-06
6368000. -0.2790226E-06 -0.9414998E-05 -0.1143214E-06 -0.7546757E-07  0.1999880E-07  0.2435706E-06
6367000. -0.2775399E-06 -0.9477493E-05 -0.1143032E-06 -0.1570801E-06  0.1996029E-07  0.2471369E-06
6366000. -0.2760475E-06 -0.9537788E-05 -0.1142721E-06 -0.2387201E-06  0.1992122E-07  0.2506877E-06
6365000. -0.2745459E-06 -0.9595880E-05 -0.1142282E-06 -0.3203780E-06  0.1988159E-07  0.2542228E-06
6364000. -0.2730353E-06 -0.9651766E-05 -0.1141715E-06 -0.4020443E-06  0.1984141E-07  0.2577422E-06
6363000. -0.2715161E-06 -0.9705443E-05 -0.1141020E-06 -0.4837095E-06  0.1980068E-07  0.2612456E-06
6362000. -0.2699886E-06 -0.9756906E-05 -0.1140197E-06 -0.5653640E-06  0.1975940E-07  0.2647330E-06
6361000. -0.2684533E-06 -0.9806155E-05 -0.1139246E-06 -0.6469982E-06  0.1971758E-07  0.2682043E-06
6360000. -0.2669104E-06 -0.9853185E-05 -0.1138166E-06 -0.7286026E-06  0.1967521E-07  0.2716592E-06
6359000. -0.2653603E-06 -0.9897997E-05 -0.1136958E-06 -0.8101678E-06  0.1963230E-07  0.2750978E-06
6358000. -0.2638033E-06 -0.9940589E-05 -0.1135623E-06 -0.8916840E-06  0.1958885E-07  0.2785198E-06
6357000. -0.2622398E-06 -0.9980957E-05 -0.1134159E-06 -0.9731417E-06  0.1954487E-07  0.2819253E-06
6356000. -0.2606702E-06 -0.1001910E-04 -0.1132568E-06 -0.1054531E-05  0.1950035E-07  0.2853139E-06
6356000. -0.2606702E-06 -0.8579861E-05 -0.1132568E-06 -0.5779374E-06  0.1950035E-07  0.3420327E-06
6355000. -0.2593210E-06 -0.8611833E-05 -0.1131620E-06 -0.6299404E-06  0.1944632E-07  0.3463540E-06
6354000. -0.2579668E-06 -0.8642436E-05 -0.1130590E-06 -0.6819236E-06  0.1939162E-07  0.3506632E-06
6353000. -0.2566080E-06 -0.8671670E-05 -0.1129479E-06 -0.7338829E-06  0.1933624E-07  0.3549602E-06
6352000. -0.2552447E-06 -0.8699533E-05 -0.1128287E-06 -0.7858145E-06  0.1928019E-07  0.3592449E-06
6351000. -0.2538771E-06 -0.8726026E-05 -0.1127012E-06 -0.8377144E-06  0.1922347E-07  0.3635172E-06
6350000. -0.2525054E-06 -0.8751146E-05 -0.1125657E-06 -0.8895785E-06  0.1916607E-07  0.3677770E-06
6349000. -0.2511300E-06 -0.8774894E-05 -0.1124220E-06 -0.9414031E-06  0.1910801E-07  0.3720242E-06
6348000. -0.2497509E-06 -0.8797269E-05 -0.1122702E-06 -0.9931840E-06  0.1904929E-07  0.3762588E-06
6347000. -0.2483684E-06 -0.8818271E-05 -0.1121102E-06 -0.1044917E-05  0.1898990E-07  0.3804805E-06
6346600. -0.2478145E-06 -0.8826287E-05 -0.1120439E-06 -0.1065596E-05  0.1896596E-07  0.3821656E-06
6346600. -0.2478145E-06 -0.9780309E-05 -0.1120439E-06 -0.6751527E-06  0.1896596E-07  0.4685749E-06
6318800. -0.2045700E-06 -0.9904675E-05 -0.1068152E-06 -0.1714669E-05  0.1664596E-07  0.5934409E-06
6291000. -0.1625581E-06 -0.9217851E-05 -0.9717203E-07 -0.2690973E-05  0.1379945E-07  0.7097372E-06
6291000. -0.1625581E-06 -0.9510337E-05 -0.9717203E-07 -0.2793577E-05  0.1379945E-07  0.7097372E-06
6263000. -0.1239215E-06 -0.7940257E-05 -0.8283853E-07 -0.3705787E-05  0.1044724E-07  0.8140570E-06
6235000. -0.9385093E-07 -0.5630744E-05 -0.6483474E-07 -0.4457193E-05  0.6659409E-08  0.9078820E-06
6207000. -0.7531903E-07 -0.2714801E-05 -0.4394881E-07 -0.5012158E-05  0.2483231E-08  0.9907113E-06
6179000. -0.7062767E-07  0.6364228E-06 -0.2110563E-07 -0.5344329E-05 -0.2032138E-08  0.1062188E-05
6151000. -0.8125657E-07  0.4221400E-05  0.2676747E-08 -0.5437850E-05 -0.6836197E-08  0.1122047E-05
6151000. -0.8125657E-07  0.3461079E-05  0.2676747E-08 -0.4761921E-05 -0.6836197E-08  0.1126542E-05
6128500. -0.9767634E-07  0.5826351E-05  0.1931389E-07 -0.4640361E-05 -0.1087788E-07  0.1161025E-05
6106000. -0.1222798E-06  0.8082462E-05  0.3531906E-07 -0.4405285E-05 -0.1502770E-07  0.1187770E-05
6083500. -0.1545431E-06  0.1015185E-04  0.5030634E-07 -0.4065624E-05 -0.1925825E-07  0.1206745E-05
6061000. -0.1936787E-06  0.1196330E-04  0.6392581E-07 -0.3632768E-05 -0.2354213E-07  0.1217976E-05
6038500. -0.2386618E-06  0.1345382E-04  0.7587167E-07 -0.3120247E-05 -0.2785211E-07  0.1221547E-05
6016000. -0.2882623E-06  0.1457026E-04  0.8588898E-07 -0.2543251E-05 -0.3216137E-07  0.1217597E-05
5993500. -0.3410811E-06  0.1527039E-04  0.9377865E-07 -0.1918145E-05 -0.3644369E-07  0.1206330E-05
5971000. -0.3955909E-06  0.1552399E-04  0.9940086E-07 -0.1262057E-05 -0.4067366E-07  0.1187996E-05
5971000. -0.3955909E-06  0.1478192E-04  0.9940086E-07 -0.1064835E-05 -0.4067366E-07  0.1239783E-05
5937667. -0.4713915E-06  0.1404741E-04  0.1025256E-06 -0.1415865E-06 -0.4703890E-07  0.1190817E-05
5904333. -0.5411485E-06  0.1248827E-04  0.1010402E-06  0.6915542E-06 -0.5310911E-07  0.1127283E-05
5871000. -0.6008443E-06  0.1022458E-04  0.9549859E-07  0.1404962E-05 -0.5881342E-07  0.1051406E-05
5837667. -0.6471628E-06  0.7400035E-05  0.8658049E-07  0.1980038E-05 -0.6409364E-07  0.9655741E-06
5804333. -0.6775762E-06  0.4170991E-05  0.7503616E-07  0.2408023E-05 -0.6890423E-07  0.8722385E-06
5771000. -0.6903848E-06  0.6972477E-06  0.6164025E-07  0.2688526E-05 -0.7321212E-07  0.7738785E-06
5771000. -0.6903848E-06  0.6979889E-06  0.6164025E-07  0.2688465E-05 -0.7321212E-07  0.7738785E-06
5701000. -0.6537367E-06 -0.7449846E-05  0.2997372E-07  0.2982653E-05 -0.8034054E-07  0.5221881E-06
5701000. -0.6537367E-06 -0.5775264E-05  0.2997372E-07  0.2516501E-05 -0.8034054E-07  0.7064530E-06
5667333. -0.6165662E-06 -0.8330557E-05  0.1723176E-07  0.2324285E-05 -0.8377201E-07  0.5957044E-06
5633667. -0.5649568E-06 -0.1123338E-04  0.5252482E-08  0.2209315E-05 -0.8666306E-07  0.4995122E-06
5600000. -0.4983021E-06 -0.1393996E-04 -0.5976689E-08  0.2028039E-05 -0.8905430E-07  0.4060300E-06
5600000. -0.4983021E-06 -0.1393996E-04 -0.5976689E-08  0.2028039E-05 -0.8905430E-07  0.4060300E-06
5563518. -0.4108123E-06 -0.1655598E-04 -0.1686910E-07  0.1765812E-05 -0.9110020E-07  0.3093604E-06
5527037. -0.3094839E-06 -0.1876109E-04 -0.2609044E-07  0.1446518E-05 -0.9260724E-07  0.2179384E-06
5490556. -0.1968829E-06 -0.2048222E-04 -0.3335043E-07  0.1082969E-05 -0.9360714E-07  0.1323123E-06
5454074. -0.7595222E-07 -0.2166149E-04 -0.3843454E-07  0.6888345E-06 -0.9413446E-07  0.5292880E-07
5417593.  0.5008451E-07 -0.2226196E-04 -0.4120806E-07  0.2783358E-06 -0.9422580E-07 -0.1991975E-07
5381111.  0.1778483E-06 -0.2226127E-04 -0.4161749E-07 -0.1345958E-06 -0.9391916E-07 -0.8605198E-07
5344630.  0.3038725E-06 -0.2165691E-04 -0.3968787E-07 -0.5364641E-06 -0.9325330E-07 -0.1453819E-06
5308148.  0.4247471E-06 -0.2046532E-04 -0.3551869E-07 -0.9147957E-06 -0.9226716E-07 -0.1979233E-06
5271667.  0.5371819E-06 -0.1871679E-04 -0.2927791E-07 -0.1258314E-05 -0.9099923E-07 -0.2438507E-06
5235185.  0.6381262E-06 -0.1646039E-04 -0.2119293E-07 -0.1557396E-05 -0.8948683E-07 -0.2833252E-06
5198704.  0.7248388E-06 -0.1375786E-04 -0.1154203E-07 -0.1804169E-05 -0.8776630E-07 -0.3166290E-06
5162222.  0.7949681E-06 -0.1068060E-04 -0.6424988E-09 -0.1992574E-05 -0.8587157E-07 -0.3442109E-06
5125741.  0.8466015E-06 -0.7312703E-05  0.1115871E-07 -0.2118732E-05 -0.8383469E-07 -0.3663557E-06
5089259.  0.8783284E-06 -0.3742421E-05  0.2349927E-07 -0.2180660E-05 -0.8168536E-07 -0.3835562E-06
5052778.  0.8892524E-06 -0.6272424E-07  0.3600957E-07 -0.2178300E-05 -0.7945052E-07 -0.3963212E-06
5016296.  0.8790191E-06  0.3631625E-05  0.4832685E-07 -0.2113583E-05 -0.7715426E-07 -0.4050568E-06
4979815.  0.8478131E-06  0.7247445E-05  0.6010263E-07 -0.1989999E-05 -0.7481828E-07 -0.4103132E-06
4943333.  0.7963411E-06  0.1069516E-04  0.7101428E-07 -0.1812625E-05 -0.7246094E-07 -0.4125625E-06
4906852.  0.7258120E-06  0.1389084E-04  0.8077097E-07 -0.1587848E-05 -0.7009844E-07 -0.4122141E-06
4870370.  0.6378868E-06  0.1675850E-04  0.8912228E-07 -0.1322978E-05 -0.6774401E-07 -0.4097998E-06
4833889.  0.5346440E-06  0.1923176E-04  0.9586141E-07 -0.1026246E-05 -0.6540855E-07 -0.4056666E-06
4797407.  0.4184990E-06  0.2125551E-04  0.1008309E-06 -0.7062882E-06 -0.6310076E-07 -0.4001810E-06
4760926.  0.2921654E-06  0.2278537E-04  0.1039228E-06 -0.3720172E-06 -0.6082731E-07 -0.3937420E-06
4724444.  0.1585560E-06  0.2379155E-04  0.1050811E-06 -0.3235303E-07 -0.5859284E-07 -0.3865908E-06
4687963.  0.2073447E-07  0.2425589E-04  0.1042996E-06  0.3040590E-06 -0.5640077E-07 -0.3789946E-06
4651482. -0.1181790E-06  0.2417327E-04  0.1016209E-06  0.6290147E-06 -0.5425293E-07 -0.3711714E-06
4615000. -0.2550751E-06  0.2355233E-04  0.9713215E-07  0.9350076E-06 -0.5215005E-07 -0.3632992E-06
4578518. -0.3869177E-06  0.2241240E-04  0.9096184E-07  0.1215289E-05 -0.5009210E-07 -0.3554974E-06
4542037. -0.5108157E-06  0.2078487E-04  0.8327448E-07  0.1464061E-05 -0.4807841E-07 -0.3478813E-06
4505556. -0.6240957E-06  0.1871130E-04  0.7426429E-07  0.1676628E-05 -0.4610749E-07 -0.3405607E-06
4469074. -0.7243430E-06  0.1624079E-04  0.6414943E-07  0.1849274E-05 -0.4417770E-07 -0.3335060E-06
4432593. -0.8094418E-06  0.1343127E-04  0.5316680E-07  0.1979500E-05 -0.4228729E-07 -0.3268420E-06
4396111. -0.8776327E-06  0.1034534E-04  0.4156317E-07  0.2065907E-05 -0.4043376E-07 -0.3205960E-06
4359630. -0.9275192E-06  0.7050029E-05  0.2959179E-07  0.2108092E-05 -0.3861507E-07 -0.3147029E-06
4323148. -0.9581037E-06  0.3614872E-05  0.1750356E-07  0.2106807E-05 -0.3682867E-07 -0.3093179E-06
4286667. -0.9687852E-06  0.1103482E-06  0.5543858E-08  0.2063649E-05 -0.3507168E-07 -0.3044408E-06
4250185. -0.9593676E-06 -0.3393778E-05 -0.6054776E-08  0.1981062E-05 -0.3334107E-07 -0.3001138E-06
4213704. -0.9300489E-06 -0.6829859E-05 -0.1707485E-07  0.1862265E-05 -0.3163322E-07 -0.2965313E-06
4177222. -0.8814033E-06 -0.1013330E-04 -0.2732005E-07  0.1710983E-05 -0.2994356E-07 -0.2937599E-06
4140741. -0.8143679E-06 -0.1324410E-04 -0.3661577E-07  0.1531469E-05 -0.2826701E-07 -0.2920313E-06
4104259. -0.7301987E-06 -0.1610833E-04 -0.4481375E-07  0.1328257E-05 -0.2659644E-07 -0.2916916E-06
4067778. -0.6304575E-06 -0.1867633E-04 -0.5179122E-07  0.1106050E-05 -0.2492344E-07 -0.2929567E-06
4031296. -0.5169553E-06 -0.2090756E-04 -0.5745350E-07  0.8696259E-06 -0.2323726E-07 -0.2963813E-06
3994815. -0.3917280E-06 -0.2276735E-04 -0.6173231E-07  0.6236471E-06 -0.2152398E-07 -0.3025333E-06
3958333. -0.2569818E-06 -0.2422714E-04 -0.6458600E-07  0.3725648E-06 -0.1976615E-07 -0.3120529E-06
3921852. -0.1150723E-06 -0.2526797E-04 -0.6599736E-07  0.1205503E-06 -0.1794205E-07 -0.3258648E-06
3885370.  0.3156671E-07 -0.2587575E-04 -0.6597188E-07 -0.1287039E-06 -0.1602404E-07 -0.3450272E-06
3848889.  0.1804219E-06 -0.2604291E-04 -0.6453495E-07 -0.3719500E-06 -0.1397801E-07 -0.3708403E-06
3812407.  0.3289756E-06 -0.2576920E-04 -0.6172870E-07 -0.6065667E-06 -0.1176137E-07 -0.4048870E-06
3775926.  0.4746995E-06 -0.2505673E-04 -0.5760871E-07 -0.8305537E-06 -0.9321643E-08 -0.4491393E-06
3739444.  0.6151091E-06 -0.2391336E-04 -0.5223972E-07 -0.1042606E-05 -0.6593777E-08 -0.5059217E-06
3702963.  0.7477599E-06 -0.2234972E-04 -0.4569235E-07 -0.1242168E-05 -0.3498414E-08 -0.5780619E-06
3666482.  0.8702764E-06 -0.2037556E-04 -0.3803763E-07 -0.1429471E-05  0.6250063E-10 -0.6691694E-06
3630000.  0.9803467E-06 -0.1800334E-04 -0.2934305E-07 -0.1605530E-05  0.4209129E-08 -0.7833610E-06
3630000.  0.9803467E-06 -0.1800334E-04 -0.2934305E-07 -0.1605530E-05  0.4209129E-08 -0.7833610E-06
3592500.  0.1078143E-05 -0.1515891E-04 -0.1938465E-07 -0.1776777E-05  0.9236454E-08 -0.9303922E-06
3555000.  0.1158003E-05 -0.1190926E-04 -0.8440255E-08 -0.1941142E-05  0.1523413E-07 -0.1114328E-05
3517500.  0.1217546E-05 -0.8255030E-05  0.3461006E-08 -0.2102675E-05  0.2244302E-07 -0.1343515E-05
3480000.  0.1254369E-05 -0.4186463E-05  0.1631716E-07 -0.2266559E-05  0.3115959E-07 -0.1628572E-05
3480000.  0.1254369E-05 -0.4333242E-05  0.2276530E-07  0.2254404E-05  0.3115959E-07 -0.5651313E-05
3409422.  0.1295978E-05 -0.3416673E-05 -0.3176926E-08  0.2427738E-05  0.1001314E-06 -0.6755787E-05
3338844.  0.1335562E-05 -0.3988344E-05 -0.3104844E-07  0.2607958E-05  0.1801011E-06 -0.7660004E-05
3268266.  0.1390361E-05 -0.6191919E-05 -0.6111129E-07  0.2829703E-05  0.2696261E-06 -0.8504669E-05
3197688.  0.1479563E-05 -0.1024534E-04 -0.9405202E-07  0.3135393E-05  0.3688492E-06 -0.9435928E-05
3127109.  0.1625494E-05 -0.1650947E-04 -0.1310859E-06  0.3578727E-05  0.4795881E-06 -0.1061100E-04
3056531.  0.1855663E-05 -0.2557847E-04 -0.1741096E-06  0.4230552E-05  0.6055012E-06 -0.1220781E-04
2985953.  0.2206041E-05 -0.3841078E-04 -0.2259432E-06  0.5188440E-05  0.7524043E-06 -0.1444014E-04
2915375.  0.2726095E-05 -0.5652550E-04 -0.2907017E-06  0.6591761E-05  0.9287770E-06 -0.1757990E-04
2844797.  0.3486576E-05 -0.8230910E-04 -0.3743799E-06  0.8645536E-05  0.1146579E-05 -0.2199006E-04
2774219.  0.4591633E-05 -0.1195086E-03 -0.4857754E-06  0.1165877E-04  0.1422511E-05 -0.2817325E-04
2703641.  0.6197980E-05 -0.1740364E-03 -0.6379577E-06  0.1610676E-04  0.1779934E-05 -0.3684419E-04
2633062.  0.8545702E-05 -0.2553112E-03 -0.8506335E-06  0.2273357E-04  0.2251792E-05 -0.4903904E-04
2562484.  0.1200838E-04 -0.3785157E-03 -0.1153975E-05  0.3272287E-04  0.2885001E-05 -0.6628189E-04
2491906.  0.1717670E-04 -0.5684862E-03 -0.1594988E-05  0.4799098E-04  0.3747225E-05 -0.9084430E-04
2421328.  0.2499933E-04 -0.8664903E-03 -0.2248152E-05  0.7169202E-04  0.4937201E-05 -0.1261488E-03
2350750.  0.3702519E-04 -0.1342267E-02 -0.3233605E-05  0.1091089E-03  0.6600765E-05 -0.1774096E-03
2280172.  0.5582756E-04 -0.2115822E-02 -0.4748723E-05  0.1692569E-03  0.8955926E-05 -0.2526558E-03
2209594.  0.8576077E-04 -0.3397655E-02 -0.7124100E-05  0.2678232E-03  0.1233246E-04 -0.3643824E-03
2139016.  0.1343378E-03 -0.5564549E-02 -0.1092472E-04  0.4326717E-03  0.1723508E-04 -0.5322380E-03
2068438.  0.2147919E-03 -0.9305579E-02 -0.1713687E-04  0.7143862E-03  0.2444497E-04 -0.7874213E-03
1997859.  0.3509515E-03 -0.1591019E-01 -0.2752157E-04  0.1206954E-02  0.3518477E-04 -0.1179925E-02
1927281.  0.5867247E-03 -0.2784994E-01 -0.4529799E-04  0.2089331E-02  0.5138639E-04 -0.1790382E-02
1856703.  0.1005083E-02 -0.4998813E-01 -0.7650357E-04  0.3711389E-02  0.7613002E-04 -0.2749424E-02
1786125.  0.1767031E-02 -0.9216244E-01 -0.1327704E-03  0.6776569E-02  0.1143548E-03 -0.4268354E-02
1715547.  0.3194052E-02 -0.1748756E+00 -0.2371681E-03  0.1274251E-01  0.1739923E-03 -0.6685148E-02
1644969.  0.5948109E-02 -0.3422523E+00 -0.4368979E-03  0.2472906E-01  0.2676923E-03 -0.1052399E-01
1574391.  0.1143824E-01 -0.6926043E+00 -0.8318266E-03  0.4965147E-01  0.4151751E-03 -0.1653890E-01
1503812.  0.2277374E-01 -0.1453393E+01 -0.1641082E-02  0.1034312E+00  0.6454533E-03 -0.2560586E-01
1433234.  0.4708837E-01 -0.3172802E+01 -0.3364737E-02  0.2242618E+00  0.9950029E-03 -0.3795694E-01
1362656.  0.1014668E+00 -0.7232686E+01 -0.7194425E-02  0.5080034E+00  0.1486788E-02 -0.4997770E-01
1292078.  0.2287896E+00 -0.1729201E+02 -0.1610697E-01  0.1207441E+01  0.2035747E-02 -0.4237919E-01
1221500.  0.5424072E+00 -0.4358084E+02 -0.3793671E-01  0.3026628E+01  0.2089352E-02  0.6207836E-01
1221500.  0.5424072E+00 -0.7652487E+01 -0.7006384E-02 -0.2865587E+01  0.2089352E-02 -0.1728946E+00
1183328.  0.5487182E+00  0.4428229E+01  0.5801714E-02 -0.1501387E+01  0.2586134E-02 -0.1249010E-01
1145156.  0.5006061E+00  0.1085412E+02  0.1193514E-01 -0.6139486E+00  0.2416957E-02  0.5800760E-01
1106984.  0.4262899E+00  0.1344152E+02  0.1385234E-01 -0.7472911E-01  0.1987504E-02  0.7965492E-01
1068812.  0.3443815E+00  0.1358972E+02  0.1331753E-01  0.2198517E+00  0.1510041E-02  0.7712228E-01
1030641.  0.2662232E+00  0.1233618E+02  0.1154301E-01  0.3508890E+00  0.1082936E-02  0.6456289E-01
 992469.  0.1978757E+00  0.1041417E+02  0.9315721E-02  0.3796982E+00  0.7410144E-03  0.4955439E-01
 954297.  0.1417774E+00  0.8311088E+01  0.7107437E-02  0.3507050E+00  0.4865976E-03  0.3573329E-01
 916125.  0.9804220E-01  0.6323662E+01  0.5166790E-02  0.2944592E+00  0.3075655E-03  0.2450084E-01
 877953.  0.6545057E-01  0.4608058E+01  0.3593509E-02  0.2305874E+00  0.1873632E-03  0.1607203E-01
 839781.  0.4215876E-01  0.3223047E+01  0.2395674E-02  0.1704854E+00  0.1100163E-03  0.1011739E-01
 801609.  0.2617230E-01  0.2165358E+01  0.1531573E-02  0.1197469E+00  0.6221668E-04  0.6118874E-02
 763438.  0.1563269E-01  0.1396852E+01  0.9383673E-03  0.8012933E-01  0.3383370E-04  0.3554513E-02
 725266.  0.8962910E-02  0.8641208E+00  0.5501132E-03  0.5112100E-01  0.1765119E-04  0.1980670E-02
 687094.  0.4918338E-02  0.5115713E+00  0.3078541E-03  0.3107192E-01  0.8807641E-05  0.1056434E-02
 648922.  0.2573710E-02  0.2889987E+00  0.1639268E-03  0.1795758E-01  0.4187184E-05  0.5376070E-03
 610750.  0.1278584E-02  0.1552070E+00  0.8271066E-04  0.9837695E-02  0.1887510E-05  0.2599620E-03
 572578.  0.5997151E-03  0.7886441E-01  0.3933724E-04  0.5086771E-02  0.8020374E-06  0.1188254E-03
 534406.  0.2638026E-03  0.3768797E-01  0.1751996E-04  0.2468593E-02  0.3189154E-06  0.5100378E-04
 496234.  0.1079211E-03  0.1681169E-01  0.7247546E-05  0.1116272E-02  0.1176035E-06  0.2038976E-04
 458062.  0.4063391E-04  0.6934017E-02  0.2756095E-05  0.4659894E-03  0.3976757E-07  0.7513659E-05
 419891.  0.1389565E-04  0.2612595E-02  0.9509101E-06  0.1774555E-03  0.1215608E-07  0.2518724E-05
 381719.  0.4242368E-05  0.8851672E-03  0.2926140E-06  0.6069092E-04  0.3297302E-08  0.7550231E-06
 343547.  0.1130466E-05  0.2641284E-03  0.7851809E-07  0.1825970E-04  0.7745012E-09  0.1978637E-06
 305375.  0.2549662E-06  0.6747739E-04  0.1781748E-07  0.4698477E-05  0.1524051E-09  0.4395972E-07
 267203.  0.4661731E-07  0.1418348E-04  0.3274966E-08  0.9937384E-06  0.2398212E-10  0.7930341E-08
 229031.  0.6486172E-08  0.2313979E-05  0.4577249E-09  0.1629808E-06  0.2818927E-11  0.1090413E-08
 190859.  0.6226898E-09  0.2676485E-06  0.4410221E-10  0.1893103E-07  0.2227251E-12  0.1034773E-09
 152688.  0.0000000E+00  0.0000000E+00  0.0000000E+00  0.0000000E+00  0.0000000E+00  0.0000000E+00
 114516.  0.0000000E+00  0.0000000E+00  0.0000000E+00  0.0000000E+00  0.0000000E+00  0.0000000E+00
  76344.  0.0000000E+00  0.0000000E+00  0.0000000E+00  0.0000000E+00  0.0000000E+00  0.0000000E+00
  38172.  0.0000000E+00  0.0000000E+00  0.0000000E+00  0.0000000E+00  0.0000000E+00  0.0000000E+00
      0.  0.0000000E+00  0.0000000E+00  0.0000000E+00  0.0000000E+00  0.0000000E+00  0.0000000E+00
