       0       21 T       20        346.87521          5.36755          4.43088        140.61360      185    3
6371000.  0.1551862E-01  0.1551862E-01
6370000.  0.1551602E-01  0.1758582E-01
6369000.  0.1551309E-01  0.1965295E-01
6368000.  0.1550985E-01  0.2171997E-01
6368000.  0.1550985E-01  0.2171997E-01
6367000.  0.1550628E-01  0.2378683E-01
6366000.  0.1550238E-01  0.2585349E-01
6365000.  0.1549816E-01  0.2791991E-01
6364000.  0.1549362E-01  0.2998605E-01
6363000.  0.1548875E-01  0.3205186E-01
6362000.  0.1548355E-01  0.3411730E-01
6361000.  0.1547804E-01  0.3618232E-01
6360000.  0.1547220E-01  0.3824689E-01
6359000.  0.1546603E-01  0.4031096E-01
6358000.  0.1545954E-01  0.4237448E-01
6357000.  0.1545273E-01  0.4443742E-01
6356000.  0.1544559E-01  0.4649974E-01
6356000.  0.1544559E-01  0.3420419E-01
6355000.  0.1544014E-01  0.3522541E-01
6354000.  0.1543453E-01  0.3624623E-01
6353000.  0.1542876E-01  0.3726665E-01
6352000.  0.1542283E-01  0.3828665E-01
6351000.  0.1541675E-01  0.3930623E-01
6350000.  0.1541050E-01  0.4032538E-01
6349000.  0.1540409E-01  0.4134409E-01
6348000.  0.1539752E-01  0.4236234E-01
6347000.  0.1539079E-01  0.4338012E-01
6346600.  0.1538805E-01  0.4378710E-01
6346600.  0.1538805E-01  0.3458065E-01
6318800.  0.1521004E-01  0.4700721E-01
6291000.  0.1497788E-01  0.5939049E-01
6291000.  0.1497788E-01  0.6126143E-01
6263000.  0.1467716E-01  0.7556130E-01
6235000.  0.1431397E-01  0.8968068E-01
6207000.  0.1388924E-01  0.1035606E+00
6179000.  0.1340413E-01  0.1171424E+00
6151000.  0.1286010E-01  0.1303664E+00
6151000.  0.1286010E-01  0.1157860E+00
6128500.  0.1244086E-01  0.1215372E+00
6106000.  0.1200231E-01  0.1267278E+00
6083500.  0.1154639E-01  0.1313767E+00
6061000.  0.1107498E-01  0.1355041E+00
6038500.  0.1058988E-01  0.1391328E+00
6016000.  0.1009280E-01  0.1422876E+00
5993500.  0.9585392E-02  0.1449932E+00
5971000.  0.9069176E-02  0.1472774E+00
5971000.  0.9069176E-02  0.1321184E+00
5937667.  0.8386874E-02  0.1285160E+00
5904333.  0.7726064E-02  0.1239396E+00
5871000.  0.7091215E-02  0.1186379E+00
5837667.  0.6485530E-02  0.1128249E+00
5804333.  0.5911172E-02  0.1066833E+00
5771000.  0.5369485E-02  0.1003660E+00
5771000.  0.5369485E-02  0.1003630E+00
5701000.  0.4302262E-02  0.9395438E-01
5701000.  0.4302262E-02  0.7510486E-01
5667333.  0.3932197E-02  0.6587760E-01
5633667.  0.3597537E-02  0.6114880E-01
5600000.  0.3286108E-02  0.5669819E-01
5600000.  0.3286108E-02  0.5669819E-01
5563518.  0.2974636E-02  0.5213592E-01
5527037.  0.2688494E-02  0.4785326E-01
5490556.  0.2426092E-02  0.4384206E-01
5454074.  0.2185903E-02  0.4009163E-01
5417593.  0.1966457E-02  0.3659783E-01
5381111.  0.1766305E-02  0.3334850E-01
5344630.  0.1584090E-02  0.3033378E-01
5308148.  0.1418481E-02  0.2754470E-01
5271667.  0.1268234E-02  0.2496766E-01
5235185.  0.1132155E-02  0.2259314E-01
5198704.  0.1009122E-02  0.2041052E-01
5162222.  0.8980676E-03  0.1840610E-01
5125741.  0.7980041E-03  0.1657121E-01
5089259.  0.7079868E-03  0.1489430E-01
5052778.  0.6271494E-03  0.1336410E-01
5016296.  0.5546737E-03  0.1197142E-01
4979815.  0.4898059E-03  0.1070578E-01
4943333.  0.4318428E-03  0.9557816E-02
4906852.  0.3801376E-03  0.8519044E-02
4870370.  0.3340895E-03  0.7580065E-02
4833889.  0.2931516E-03  0.6733388E-02
4797407.  0.2568146E-03  0.5971407E-02
4760926.  0.2246180E-03  0.5286462E-02
4724444.  0.1961370E-03  0.4672302E-02
4687963.  0.1709862E-03  0.4122517E-02
4651482.  0.1488138E-03  0.3631097E-02
4615000.  0.1293000E-03  0.3192882E-02
4578518.  0.1121558E-03  0.2802648E-02
4542037.  0.9712016E-04  0.2455831E-02
4505556.  0.8395614E-04  0.2148252E-02
4469074.  0.7245069E-04  0.1875789E-02
4432593.  0.6241341E-04  0.1635010E-02
4396111.  0.5367182E-04  0.1422613E-02
4359630.  0.4607289E-04  0.1235512E-02
4323148.  0.3947900E-04  0.1071087E-02
4286667.  0.3376794E-04  0.9268231E-03
4250185.  0.2883057E-04  0.8004587E-03
4213704.  0.2457036E-04  0.6900293E-03
4177222.  0.2090130E-04  0.5936578E-03
4140741.  0.1774784E-04  0.5097262E-03
4104259.  0.1504278E-04  0.4367768E-03
4067778.  0.1272736E-04  0.3734505E-03
4031296.  0.1074972E-04  0.3185974E-03
3994815.  0.9064502E-05  0.2711645E-03
3958333.  0.7631949E-05  0.2301859E-03
3921852.  0.6417552E-05  0.1948519E-03
3885370.  0.5391119E-05  0.1644044E-03
3848889.  0.4526676E-05  0.1381796E-03
3812407.  0.3801689E-05  0.1155957E-03
3775926.  0.3196909E-05  0.9611711E-04
3739444.  0.2695892E-05  0.7927540E-04
3702963.  0.2284788E-05  0.6464947E-04
3666482.  0.1952042E-05  0.5184444E-04
3630000.  0.1688245E-05  0.4050769E-04
3630000.  0.1688245E-05  0.4050769E-04
3592500.  0.1481156E-05  0.3002747E-04
3555000.  0.1333112E-05  0.2038668E-04
3517500.  0.1240205E-05  0.1123317E-04
3480000.  0.1200640E-05  0.2198069E-05
3480000.  0.0000000E+00  0.0000000E+00
3409422.  0.0000000E+00  0.0000000E+00
3338844.  0.0000000E+00  0.0000000E+00
3268266.  0.0000000E+00  0.0000000E+00
3197688.  0.0000000E+00  0.0000000E+00
3127109.  0.0000000E+00  0.0000000E+00
3056531.  0.0000000E+00  0.0000000E+00
2985953.  0.0000000E+00  0.0000000E+00
2915375.  0.0000000E+00  0.0000000E+00
2844797.  0.0000000E+00  0.0000000E+00
2774219.  0.0000000E+00  0.0000000E+00
2703641.  0.0000000E+00  0.0000000E+00
2633062.  0.0000000E+00  0.0000000E+00
2562484.  0.0000000E+00  0.0000000E+00
2491906.  0.0000000E+00  0.0000000E+00
2421328.  0.0000000E+00  0.0000000E+00
2350750.  0.0000000E+00  0.0000000E+00
2280172.  0.0000000E+00  0.0000000E+00
2209594.  0.0000000E+00  0.0000000E+00
2139016.  0.0000000E+00  0.0000000E+00
2068438.  0.0000000E+00  0.0000000E+00
1997859.  0.0000000E+00  0.0000000E+00
1927281.  0.0000000E+00  0.0000000E+00
1856703.  0.0000000E+00  0.0000000E+00
1786125.  0.0000000E+00  0.0000000E+00
1715547.  0.0000000E+00  0.0000000E+00
1644969.  0.0000000E+00  0.0000000E+00
1574391.  0.0000000E+00  0.0000000E+00
1503812.  0.0000000E+00  0.0000000E+00
1433234.  0.0000000E+00  0.0000000E+00
1362656.  0.0000000E+00  0.0000000E+00
1292078.  0.0000000E+00  0.0000000E+00
1221500.  0.0000000E+00  0.0000000E+00
1221500.  0.0000000E+00  0.0000000E+00
1183328.  0.0000000E+00  0.0000000E+00
1145156.  0.0000000E+00  0.0000000E+00
1106984.  0.0000000E+00  0.0000000E+00
1068812.  0.0000000E+00  0.0000000E+00
1030641.  0.0000000E+00  0.0000000E+00
 992469.  0.0000000E+00  0.0000000E+00
 954297.  0.0000000E+00  0.0000000E+00
 916125.  0.0000000E+00  0.0000000E+00
 877953.  0.0000000E+00  0.0000000E+00
 839781.  0.0000000E+00  0.0000000E+00
 801609.  0.0000000E+00  0.0000000E+00
 763438.  0.0000000E+00  0.0000000E+00
 725266.  0.0000000E+00  0.0000000E+00
 687094.  0.0000000E+00  0.0000000E+00
 648922.  0.0000000E+00  0.0000000E+00
 610750.  0.0000000E+00  0.0000000E+00
 572578.  0.0000000E+00  0.0000000E+00
 534406.  0.0000000E+00  0.0000000E+00
 496234.  0.0000000E+00  0.0000000E+00
 458062.  0.0000000E+00  0.0000000E+00
 419891.  0.0000000E+00  0.0000000E+00
 381719.  0.0000000E+00  0.0000000E+00
 343547.  0.0000000E+00  0.0000000E+00
 305375.  0.0000000E+00  0.0000000E+00
 267203.  0.0000000E+00  0.0000000E+00
 229031.  0.0000000E+00  0.0000000E+00
 190859.  0.0000000E+00  0.0000000E+00
 152688.  0.0000000E+00  0.0000000E+00
 114516.  0.0000000E+00  0.0000000E+00
  76344.  0.0000000E+00  0.0000000E+00
  38172.  0.0000000E+00  0.0000000E+00
      0.  0.0000000E+00  0.0000000E+00
