      18        3 S      671        145.14619         78.79775         14.03699        852.52899      185    7
6371000.  0.5459270E-01 -0.3228207E-01  0.2255225E-02 -0.5233747E-01 -0.7273593E-05 -0.1029200E+00
6370000.  0.5459623E-01 -0.1279136E-01  0.2263235E-02 -0.4972378E-01  0.8882078E-05 -0.1029347E+00
6369000.  0.5459671E-01  0.6702757E-02  0.2270834E-02 -0.4709315E-01  0.2503961E-04 -0.1029436E+00
6368000.  0.5459413E-01  0.2619916E-01  0.2278018E-02 -0.4444607E-01  0.4119810E-04 -0.1029469E+00
6368000.  0.5459413E-01  0.2619916E-01  0.2278018E-02 -0.4444607E-01  0.4119810E-04 -0.1029469E+00
6367000.  0.5458849E-01  0.4569674E-01  0.2284786E-02 -0.4178299E-01  0.5735665E-04 -0.1029445E+00
6366000.  0.5457978E-01  0.6519439E-01  0.2291134E-02 -0.3910442E-01  0.7351438E-04 -0.1029363E+00
6365000.  0.5456802E-01  0.8469100E-01  0.2297061E-02 -0.3641083E-01  0.8967037E-04 -0.1029224E+00
6364000.  0.5455320E-01  0.1041855E+00  0.2302563E-02 -0.3370271E-01  0.1058237E-03 -0.1029029E+00
6363000.  0.5453531E-01  0.1236767E+00  0.2307640E-02 -0.3098055E-01  0.1219736E-03 -0.1028776E+00
6362000.  0.5451437E-01  0.1431635E+00  0.2312288E-02 -0.2824483E-01  0.1381190E-03 -0.1028465E+00
6361000.  0.5449037E-01  0.1626450E+00  0.2316506E-02 -0.2549606E-01  0.1542591E-03 -0.1028098E+00
6360000.  0.5446332E-01  0.1821198E+00  0.2320291E-02 -0.2273474E-01  0.1703930E-03 -0.1027674E+00
6359000.  0.5443320E-01  0.2015869E+00  0.2323642E-02 -0.1996136E-01  0.1865198E-03 -0.1027192E+00
6358000.  0.5440003E-01  0.2210453E+00  0.2326557E-02 -0.1717643E-01  0.2026386E-03 -0.1026653E+00
6357000.  0.5436381E-01  0.2404938E+00  0.2329034E-02 -0.1438047E-01  0.2187485E-03 -0.1026057E+00
6356000.  0.5432454E-01  0.2599312E+00  0.2331071E-02 -0.1157397E-01  0.2348485E-03 -0.1025404E+00
6356000.  0.5432454E-01  0.1624832E+00  0.2331071E-02 -0.2764507E-01  0.2348485E-03 -0.1143608E+00
6355000.  0.5429792E-01  0.1766216E+00  0.2335262E-02 -0.2575446E-01  0.2527952E-03 -0.1143146E+00
6354000.  0.5426909E-01  0.1907548E+00  0.2339155E-02 -0.2385552E-01  0.2707342E-03 -0.1142638E+00
6353000.  0.5423804E-01  0.2048823E+00  0.2342750E-02 -0.2194850E-01  0.2886649E-03 -0.1142083E+00
6352000.  0.5420478E-01  0.2190035E+00  0.2346045E-02 -0.2003364E-01  0.3065865E-03 -0.1141483E+00
6351000.  0.5416929E-01  0.2331179E+00  0.2349039E-02 -0.1811115E-01  0.3244984E-03 -0.1140836E+00
6350000.  0.5413159E-01  0.2472248E+00  0.2351730E-02 -0.1618128E-01  0.3423997E-03 -0.1140143E+00
6349000.  0.5409168E-01  0.2613237E+00  0.2354118E-02 -0.1424428E-01  0.3602898E-03 -0.1139404E+00
6348000.  0.5404956E-01  0.2754139E+00  0.2356201E-02 -0.1230036E-01  0.3781679E-03 -0.1138620E+00
6347000.  0.5400522E-01  0.2894949E+00  0.2357979E-02 -0.1034977E-01  0.3960334E-03 -0.1137789E+00
6346600.  0.5398687E-01  0.2951247E+00  0.2358604E-02 -0.9567727E-02  0.4031758E-03 -0.1137444E+00
6346600.  0.5398687E-01  0.1668605E+00  0.2358604E-02 -0.2329593E-01  0.4031758E-03 -0.1325688E+00
6318800.  0.5264209E-01  0.4492728E+00  0.2364492E-02  0.2112389E-01  0.9760371E-03 -0.1295028E+00
6291000.  0.5007300E-01  0.7269071E+00  0.2172122E-02  0.6700490E-01  0.1529032E-02 -0.1234688E+00
6291000.  0.5007300E-01  0.7367112E+00  0.2172122E-02  0.7113411E-01  0.1529032E-02 -0.1234688E+00
6263000.  0.4623269E-01  0.1008324E+01  0.1757587E-02  0.1167940E+00  0.2052664E-02 -0.1143335E+00
6235000.  0.4123767E-01  0.1261075E+01  0.1154457E-02  0.1563686E+00  0.2529842E-02 -0.1023596E+00
6207000.  0.3518527E-01  0.1488456E+01  0.3968981E-03  0.1865698E+00  0.2948545E-02 -0.8776580E-01
6179000.  0.2820044E-01  0.1684437E+01 -0.4678291E-03  0.2047652E+00  0.3297871E-02 -0.7084191E-01
6151000.  0.2043337E-01  0.1843577E+01 -0.1382714E-02  0.2091794E+00  0.3568340E-02 -0.5194461E-01
6151000.  0.2043337E-01  0.1481323E+01 -0.1382714E-02  0.1809718E+00  0.3568340E-02 -0.5307509E-01
6128500.  0.1510912E-01  0.1530539E+01 -0.2009240E-02  0.1726464E+00  0.3732783E-02 -0.3995070E-01
6106000.  0.9646540E-02  0.1559709E+01 -0.2593994E-02  0.1573945E+00  0.3849919E-02 -0.2631395E-01
6083500.  0.4115796E-02  0.1569222E+01 -0.3113511E-02  0.1358257E+00  0.3918248E-02 -0.1234009E-01
6061000. -0.1414689E-02  0.1559683E+01 -0.3546936E-02  0.1088032E+00  0.3936891E-02  0.1794692E-02
6038500. -0.6879020E-02  0.1531907E+01 -0.3876855E-02  0.7740339E-01  0.3905588E-02  0.1591578E-01
6016000. -0.1221447E-01  0.1486868E+01 -0.4089956E-02  0.4286429E-01  0.3824692E-02  0.2985191E-01
5993500. -0.1736198E-01  0.1425676E+01 -0.4177500E-02  0.6529652E-02  0.3695150E-02  0.4343743E-01
5971000. -0.2226669E-01  0.1349576E+01 -0.4135601E-02 -0.3020807E-01  0.3518482E-02  0.5651361E-01
5971000. -0.2226669E-01  0.1220665E+01 -0.4135601E-02 -0.2474889E-01  0.3518482E-02  0.5942851E-01
5937667. -0.2824294E-01  0.1061444E+01 -0.3880456E-02 -0.7170287E-01  0.3160967E-02  0.7691900E-01
5904333. -0.3335387E-01  0.8907365E+00 -0.3398884E-02 -0.1108954E+00  0.2717170E-02  0.9235916E-01
5871000. -0.3755272E-01  0.7136381E+00 -0.2736967E-02 -0.1404126E+00  0.2198516E-02  0.1055047E+00
5837667. -0.4081805E-01  0.5345791E+00 -0.1948162E-02 -0.1593220E+00  0.1617476E-02  0.1161841E+00
5804333. -0.4314990E-01  0.3573598E+00 -0.1088434E-02 -0.1675709E+00  0.9872380E-03  0.1242917E+00
5771000. -0.4456641E-01  0.1851936E+00 -0.2121209E-03 -0.1658375E+00  0.3214356E-03  0.1297840E+00
5771000. -0.4456641E-01  0.1852006E+00 -0.2121209E-03 -0.1658304E+00  0.3214356E-03  0.1297840E+00
5701000. -0.4470903E-01 -0.1582541E+00  0.1550694E-02 -0.1488132E+00 -0.1119096E-02  0.1305279E+00
5701000. -0.4470903E-01 -0.1254089E+00  0.1550694E-02 -0.1067612E+00 -0.1119096E-02  0.1431298E+00
5667333. -0.4366135E-01 -0.2698888E+00  0.2062138E-02 -0.8639386E-01 -0.1868785E-02  0.1401842E+00
5633667. -0.4187134E-01 -0.4060450E+00  0.2460652E-02 -0.6425600E-01 -0.2596306E-02  0.1347699E+00
5600000. -0.3938783E-01 -0.5320421E+00  0.2740463E-02 -0.4167338E-01 -0.3289032E-02  0.1270342E+00
5600000. -0.3938783E-01 -0.5320393E+00  0.2740463E-02 -0.4167769E-01 -0.3289032E-02  0.1270342E+00
5563518. -0.3596973E-01 -0.6596848E+00  0.2916161E-02 -0.1972739E-01 -0.3986634E-02  0.1162047E+00
5527037. -0.3185903E-01 -0.7736650E+00  0.2967990E-02  0.1388738E-02 -0.4615370E-02  0.1030288E+00
5490556. -0.2713906E-01 -0.8722214E+00  0.2903974E-02  0.2056366E-01 -0.5162570E-02  0.8777315E-01
5454074. -0.2190236E-01 -0.9538780E+00  0.2737974E-02  0.3687079E-01 -0.5617179E-02  0.7073697E-01
5417593. -0.1624953E-01 -0.1017444E+01  0.2488548E-02  0.4960795E-01 -0.5969905E-02  0.5224877E-01
5381111. -0.1028651E-01 -0.1062045E+01  0.2177524E-02  0.5833061E-01 -0.6213438E-02  0.3265532E-01
5344630. -0.4123944E-02 -0.1087133E+01  0.1828540E-02  0.6286263E-01 -0.6342470E-02  0.1231957E-01
5308148.  0.2125990E-02 -0.1092494E+01  0.1465436E-02  0.6329615E-01 -0.6353810E-02 -0.8390258E-02
5271667.  0.8350153E-02 -0.1078239E+01  0.1110838E-02  0.5997084E-01 -0.6246380E-02 -0.2910269E-01
5235185.  0.1443769E-01 -0.1044819E+01  0.7847505E-03  0.5344374E-01 -0.6021204E-02 -0.4945370E-01
5198704.  0.2028062E-01 -0.9930156E+00  0.5035028E-03  0.4444610E-01 -0.5681389E-02 -0.6908831E-01
5162222.  0.2577697E-01 -0.9239199E+00  0.2788304E-03  0.3383054E-01 -0.5231989E-02 -0.8767021E-01
5125741.  0.3083126E-01 -0.8389186E+00  0.1173957E-03  0.2251629E-01 -0.4679974E-02 -0.1048834E+00
5089259.  0.3535729E-01 -0.7396662E+00  0.2053029E-04  0.1142893E-01 -0.4033990E-02 -0.1204395E+00
5052778.  0.3927855E-01 -0.6280603E+00 -0.1560873E-04  0.1446061E-02 -0.3304319E-02 -0.1340795E+00
5016296.  0.4253041E-01 -0.5061899E+00  0.3729236E-06 -0.6657083E-02 -0.2502549E-02 -0.1455797E+00
4979815.  0.4506031E-01 -0.3763150E+00  0.5582626E-04 -0.1224979E-01 -0.1641535E-02 -0.1547517E+00
4943333.  0.4682928E-01 -0.2407946E+00  0.1349997E-03 -0.1488269E-01 -0.7350039E-03 -0.1614479E+00
4906852.  0.4781185E-01 -0.1020692E+00  0.2201351E-03 -0.1430981E-01  0.2024871E-03 -0.1655592E+00
4870370.  0.4799673E-01  0.3741961E-01  0.2926904E-03 -0.1050116E-01  0.1155978E-02 -0.1670198E+00
4833889.  0.4738649E-01  0.1752488E+00  0.3345639E-03 -0.3642252E-02  0.2110150E-02 -0.1658051E+00
4797407.  0.4599732E-01  0.3090909E+00  0.3293052E-03  0.5880897E-02  0.3049759E-02 -0.1619307E+00
4760926.  0.4385854E-01  0.4367298E+00  0.2631996E-03  0.1750283E-01  0.3959671E-02 -0.1554545E+00
4724444.  0.4101146E-01  0.5561321E+00  0.1261969E-03  0.3051404E-01  0.4825293E-02 -0.1464718E+00
4687963.  0.3750880E-01  0.6654530E+00 -0.8735775E-04  0.4410011E-01  0.5632589E-02 -0.1351160E+00
4651482.  0.3341289E-01  0.7630954E+00 -0.3782797E-03  0.5738899E-01  0.6368456E-02 -0.1215543E+00
4615000.  0.2879445E-01  0.8477173E+00 -0.7423453E-03  0.6949876E-01  0.7020836E-02 -0.1059848E+00
4578518.  0.2373135E-01  0.9182453E+00 -0.1170347E-02  0.7958480E-01  0.7578849E-02 -0.8863490E-01
4542037.  0.1830682E-01  0.9738960E+00 -0.1648456E-02  0.8688702E-01  0.8032998E-02 -0.6975636E-01
4505556.  0.1260749E-01  0.1014172E+01 -0.2158861E-02  0.9077138E-01  0.8375313E-02 -0.4962086E-01
4469074.  0.6721970E-02  0.1038857E+01 -0.2680560E-02  0.9076253E-01  0.8599422E-02 -0.2851633E-01
4432593.  0.7398432E-03  0.1048001E+01 -0.3190309E-02  0.8657079E-01  0.8700621E-02 -0.6744833E-02
4396111. -0.5250975E-02  0.1041907E+01 -0.3663833E-02  0.7810765E-01  0.8675978E-02  0.1538603E-01
4359630. -0.1116434E-01  0.1021113E+01 -0.4076890E-02  0.6549301E-01  0.8524330E-02  0.3756259E-01
4323148. -0.1691842E-01  0.9863541E+00 -0.4406558E-02  0.4904857E-01  0.8246301E-02  0.5947454E-01
4286667. -0.2243547E-01  0.9385436E+00 -0.4632272E-02  0.2928712E-01  0.7844303E-02  0.8081368E-01
4250185. -0.2764401E-01  0.8787344E+00 -0.4736913E-02  0.6884682E-02  0.7322451E-02  0.1012836E+00
4213704. -0.3247836E-01  0.8081002E+00 -0.4707624E-02 -0.1734600E-01  0.6686574E-02  0.1205985E+00
4177222. -0.3688034E-01  0.7278870E+00 -0.4536496E-02 -0.4249736E-01  0.5944027E-02  0.1384910E+00
4140741. -0.4079858E-01  0.6394052E+00 -0.4221015E-02 -0.6760430E-01  0.5103718E-02  0.1547121E+00
4104259. -0.4418975E-01  0.5439819E+00 -0.3764211E-02 -0.9169281E-01  0.4175829E-02  0.1690368E+00
4067778. -0.4701776E-01  0.4429574E+00 -0.3174671E-02 -0.1138181E+00  0.3171852E-02  0.1812654E+00
4031296. -0.4925445E-01  0.3376453E+00 -0.2466131E-02 -0.1331132E+00  0.2104241E-02  0.1912265E+00
3994815. -0.5087887E-01  0.2293382E+00 -0.1657068E-02 -0.1488208E+00  0.9864595E-03  0.1987779E+00
3958333. -0.5187753E-01  0.1192719E+00 -0.7698018E-03 -0.1603313E+00 -0.1674262E-03  0.2038102E+00
3921852. -0.5224374E-01  0.8641098E-02  0.1702349E-03 -0.1672023E+00 -0.1342687E-02  0.2062446E+00
3885370. -0.5197754E-01 -0.1014295E+00  0.1135709E-02 -0.1691809E+00 -0.2524370E-02  0.2060370E+00
3848889. -0.5108527E-01 -0.2098621E+00  0.2098300E-02 -0.1662117E+00 -0.3697230E-02  0.2031757E+00
3812407. -0.4957917E-01 -0.3156495E+00  0.3030032E-02 -0.1584325E+00 -0.4846185E-02  0.1976825E+00
3775926. -0.4747723E-01 -0.4178316E+00  0.3904156E-02 -0.1461686E+00 -0.5956240E-02  0.1896116E+00
3739444. -0.4480260E-01 -0.5155106E+00  0.4696382E-02 -0.1299153E+00 -0.7012925E-02  0.1790479E+00
3702963. -0.4158368E-01 -0.6078253E+00  0.5385594E-02 -0.1103127E+00 -0.8002225E-02  0.1661076E+00
3666482. -0.3785345E-01 -0.6939712E+00  0.5954746E-02 -0.8811440E-01 -0.8910958E-02  0.1509335E+00
3630000. -0.3364933E-01 -0.7731789E+00  0.6391340E-02 -0.6415260E-01 -0.9726828E-02  0.1336952E+00
3630000. -0.3364933E-01 -0.7731776E+00  0.6391340E-02 -0.6415112E-01 -0.9726828E-02  0.1336952E+00
3592500. -0.2886310E-01 -0.8518379E+00  0.6695579E-02 -0.3909549E-01 -0.1045668E-01  0.1139672E+00
3555000. -0.2363746E-01 -0.9223280E+00  0.6850949E-02 -0.1372039E-01 -0.1106477E-01  0.9236145E-01
3517500. -0.1802325E-01 -0.9837178E+00  0.6858247E-02  0.1106969E-01 -0.1154075E-01  0.6911527E-01
3480000. -0.1207668E-01 -0.1035111E+01  0.6723470E-02  0.3441833E-01 -0.1187570E-01  0.4448911E-01
3480000. -0.1207668E-01 -0.1708357E+01  0.2806817E-02 -0.2729852E-01 -0.1187570E-01  0.8247738E-01
3409422.  0.7211057E-02 -0.1735205E+01  0.2916273E-02  0.7990063E-02 -0.1202468E-01 -0.5646563E-01
3338844.  0.2555035E-01 -0.1541325E+01  0.2628170E-02  0.4371879E-01 -0.1063900E-01 -0.1915641E+00
3268266.  0.4067836E-01 -0.1163264E+01  0.1962420E-02  0.7546298E-01 -0.7858241E-02 -0.3056853E+00
3197688.  0.5084332E-01 -0.6554556E+00  0.9853991E-03  0.9933433E-01 -0.3995833E-02 -0.3848628E+00
3127109.  0.5495905E-01 -0.8227790E-01 -0.1983046E-03  0.1123745E+00  0.5044374E-03 -0.4196966E+00
3056531.  0.5267124E-01  0.4897453E+00 -0.1457727E-02  0.1128234E+00  0.5123627E-02 -0.4061306E+00
2985953.  0.4434120E-01  0.9990437E+00 -0.2649790E-02  0.1002558E+00  0.9328619E-02 -0.3455993E+00
2915375.  0.3095803E-01  0.1394659E+01 -0.3634149E-02  0.7558379E-01  0.1263073E-01 -0.2445863E+00
2844797.  0.1399710E-01  0.1640278E+01 -0.4287463E-02  0.4093551E-01  0.1463705E-01 -0.1137112E+00
2774219. -0.4756067E-02  0.1716432E+01 -0.4515724E-02 -0.5656448E-03  0.1508951E-01  0.3352983E-01
2703641. -0.2339639E-01  0.1620947E+01 -0.4263698E-02 -0.4509687E-01  0.1388884E-01  0.1822161E+00
2633062. -0.4008614E-01  0.1367797E+01 -0.3520779E-02 -0.8848190E-01  0.1110197E-01  0.3174978E+00
2562484. -0.5322025E-01  0.9846457E+00 -0.2322967E-02 -0.1265479E+00  0.6953584E-02  0.4259854E+00
2491906. -0.6156126E-01  0.5094398E+00 -0.7508161E-03 -0.1554736E+00  0.1802852E-02  0.4969426E+00
2421328. -0.6433062E-01 -0.1356874E-01  0.1076169E-02 -0.1720976E+00 -0.3890958E-02  0.5231563E+00
2350750. -0.6125560E-01 -0.5380058E+00  0.3008304E-02 -0.1741675E+00 -0.9610781E-02  0.5014626E+00
2280172. -0.5257022E-01 -0.1019392E+01  0.4876819E-02 -0.1605136E+00 -0.1482778E-01  0.4328927E+00
2209594. -0.3897403E-01 -0.1418705E+01  0.6506451E-02 -0.1311399E+00 -0.1904692E-01  0.3224523E+00
2139016. -0.2155513E-01 -0.1705234E+01  0.7728537E-02 -0.8722842E-01 -0.2184826E-01  0.1785809E+00
2068438. -0.1685940E-02 -0.1858606E+01  0.8393697E-02 -0.3105678E-01 -0.2292078E-01  0.1234885E-01
1997859.  0.1909800E-01 -0.1869795E+01  0.8383146E-02  0.3415812E-01 -0.2208618E-01 -0.1635243E+00
1927281.  0.3922438E-01 -0.1741282E+01  0.7618007E-02  0.1044716E+00 -0.1931133E-01 -0.3357321E+00
1856703.  0.5720940E-01 -0.1486210E+01  0.6065866E-02  0.1754851E+00 -0.1470870E-01 -0.4914682E+00
1786125.  0.7176696E-01 -0.1126860E+01  0.3744256E-02  0.2426305E+00 -0.8525296E-02 -0.6194032E+00
1715547.  0.8189842E-01 -0.6924493E+00  0.7208717E-03  0.3014677E+00 -0.1121510E-02 -0.7105193E+00
1644969.  0.8695554E-01 -0.2165672E+00 -0.2889439E-02  0.3479701E+00  0.7058118E-02 -0.7587243E+00
1574391.  0.8667362E-01  0.2655992E+00 -0.6930683E-02  0.3787740E+00  0.1551960E-01 -0.7612221E+00
1503812.  0.8117370E-01  0.7200333E+00 -0.1121431E-01  0.3913820E+00  0.2375690E-01 -0.7186084E+00
1433234.  0.7093560E-01  0.1116412E+01 -0.1552937E-01  0.3842997E+00  0.3128844E-01 -0.6347166E+00
1362656.  0.5674390E-01  0.1430330E+01 -0.1965446E-01  0.3571040E+00  0.3769162E-01 -0.5162175E+00
1292078.  0.3961286E-01  0.1644972E+01 -0.2336927E-01  0.3104140E+00  0.4263074E-01 -0.3720365E+00
1221500.  0.2069545E-01  0.1752270E+01 -0.2646568E-01  0.2457887E+00  0.4587818E-01 -0.2126372E+00
1221500.  0.2069545E-01  0.1587640E+01 -0.2596211E-01 -0.2433527E+00  0.4587818E-01 -0.2216025E+00
1183328.  0.1066340E-01  0.1754028E+01 -0.2466875E-01 -0.1723567E+00  0.4694776E-01 -0.1355387E+00
1145156. -0.1998348E-03  0.1858784E+01 -0.2406386E-01 -0.1831066E-01  0.4750506E-01 -0.5083038E-01
1106984. -0.1141824E-01  0.1867639E+01 -0.2454256E-01  0.1820378E+00  0.4756228E-01  0.3116825E-01
1068812. -0.2234226E-01  0.1758097E+01 -0.2624258E-01  0.3810136E+00  0.4713952E-01  0.1091886E+00
1030641. -0.3223787E-01  0.1525314E+01 -0.2900714E-01  0.5296960E+00  0.4626417E-01  0.1820692E+00
 992469. -0.4040386E-01  0.1185011E+01 -0.3240804E-01  0.5879093E+00  0.4497012E-01  0.2487848E+00
 954297. -0.4629317E-01  0.7727668E+00 -0.3582361E-01  0.5324737E+00  0.4329706E-01  0.3084517E+00
 916125. -0.4962173E-01  0.3396648E+00 -0.3855775E-01  0.3621812E+00  0.4128946E-01  0.3603460E+00
 877953. -0.5043951E-01 -0.5533578E-01 -0.3997575E-01  0.9846181E-01  0.3899566E-01  0.4039134E+00
 839781. -0.4915010E-01 -0.3548087E+00 -0.3963077E-01 -0.2183580E+00  0.3646675E-01  0.4387721E+00
 801609. -0.4647166E-01 -0.5127743E+00 -0.3735647E-01 -0.5364442E+00  0.3375565E-01  0.4647155E+00
 763438. -0.4334175E-01 -0.5032263E+00 -0.3330795E-01 -0.8020706E+00  0.3091600E-01  0.4817122E+00
 725266. -0.4077854E-01 -0.3258224E+00 -0.2794217E-01 -0.9696888E+00  0.2800094E-01  0.4899036E+00
 687094. -0.3972024E-01 -0.7594992E-02 -0.2194312E-01 -0.1010373E+01  0.2506245E-01  0.4895965E+00
 648922. -0.4086662E-01  0.3997355E+00 -0.1610352E-01 -0.9173067E+00  0.2215013E-01  0.4812594E+00
 610750. -0.4455004E-01  0.8267153E+00 -0.1118634E-01 -0.7070905E+00  0.1931031E-01  0.4655093E+00
 572578. -0.5065829E-01  0.1196295E+01 -0.7791375E-02 -0.4167525E+00  0.1658521E-01  0.4431010E+00
 534406. -0.5862432E-01  0.1435718E+01 -0.6251405E-02 -0.9701697E-01  0.1401216E-01  0.4149114E+00
 496234. -0.6748769E-01  0.1488282E+01 -0.6576897E-02  0.1969027E+00  0.1162290E-01  0.3819202E+00
 458062. -0.7602152E-01  0.1323112E+01 -0.8459066E-02  0.4152824E+00  0.9443068E-02  0.3451879E+00
 419891. -0.8290756E-01  0.9413082E+00 -0.1133037E-01  0.5228004E+00  0.7491786E-02  0.3058344E+00
 381719. -0.8693530E-01  0.3773528E+00 -0.1447143E-01  0.5047706E+00  0.5781237E-02  0.2650066E+00
 343547. -0.8719256E-01 -0.3044693E+00 -0.1714358E-01  0.3695577E+00  0.4316835E-02  0.2238600E+00
 305375. -0.8322205E-01 -0.1018391E+01 -0.1872391E-01  0.1467822E+00  0.3097086E-02  0.1835255E+00
 267203. -0.7511586E-01 -0.1668977E+01 -0.1881750E-01 -0.1182932E+00  0.2113851E-02  0.1450861E+00
 229031. -0.6353292E-01 -0.2164757E+01 -0.1732674E-01 -0.3732558E+00  0.1352705E-02  0.1095517E+00
 190859. -0.4963455E-01 -0.2431618E+01 -0.1446544E-01 -0.5681763E+00  0.7934512E-03  0.7783744E-01
 152688. -0.3494558E-01 -0.2424043E+01 -0.1071591E-01 -0.6647989E+00  0.4107413E-03  0.5074736E-01
 114516. -0.2115754E-01 -0.2132314E+01 -0.6736202E-02 -0.6435015E+00  0.1747626E-03  0.2895590E-01
  76344. -0.9907377E-02 -0.1584677E+01 -0.3236834E-02 -0.5067484E+00  0.5209633E-04  0.1300039E-01
  38172. -0.2555370E-02 -0.8441141E+00 -0.8475569E-03 -0.2785591E+00  0.6535699E-05  0.3269927E-02
      0.  0.0000000E+00  0.0000000E+00  0.0000000E+00  0.0000000E+00  0.0000000E+00  0.0000000E+00
