      13        2 S      580        206.47099         77.55119         13.88483        877.86652      185    7
6371000.  0.8570924E-01 -0.7599410E-01 -0.3639597E-02 -0.8934884E-01 -0.2042150E-04 -0.1615663E+00
6370000.  0.8571998E-01 -0.6083715E-01 -0.3625405E-02 -0.9148945E-01  0.4939288E-05 -0.1615801E+00
6369000.  0.8572834E-01 -0.4567236E-01 -0.3610877E-02 -0.9361700E-01  0.3030189E-04 -0.1615894E+00
6368000.  0.8573432E-01 -0.3050014E-01 -0.3596017E-02 -0.9573130E-01  0.5566560E-04 -0.1615943E+00
6368000.  0.8573432E-01 -0.3050014E-01 -0.3596017E-02 -0.9573130E-01  0.5566560E-04 -0.1615943E+00
6367000.  0.8573791E-01 -0.1532091E-01 -0.3580826E-02 -0.9783214E-01  0.8102974E-04 -0.1615947E+00
6366000.  0.8573913E-01 -0.1351142E-03 -0.3565306E-02 -0.9991933E-01  0.1063936E-03 -0.1615907E+00
6365000.  0.8573795E-01  0.1505684E-01 -0.3549459E-02 -0.1019927E+00  0.1317565E-03 -0.1615823E+00
6364000.  0.8573440E-01  0.3025451E-01 -0.3533289E-02 -0.1040520E+00  0.1571177E-03 -0.1615694E+00
6363000.  0.8572846E-01  0.4545749E-01 -0.3516796E-02 -0.1060970E+00  0.1824765E-03 -0.1615521E+00
6362000.  0.8572013E-01  0.6066534E-01 -0.3499983E-02 -0.1081276E+00  0.2078323E-03 -0.1615303E+00
6361000.  0.8570942E-01  0.7587763E-01 -0.3482853E-02 -0.1101436E+00  0.2331842E-03 -0.1615040E+00
6360000.  0.8569631E-01  0.9109394E-01 -0.3465407E-02 -0.1121448E+00  0.2585318E-03 -0.1614733E+00
6359000.  0.8568081E-01  0.1063138E+00 -0.3447649E-02 -0.1141310E+00  0.2838741E-03 -0.1614382E+00
6358000.  0.8566293E-01  0.1215369E+00 -0.3429580E-02 -0.1161019E+00  0.3092106E-03 -0.1613986E+00
6357000.  0.8564267E-01  0.1367627E+00 -0.3411202E-02 -0.1180575E+00  0.3345405E-03 -0.1613545E+00
6356000.  0.8562000E-01  0.1519908E+00 -0.3392520E-02 -0.1199976E+00  0.3598632E-03 -0.1613060E+00
6356000.  0.8562000E-01  0.8231739E-01 -0.3392520E-02 -0.1077982E+00  0.3598632E-03 -0.1799359E+00
6355000.  0.8560621E-01  0.9338484E-01 -0.3375498E-02 -0.1090880E+00  0.3881034E-03 -0.1799005E+00
6354000.  0.8559068E-01  0.1044547E+00 -0.3358275E-02 -0.1103681E+00  0.4163378E-03 -0.1798615E+00
6353000.  0.8557342E-01  0.1155268E+00 -0.3340852E-02 -0.1116382E+00  0.4445658E-03 -0.1798189E+00
6352000.  0.8555442E-01  0.1266009E+00 -0.3323230E-02 -0.1128983E+00  0.4727868E-03 -0.1797727E+00
6351000.  0.8553368E-01  0.1376767E+00 -0.3305411E-02 -0.1141485E+00  0.5010003E-03 -0.1797228E+00
6350000.  0.8551120E-01  0.1487541E+00 -0.3287397E-02 -0.1153885E+00  0.5292056E-03 -0.1796694E+00
6349000.  0.8548698E-01  0.1598327E+00 -0.3269189E-02 -0.1166183E+00  0.5574023E-03 -0.1796124E+00
6348000.  0.8546102E-01  0.1709124E+00 -0.3250788E-02 -0.1178378E+00  0.5855898E-03 -0.1795518E+00
6347000.  0.8543333E-01  0.1819930E+00 -0.3232197E-02 -0.1190470E+00  0.6137675E-03 -0.1794876E+00
6346600.  0.8542176E-01  0.1864254E+00 -0.3224708E-02 -0.1195278E+00  0.6250357E-03 -0.1794610E+00
6346600.  0.8542176E-01  0.7903547E-01 -0.3224708E-02 -0.1096065E+00  0.6250357E-03 -0.2092463E+00
6318800.  0.8458928E-01  0.3031956E+00 -0.2694340E-02 -0.1323721E+00  0.1533717E-02 -0.2068541E+00
6291000.  0.8277184E-01  0.5300498E+00 -0.2079784E-02 -0.1480701E+00  0.2426845E-02 -0.2021146E+00
6291000.  0.8277184E-01  0.5367216E+00 -0.2079784E-02 -0.1504556E+00  0.2426845E-02 -0.2021146E+00
6263000.  0.7990267E-01  0.7686993E+00 -0.1397265E-02 -0.1587382E+00  0.3300095E-02 -0.1948744E+00
6235000.  0.7601957E-01  0.9976311E+00 -0.6969666E-03 -0.1585250E+00  0.4136248E-02 -0.1852395E+00
6207000.  0.7114263E-01  0.1220453E+01 -0.1624668E-04 -0.1498669E+00  0.4924890E-02 -0.1732651E+00
6179000.  0.6530552E-01  0.1434053E+01  0.6085449E-03 -0.1331702E+00  0.5655916E-02 -0.1590370E+00
6151000.  0.5855567E-01  0.1635289E+01  0.1143596E-02 -0.1091798E+00  0.6319667E-02 -0.1426727E+00
6151000.  0.5855567E-01  0.1308400E+01  0.1143596E-02 -0.1030719E+00  0.6319667E-02 -0.1459123E+00
6128500.  0.5376638E-01  0.1402120E+01  0.1471629E-02 -0.8222258E-01  0.6815481E-02 -0.1347246E+00
6106000.  0.4866480E-01  0.1485200E+01  0.1721355E-02 -0.5882580E-01  0.7270264E-02 -0.1226896E+00
6083500.  0.4328904E-01  0.1557357E+01  0.1884865E-02 -0.3350422E-01  0.7681167E-02 -0.1098889E+00
6061000.  0.3767804E-01  0.1618393E+01  0.1956510E-02 -0.6913180E-02  0.8045637E-02 -0.9640832E-01
6038500.  0.3187129E-01  0.1668206E+01  0.1932992E-02  0.2027480E-01  0.8361426E-02 -0.8233485E-01
6016000.  0.2590849E-01  0.1706767E+01  0.1813395E-02  0.4738565E-01  0.8626596E-02 -0.6775746E-01
5993500.  0.1982932E-01  0.1734122E+01  0.1599166E-02  0.7375786E-01  0.8839528E-02 -0.5276702E-01
5971000.  0.1367314E-01  0.1750413E+01  0.1294042E-02  0.9875791E-01  0.8998924E-02 -0.3745421E-01
5971000.  0.1367314E-01  0.1582786E+01  0.1294042E-02  0.8642295E-01  0.8998924E-02 -0.3924414E-01
5937667.  0.5484330E-02  0.1544551E+01  0.7717491E-03  0.1122821E+00  0.9148001E-02 -0.1774488E-01
5904333. -0.2461103E-02  0.1490087E+01  0.1295765E-03  0.1321486E+00  0.9184838E-02  0.3621821E-02
5871000. -0.1008431E-01  0.1421869E+01 -0.5999304E-03  0.1456381E+00  0.9110731E-02  0.2462964E-01
5837667. -0.1731976E-01  0.1342250E+01 -0.1383127E-02  0.1526852E+00  0.8928091E-02  0.4507791E-01
5804333. -0.2411389E-01  0.1253444E+01 -0.2186754E-02  0.1534920E+00  0.8640314E-02  0.6478904E-01
5771000. -0.3042364E-01  0.1157497E+01 -0.2979121E-02  0.1484749E+00  0.8251691E-02  0.8360665E-01
5771000. -0.3042364E-01  0.1157515E+01 -0.2979121E-02  0.1484711E+00  0.8251691E-02  0.8360665E-01
5701000. -0.4233927E-01  0.1004475E+01 -0.4522323E-02  0.1283622E+00  0.7137375E-02  0.1185367E+00
5701000. -0.4233927E-01  0.8334422E+00 -0.4522323E-02  0.1102448E+00  0.7137375E-02  0.1304706E+00
5667333. -0.4651357E-01  0.7457181E+00 -0.5058541E-02  0.9222419E-01  0.6409848E-02  0.1446675E+00
5633667. -0.5021498E-01  0.6546906E+00 -0.5492627E-02  0.7171346E-01  0.5610730E-02  0.1575610E+00
5600000. -0.5342899E-01  0.5613770E+00 -0.5813303E-02  0.4941222E-01  0.4747067E-02  0.1690750E+00
5600000. -0.5342899E-01  0.5613803E+00 -0.5813303E-02  0.4941199E-01  0.4747067E-02  0.1690750E+00
5563518. -0.5636399E-01  0.4633003E+00 -0.6022318E-02  0.2321662E-01  0.3746932E-02  0.1799664E+00
5527037. -0.5873085E-01  0.3631402E+00 -0.6075642E-02 -0.4836487E-02  0.2689245E-02  0.1891730E+00
5490556. -0.6052066E-01  0.2619101E+00 -0.5964898E-02 -0.3395351E-01  0.1583840E-02  0.1966222E+00
5454074. -0.6173009E-01  0.1605719E+00 -0.5686323E-02 -0.6331561E-01  0.4409206E-03  0.2022568E+00
5417593. -0.6236111E-01  0.6003880E-01 -0.5240893E-02 -0.9209899E-01 -0.7289377E-03  0.2060371E+00
5381111. -0.6242080E-01 -0.3884640E-01 -0.4634198E-02 -0.1195061E+00 -0.1915104E-02  0.2079388E+00
5344630. -0.6192088E-01 -0.1352957E+00 -0.3876349E-02 -0.1447783E+00 -0.3106726E-02  0.2079538E+00
5308148. -0.6087734E-01 -0.2286006E+00 -0.2981539E-02 -0.1672253E+00 -0.4293078E-02  0.2060893E+00
5271667. -0.5931013E-01 -0.3181114E+00 -0.1967801E-02 -0.1862310E+00 -0.5463392E-02  0.2023684E+00
5235185. -0.5724255E-01 -0.4032593E+00 -0.8563129E-03 -0.2012793E+00 -0.6607200E-02  0.1968280E+00
5198704. -0.5470118E-01 -0.4835374E+00  0.3289744E-03 -0.2119590E+00 -0.7714164E-02  0.1895201E+00
5162222. -0.5171503E-01 -0.5585178E+00  0.1562212E-02 -0.2179763E+00 -0.8774399E-02  0.1805082E+00
5125741. -0.4831569E-01 -0.6278272E+00  0.2816078E-02 -0.2191574E+00 -0.9778307E-02  0.1698707E+00
5089259. -0.4453633E-01 -0.6911701E+00  0.4062748E-02 -0.2154528E+00 -0.1071688E-01  0.1576954E+00
5052778. -0.4041206E-01 -0.7482998E+00  0.5274329E-02 -0.2069359E+00 -0.1158155E-01  0.1440830E+00
5016296. -0.3597877E-01 -0.7990366E+00  0.6423821E-02 -0.1937967E+00 -0.1236444E-01  0.1291422E+00
4979815. -0.3127371E-01 -0.8432462E+00  0.7485510E-02 -0.1763384E+00 -0.1305823E-01  0.1129926E+00
4943333. -0.2633426E-01 -0.8808469E+00  0.8435829E-02 -0.1549635E+00 -0.1365640E-01  0.9576014E-01
4906852. -0.2119867E-01 -0.9117978E+00  0.9253676E-02 -0.1301677E+00 -0.1415310E-01  0.7757888E-01
4870370. -0.1590476E-01 -0.9360986E+00  0.9921104E-02 -0.1025190E+00 -0.1454331E-01  0.5858758E-01
4833889. -0.1049081E-01 -0.9537829E+00  0.1042352E-01 -0.7264743E-01 -0.1482280E-01  0.3893153E-01
4797407. -0.4994230E-02 -0.9649184E+00  0.1075013E-01 -0.4122607E-01 -0.1498818E-01  0.1875739E-01
4760926.  0.5474163E-03 -0.9695956E+00  0.1089404E-01 -0.8956342E-02 -0.1503692E-01 -0.1782959E-02
4724444.  0.6097778E-02 -0.9679300E+00  0.1085242E-01  0.2345471E-01 -0.1496735E-01 -0.2253849E-01
4687963.  0.1162060E-01 -0.9600554E+00  0.1062650E-01  0.5530441E-01 -0.1477868E-01 -0.4335529E-01
4651482.  0.1708093E-01 -0.9461276E+00  0.1022143E-01  0.8591781E-01 -0.1447101E-01 -0.6408177E-01
4615000.  0.2244472E-01 -0.9263144E+00  0.9646109E-02  0.1146606E+00 -0.1404525E-01 -0.8456787E-01
4578518.  0.2767863E-01 -0.9007977E+00  0.8912959E-02  0.1409515E+00 -0.1350323E-01 -0.1046650E+00
4542037.  0.3275044E-01 -0.8697772E+00  0.8037549E-02  0.1642772E+00 -0.1284761E-01 -0.1242279E+00
4505556.  0.3762935E-01 -0.8334600E+00  0.7038114E-02  0.1842049E+00 -0.1208184E-01 -0.1431171E+00
4469074.  0.4228579E-01 -0.7920669E+00  0.5935119E-02  0.2003875E+00 -0.1121012E-01 -0.1611981E+00
4432593.  0.4669111E-01 -0.7458323E+00  0.4750844E-02  0.2125711E+00 -0.1023753E-01 -0.1783416E+00
4396111.  0.5081851E-01 -0.6950004E+00  0.3508613E-02  0.2206006E+00 -0.9169711E-02 -0.1944270E+00
4359630.  0.5464220E-01 -0.6398370E+00  0.2232490E-02  0.2244191E+00 -0.8013124E-02 -0.2093385E+00
4323148.  0.5813836E-01 -0.5806126E+00  0.9464503E-03  0.2240673E+00 -0.6774728E-02 -0.2229723E+00
4286667.  0.6128437E-01 -0.5176231E+00 -0.3259110E-03  0.2196844E+00 -0.5462193E-02 -0.2352300E+00
4250185.  0.6405972E-01 -0.4511728E+00 -0.1562184E-02  0.2114954E+00 -0.4083579E-02 -0.2460254E+00
4213704.  0.6644537E-01 -0.3815929E+00 -0.2741359E-02  0.1998113E+00 -0.2647563E-02 -0.2552806E+00
4177222.  0.6842450E-01 -0.3092243E+00 -0.3844545E-02  0.1850130E+00 -0.1163081E-02 -0.2629287E+00
4140741.  0.6998208E-01 -0.2344370E+00 -0.4855104E-02  0.1675482E+00  0.3604153E-03 -0.2689131E+00
4104259.  0.7110544E-01 -0.1576123E+00 -0.5759221E-02  0.1479125E+00  0.1913346E-02 -0.2731879E+00
4067778.  0.7178400E-01 -0.7915913E-01 -0.6545929E-02  0.1266403E+00  0.3485734E-02 -0.2757191E+00
4031296.  0.7200967E-01  0.5015640E-03 -0.7207490E-02  0.1042894E+00  0.5067606E-02 -0.2764827E+00
3994815.  0.7177679E-01  0.8092260E-01 -0.7739320E-02  0.8142964E-01  0.6648716E-02 -0.2754666E+00
3958333.  0.7108232E-01  0.1616460E+00 -0.8140156E-02  0.5862508E-01  0.8218950E-02 -0.2726699E+00
3921852.  0.6992590E-01  0.2421940E+00 -0.8411873E-02  0.3642432E-01  0.9768048E-02 -0.2681018E+00
3885370.  0.6830987E-01  0.3220815E+00 -0.8559439E-02  0.1534417E-01  0.1128601E-01 -0.2617828E+00
3848889.  0.6623953E-01  0.4008043E+00 -0.8590656E-02 -0.4137365E-02  0.1276280E-01 -0.2537442E+00
3812407.  0.6372289E-01  0.4778603E+00 -0.8515914E-02 -0.2159862E-01  0.1418877E-01 -0.2440270E+00
3775926.  0.6077107E-01  0.5527401E+00 -0.8347854E-02 -0.3667767E-01  0.1555438E-01 -0.2326825E+00
3739444.  0.5739782E-01  0.6249408E+00 -0.8100974E-02 -0.4908352E-01  0.1685054E-01 -0.2197701E+00
3702963.  0.5362012E-01  0.6939571E+00 -0.7791253E-02 -0.5859997E-01  0.1806841E-01 -0.2053600E+00
3666482.  0.4945750E-01  0.7593053E+00 -0.7435654E-02 -0.6509158E-01  0.1919965E-01 -0.1895286E+00
3630000.  0.4493221E-01  0.8205110E+00 -0.7051681E-02 -0.6850477E-01  0.2023641E-01 -0.1723613E+00
3630000.  0.4493221E-01  0.8205094E+00 -0.7051681E-02 -0.6850503E-01  0.2023641E-01 -0.1723613E+00
3592500.  0.3991368E-01  0.8839763E+00 -0.6646177E-02 -0.6876031E-01  0.2119568E-01 -0.1533572E+00
3555000.  0.3453531E-01  0.9426838E+00 -0.6248237E-02 -0.6595591E-01  0.2203911E-01 -0.1330123E+00
3517500.  0.2882676E-01  0.9960833E+00 -0.5875415E-02 -0.6026073E-01  0.2275908E-01 -0.1114265E+00
3480000.  0.2282079E-01  0.1043658E+01 -0.5544020E-02 -0.5192879E-01  0.2334861E-01 -0.8870763E-01
3480000.  0.2282079E-01  0.1649082E+01 -0.5552498E-02  0.5204555E-01  0.2334861E-01 -0.1604924E+00
3409422.  0.4025447E-02  0.1725850E+01 -0.5947749E-02  0.1870932E-01  0.2439012E-01 -0.2599780E-01
3338844. -0.1501947E-01  0.1695106E+01 -0.5957340E-02 -0.1724577E-01  0.2390658E-01  0.1133837E+00
3268266. -0.3316490E-01  0.1565271E+01 -0.5563508E-02 -0.5378169E-01  0.2189173E-01  0.2490641E+00
3197688. -0.4938081E-01  0.1349204E+01 -0.4771104E-02 -0.8887189E-01  0.1843179E-01  0.3730020E+00
3127109. -0.6279887E-01  0.1063017E+01 -0.3606899E-02 -0.1205953E+00  0.1369717E-01  0.4780928E+00
3056531. -0.7274169E-01  0.7249935E+00 -0.2118071E-02 -0.1472101E+00  0.7930536E-02  0.5584696E+00
2985953. -0.7874187E-01  0.3544846E+00 -0.3697373E-03 -0.1672195E+00  0.1431404E-02  0.6097336E+00
2915375. -0.8054769E-01 -0.2903955E-01  0.1557975E-02 -0.1794210E+00 -0.5460664E-02  0.6290786E+00
2844797. -0.7811974E-01 -0.4068544E+00  0.3573420E-02 -0.1829422E+00 -0.1238412E-01  0.6153429E+00
2774219. -0.7161846E-01 -0.7617080E+00  0.5577224E-02 -0.1772623E+00 -0.1897355E-01  0.5689815E+00
2703641. -0.6138450E-01 -0.1078415E+01  0.7466239E-02 -0.1622223E+00 -0.2487713E-01  0.4919690E+00
2633062. -0.4791281E-01 -0.1344323E+01  0.9137568E-02 -0.1380191E+00 -0.2977268E-01  0.3876397E+00
2562484. -0.3182375E-01 -0.1549593E+01  0.1049232E-01 -0.1051895E+00 -0.3338138E-01  0.2604929E+00
2491906. -0.1382941E-01 -0.1687421E+01  0.1143942E-01 -0.6458905E-01 -0.3547981E-01  0.1159419E+00
2421328.  0.5299571E-02 -0.1754074E+01  0.1189884E-01 -0.1735592E-01 -0.3590829E-01 -0.3994473E-01
2350750.  0.2476812E-01 -0.1748851E+01  0.1180451E-01  0.3513563E-01 -0.3457673E-01 -0.2007210E+00
2280172.  0.4378934E-01 -0.1673898E+01  0.1110674E-01  0.9131469E-01 -0.3146724E-01 -0.3598421E+00
2209594.  0.6161486E-01 -0.1533978E+01  0.9774043E-02  0.1494679E+00 -0.2663377E-01 -0.5109324E+00
2139016.  0.7756209E-01 -0.1336144E+01  0.7794483E-02  0.2077932E+00 -0.2019874E-01 -0.6480358E+00
2068438.  0.9103760E-01 -0.1089372E+01  0.5176316E-02  0.2644554E+00 -0.1234725E-01 -0.7658378E+00
1997859.  0.1015561E+00 -0.8041087E+00  0.1948009E-02  0.3176396E+00 -0.3318632E-02 -0.8598590E+00
1927281.  0.1087539E+00 -0.4918659E+00 -0.1842050E-02  0.3655991E+00  0.6603051E-02 -0.9265983E+00
1856703.  0.1123988E+00 -0.1647184E+00 -0.6126905E-02  0.4067105E+00  0.1710133E-01 -0.9636507E+00
1786125.  0.1123935E+00  0.1651359E+00 -0.1082242E-01  0.4395111E+00  0.2783933E-01 -0.9697669E+00
1715547.  0.1087740E+00  0.4858235E+00 -0.1582935E-01  0.4627406E+00  0.3847285E-01 -0.9448734E+00
1644969.  0.1017047E+00  0.7862085E+00 -0.2103573E-01  0.4753662E+00  0.4866330E-01 -0.8900478E+00
1574391.  0.9146693E-01  0.1056273E+01 -0.2631949E-01  0.4766046E+00  0.5809012E-01 -0.8074580E+00
1503812.  0.7844543E-01  0.1287459E+01 -0.3155146E-01  0.4659360E+00  0.6646248E-01 -0.7002556E+00
1433234.  0.6311080E-01  0.1472939E+01 -0.3659788E-01  0.4430972E+00  0.7352896E-01 -0.5724512E+00
1362656.  0.4599785E-01  0.1607881E+01 -0.4132371E-01  0.4080734E+00  0.7908694E-01 -0.4287469E+00
1292078.  0.2768325E-01  0.1689632E+01 -0.4559483E-01  0.3610477E+00  0.8298882E-01 -0.2743663E+00
1221500.  0.8760174E-02  0.1717895E+01 -0.4928004E-01  0.3023652E+00  0.8514690E-01 -0.1148697E+00
1221500.  0.8760174E-02  0.1496147E+01 -0.5037902E-01 -0.3084534E+00  0.8514690E-01 -0.1186646E+00
1183328. -0.4890934E-03  0.1590505E+01 -0.4851134E-01 -0.3045920E+00  0.8560498E-01 -0.3440909E-01
1145156. -0.1027846E-01  0.1674550E+01 -0.4685036E-01 -0.2402163E+00  0.8556192E-01  0.4849521E-01
1106984. -0.2051139E-01  0.1736563E+01 -0.4573877E-01 -0.1229817E+00  0.8502801E-01  0.1293222E+00
1068812. -0.3101998E-01  0.1764620E+01 -0.4545594E-01  0.3379469E-01  0.8401780E-01  0.2073697E+00
1030641. -0.4156674E-01  0.1747690E+01 -0.4618749E-01  0.2123961E+00  0.8255003E-01  0.2819629E+00
 992469. -0.5185428E-01  0.1676699E+01 -0.4800397E-01  0.3924198E+00  0.8064722E-01  0.3524700E+00
 954297. -0.6153817E-01  0.1545449E+01 -0.5085036E-01  0.5527000E+00  0.7833572E-01  0.4182961E+00
 916125. -0.7024797E-01  0.1351464E+01 -0.5454766E-01  0.6733580E+00  0.7564521E-01  0.4788942E+00
 877953. -0.7761063E-01  0.1096420E+01 -0.5880649E-01  0.7377234E+00  0.7260853E-01  0.5337718E+00
 839781. -0.8327640E-01  0.7864189E+00 -0.6325131E-01  0.7339384E+00  0.6926130E-01  0.5824914E+00
 801609. -0.8694501E-01  0.4318297E+00 -0.6745310E-01  0.6561694E+00  0.6564157E-01  0.6246741E+00
 763438. -0.8839007E-01  0.4685059E-01 -0.7096752E-01  0.5052245E+00  0.6178959E-01  0.6600032E+00
 725266. -0.8747986E-01 -0.3513009E+00 -0.7337552E-01  0.2885975E+00  0.5774701E-01  0.6882271E+00
 687094. -0.8419245E-01 -0.7433499E+00 -0.7432146E-01  0.1990876E-01  0.5355711E-01  0.7091548E+00
 648922. -0.7862440E-01 -0.1109249E+01 -0.7354707E-01 -0.2822130E+00  0.4926400E-01  0.7226653E+00
 610750. -0.7099149E-01 -0.1429468E+01 -0.7091685E-01 -0.5957058E+00  0.4491232E-01  0.7286994E+00
 572578. -0.6162158E-01 -0.1686346E+01 -0.6643315E-01 -0.8969503E+00  0.4054688E-01  0.7272652E+00
 534406. -0.5093959E-01 -0.1865345E+01 -0.6023947E-01 -0.1162798E+01  0.3621224E-01  0.7184359E+00
 496234. -0.3944543E-01 -0.1956124E+01 -0.5261154E-01 -0.1372569E+01  0.3195233E-01  0.7023486E+00
 458062. -0.2768633E-01 -0.1953350E+01 -0.4393703E-01 -0.1509852E+01  0.2781006E-01  0.6792030E+00
 419891. -0.1622537E-01 -0.1857206E+01 -0.3468575E-01 -0.1563932E+01  0.2382708E-01  0.6492619E+00
 381719. -0.5606759E-02 -0.1673504E+01 -0.2537129E-01 -0.1530764E+01  0.2004297E-01  0.6128448E+00
 343547.  0.3675629E-02 -0.1413467E+01 -0.1651123E-01 -0.1413344E+01  0.1649551E-01  0.5703317E+00
 305375.  0.1121022E-01 -0.1093105E+01 -0.8584038E-02 -0.1221550E+01  0.1321997E-01  0.5221561E+00
 267203.  0.1669339E-01 -0.7322668E+00 -0.1990354E-02 -0.9713171E+00  0.1024884E-01  0.4688033E+00
 229031.  0.1994904E-01 -0.3534436E+00  0.2979817E-02 -0.6833851E+00  0.7611555E-02  0.4108067E+00
 190859.  0.2094020E-01  0.1964890E-01  0.6170899E-02 -0.3815771E+00  0.5334245E-02  0.3487429E+00
 152688.  0.1977204E-01  0.3635524E+00  0.7574469E-02 -0.9086432E-01  0.3439491E-02  0.2832295E+00
 114516.  0.1668552E-01  0.6566048E+00  0.7330006E-02  0.1647340E+00  0.1945946E-02  0.2149115E+00
  76344.  0.1204278E-01  0.8802713E+00  0.5713121E-02  0.3640721E+00  0.8684451E-03  0.1444668E+00
  38172.  0.6304402E-02  0.1020395E+01  0.3113011E-02  0.4906457E+00  0.2176499E-03  0.7259230E-01
      0.  0.0000000E+00  0.1068133E+01  0.0000000E+00  0.5340309E+00  0.0000000E+00  0.0000000E+00
