       5       31 S      347        126.11440         10.07656          6.36324        244.27850      185    7
6371000. -0.1636562E-01  0.1100806E+01  0.2790324E-02  0.1915595E-01 -0.9857266E-03  0.6240499E-01
6370000. -0.1653769E-01  0.1091656E+01  0.2787058E-02  0.2245488E-01 -0.9954958E-03  0.6207464E-01
6369000. -0.1670829E-01  0.1082073E+01  0.2783275E-02  0.2574742E-01 -0.1005213E-02  0.6174378E-01
6368000. -0.1687736E-01  0.1072059E+01  0.2778976E-02  0.2903287E-01 -0.1014879E-02  0.6141245E-01
6368000. -0.1687736E-01  0.1072059E+01  0.2778976E-02  0.2903287E-01 -0.1014879E-02  0.6141245E-01
6367000. -0.1704482E-01  0.1061615E+01  0.2774162E-02  0.3231053E-01 -0.1024492E-02  0.6108064E-01
6366000. -0.1721060E-01  0.1050741E+01  0.2768833E-02  0.3557973E-01 -0.1034053E-02  0.6074838E-01
6365000. -0.1737464E-01  0.1039440E+01  0.2762992E-02  0.3883976E-01 -0.1043562E-02  0.6041570E-01
6364000. -0.1753688E-01  0.1027713E+01  0.2756641E-02  0.4208994E-01 -0.1053019E-02  0.6008260E-01
6363000. -0.1769724E-01  0.1015561E+01  0.2749780E-02  0.4532959E-01 -0.1062423E-02  0.5974910E-01
6362000. -0.1785567E-01  0.1002988E+01  0.2742412E-02  0.4855802E-01 -0.1071776E-02  0.5941523E-01
6361000. -0.1801208E-01  0.9899931E+00  0.2734537E-02  0.5177455E-01 -0.1081075E-02  0.5908100E-01
6360000. -0.1816643E-01  0.9765801E+00  0.2726159E-02  0.5497850E-01 -0.1090322E-02  0.5874643E-01
6359000. -0.1831863E-01  0.9627506E+00  0.2717279E-02  0.5816921E-01 -0.1099517E-02  0.5841154E-01
6358000. -0.1846863E-01  0.9485069E+00  0.2707899E-02  0.6134599E-01 -0.1108659E-02  0.5807635E-01
6357000. -0.1861637E-01  0.9338512E+00  0.2698022E-02  0.6450817E-01 -0.1117748E-02  0.5774087E-01
6356000. -0.1876177E-01  0.9187859E+00  0.2687649E-02  0.6765510E-01 -0.1126785E-02  0.5740514E-01
6356000. -0.1876177E-01  0.8367892E+00  0.2687649E-02  0.4935903E-01 -0.1126785E-02  0.6148748E-01
6355000. -0.1889229E-01  0.8262666E+00  0.2679760E-02  0.5116206E-01 -0.1136403E-02  0.6106482E-01
6354000. -0.1902114E-01  0.8155138E+00  0.2671589E-02  0.5295727E-01 -0.1145955E-02  0.6064247E-01
6353000. -0.1914828E-01  0.8045321E+00  0.2663136E-02  0.5474443E-01 -0.1155440E-02  0.6022047E-01
6352000. -0.1927369E-01  0.7933224E+00  0.2654404E-02  0.5652330E-01 -0.1164859E-02  0.5979880E-01
6351000. -0.1939731E-01  0.7818862E+00  0.2645393E-02  0.5829364E-01 -0.1174212E-02  0.5937749E-01
6350000. -0.1951913E-01  0.7702247E+00  0.2636105E-02  0.6005523E-01 -0.1183499E-02  0.5895654E-01
6349000. -0.1963910E-01  0.7583393E+00  0.2626541E-02  0.6180784E-01 -0.1192720E-02  0.5853596E-01
6348000. -0.1975718E-01  0.7462314E+00  0.2616702E-02  0.6355125E-01 -0.1201875E-02  0.5811575E-01
6347000. -0.1987334E-01  0.7339024E+00  0.2606591E-02  0.6528520E-01 -0.1210964E-02  0.5769595E-01
6346600. -0.1991926E-01  0.7289092E+00  0.2602470E-02  0.6597609E-01 -0.1214581E-02  0.5752813E-01
6346600. -0.1991926E-01  0.9431205E+00  0.2602470E-02  0.5188770E-01 -0.1214581E-02  0.6447369E-01
6318800. -0.2339974E-01  0.6336417E+00  0.2314755E-02  0.7908088E-01 -0.1469675E-02  0.5255482E-01
6291000. -0.2530430E-01  0.2249390E+00  0.1921592E-02  0.9992082E-01 -0.1674120E-02  0.4124825E-01
6291000. -0.2530430E-01  0.2422394E+00  0.1921592E-02  0.1024310E+00 -0.1674120E-02  0.4124825E-01
6263000. -0.2529437E-01 -0.2563262E+00  0.1437494E-02  0.1163302E+00 -0.1831791E-02  0.3058645E-01
6235000. -0.2299760E-01 -0.7912993E+00  0.9131908E-03  0.1206172E+00 -0.1943666E-02  0.2040061E-01
6207000. -0.1835108E-01 -0.1317960E+01  0.3917711E-03  0.1150463E+00 -0.2011756E-02  0.1065747E-01
6179000. -0.1149260E-01 -0.1790342E+01 -0.8441787E-04  0.1001986E+00 -0.2037979E-02  0.1349173E-02
6151000. -0.2757580E-02 -0.2165130E+01 -0.4773367E-03  0.7744143E-01 -0.2024287E-02 -0.7499313E-02
6151000. -0.2757580E-02 -0.1784025E+01 -0.4773367E-03  0.6833868E-01 -0.2024287E-02 -0.7346748E-02
6128500.  0.3817548E-02 -0.1927603E+01 -0.6855165E-03  0.4922573E-01 -0.1991869E-02 -0.1091845E-01
6106000.  0.1076901E-01 -0.1996295E+01 -0.8232957E-03  0.2863896E-01 -0.1947831E-02 -0.1392673E-01
6083500.  0.1782532E-01 -0.1986724E+01 -0.8872656E-03  0.7595806E-02 -0.1894163E-02 -0.1637275E-01
6061000.  0.2470941E-01 -0.1899087E+01 -0.8775843E-03 -0.1290897E-01 -0.1832843E-02 -0.1826140E-01
6038500.  0.3115108E-01 -0.1737068E+01 -0.7978189E-03 -0.3194635E-01 -0.1765826E-02 -0.1960023E-01
6016000.  0.3689892E-01 -0.1507547E+01 -0.6546437E-03 -0.4869169E-01 -0.1695038E-02 -0.2039880E-01
5993500.  0.4173090E-01 -0.1220217E+01 -0.4574139E-03 -0.6245565E-01 -0.1622367E-02 -0.2066853E-01
5971000.  0.4546347E-01 -0.8870940E+00 -0.2176453E-03 -0.7270759E-01 -0.1549661E-02 -0.2041984E-01
5971000.  0.4546347E-01 -0.8129147E+00 -0.2176453E-03 -0.7006730E-01 -0.1549661E-02 -0.2637139E-01
5937667.  0.4835400E-01 -0.2893874E+00  0.1682641E-03 -0.7614180E-01 -0.1414107E-02 -0.2530213E-01
5904333.  0.4850015E-01  0.2294715E+00  0.5662074E-03 -0.7483348E-01 -0.1286187E-02 -0.2349221E-01
5871000.  0.4602509E-01  0.7071398E+00  0.9405968E-03 -0.6737915E-01 -0.1169164E-02 -0.2117484E-01
5837667.  0.4122235E-01  0.1115253E+01  0.1263187E-02 -0.5529831E-01 -0.1065145E-02 -0.1855158E-01
5804333.  0.3451044E-01  0.1434363E+01  0.1513970E-02 -0.4019100E-01 -0.9752916E-03 -0.1578189E-01
5771000.  0.2638713E-01  0.1653768E+01  0.1681144E-02 -0.2358216E-01 -0.9000552E-03 -0.1297987E-01
5771000.  0.2638713E-01  0.1653872E+01  0.1681144E-02 -0.2358228E-01 -0.9000552E-03 -0.1297987E-01
5701000.  0.6730980E-02  0.1847681E+01  0.1735688E-02  0.1398243E-01 -0.7995511E-03 -0.5069674E-02
5701000.  0.6730980E-02  0.1615189E+01  0.1735688E-02  0.9884601E-02 -0.7995511E-03 -0.6966895E-02
5667333. -0.1666190E-02  0.1552442E+01  0.1656676E-02  0.1975830E-01 -0.7629151E-03 -0.6925846E-02
5633667. -0.9578410E-02  0.1433525E+01  0.1529839E-02  0.2794903E-01 -0.7260464E-03 -0.7060379E-02
5600000. -0.1673834E-01  0.1269562E+01  0.1364517E-02  0.3430986E-01 -0.6879587E-03 -0.7387469E-02
5600000. -0.1673834E-01  0.1269609E+01  0.1364517E-02  0.3431052E-01 -0.6879587E-03 -0.7387469E-02
5563518. -0.2346572E-01  0.1073116E+01  0.1151649E-02  0.3977532E-01 -0.6445236E-03 -0.7753246E-02
5527037. -0.2895744E-01  0.8397793E+00  0.9121324E-03  0.4360107E-01 -0.5994557E-03 -0.7966134E-02
5490556. -0.3303272E-01  0.5801930E+00  0.6555853E-03  0.4571985E-01 -0.5535080E-03 -0.8066142E-02
5454074. -0.3557268E-01  0.3053235E+00  0.3917610E-03  0.4614989E-01 -0.5072405E-03 -0.8081086E-02
5417593. -0.3652093E-01  0.2602965E-01  0.1301083E-03  0.4498519E-01 -0.4610886E-03 -0.8028612E-02
5381111. -0.3588190E-01 -0.2474380E+00 -0.1206778E-03  0.4238261E-01 -0.4154006E-03 -0.7920074E-02
5344630. -0.3371620E-01 -0.5057650E+00 -0.3529186E-03  0.3854756E-01 -0.3704792E-03 -0.7762131E-02
5308148. -0.3013404E-01 -0.7409286E+00 -0.5602399E-03  0.3371849E-01 -0.3265929E-03 -0.7558632E-02
5271667. -0.2528782E-01 -0.9463475E+00 -0.7376702E-03  0.2815299E-01 -0.2839983E-03 -0.7311674E-02
5235185. -0.1936257E-01 -0.1117064E+01 -0.8817533E-03  0.2211311E-01 -0.2429368E-03 -0.7023097E-02
5198704. -0.1256767E-01 -0.1249743E+01 -0.9905025E-03  0.1585434E-01 -0.2036436E-03 -0.6694811E-02
5162222. -0.5126174E-02 -0.1342678E+01 -0.1063360E-02  0.9614103E-02 -0.1663363E-03 -0.6329648E-02
5125741.  0.2732649E-02 -0.1395667E+01 -0.1101052E-02  0.3604959E-02 -0.1312185E-03 -0.5931106E-02
5089259.  0.1078326E-01 -0.1409891E+01 -0.1105434E-02 -0.1992587E-02 -0.9846687E-04 -0.5503734E-02
5052778.  0.1880953E-01 -0.1387721E+01 -0.1079300E-02 -0.7032510E-02 -0.6823290E-04 -0.5053026E-02
5016296.  0.2661264E-01 -0.1332503E+01 -0.1026170E-02 -0.1140617E-01 -0.4063138E-04 -0.4585055E-02
4979815.  0.3401440E-01 -0.1248345E+01 -0.9500867E-03 -0.1504098E-01 -0.1574416E-04 -0.4106417E-02
4943333.  0.4086256E-01 -0.1139878E+01 -0.8553992E-03 -0.1789975E-01  0.6389796E-05 -0.3624309E-02
4906852.  0.4703162E-01 -0.1012056E+01 -0.7465876E-03 -0.1997666E-01  0.2576754E-04 -0.3145015E-02
4870370.  0.5242554E-01 -0.8699208E+00 -0.6280706E-03 -0.2129437E-01  0.4242618E-04 -0.2675632E-02
4833889.  0.5697637E-01 -0.7184452E+00 -0.5040793E-03 -0.2189920E-01  0.5644108E-04 -0.2222630E-02
4797407.  0.6064455E-01 -0.5623561E+00 -0.3785125E-03 -0.2185546E-01  0.6791984E-04 -0.1790525E-02
4760926.  0.6341619E-01 -0.4060243E+00 -0.2548718E-03 -0.2124166E-01  0.7699733E-04 -0.1384839E-02
4724444.  0.6530140E-01 -0.2533339E+00 -0.1361667E-03 -0.2014548E-01  0.8383671E-04 -0.1009215E-02
4687963.  0.6633085E-01 -0.1076504E+00 -0.2490407E-04 -0.1865874E-01  0.8861801E-04 -0.6665202E-03
4651482.  0.6655292E-01  0.2825551E-01  0.7694846E-04 -0.1687403E-01  0.9153723E-04 -0.3590796E-03
4615000.  0.6603009E-01  0.1522079E+00  0.1679457E-03 -0.1488091E-01  0.9279931E-04 -0.8785127E-04
4578518.  0.6483565E-01  0.2626134E+00  0.2471360E-03 -0.1276364E-01  0.9261402E-04  0.1464921E-03
4542037.  0.6305043E-01  0.3584440E+00  0.3140295E-03 -0.1059865E-01  0.9119004E-04  0.3449701E-03
4505556.  0.6075951E-01  0.4391985E+00  0.3685512E-03 -0.8452796E-02  0.8873057E-04  0.5083666E-03
4469074.  0.5804947E-01  0.5048423E+00  0.4109800E-03 -0.6383028E-02  0.8543166E-04  0.6384576E-03
4432593.  0.5500609E-01  0.5557426E+00  0.4418867E-03 -0.4435607E-02  0.8147922E-04  0.7369284E-03
4396111.  0.5171173E-01  0.5926136E+00  0.4620806E-03 -0.2646156E-02  0.7704883E-04  0.8058755E-03
4359630.  0.4824423E-01  0.6164376E+00  0.4725427E-03 -0.1040226E-02  0.7229986E-04  0.8486260E-03
4323148.  0.4467476E-01  0.6284049E+00  0.4743762E-03  0.3657439E-03  0.6737756E-04  0.8667681E-03
4286667.  0.4106764E-01  0.6298510E+00  0.4687507E-03  0.1564382E-02  0.6241411E-04  0.8634920E-03
4250185.  0.3747891E-01  0.6221929E+00  0.4568583E-03  0.2554952E-02  0.5752629E-04  0.8405905E-03
4213704.  0.3395672E-01  0.6068849E+00  0.4398772E-03  0.3343270E-02  0.5282103E-04  0.8001275E-03
4177222.  0.3054054E-01  0.5853670E+00  0.4189369E-03  0.3939739E-02  0.4839330E-04  0.7438040E-03
4140741.  0.2726211E-01  0.5590367E+00  0.3950969E-03  0.4358922E-02  0.4433151E-04  0.6725134E-03
4104259.  0.2414497E-01  0.5292101E+00  0.3693230E-03  0.4617983E-02  0.4071854E-04  0.5870113E-03
4067778.  0.2120578E-01  0.4971065E+00  0.3424805E-03  0.4735636E-02  0.3763737E-04  0.4866722E-03
4031296.  0.1845420E-01  0.4638293E+00  0.3153209E-03  0.4731874E-02  0.3517522E-04  0.3705072E-03
3994815.  0.1589423E-01  0.4303595E+00  0.2884830E-03  0.4626863E-02  0.3342907E-04  0.2360920E-03
3958333.  0.1352435E-01  0.3975453E+00  0.2624872E-03  0.4440846E-02  0.3251342E-04  0.7970160E-04
3921852.  0.1133880E-01  0.3661049E+00  0.2377418E-03  0.4193691E-02  0.3256803E-04 -0.1038221E-03
3885370.  0.9327873E-02  0.3366201E+00  0.2145389E-03  0.3905165E-02  0.3376836E-04 -0.3218880E-03
3848889.  0.7479126E-02  0.3095409E+00  0.1930591E-03  0.3595500E-02  0.3633893E-04 -0.5843086E-03
3812407.  0.5777748E-02  0.2851692E+00  0.1733623E-03  0.3285850E-02  0.4056943E-04 -0.9040849E-03
3775926.  0.4207825E-02  0.2636524E+00  0.1553835E-03  0.2999921E-02  0.4683419E-04 -0.1298050E-02
3739444.  0.2752944E-02  0.2449487E+00  0.1389074E-03  0.2766106E-02  0.5561797E-04 -0.1787924E-02
3702963.  0.1397746E-02  0.2287785E+00  0.1235375E-03  0.2620588E-02  0.6754566E-04 -0.2401421E-02
3666482.  0.1292376E-03  0.2145349E+00  0.1086358E-03  0.2612043E-02  0.8342197E-04 -0.3173634E-02
3630000. -0.1060839E-02  0.2011447E+00  0.9323411E-04  0.2808524E-02  0.1042778E-03 -0.4148637E-02
3630000. -0.1060839E-02  0.2011435E+00  0.9323411E-04  0.2808516E-02  0.1042778E-03 -0.4148637E-02
3592500. -0.2204320E-02  0.1870102E+00  0.7534251E-04  0.3337468E-02  0.1322731E-03 -0.5412177E-02
3555000. -0.3254255E-02  0.1687036E+00  0.5299044E-04  0.4355566E-02  0.1686339E-03 -0.7004023E-02
3517500. -0.4172581E-02  0.1412740E+00  0.2265988E-04  0.6095359E-02  0.2155323E-03 -0.9007619E-02
3480000. -0.4884631E-02  0.9703661E-01 -0.2085132E-04  0.8904351E-02  0.2756645E-03 -0.1151706E-01
3480000. -0.4884631E-02 -0.1892700E+00 -0.2085090E-03 -0.8557186E-02  0.2756645E-03  0.3847978E-02
3409422. -0.3141640E-02 -0.1285578E+00 -0.1309363E-03 -0.5624396E-02  0.2190547E-03  0.5757615E-02
3338844. -0.1973219E-02 -0.8491932E-01 -0.8050571E-04 -0.3610970E-02  0.1567060E-03  0.5278324E-02
3268266. -0.1210919E-02 -0.5462875E-01 -0.4847047E-04 -0.2265824E-02  0.1046750E-03  0.4073734E-02
3197688. -0.7263023E-03 -0.3425927E-01 -0.2857681E-04 -0.1390088E-02  0.6643294E-04  0.2858564E-02
3127109. -0.4258412E-03 -0.2095916E-01 -0.1649635E-04 -0.8339806E-03  0.4044093E-04  0.1880421E-02
3056531. -0.2440707E-03 -0.1251413E-01 -0.9322159E-05 -0.4893216E-03  0.2374564E-04  0.1177260E-02
2985953. -0.1367299E-03 -0.7293715E-02 -0.5155417E-05 -0.2807473E-03  0.1349438E-04  0.7073430E-03
2915375. -0.7484837E-04 -0.4149850E-02 -0.2789048E-05 -0.1574799E-03  0.7437780E-05  0.4098987E-03
2844797. -0.4002322E-04 -0.2304592E-02 -0.1475293E-05 -0.8633351E-04  0.3981088E-05  0.2297847E-03
2774219. -0.2089501E-04 -0.1248855E-02 -0.7625604E-06 -0.4623644E-04  0.2070708E-05  0.1248404E-03
2703641. -0.1064425E-04 -0.6600894E-03 -0.3848972E-06 -0.2417668E-04  0.1046880E-05  0.6579999E-04
2633062. -0.5287083E-05 -0.3401117E-03 -0.1895585E-06 -0.1233446E-04  0.5143850E-06  0.3366148E-04
2562484. -0.2558556E-05 -0.1707173E-03 -0.9101004E-07 -0.6135119E-05  0.2455494E-06  0.1671504E-04
2491906. -0.1205132E-05 -0.8340816E-04 -0.4255393E-07 -0.2972391E-05  0.1138094E-06  0.8054197E-05
2421328. -0.5519073E-06 -0.3962756E-04 -0.1935546E-07 -0.1401263E-05  0.5117363E-07  0.3763843E-05
2350750. -0.2454485E-06 -0.1828788E-04 -0.8553273E-08 -0.6420343E-06  0.2229946E-07  0.1704437E-05
2280172. -0.1058578E-06 -0.8187635E-05 -0.3667031E-08 -0.2855289E-06  0.9405608E-08  0.7471638E-06
2209594. -0.4420670E-07 -0.3551100E-05 -0.1522893E-08 -0.1230707E-06  0.3834409E-08  0.3166520E-06
2139016. -0.1784480E-07 -0.1489627E-05 -0.6115599E-09 -0.5132813E-07  0.1508379E-08  0.1295468E-06
2068438. -0.6949628E-08 -0.6032757E-06 -0.2370172E-09 -0.2067524E-07  0.5714842E-09  0.5107295E-07
1997859. -0.2605559E-08 -0.2353904E-06 -0.8845950E-10 -0.8026706E-08  0.2080876E-09  0.1936423E-07
1927281. -0.9382107E-09 -0.8829056E-07 -0.3171714E-10 -0.2996552E-08  0.7264414E-10  0.7044921E-08
1856703. -0.3235829E-09 -0.3175195E-07 -0.1089547E-10 -0.1072929E-08  0.2424807E-10  0.2452942E-08
1786125. -0.1065720E-09 -0.1091688E-07 -0.3575024E-11 -0.3673817E-09  0.7715045E-11  0.8149985E-09
1715547. -0.3340350E-10 -0.3576648E-08 -0.1116621E-11 -0.1199031E-09  0.2331690E-11  0.2575343E-09
1644969. -0.9925613E-11 -0.1112481E-08 -0.3307073E-12 -0.3716142E-10  0.6667385E-12  0.7710338E-10
1574391. -0.2783858E-11 -0.3271156E-09 -0.9246392E-13 -0.1089123E-10  0.1795662E-12  0.2177734E-10
1503812. -0.7336328E-12 -0.9044449E-10 -0.2427234E-13 -0.3005306E-11  0.4529102E-13  0.5776932E-11
1433234.  0.0000000E+00  0.0000000E+00  0.0000000E+00  0.0000000E+00  0.0000000E+00  0.0000000E+00
1362656.  0.0000000E+00  0.0000000E+00  0.0000000E+00  0.0000000E+00  0.0000000E+00  0.0000000E+00
1292078.  0.0000000E+00  0.0000000E+00  0.0000000E+00  0.0000000E+00  0.0000000E+00  0.0000000E+00
1221500.  0.0000000E+00  0.0000000E+00  0.0000000E+00  0.0000000E+00  0.0000000E+00  0.0000000E+00
1221500.  0.0000000E+00  0.0000000E+00  0.0000000E+00  0.0000000E+00  0.0000000E+00  0.0000000E+00
1183328.  0.0000000E+00  0.0000000E+00  0.0000000E+00  0.0000000E+00  0.0000000E+00  0.0000000E+00
1145156.  0.0000000E+00  0.0000000E+00  0.0000000E+00  0.0000000E+00  0.0000000E+00  0.0000000E+00
1106984.  0.0000000E+00  0.0000000E+00  0.0000000E+00  0.0000000E+00  0.0000000E+00  0.0000000E+00
1068812.  0.0000000E+00  0.0000000E+00  0.0000000E+00  0.0000000E+00  0.0000000E+00  0.0000000E+00
1030641.  0.0000000E+00  0.0000000E+00  0.0000000E+00  0.0000000E+00  0.0000000E+00  0.0000000E+00
 992469.  0.0000000E+00  0.0000000E+00  0.0000000E+00  0.0000000E+00  0.0000000E+00  0.0000000E+00
 954297.  0.0000000E+00  0.0000000E+00  0.0000000E+00  0.0000000E+00  0.0000000E+00  0.0000000E+00
 916125.  0.0000000E+00  0.0000000E+00  0.0000000E+00  0.0000000E+00  0.0000000E+00  0.0000000E+00
 877953.  0.0000000E+00  0.0000000E+00  0.0000000E+00  0.0000000E+00  0.0000000E+00  0.0000000E+00
 839781.  0.0000000E+00  0.0000000E+00  0.0000000E+00  0.0000000E+00  0.0000000E+00  0.0000000E+00
 801609.  0.0000000E+00  0.0000000E+00  0.0000000E+00  0.0000000E+00  0.0000000E+00  0.0000000E+00
 763438.  0.0000000E+00  0.0000000E+00  0.0000000E+00  0.0000000E+00  0.0000000E+00  0.0000000E+00
 725266.  0.0000000E+00  0.0000000E+00  0.0000000E+00  0.0000000E+00  0.0000000E+00  0.0000000E+00
 687094.  0.0000000E+00  0.0000000E+00  0.0000000E+00  0.0000000E+00  0.0000000E+00  0.0000000E+00
 648922.  0.0000000E+00  0.0000000E+00  0.0000000E+00  0.0000000E+00  0.0000000E+00  0.0000000E+00
 610750.  0.0000000E+00  0.0000000E+00  0.0000000E+00  0.0000000E+00  0.0000000E+00  0.0000000E+00
 572578.  0.0000000E+00  0.0000000E+00  0.0000000E+00  0.0000000E+00  0.0000000E+00  0.0000000E+00
 534406.  0.0000000E+00  0.0000000E+00  0.0000000E+00  0.0000000E+00  0.0000000E+00  0.0000000E+00
 496234.  0.0000000E+00  0.0000000E+00  0.0000000E+00  0.0000000E+00  0.0000000E+00  0.0000000E+00
 458062.  0.0000000E+00  0.0000000E+00  0.0000000E+00  0.0000000E+00  0.0000000E+00  0.0000000E+00
 419891.  0.0000000E+00  0.0000000E+00  0.0000000E+00  0.0000000E+00  0.0000000E+00  0.0000000E+00
 381719.  0.0000000E+00  0.0000000E+00  0.0000000E+00  0.0000000E+00  0.0000000E+00  0.0000000E+00
 343547.  0.0000000E+00  0.0000000E+00  0.0000000E+00  0.0000000E+00  0.0000000E+00  0.0000000E+00
 305375.  0.0000000E+00  0.0000000E+00  0.0000000E+00  0.0000000E+00  0.0000000E+00  0.0000000E+00
 267203.  0.0000000E+00  0.0000000E+00  0.0000000E+00  0.0000000E+00  0.0000000E+00  0.0000000E+00
 229031.  0.0000000E+00  0.0000000E+00  0.0000000E+00  0.0000000E+00  0.0000000E+00  0.0000000E+00
 190859.  0.0000000E+00  0.0000000E+00  0.0000000E+00  0.0000000E+00  0.0000000E+00  0.0000000E+00
 152688.  0.0000000E+00  0.0000000E+00  0.0000000E+00  0.0000000E+00  0.0000000E+00  0.0000000E+00
 114516.  0.0000000E+00  0.0000000E+00  0.0000000E+00  0.0000000E+00  0.0000000E+00  0.0000000E+00
  76344.  0.0000000E+00  0.0000000E+00  0.0000000E+00  0.0000000E+00  0.0000000E+00  0.0000000E+00
  38172.  0.0000000E+00  0.0000000E+00  0.0000000E+00  0.0000000E+00  0.0000000E+00  0.0000000E+00
      0.  0.0000000E+00  0.0000000E+00  0.0000000E+00  0.0000000E+00  0.0000000E+00  0.0000000E+00
