      19        6 S      687        123.56660         49.83941         22.79245         94.73971      185    7
6371000.  0.1379463E-01  0.7617121E-02  0.1118323E-02 -0.1267630E-01 -0.2641574E-04 -0.2582853E-01
6370000.  0.1379290E-01  0.1442350E-01  0.1120172E-02 -0.1088959E-01 -0.2236082E-04 -0.2583897E-01
6369000.  0.1379010E-01  0.2122269E-01  0.1121741E-02 -0.9097137E-02 -0.1830441E-04 -0.2584744E-01
6368000.  0.1378623E-01  0.2801413E-01  0.1123028E-02 -0.7299407E-02 -0.1424683E-04 -0.2585396E-01
6368000.  0.1378623E-01  0.2801413E-01  0.1123028E-02 -0.7299407E-02 -0.1424683E-04 -0.2585396E-01
6367000.  0.1378131E-01  0.3479728E-01  0.1124032E-02 -0.5496847E-02 -0.1018838E-04 -0.2585852E-01
6366000.  0.1377531E-01  0.4157160E-01  0.1124753E-02 -0.3689907E-02 -0.6129363E-05 -0.2586111E-01
6365000.  0.1376826E-01  0.4833653E-01  0.1125190E-02 -0.1879043E-02 -0.2070096E-05 -0.2586174E-01
6364000.  0.1376014E-01  0.5509154E-01  0.1125343E-02 -0.6470930E-04  0.1989115E-05 -0.2586041E-01
6363000.  0.1375096E-01  0.6183610E-01  0.1125210E-02  0.1752639E-02  0.6047963E-05 -0.2585711E-01
6362000.  0.1374073E-01  0.6856965E-01  0.1124792E-02  0.3572544E-02  0.1010614E-04 -0.2585185E-01
6361000.  0.1372944E-01  0.7529169E-01  0.1124089E-02  0.5394548E-02  0.1416334E-04 -0.2584462E-01
6360000.  0.1371709E-01  0.8200166E-01  0.1123099E-02  0.7218191E-02  0.1821924E-04 -0.2583542E-01
6359000.  0.1370370E-01  0.8869904E-01  0.1121823E-02  0.9043016E-02  0.2227355E-04 -0.2582427E-01
6358000.  0.1368925E-01  0.9538332E-01  0.1120260E-02  0.1086856E-01  0.2632596E-04 -0.2581115E-01
6357000.  0.1367375E-01  0.1020540E+00  0.1118411E-02  0.1269436E-01  0.3037615E-04 -0.2579606E-01
6356000.  0.1365721E-01  0.1087105E+00  0.1116275E-02  0.1451996E-01  0.3442382E-04 -0.2577901E-01
6356000.  0.1365721E-01  0.7263640E-01  0.1116275E-02  0.3781172E-02  0.3442382E-04 -0.2875066E-01
6355000.  0.1364543E-01  0.7749232E-01  0.1115586E-02  0.5003227E-02  0.3893587E-04 -0.2874164E-01
6354000.  0.1363289E-01  0.8234000E-01  0.1114704E-02  0.6226386E-02  0.4344638E-04 -0.2873105E-01
6353000.  0.1361958E-01  0.8717918E-01  0.1113631E-02  0.7450441E-02  0.4795511E-04 -0.2871888E-01
6352000.  0.1360552E-01  0.9200956E-01  0.1112366E-02  0.8675184E-02  0.5246180E-04 -0.2870514E-01
6351000.  0.1359070E-01  0.9683088E-01  0.1110908E-02  0.9900409E-02  0.5696621E-04 -0.2868982E-01
6350000.  0.1357512E-01  0.1016429E+00  0.1109257E-02  0.1112591E-01  0.6146810E-04 -0.2867293E-01
6349000.  0.1355879E-01  0.1064452E+00  0.1107415E-02  0.1235147E-01  0.6596721E-04 -0.2865446E-01
6348000.  0.1354171E-01  0.1112377E+00  0.1105380E-02  0.1357689E-01  0.7046329E-04 -0.2863442E-01
6347000.  0.1352387E-01  0.1160201E+00  0.1103153E-02  0.1480195E-01  0.7495611E-04 -0.2861281E-01
6346600.  0.1351653E-01  0.1179301E+00  0.1102208E-02  0.1529184E-01  0.7675227E-04 -0.2860372E-01
6346600.  0.1351653E-01  0.7630456E-01  0.1102208E-02  0.6275753E-02  0.7675227E-04 -0.3331674E-01
6318800.  0.1297643E-01  0.1704308E+00  0.1017065E-02  0.3259752E-01  0.2206693E-03 -0.3247860E-01
6291000.  0.1203838E-01  0.2582416E+00  0.8209947E-03  0.5668031E-01  0.3587340E-03 -0.3063746E-01
6291000.  0.1203838E-01  0.2618753E+00  0.8209947E-03  0.5903070E-01  0.3587340E-03 -0.3063746E-01
6263000.  0.1070740E-01  0.3420646E+00  0.5151523E-03  0.7907965E-01  0.4874109E-03 -0.2775854E-01
6235000.  0.9048522E-02  0.4107878E+00  0.1367807E-03  0.9172556E-01  0.6013694E-03 -0.2395409E-01
6207000.  0.7115756E-02  0.4664892E+00 -0.2780805E-03  0.9551515E-01  0.6967573E-03 -0.1932740E-01
6179000.  0.4968774E-02  0.5081384E+00 -0.6889593E-03  0.8990227E-01  0.7702434E-03 -0.1401174E-01
6151000.  0.2670772E-02  0.5351479E+00 -0.1055097E-02  0.7530370E-01  0.8191416E-03 -0.8166731E-02
6151000.  0.2670772E-02  0.4273921E+00 -0.1055097E-02  0.6571119E-01  0.8191416E-03 -0.8314493E-02
6128500.  0.1159727E-02  0.4273388E+00 -0.1259748E-02  0.4964369E-01  0.8413735E-03 -0.4257584E-02
6106000. -0.3408738E-03  0.4215747E+00 -0.1402517E-02  0.3084094E-01  0.8491278E-03 -0.1274302E-03
6083500. -0.1811884E-02  0.4106742E+00 -0.1475658E-02  0.1040346E-01  0.8422705E-03  0.4005419E-02
6061000. -0.3236119E-02  0.3951686E+00 -0.1475453E-02 -0.1049760E-01  0.8209150E-03  0.8071703E-02
6038500. -0.4598168E-02  0.3755299E+00 -0.1402347E-02 -0.3069042E-01  0.7854153E-03  0.1200453E-01
6016000. -0.5884155E-02  0.3521527E+00 -0.1260818E-02 -0.4907057E-01  0.7363560E-03  0.1574039E-01
5993500. -0.7081462E-02  0.3253564E+00 -0.1059039E-02 -0.6466188E-01  0.6745385E-03  0.1922022E-01
5971000. -0.8178481E-02  0.2953953E+00 -0.8083223E-03 -0.7666918E-01  0.6009639E-03  0.2239000E-01
5971000. -0.8178481E-02  0.2666171E+00 -0.8083223E-03 -0.6735644E-01  0.6009639E-03  0.2346064E-01
5937667. -0.9432897E-02  0.2125575E+00 -0.4332698E-03 -0.7463803E-01  0.4674817E-03  0.2741645E-01
5904333. -0.1039995E-01  0.1568993E+00 -0.4123489E-04 -0.7395639E-01  0.3156891E-03  0.3044743E-01
5871000. -0.1107334E-01  0.1004411E+00  0.3285079E-03 -0.6634832E-01  0.1505739E-03  0.3250597E-01
5837667. -0.1145088E-01  0.4393324E-01  0.6437146E-03 -0.5340721E-01 -0.2273100E-04  0.3357833E-01
5804333. -0.1153435E-01 -0.1183435E-01  0.8813544E-03 -0.3702042E-01 -0.1991011E-03  0.3368075E-01
5771000. -0.1132987E-01 -0.6598558E-01  0.1028491E-02 -0.1913095E-01 -0.3735533E-03  0.3285637E-01
5771000. -0.1132987E-01 -0.6598311E-01  0.1028491E-02 -0.1912988E-01 -0.3735533E-03  0.3285637E-01
5701000. -0.9961677E-02 -0.1822503E+00  0.1044227E-02  0.1563841E-01 -0.7097894E-03  0.2774638E-01
5701000. -0.9961677E-02 -0.1475211E+00  0.1044227E-02  0.1493918E-01 -0.7097894E-03  0.3055422E-01
5667333. -0.9059238E-02 -0.1934309E+00  0.9325257E-03  0.2682859E-01 -0.8627960E-03  0.2724061E-01
5633667. -0.7924793E-02 -0.2351158E+00  0.7665176E-03  0.3541840E-01 -0.9965735E-03  0.2329532E-01
5600000. -0.6584035E-02 -0.2712965E+00  0.5645438E-03  0.4041713E-01 -0.1108074E-02  0.1882687E-01
5600000. -0.6584035E-02 -0.2712957E+00  0.5645438E-03  0.4041869E-01 -0.1108074E-02  0.1882687E-01
5563518. -0.4929471E-02 -0.3053262E+00  0.3246795E-03  0.4268376E-01 -0.1200870E-02  0.1350989E-01
5527037. -0.3103162E-02 -0.3310825E+00  0.8334700E-04  0.4096135E-01 -0.1262088E-02  0.7822931E-02
5490556. -0.1155910E-02 -0.3473988E+00 -0.1374221E-03  0.3558358E-01 -0.1290036E-02  0.1914224E-02
5454074.  0.8556835E-03 -0.3534249E+00 -0.3183858E-03  0.2718414E-01 -0.1283874E-02 -0.4065985E-02
5417593.  0.2871040E-02 -0.3486881E+00 -0.4446319E-03  0.1663460E-01 -0.1243620E-02 -0.9968623E-02
5381111.  0.4828295E-02 -0.3331418E+00 -0.5067419E-03  0.4961637E-02 -0.1170131E-02 -0.1565048E-01
5344630.  0.6666381E-02 -0.3071875E+00 -0.5013988E-03 -0.6742109E-02 -0.1065066E-02 -0.2097616E-01
5308148.  0.8328000E-02 -0.2716645E+00 -0.4315073E-03 -0.1741262E-01 -0.9308204E-03 -0.2582215E-01
5271667.  0.9761658E-02 -0.2278205E+00 -0.3057842E-03 -0.2609871E-01 -0.7704694E-03 -0.3007822E-01
5235185.  0.1092420E-01 -0.1772495E+00 -0.1378725E-03 -0.3203849E-01 -0.5876599E-03 -0.3365036E-01
5198704.  0.1178230E-01 -0.1218226E+00  0.5488362E-04 -0.3471435E-01 -0.3865471E-03 -0.3646160E-01
5162222.  0.1231397E-01 -0.6358185E-01  0.2529887E-03 -0.3388976E-01 -0.1716532E-03 -0.3845361E-01
5125741.  0.1250914E-01 -0.4648160E-02  0.4364096E-03 -0.2962103E-01  0.5219772E-04 -0.3958721E-01
5089259.  0.1236985E-01  0.5289715E-01  0.5862748E-03 -0.2224658E-01  0.2800363E-03 -0.3984251E-01
5052778.  0.1190974E-01  0.1071033E+00  0.6863704E-03 -0.1235564E-01  0.5068099E-03 -0.3921891E-01
5016296.  0.1115293E-01  0.1562552E+00  0.7244672E-03 -0.7363061E-03  0.7275409E-03 -0.3773433E-01
4979815.  0.1013263E-01  0.1989383E+00  0.6932666E-03  0.1168646E-01  0.9373811E-03 -0.3542453E-01
4943333.  0.8888996E-02  0.2341054E+00  0.5909791E-03  0.2392599E-01  0.1131759E-02 -0.3234168E-01
4906852.  0.7467207E-02  0.2611015E+00  0.4214752E-03  0.3500726E-01  0.1306422E-02 -0.2855300E-01
4870370.  0.5914874E-02  0.2796779E+00  0.1939780E-03  0.4404208E-01  0.1457563E-02 -0.2413885E-01
4833889.  0.4280081E-02  0.2899722E+00 -0.7757959E-04  0.5029130E-01  0.1581851E-02 -0.1919135E-01
4797407.  0.2608913E-02  0.2924738E+00 -0.3756242E-03  0.5322050E-01  0.1676523E-02 -0.1381134E-01
4760926.  0.9439758E-03  0.2879628E+00 -0.6801620E-03  0.5253409E-01  0.1739406E-02 -0.8107550E-02
4724444. -0.6774443E-03  0.2774393E+00 -0.9702742E-03  0.4819472E-01  0.1768971E-02 -0.2193030E-02
4687963. -0.2224047E-02  0.2620429E+00 -0.1225541E-02  0.4042403E-01  0.1764342E-02  0.3815740E-02
4651482. -0.3671385E-02  0.2429676E+00 -0.1427536E-02  0.2968298E-01  0.1725315E-02  0.9802234E-02
4615000. -0.5001797E-02  0.2213777E+00 -0.1561071E-02  0.1663720E-01  0.1652345E-02  0.1565152E-01
4578518. -0.6203952E-02  0.1983361E+00 -0.1615238E-02  0.2109496E-02  0.1546540E-02  0.2125203E-01
4542037. -0.7272171E-02  0.1747419E+00 -0.1584159E-02 -0.1297892E-01  0.1409637E-02  0.2649779E-01
4505556. -0.8205399E-02  0.1512815E+00 -0.1467355E-02 -0.2767346E-01  0.1243947E-02  0.3129065E-01
4469074. -0.9005826E-02  0.1284048E+00 -0.1269752E-02 -0.4105010E-01  0.1052320E-02  0.3554146E-01
4432593. -0.9677460E-02  0.1063189E+00 -0.1001350E-02 -0.5227602E-01  0.8381000E-03  0.3917135E-01
4396111. -0.1022490E-01  0.8499743E-01 -0.6764926E-03 -0.6066594E-01  0.6050282E-03  0.4211365E-01
4359630. -0.1065192E-01  0.6421718E-01 -0.3129579E-03 -0.6572301E-01  0.3572167E-03  0.4431395E-01
4323148. -0.1096064E-01  0.4359792E-01  0.6928488E-04 -0.6716958E-01  0.9902253E-04  0.4573199E-01
4286667. -0.1115063E-01  0.2266655E-01  0.4493030E-03 -0.6496194E-01 -0.1649774E-03  0.4634103E-01
4250185. -0.1121866E-01  0.9167143E-03  0.8066206E-03 -0.5928727E-01 -0.4301238E-03  0.4612906E-01
4213704. -0.1115866E-01 -0.2211944E-01  0.1122424E-02 -0.5054925E-01 -0.6917002E-03  0.4509818E-01
4177222. -0.1096216E-01 -0.4681208E-01  0.1380792E-02 -0.3933523E-01 -0.9450710E-03  0.4326446E-01
4140741. -0.1061898E-01 -0.7337200E-01  0.1569573E-02 -0.2637753E-01 -0.1185704E-02  0.4065772E-01
4104259. -0.1011827E-01 -0.1018116E+00  0.1681118E-02 -0.1249990E-01 -0.1409302E-02  0.3732014E-01
4067778. -0.9449813E-02 -0.1319099E+00  0.1712621E-02  0.1434436E-02 -0.1611817E-02  0.3330625E-01
4031296. -0.8605282E-02 -0.1632057E+00  0.1666196E-02  0.1458176E-01 -0.1789568E-02  0.2868057E-01
3994815. -0.7579762E-02 -0.1949985E+00  0.1548612E-02  0.2616893E-01 -0.1939252E-02  0.2351751E-01
3958333. -0.6372866E-02 -0.2263775E+00  0.1370731E-02  0.3554397E-01 -0.2058029E-02  0.1789875E-01
3921852. -0.4990058E-02 -0.2562608E+00  0.1146728E-02  0.4221260E-01 -0.2143534E-02  0.1191266E-01
3885370. -0.3443213E-02 -0.2834517E+00  0.8930601E-03  0.4586834E-01 -0.2193931E-02  0.5651585E-02
3848889. -0.1751398E-02 -0.3067028E+00  0.6273903E-03  0.4640681E-01 -0.2207916E-02 -0.7886529E-03
3812407.  0.5939392E-04 -0.3247930E+00  0.3673639E-03  0.4392807E-01 -0.2184740E-02 -0.7311810E-02
3775926.  0.1956236E-02 -0.3366013E+00  0.1295186E-03  0.3872607E-01 -0.2124205E-02 -0.1382156E-01
3739444.  0.3900446E-02 -0.3411791E+00 -0.7182078E-04  0.3126553E-01 -0.2026654E-02 -0.2022453E-01
3702963.  0.5848350E-02 -0.3378149E+00 -0.2253803E-03  0.2214940E-01 -0.1892964E-02 -0.2643044E-01
3666482.  0.7753181E-02 -0.3260912E+00 -0.3236517E-03  0.1207685E-01 -0.1724505E-02 -0.3235469E-01
3630000.  0.9566698E-02 -0.3059183E+00 -0.3632927E-03  0.1797383E-02 -0.1523113E-02 -0.3791938E-01
3630000.  0.9566698E-02 -0.3059172E+00 -0.3632927E-03  0.1797171E-02 -0.1523113E-02 -0.3791938E-01
3592500.  0.1128940E-01 -0.2779826E+00 -0.3441788E-03 -0.8143677E-02 -0.1284133E-02 -0.4320616E-01
3555000.  0.1282267E-01 -0.2416740E+00 -0.2699152E-03 -0.1681786E-01 -0.1015458E-02 -0.4799761E-01
3517500.  0.1411978E-01 -0.1979268E+00 -0.1500546E-03 -0.2353046E-01 -0.7202050E-03 -0.5222662E-01
3480000.  0.1514062E-01 -0.1480478E+00  0.2115797E-05 -0.2771477E-01 -0.4018595E-03 -0.5583521E-01
3480000.  0.1514062E-01 -0.2368307E+00  0.2448061E-03  0.2726643E-01 -0.4018595E-03 -0.1034614E+00
3409422.  0.1636345E-01  0.1743566E-01 -0.8106758E-04  0.3073020E-01  0.8225458E-03 -0.1142120E+00
3338844.  0.1480324E-01  0.2586866E+00 -0.4169376E-03  0.2904567E-01  0.2053208E-02 -0.1046541E+00
3268266.  0.1081860E-01  0.4497936E+00 -0.7064483E-03  0.2246940E-01  0.3073301E-02 -0.7678541E-01
3197688.  0.5119394E-02  0.5650541E+00 -0.9003073E-03  0.1199497E-01  0.3704253E-02 -0.3537991E-01
3127109. -0.1374692E-02  0.5924526E+00 -0.9634631E-03 -0.8380506E-03  0.3831481E-02  0.1296118E-01
3056531. -0.7687302E-02  0.5336474E+00 -0.8798175E-03 -0.1419083E-01  0.3418555E-02  0.6091838E-01
2985953. -0.1292840E-01  0.4020669E+00 -0.6540731E-03 -0.2619079E-01  0.2508971E-02  0.1015547E+00
2915375. -0.1640741E-01  0.2197050E+00 -0.3107137E-03 -0.3517713E-01  0.1216567E-02  0.1292430E+00
2844797. -0.1770713E-01  0.1325000E-01  0.1095019E-03 -0.3990043E-01 -0.2929364E-03  0.1403269E+00
2774219. -0.1671368E-01 -0.1898607E+00  0.5548999E-03 -0.3965557E-01 -0.1825932E-02  0.1334569E+00
2703641. -0.1360474E-01 -0.3649488E+00  0.9693151E-03 -0.3434036E-01 -0.3186820E-02  0.1095975E+00
2633062. -0.8803065E-02 -0.4928146E+00  0.1298754E-02 -0.2443959E-01 -0.4202320E-02  0.7174273E-01
2562484. -0.2905625E-02 -0.5614332E+00  0.1497485E-02 -0.1094456E-01 -0.4741269E-02  0.2441216E-01
2491906.  0.3400882E-02 -0.5666167E+00  0.1532991E-02  0.4777611E-02 -0.4728117E-02 -0.2699562E-01
2421328.  0.9425482E-02 -0.5116610E+00  0.1389241E-02  0.2114590E-01 -0.4148805E-02 -0.7688850E-01
2350750.  0.1455016E-01 -0.4061922E+00  0.1068098E-02  0.3653922E-01 -0.3049267E-02 -0.1201281E+00
2280172.  0.1829071E-01 -0.2644188E+00  0.5888397E-03  0.4946040E-01 -0.1527304E-02 -0.1525657E+00
2209594.  0.2033637E-01 -0.1030932E+00 -0.1402182E-04  0.5867704E-01  0.2806210E-03 -0.1714179E+00
2139016.  0.2056635E-01  0.6058165E-01 -0.6942857E-03  0.6332495E-01  0.2215745E-02 -0.1754584E+00
2068438.  0.1904398E-01  0.2108577E+00 -0.1398510E-02  0.6296672E-01  0.4114455E-02 -0.1650242E+00
1997859.  0.1599164E-01  0.3349752E+00 -0.2070851E-02  0.5760240E-01  0.5824893E-02 -0.1418578E+00
1927281.  0.1175155E-01  0.4242211E+00 -0.2657725E-02  0.4763597E-01  0.7220948E-02 -0.1088226E+00
1856703.  0.6737230E-02  0.4744536E+00 -0.3111955E-02  0.3379934E-01  0.8212843E-02 -0.6953725E-01
1786125.  0.1382435E-02  0.4861330E+00 -0.3395802E-02  0.1704592E-01  0.8753260E-02 -0.2798885E-01
1715547. -0.3907924E-02  0.4639114E+00 -0.3482723E-02 -0.1578433E-02  0.8839405E-02  0.1182476E-01
1644969. -0.8800586E-02  0.4159419E+00 -0.3357608E-02 -0.2108231E-01  0.8511531E-02  0.4616531E-01
1574391. -0.1306829E-01  0.3530758E+00 -0.3015305E-02 -0.4068478E-01  0.7849181E-02  0.7168494E-01
1503812. -0.1661563E-01  0.2881623E+00 -0.2457363E-02 -0.5998803E-01  0.6967023E-02  0.8535510E-01
1433234. -0.1949877E-01  0.2357464E+00 -0.1686705E-02 -0.7918377E-01  0.6013039E-02  0.8410557E-01
1362656. -0.2194632E-01  0.2125683E+00 -0.6995761E-03 -0.9934074E-01  0.5172849E-02  0.6402232E-01
1292078. -0.2439272E-01  0.2395757E+00  0.5264804E-03 -0.1228688E+00  0.4686784E-02  0.1879632E-01
1221500. -0.2754823E-01  0.3467722E+00  0.2051695E-02 -0.1543700E+00  0.4890953E-02 -0.6321584E-01
1221500. -0.2754823E-01 -0.7717538E+01 -0.4325470E-01 -0.8192054E-01  0.4890953E-02 -0.5128184E-01
1183328.  0.1903791E-01 -0.7480544E+01 -0.3805017E-01 -0.1628342E+01  0.5072300E-02 -0.1082416E-01
1145156.  0.5792073E-01 -0.5173088E+01 -0.2446864E-01 -0.2814301E+01  0.5038408E-02  0.2074708E-01
1106984.  0.7771443E-01 -0.1222147E+01 -0.5691036E-02 -0.3322992E+01  0.4839392E-02  0.4445396E-01
1068812.  0.7102863E-01  0.3489693E+01  0.1370565E-01 -0.3015083E+01  0.4519607E-02  0.6120325E-01
1030641.  0.3665823E-01  0.7821150E+01  0.2893523E-01 -0.1960922E+01  0.4118216E-02  0.7183400E-01
 992469. -0.1965163E-01  0.1063958E+02  0.3621727E-01 -0.4172240E+00  0.3669403E-02  0.7716617E-01
 954297. -0.8607865E-01  0.1109208E+02  0.3370124E-01  0.1242706E+01  0.3202423E-02  0.7804187E-01
 916125. -0.1470820E+00  0.8817082E+01  0.2188454E-01  0.2625501E+01  0.2741353E-02  0.7534369E-01
 877953. -0.1867071E+00  0.4043509E+01  0.3435245E-02  0.3414802E+01  0.2304872E-02  0.6998926E-01
 839781. -0.1920841E+00 -0.2445035E+01 -0.1750522E-01  0.3444276E+01  0.1906145E-02  0.6289031E-01
 801609. -0.1563224E+00 -0.9472267E+01 -0.3634053E-01  0.2729896E+01  0.1553035E-02  0.5489722E-01
 763438. -0.8014759E-01 -0.1571874E+02 -0.4909158E-01  0.1455802E+01  0.1248631E-02  0.4674493E-01
 725266.  0.2808755E-01 -0.2000153E+02 -0.5326066E-01 -0.7953802E-01  0.9920825E-03  0.3899956E-01
 687094.  0.1539713E+00 -0.2151784E+02 -0.4828972E-01 -0.1540519E+01  0.7797386E-03  0.3203576E-01
 648922.  0.2798442E+00 -0.2000229E+02 -0.3554045E-01 -0.2634543E+01  0.6062766E-03  0.2603583E-01
 610750.  0.3881882E+00 -0.1576301E+02 -0.1783460E-01 -0.3175029E+01  0.4657846E-03  0.2102260E-01
 572578.  0.4648611E+00 -0.9594694E+01  0.1294453E-02 -0.3113339E+01  0.3525851E-03  0.1690188E-01
 534406.  0.5014945E+00 -0.2593214E+01  0.1843383E-01 -0.2534785E+01  0.2617869E-03  0.1351575E-01
 496234.  0.4965999E+00  0.4081728E+01  0.3100095E-01 -0.1623236E+01  0.1894913E-03  0.1069962E-01
 458062.  0.4552354E+00  0.9440492E+01  0.3767584E-01 -0.6063811E+00  0.1326983E-03  0.8321319E-02
 419891.  0.3874139E+00  0.1284225E+02  0.3848693E-01  0.3025546E+00  0.8908736E-04  0.6288903E-02
 381719.  0.3056912E+00  0.1408338E+02  0.3457469E-01  0.9518041E+00  0.5672076E-04  0.4563922E-02
 343547.  0.2225524E+00  0.1338213E+02  0.2773671E-01  0.1275819E+01  0.3380316E-04  0.3134803E-02
 305375.  0.1481521E+00  0.1127408E+02  0.1989928E-01  0.1295085E+01  0.1855077E-04  0.2005996E-02
 267203.  0.8888336E-01  0.8449655E+01  0.1266021E-01  0.1093655E+01  0.9171805E-05  0.1172001E-02
 229031.  0.4697960E-01  0.5579192E+01  0.7008652E-02  0.7843874E+00  0.3962763E-05  0.6084704E-03
 190859.  0.2109252E-01  0.3168358E+01  0.3263115E-02  0.4727575E+00  0.1428578E-05  0.2700305E-03
 152688.  0.7558678E-02  0.1477204E+01  0.1202590E-02  0.2301517E+00  0.3978932E-06  0.9602982E-04
 114516.  0.1921593E-02  0.5156839E+00  0.3121613E-03  0.8285990E-01  0.7420878E-07  0.2427484E-04
  76344.  0.2657064E-03  0.1091416E+00  0.4378964E-04  0.1790398E-01  0.6731471E-08  0.3341376E-05
  38172.  0.8548818E-05  0.7106324E-02  0.1420828E-05  0.1179754E-02  0.1071478E-09  0.1069266E-06
      0.  0.0000000E+00  0.0000000E+00  0.0000000E+00  0.0000000E+00  0.0000000E+00  0.0000000E+00
