       7       37 S      438         98.26756         10.86291          7.07280        254.05209      185    7
6371000. -0.4782166E-01  0.3511092E+00  0.5674858E-03  0.4838915E-01  0.0000000E+00  0.0000000E+00
6370000. -0.4787352E-01  0.3096780E+00  0.5597990E-03  0.4955101E-01  0.0000000E+00  0.0000000E+00
6369000. -0.4791886E-01  0.2680238E+00  0.5519321E-03  0.5068393E-01  0.0000000E+00  0.0000000E+00
6368000. -0.4795765E-01  0.2261554E+00  0.5438898E-03  0.5178749E-01  0.0000000E+00  0.0000000E+00
6368000. -0.4795765E-01  0.2261554E+00  0.5438898E-03  0.5178749E-01  0.0000000E+00  0.0000000E+00
6367000. -0.4798985E-01  0.1840820E+00  0.5356765E-03  0.5286130E-01  0.0000000E+00  0.0000000E+00
6366000. -0.4801543E-01  0.1418128E+00  0.5272970E-03  0.5390495E-01  0.0000000E+00  0.0000000E+00
6365000. -0.4803436E-01  0.9935710E-01  0.5187561E-03  0.5491808E-01  0.0000000E+00  0.0000000E+00
6364000. -0.4804661E-01  0.5672418E-01  0.5100586E-03  0.5590032E-01  0.0000000E+00  0.0000000E+00
6363000. -0.4805215E-01  0.1392351E-01  0.5012093E-03  0.5685131E-01  0.0000000E+00  0.0000000E+00
6362000. -0.4805097E-01 -0.2903538E-01  0.4922133E-03  0.5777071E-01  0.0000000E+00  0.0000000E+00
6361000. -0.4804303E-01 -0.7214291E-01  0.4830755E-03  0.5865819E-01  0.0000000E+00  0.0000000E+00
6360000. -0.4802832E-01 -0.1153894E+00  0.4738009E-03  0.5951345E-01  0.0000000E+00  0.0000000E+00
6359000. -0.4800680E-01 -0.1587652E+00  0.4643946E-03  0.6033616E-01  0.0000000E+00  0.0000000E+00
6358000. -0.4797847E-01 -0.2022604E+00  0.4548617E-03  0.6112604E-01  0.0000000E+00  0.0000000E+00
6357000. -0.4794330E-01 -0.2458652E+00  0.4452075E-03  0.6188282E-01  0.0000000E+00  0.0000000E+00
6356000. -0.4790128E-01 -0.2895696E+00  0.4354371E-03  0.6260622E-01  0.0000000E+00  0.0000000E+00
6356000. -0.4790128E-01 -0.1267522E+00  0.4354371E-03  0.5699495E-01  0.0000000E+00  0.0000000E+00
6355000. -0.4787887E-01 -0.1588631E+00  0.4264588E-03  0.5740233E-01  0.0000000E+00  0.0000000E+00
6354000. -0.4785141E-01 -0.1910311E+00  0.4174182E-03  0.5778997E-01  0.0000000E+00  0.0000000E+00
6353000. -0.4781890E-01 -0.2232508E+00  0.4083183E-03  0.5815779E-01  0.0000000E+00  0.0000000E+00
6352000. -0.4778132E-01 -0.2555169E+00  0.3991622E-03  0.5850570E-01  0.0000000E+00  0.0000000E+00
6351000. -0.4773868E-01 -0.2878240E+00  0.3899531E-03  0.5883362E-01  0.0000000E+00  0.0000000E+00
6350000. -0.4769097E-01 -0.3201665E+00  0.3806941E-03  0.5914149E-01  0.0000000E+00  0.0000000E+00
6349000. -0.4763817E-01 -0.3525391E+00  0.3713883E-03  0.5942924E-01  0.0000000E+00  0.0000000E+00
6348000. -0.4758030E-01 -0.3849362E+00  0.3620390E-03  0.5969681E-01  0.0000000E+00  0.0000000E+00
6347000. -0.4751733E-01 -0.4173524E+00  0.3526492E-03  0.5994415E-01  0.0000000E+00  0.0000000E+00
6346600. -0.4749072E-01 -0.4303230E+00  0.3488827E-03  0.6003742E-01  0.0000000E+00  0.0000000E+00
6346600. -0.4749072E-01 -0.1548995E+00  0.3488827E-03  0.5613460E-01  0.0000000E+00  0.0000000E+00
6318800. -0.4529862E-01 -0.8480064E+00  0.1037494E-03  0.5437572E-01  0.0000000E+00  0.0000000E+00
6291000. -0.4016218E-01 -0.1491687E+01 -0.1100791E-03  0.4195795E-01  0.0000000E+00  0.0000000E+00
6291000. -0.4016218E-01 -0.1511762E+01 -0.1100791E-03  0.4200381E-01  0.0000000E+00  0.0000000E+00
6263000. -0.3229133E-01 -0.2042469E+01 -0.2483506E-03  0.1958817E-01  0.0000000E+00  0.0000000E+00
6235000. -0.2249439E-01 -0.2379371E+01 -0.2733121E-03 -0.8899778E-02  0.0000000E+00  0.0000000E+00
6207000. -0.1172104E-01 -0.2482526E+01 -0.1675764E-03 -0.3911412E-01  0.0000000E+00  0.0000000E+00
6179000. -0.1031755E-02 -0.2342182E+01  0.6611898E-04 -0.6635250E-01  0.0000000E+00  0.0000000E+00
6151000.  0.8541204E-02 -0.1980924E+01  0.4048171E-03 -0.8622817E-01  0.0000000E+00  0.0000000E+00
6151000.  0.8541204E-02 -0.1552327E+01  0.4048171E-03 -0.7685900E-01  0.0000000E+00  0.0000000E+00
6128500.  0.1336326E-01 -0.1168772E+01  0.6901273E-03 -0.8374710E-01  0.0000000E+00  0.0000000E+00
6106000.  0.1674648E-01 -0.7427750E+00  0.9892598E-03 -0.8463359E-01  0.0000000E+00  0.0000000E+00
6083500.  0.1859793E-01 -0.3067284E+00  0.1280742E-02 -0.7944161E-01  0.0000000E+00  0.0000000E+00
6061000.  0.1893916E-01  0.1073101E+00  0.1543664E-02 -0.6856152E-01  0.0000000E+00  0.0000000E+00
6038500.  0.1790088E-01  0.4699670E+00  0.1759253E-02 -0.5280241E-01  0.0000000E+00  0.0000000E+00
6016000.  0.1570966E-01  0.7566386E+00  0.1912221E-02 -0.3331295E-01  0.0000000E+00  0.0000000E+00
5993500.  0.1266811E-01  0.9490866E+00  0.1991790E-02 -0.1148105E-01  0.0000000E+00  0.0000000E+00
5971000.  0.9130324E-02  0.1036533E+01  0.1992342E-02  0.1117815E-01  0.0000000E+00  0.0000000E+00
5971000.  0.9130324E-02  0.1032271E+01  0.1992342E-02  0.9107640E-02  0.0000000E+00  0.0000000E+00
5937667.  0.3770386E-02  0.9845517E+00  0.1874570E-02  0.3500007E-01  0.0000000E+00  0.0000000E+00
5904333. -0.8759952E-03  0.7673759E+00  0.1637682E-02  0.5429423E-01  0.0000000E+00  0.0000000E+00
5871000. -0.4058019E-02  0.4346620E+00  0.1320416E-02  0.6561071E-01  0.0000000E+00  0.0000000E+00
5837667. -0.5328197E-02  0.4661750E-01  0.9652954E-03  0.6883934E-01  0.0000000E+00  0.0000000E+00
5804333. -0.4550379E-02 -0.3391992E+00  0.6126617E-03  0.6487066E-01  0.0000000E+00  0.0000000E+00
5771000. -0.1867923E-02 -0.6744127E+00  0.2963366E-03  0.5526070E-01  0.0000000E+00  0.0000000E+00
5771000. -0.1867923E-02 -0.6744004E+00  0.2963366E-03  0.5525898E-01  0.0000000E+00  0.0000000E+00
5701000.  0.8567990E-02 -0.1150397E+01 -0.1670086E-03  0.2707049E-01  0.0000000E+00  0.0000000E+00
5701000.  0.8567990E-02 -0.9646525E+00 -0.1670086E-03  0.1937412E-01  0.0000000E+00  0.0000000E+00
5667333.  0.1374266E-01 -0.9783000E+00 -0.2363044E-03  0.6992717E-02  0.0000000E+00  0.0000000E+00
5633667.  0.1875278E-01 -0.9041975E+00 -0.2431290E-03 -0.4139702E-02  0.0000000E+00  0.0000000E+00
5600000.  0.2316790E-01 -0.7556798E+00 -0.1958710E-03 -0.1339650E-01  0.0000000E+00  0.0000000E+00
5600000.  0.2316790E-01 -0.7556916E+00 -0.1958710E-03 -0.1339587E-01  0.0000000E+00  0.0000000E+00
5563518.  0.2689888E-01 -0.5371243E+00 -0.9688177E-04 -0.2078736E-01  0.0000000E+00  0.0000000E+00
5527037.  0.2922072E-01 -0.2670684E+00  0.3739632E-04 -0.2567406E-01  0.0000000E+00  0.0000000E+00
5490556.  0.2990173E-01  0.3210619E-01  0.1920165E-03 -0.2788255E-01  0.0000000E+00  0.0000000E+00
5454074.  0.2884237E-01  0.3368878E+00  0.3516865E-03 -0.2746179E-01  0.0000000E+00  0.0000000E+00
5417593.  0.2607661E-01  0.6244895E+00  0.5019578E-03 -0.2465637E-01  0.0000000E+00  0.0000000E+00
5381111.  0.2176242E-01  0.8745723E+00  0.6302657E-03 -0.1986647E-01  0.0000000E+00  0.0000000E+00
5344630.  0.1616453E-01  0.1070498E+01  0.7266579E-03 -0.1360141E-01  0.0000000E+00  0.0000000E+00
5308148.  0.9629355E-02  0.1200309E+01  0.7843010E-03 -0.6428523E-02  0.0000000E+00  0.0000000E+00
5271667.  0.2557963E-02  0.1257149E+01  0.7996552E-03  0.1073714E-02  0.0000000E+00  0.0000000E+00
5235185. -0.4625060E-02  0.1239378E+01  0.7724208E-03  0.8360262E-02  0.0000000E+00  0.0000000E+00
5198704. -0.1149918E-01  0.1150244E+01  0.7052418E-03  0.1495342E-01  0.0000000E+00  0.0000000E+00
5162222. -0.1767581E-01  0.9972616E+00  0.6032310E-03  0.2047014E-01  0.0000000E+00  0.0000000E+00
5125741. -0.2281894E-01  0.7913797E+00  0.4733969E-03  0.2463638E-01  0.0000000E+00  0.0000000E+00
5089259. -0.2666329E-01  0.5459626E+00  0.3239729E-03  0.2729421E-01  0.0000000E+00  0.0000000E+00
5052778. -0.2902417E-01  0.2757858E+00  0.1637874E-03  0.2839788E-01  0.0000000E+00  0.0000000E+00
5016296. -0.2980323E-01 -0.4044187E-02  0.1614199E-05  0.2800401E-01  0.0000000E+00  0.0000000E+00
4979815. -0.2898732E-01 -0.2789664E+00 -0.1543344E-03  0.2625527E-01  0.0000000E+00  0.0000000E+00
4943333. -0.2664300E-01 -0.5358244E+00 -0.2968808E-03  0.2336076E-01  0.0000000E+00  0.0000000E+00
4906852. -0.2290693E-01 -0.7634326E+00 -0.4201678E-03  0.1957473E-01  0.0000000E+00  0.0000000E+00
4870370. -0.1797261E-01 -0.9530598E+00 -0.5198856E-03  0.1517467E-01  0.0000000E+00  0.0000000E+00
4833889. -0.1207656E-01 -0.1098612E+01 -0.5933213E-03  0.1044222E-01  0.0000000E+00  0.0000000E+00
4797407. -0.5481699E-02 -0.1196737E+01 -0.6393513E-03  0.5644620E-02  0.0000000E+00  0.0000000E+00
4760926.  0.1536639E-02 -0.1246666E+01 -0.6583029E-03  0.1021769E-02  0.0000000E+00  0.0000000E+00
4724444.  0.8706366E-02 -0.1249989E+01 -0.6517741E-03 -0.3225014E-02  0.0000000E+00  0.0000000E+00
4687963.  0.1576965E-01 -0.1210302E+01 -0.6223914E-03 -0.6938396E-02  0.0000000E+00  0.0000000E+00
4651482.  0.2249461E-01 -0.1132790E+01 -0.5735453E-03 -0.1000875E-01  0.0000000E+00  0.0000000E+00
4615000.  0.2868248E-01 -0.1023774E+01 -0.5091183E-03 -0.1237312E-01  0.0000000E+00  0.0000000E+00
4578518.  0.3417255E-01 -0.8902687E+00 -0.4332299E-03 -0.1401200E-01  0.0000000E+00  0.0000000E+00
4542037.  0.3884526E-01 -0.7395545E+00 -0.3499994E-03 -0.1494423E-01  0.0000000E+00  0.0000000E+00
4505556.  0.4262285E-01 -0.5787881E+00 -0.2633401E-03 -0.1522026E-01  0.0000000E+00  0.0000000E+00
4469074.  0.4546734E-01 -0.4146827E+00 -0.1768026E-03 -0.1491487E-01  0.0000000E+00  0.0000000E+00
4432593.  0.4737712E-01 -0.2532731E+00 -0.9346606E-04 -0.1411931E-01  0.0000000E+00  0.0000000E+00
4396111.  0.4838290E-01 -0.9970051E-01 -0.1584716E-04 -0.1293422E-01  0.0000000E+00  0.0000000E+00
4359630.  0.4854192E-01  0.4186127E-01  0.5411522E-04 -0.1146295E-01  0.0000000E+00  0.0000000E+00
4323148.  0.4793243E-01  0.1682860E+00  0.1150771E-03 -0.9806172E-02  0.0000000E+00  0.0000000E+00
4286667.  0.4664768E-01  0.2774520E+00  0.1662427E-03 -0.8056597E-02  0.0000000E+00  0.0000000E+00
4250185.  0.4479015E-01  0.3682094E+00  0.2073255E-03 -0.6296770E-02  0.0000000E+00  0.0000000E+00
4213704.  0.4246658E-01  0.4402646E+00  0.2384695E-03 -0.4595980E-02  0.0000000E+00  0.0000000E+00
4177222.  0.3978296E-01  0.4940755E+00  0.2601802E-03 -0.3009777E-02  0.0000000E+00  0.0000000E+00
4140741.  0.3684112E-01  0.5307060E+00  0.2732369E-03 -0.1579220E-02  0.0000000E+00  0.0000000E+00
4104259.  0.3373504E-01  0.5516928E+00  0.2786165E-03 -0.3317936E-03  0.0000000E+00  0.0000000E+00
4067778.  0.3054928E-01  0.5589019E+00  0.2774170E-03  0.7170766E-03  0.0000000E+00  0.0000000E+00
4031296.  0.2735668E-01  0.5544081E+00  0.2707919E-03  0.1563302E-02  0.0000000E+00  0.0000000E+00
3994815.  0.2421825E-01  0.5403749E+00  0.2598923E-03  0.2211563E-02  0.0000000E+00  0.0000000E+00
3958333.  0.2118224E-01  0.5189590E+00  0.2458195E-03  0.2674080E-02  0.0000000E+00  0.0000000E+00
3921852.  0.1828511E-01  0.4922302E+00  0.2295896E-03  0.2968372E-02  0.0000000E+00  0.0000000E+00
3885370.  0.1555155E-01  0.4621066E+00  0.2121047E-03  0.3116158E-02  0.0000000E+00  0.0000000E+00
3848889.  0.1299611E-01  0.4303111E+00  0.1941348E-03  0.3142338E-02  0.0000000E+00  0.0000000E+00
3812407.  0.1062386E-01  0.3983226E+00  0.1762985E-03  0.3073943E-02  0.0000000E+00  0.0000000E+00
3775926.  0.8432435E-02  0.3673534E+00  0.1590556E-03  0.2940457E-02  0.0000000E+00  0.0000000E+00
3739444.  0.6413139E-02  0.3383041E+00  0.1426853E-03  0.2774873E-02  0.0000000E+00  0.0000000E+00
3702963.  0.4553357E-02  0.3117132E+00  0.1272654E-03  0.2615678E-02  0.0000000E+00  0.0000000E+00
3666482.  0.2838472E-02  0.2876633E+00  0.1126274E-03  0.2510870E-02  0.0000000E+00  0.0000000E+00
3630000.  0.1255057E-02  0.2656286E+00  0.9828598E-04  0.2524412E-02  0.0000000E+00  0.0000000E+00
3630000.  0.1255057E-02  0.2656271E+00  0.9828598E-04  0.2524361E-02  0.0000000E+00  0.0000000E+00
3592500. -0.2459145E-03  0.2442444E+00  0.8279944E-04  0.2788021E-02  0.0000000E+00  0.0000000E+00
3555000. -0.1614859E-02  0.2200650E+00  0.6471026E-04  0.3439099E-02  0.0000000E+00  0.0000000E+00
3517500. -0.2820333E-02  0.1875098E+00  0.4111251E-04  0.4706799E-02  0.0000000E+00  0.0000000E+00
3480000. -0.3787853E-02  0.1372353E+00  0.7404154E-05  0.6948156E-02  0.0000000E+00  0.0000000E+00
3480000. -0.3787853E-02 -0.1617920E+00 -0.1454616E-03 -0.6665757E-02  0.0000000E+00  0.0000000E+00
3409422. -0.2321461E-02 -0.1059857E+00 -0.8632309E-04 -0.4175655E-02  0.0000000E+00  0.0000000E+00
3338844. -0.1378112E-02 -0.6680496E-01 -0.4981694E-04 -0.2534203E-02  0.0000000E+00  0.0000000E+00
3268266. -0.7933283E-03 -0.4062743E-01 -0.2796985E-04 -0.1491838E-02  0.0000000E+00  0.0000000E+00
3197688. -0.4432088E-03 -0.2388433E-01 -0.1528185E-04 -0.8525681E-03  0.0000000E+00  0.0000000E+00
3127109. -0.2404171E-03 -0.1359169E-01 -0.8125795E-05 -0.4732595E-03  0.0000000E+00  0.0000000E+00
3056531. -0.1266618E-03 -0.7493809E-02 -0.4204712E-05 -0.2552547E-03  0.0000000E+00  0.0000000E+00
2985953. -0.6481422E-04 -0.4005355E-02 -0.2116846E-05 -0.1337799E-03  0.0000000E+00  0.0000000E+00
2915375. -0.3220954E-04 -0.2075916E-02 -0.1036507E-05 -0.6812573E-04  0.0000000E+00  0.0000000E+00
2844797. -0.1554030E-04 -0.1043333E-02 -0.4933743E-06 -0.3369947E-04  0.0000000E+00  0.0000000E+00
2774219. -0.7276069E-05 -0.5083957E-03 -0.2281585E-06 -0.1618621E-04  0.0000000E+00  0.0000000E+00
2703641. -0.3303941E-05 -0.2400947E-03 -0.1024310E-06 -0.7544477E-05  0.0000000E+00  0.0000000E+00
2633062. -0.1453886E-05 -0.1098289E-03 -0.4460435E-07 -0.3410018E-05  0.0000000E+00  0.0000000E+00
2562484. -0.6194469E-06 -0.4862880E-04 -0.1882117E-07 -0.1493344E-05  0.0000000E+00  0.0000000E+00
2491906. -0.2552606E-06 -0.2082144E-04 -0.7686601E-08 -0.6329767E-06  0.0000000E+00  0.0000000E+00
2421328. -0.1016093E-06 -0.8611815E-05 -0.3034409E-08 -0.2593724E-06  0.0000000E+00  0.0000000E+00
2350750. -0.3901594E-07 -0.3436301E-05 -0.1156188E-08 -0.1026076E-06  0.0000000E+00  0.0000000E+00
2280172. -0.1442837E-07 -0.1320875E-05 -0.4245046E-09 -0.3912790E-07  0.0000000E+00  0.0000000E+00
2209594. -0.5129547E-08 -0.4882903E-06 -0.1499117E-09 -0.1435786E-07  0.0000000E+00  0.0000000E+00
2139016. -0.1749649E-08 -0.1732663E-06 -0.5081523E-10 -0.5059880E-08  0.0000000E+00  0.0000000E+00
2068438. -0.5712809E-09 -0.5888938E-07 -0.1649525E-10 -0.1708776E-08  0.0000000E+00  0.0000000E+00
1997859. -0.1781004E-09 -0.1912436E-07 -0.5114533E-11 -0.5516307E-09  0.0000000E+00  0.0000000E+00
1927281. -0.5286560E-10 -0.5918233E-08 -0.1510427E-11 -0.1697627E-09  0.0000000E+00  0.0000000E+00
1856703. -0.1489284E-10 -0.1739837E-08 -0.4234782E-12 -0.4964904E-10  0.0000000E+00  0.0000000E+00
1786125. -0.3967564E-11 -0.4841882E-09 -0.1123085E-12 -0.1375139E-10  0.0000000E+00  0.0000000E+00
1715547. -0.9960079E-12 -0.1269886E-09 -0.2804486E-13 -0.3594704E-11  0.0000000E+00  0.0000000E+00
1644969.  0.0000000E+00  0.0000000E+00  0.0000000E+00  0.0000000E+00  0.0000000E+00  0.0000000E+00
1574391.  0.0000000E+00  0.0000000E+00  0.0000000E+00  0.0000000E+00  0.0000000E+00  0.0000000E+00
1503812.  0.0000000E+00  0.0000000E+00  0.0000000E+00  0.0000000E+00  0.0000000E+00  0.0000000E+00
1433234.  0.0000000E+00  0.0000000E+00  0.0000000E+00  0.0000000E+00  0.0000000E+00  0.0000000E+00
1362656.  0.0000000E+00  0.0000000E+00  0.0000000E+00  0.0000000E+00  0.0000000E+00  0.0000000E+00
1292078.  0.0000000E+00  0.0000000E+00  0.0000000E+00  0.0000000E+00  0.0000000E+00  0.0000000E+00
1221500.  0.0000000E+00  0.0000000E+00  0.0000000E+00  0.0000000E+00  0.0000000E+00  0.0000000E+00
1221500.  0.0000000E+00  0.0000000E+00  0.0000000E+00  0.0000000E+00  0.0000000E+00  0.0000000E+00
1183328.  0.0000000E+00  0.0000000E+00  0.0000000E+00  0.0000000E+00  0.0000000E+00  0.0000000E+00
1145156.  0.0000000E+00  0.0000000E+00  0.0000000E+00  0.0000000E+00  0.0000000E+00  0.0000000E+00
1106984.  0.0000000E+00  0.0000000E+00  0.0000000E+00  0.0000000E+00  0.0000000E+00  0.0000000E+00
1068812.  0.0000000E+00  0.0000000E+00  0.0000000E+00  0.0000000E+00  0.0000000E+00  0.0000000E+00
1030641.  0.0000000E+00  0.0000000E+00  0.0000000E+00  0.0000000E+00  0.0000000E+00  0.0000000E+00
 992469.  0.0000000E+00  0.0000000E+00  0.0000000E+00  0.0000000E+00  0.0000000E+00  0.0000000E+00
 954297.  0.0000000E+00  0.0000000E+00  0.0000000E+00  0.0000000E+00  0.0000000E+00  0.0000000E+00
 916125.  0.0000000E+00  0.0000000E+00  0.0000000E+00  0.0000000E+00  0.0000000E+00  0.0000000E+00
 877953.  0.0000000E+00  0.0000000E+00  0.0000000E+00  0.0000000E+00  0.0000000E+00  0.0000000E+00
 839781.  0.0000000E+00  0.0000000E+00  0.0000000E+00  0.0000000E+00  0.0000000E+00  0.0000000E+00
 801609.  0.0000000E+00  0.0000000E+00  0.0000000E+00  0.0000000E+00  0.0000000E+00  0.0000000E+00
 763438.  0.0000000E+00  0.0000000E+00  0.0000000E+00  0.0000000E+00  0.0000000E+00  0.0000000E+00
 725266.  0.0000000E+00  0.0000000E+00  0.0000000E+00  0.0000000E+00  0.0000000E+00  0.0000000E+00
 687094.  0.0000000E+00  0.0000000E+00  0.0000000E+00  0.0000000E+00  0.0000000E+00  0.0000000E+00
 648922.  0.0000000E+00  0.0000000E+00  0.0000000E+00  0.0000000E+00  0.0000000E+00  0.0000000E+00
 610750.  0.0000000E+00  0.0000000E+00  0.0000000E+00  0.0000000E+00  0.0000000E+00  0.0000000E+00
 572578.  0.0000000E+00  0.0000000E+00  0.0000000E+00  0.0000000E+00  0.0000000E+00  0.0000000E+00
 534406.  0.0000000E+00  0.0000000E+00  0.0000000E+00  0.0000000E+00  0.0000000E+00  0.0000000E+00
 496234.  0.0000000E+00  0.0000000E+00  0.0000000E+00  0.0000000E+00  0.0000000E+00  0.0000000E+00
 458062.  0.0000000E+00  0.0000000E+00  0.0000000E+00  0.0000000E+00  0.0000000E+00  0.0000000E+00
 419891.  0.0000000E+00  0.0000000E+00  0.0000000E+00  0.0000000E+00  0.0000000E+00  0.0000000E+00
 381719.  0.0000000E+00  0.0000000E+00  0.0000000E+00  0.0000000E+00  0.0000000E+00  0.0000000E+00
 343547.  0.0000000E+00  0.0000000E+00  0.0000000E+00  0.0000000E+00  0.0000000E+00  0.0000000E+00
 305375.  0.0000000E+00  0.0000000E+00  0.0000000E+00  0.0000000E+00  0.0000000E+00  0.0000000E+00
 267203.  0.0000000E+00  0.0000000E+00  0.0000000E+00  0.0000000E+00  0.0000000E+00  0.0000000E+00
 229031.  0.0000000E+00  0.0000000E+00  0.0000000E+00  0.0000000E+00  0.0000000E+00  0.0000000E+00
 190859.  0.0000000E+00  0.0000000E+00  0.0000000E+00  0.0000000E+00  0.0000000E+00  0.0000000E+00
 152688.  0.0000000E+00  0.0000000E+00  0.0000000E+00  0.0000000E+00  0.0000000E+00  0.0000000E+00
 114516.  0.0000000E+00  0.0000000E+00  0.0000000E+00  0.0000000E+00  0.0000000E+00  0.0000000E+00
  76344.  0.0000000E+00  0.0000000E+00  0.0000000E+00  0.0000000E+00  0.0000000E+00  0.0000000E+00
  38172.  0.0000000E+00  0.0000000E+00  0.0000000E+00  0.0000000E+00  0.0000000E+00  0.0000000E+00
      0.  0.0000000E+00  0.0000000E+00  0.0000000E+00  0.0000000E+00  0.0000000E+00  0.0000000E+00
