      16       13 S      649        110.03830         26.94696          6.72563        277.46021      185    7
6371000. -0.3261128E-01 -0.2263838E+00 -0.3523502E-02  0.2908777E-01  0.2769433E-03  0.5762003E-01
6370000. -0.3257414E-01 -0.2468228E+00 -0.3527523E-02  0.2215238E-01  0.2678904E-03  0.5773097E-01
6369000. -0.3253380E-01 -0.2671064E+00 -0.3530455E-02  0.1520080E-01  0.2588205E-03  0.5783640E-01
6368000. -0.3249029E-01 -0.2872322E+00 -0.3532294E-02  0.8235222E-02  0.2497345E-03  0.5793633E-01
6368000. -0.3249029E-01 -0.2872322E+00 -0.3532294E-02  0.8235222E-02  0.2497345E-03  0.5793633E-01
6367000. -0.3244364E-01 -0.3071980E+00 -0.3533040E-02  0.1257809E-02  0.2406333E-03  0.5803074E-01
6366000. -0.3239387E-01 -0.3270015E+00 -0.3532689E-02 -0.5729253E-02  0.2315177E-03  0.5811962E-01
6365000. -0.3234100E-01 -0.3466406E+00 -0.3531241E-02 -0.1272378E-01  0.2223885E-03  0.5820296E-01
6364000. -0.3228506E-01 -0.3661132E+00 -0.3528694E-02 -0.1972358E-01  0.2132467E-03  0.5828075E-01
6363000. -0.3222607E-01 -0.3854173E+00 -0.3525049E-02 -0.2672646E-01  0.2040932E-03  0.5835298E-01
6362000. -0.3216407E-01 -0.4045509E+00 -0.3520304E-02 -0.3373023E-01  0.1949287E-03  0.5841964E-01
6361000. -0.3209908E-01 -0.4235121E+00 -0.3514460E-02 -0.4073269E-01  0.1857542E-03  0.5848073E-01
6360000. -0.3203113E-01 -0.4422991E+00 -0.3507518E-02 -0.4773164E-01  0.1765706E-03  0.5853624E-01
6359000. -0.3196025E-01 -0.4609100E+00 -0.3499477E-02 -0.5472488E-01  0.1673787E-03  0.5858615E-01
6358000. -0.3188645E-01 -0.4793432E+00 -0.3490338E-02 -0.6171023E-01  0.1581794E-03  0.5863048E-01
6357000. -0.3180978E-01 -0.4975970E+00 -0.3480105E-02 -0.6868547E-01  0.1489735E-03  0.5866919E-01
6356000. -0.3173025E-01 -0.5156697E+00 -0.3468777E-02 -0.7564843E-01  0.1397621E-03  0.5870230E-01
6356000. -0.3173025E-01 -0.3862534E+00 -0.3468777E-02 -0.3443165E-01  0.1397621E-03  0.6560644E-01
6355000. -0.3166857E-01 -0.3996578E+00 -0.3463012E-02 -0.3903358E-01  0.1294585E-03  0.6568128E-01
6354000. -0.3160480E-01 -0.4129500E+00 -0.3456524E-02 -0.4363329E-01  0.1191435E-03  0.6575174E-01
6353000. -0.3153894E-01 -0.4261291E+00 -0.3449315E-02 -0.4822983E-01  0.1088178E-03  0.6581780E-01
6352000. -0.3147103E-01 -0.4391942E+00 -0.3441384E-02 -0.5282222E-01  0.9848202E-04  0.6587947E-01
6351000. -0.3140108E-01 -0.4521444E+00 -0.3432732E-02 -0.5740951E-01  0.8813695E-04  0.6593674E-01
6350000. -0.3132910E-01 -0.4649789E+00 -0.3423362E-02 -0.6199073E-01  0.7778322E-04  0.6598961E-01
6349000. -0.3125512E-01 -0.4776968E+00 -0.3413273E-02 -0.6656493E-01  0.6742156E-04  0.6603806E-01
6348000. -0.3117915E-01 -0.4902974E+00 -0.3402466E-02 -0.7113113E-01  0.5705263E-04  0.6608211E-01
6347000. -0.3110121E-01 -0.5027798E+00 -0.3390943E-02 -0.7568838E-01  0.4667713E-04  0.6612172E-01
6346600. -0.3106949E-01 -0.5077395E+00 -0.3386134E-02 -0.7750857E-01  0.4252525E-04  0.6613633E-01
6346600. -0.3106949E-01 -0.4172961E+00 -0.3386134E-02 -0.4330151E-01  0.4252525E-04  0.7696981E-01
6318800. -0.2873973E-01 -0.6391927E+00 -0.2988834E-02 -0.1374277E+00 -0.2958120E-03  0.7764026E-01
6291000. -0.2559301E-01 -0.7914186E+00 -0.2207127E-02 -0.2176317E+00 -0.6309562E-03  0.7550355E-01
6291000. -0.2559301E-01 -0.8045262E+00 -0.2207127E-02 -0.2257592E+00 -0.6309562E-03  0.7550355E-01
6263000. -0.2185311E-01 -0.8863393E+00 -0.1076208E-02 -0.2837473E+00 -0.9525783E-03  0.7039218E-01
6235000. -0.1788882E-01 -0.9092911E+00  0.2368915E-03 -0.3077029E+00 -0.1245745E-02  0.6259029E-01
6207000. -0.1391968E-01 -0.8920356E+00  0.1573281E-02 -0.2941631E+00 -0.1499181E-02  0.5236494E-01
6179000. -0.1007472E-01 -0.8565165E+00  0.2769312E-02 -0.2444488E+00 -0.1702995E-02  0.4007443E-01
6151000. -0.6386075E-02 -0.8242552E+00  0.3677444E-02 -0.1644890E+00 -0.1849034E-02  0.2615092E-01
6151000. -0.6386075E-02 -0.6086538E+00  0.3677444E-02 -0.1433604E+00 -0.1849034E-02  0.2650424E-01
6128500. -0.4293766E-02 -0.5795549E+00  0.4059304E-02 -0.7175439E-01 -0.1924611E-02  0.1622191E-01
6106000. -0.2266757E-02 -0.5722215E+00  0.4179398E-02  0.3978843E-02 -0.1963214E-02  0.5600860E-02
6083500. -0.2241541E-03 -0.5884256E+00  0.4032737E-02  0.7841513E-01 -0.1964023E-02 -0.5146015E-02
6061000.  0.1915791E-02 -0.6268890E+00  0.3633193E-02  0.1463641E+00 -0.1926969E-02 -0.1580648E-01
6038500.  0.4225173E-02 -0.6834733E+00  0.3012006E-02  0.2032361E+00 -0.1852724E-02 -0.2617322E-01
6016000.  0.6756970E-02 -0.7515742E+00  0.2215102E-02  0.2453506E+00 -0.1742681E-02 -0.3604778E-01
5993500.  0.9537351E-02 -0.8227282E+00  0.1299449E-02  0.2701653E+00 -0.1598908E-02 -0.4524451E-01
5971000.  0.1256039E-01 -0.8873537E+00  0.3287534E-03  0.2764226E+00 -0.1424105E-02 -0.5359381E-01
5971000.  0.1256039E-01 -0.8015205E+00  0.3287534E-03  0.2445322E+00 -0.1424105E-02 -0.5523807E-01
5937667.  0.1683709E-01 -0.8260379E+00 -0.8902572E-03  0.2166026E+00 -0.1107617E-02 -0.6533217E-01
5904333.  0.2111384E-01 -0.7989913E+00 -0.1894781E-02  0.1640721E+00 -0.7449819E-03 -0.7283773E-01
5871000.  0.2508896E-01 -0.7097561E+00 -0.2581540E-02  0.9687554E-01 -0.3502190E-03 -0.7760351E-01
5837667.  0.2842906E-01 -0.5567244E+00 -0.2900883E-02  0.2528534E-01  0.6223400E-04 -0.7960601E-01
5804333.  0.3081513E-01 -0.3468450E+00 -0.2854710E-02 -0.4144744E-01  0.4781219E-03 -0.7893561E-01
5771000.  0.3198358E-01 -0.9411012E-01 -0.2488504E-02 -0.9603674E-01  0.8838904E-03 -0.7578110E-01
5771000.  0.3198358E-01 -0.9413776E-01 -0.2488504E-02 -0.9603485E-01  0.8838904E-03 -0.7578110E-01
5701000.  0.2965803E-01  0.5291746E+00 -0.1004313E-02 -0.1607272E+00  0.1640442E-02 -0.6046611E-01
5701000.  0.2965803E-01  0.4254836E+00 -0.1004313E-02 -0.1342739E+00  0.1640442E-02 -0.6882564E-01
5667333.  0.2673031E-01  0.6788160E+00 -0.2892877E-03 -0.1338525E+00  0.1980425E-02 -0.5959906E-01
5633667.  0.2253802E-01  0.9014481E+00  0.3858596E-03 -0.1195761E+00  0.2268005E-02 -0.4905554E-01
5600000.  0.1728231E-01  0.1079160E+01  0.9549480E-03 -0.9423970E-01  0.2497185E-02 -0.3755295E-01
5600000.  0.1728231E-01  0.1079167E+01  0.9549480E-03 -0.9424333E-01  0.2497185E-02 -0.3755295E-01
5563518.  0.1066342E-01  0.1221669E+01  0.1398758E-02 -0.5933752E-01  0.2674659E-02 -0.2431546E-01
5527037.  0.3426054E-02  0.1293843E+01  0.1622318E-02 -0.1806318E-01  0.2774678E-02 -0.1056490E-01
5490556. -0.4008709E-02  0.1290208E+01  0.1602330E-02  0.2493466E-01  0.2795388E-02  0.3323915E-02
5454074. -0.1120589E-01  0.1211411E+01  0.1342443E-02  0.6496610E-01  0.2737032E-02  0.1699265E-01
5417593. -0.1775103E-01  0.1064116E+01  0.8721816E-03  0.9776350E-01  0.2601844E-02  0.3010700E-01
5381111. -0.2328432E-01  0.8603364E+00  0.2432437E-03  0.1198980E+00  0.2393870E-02  0.4236579E-01
5344630. -0.2752691E-01  0.6163331E+00 -0.4761235E-03  0.1290804E+00  0.2118800E-02  0.5350313E-01
5308148. -0.3030210E-01  0.3510843E+00 -0.1208393E-02  0.1243528E+00  0.1783704E-02  0.6329431E-01
5271667. -0.3154543E-01  0.8464257E-01 -0.1874424E-02  0.1061344E+00  0.1396855E-02  0.7155546E-01
5235185. -0.3130624E-01 -0.1636534E+00 -0.2401336E-02  0.7614184E-01  0.9674162E-03  0.7814561E-01
5198704. -0.2973869E-01 -0.3767571E+00 -0.2729284E-02  0.3719236E-01  0.5052856E-03  0.8296501E-01
5162222. -0.2708442E-01 -0.5413473E+00 -0.2817053E-02 -0.7095983E-02  0.2076571E-04  0.8595449E-01
5125741. -0.2364848E-01 -0.6487994E+00 -0.2645599E-02 -0.5265193E-01 -0.4755626E-03  0.8709378E-01
5089259. -0.1976994E-01 -0.6957948E+00 -0.2219547E-02 -0.9534345E-01 -0.9731604E-03  0.8639862E-01
5052778. -0.1579184E-01 -0.6843936E+00 -0.1566511E-02 -0.1313431E+00 -0.1461624E-02  0.8391913E-01
5016296. -0.1203031E-01 -0.6216708E+00 -0.7342590E-03 -0.1574697E+00 -0.1930980E-02  0.7973644E-01
4979815. -0.8748877E-02 -0.5189196E+00  0.2136252E-03 -0.1714458E+00 -0.2371753E-02  0.7396076E-01
4943333. -0.6136602E-02 -0.3904986E+00  0.1203655E-02 -0.1720774E+00 -0.2775221E-02  0.6672762E-01
4906852. -0.4295071E-02 -0.2524784E+00  0.2158706E-02 -0.1593284E+00 -0.3133463E-02  0.5819589E-01
4870370. -0.3232310E-02 -0.1211315E+00  0.3004819E-02 -0.1342903E+00 -0.3439561E-02  0.4854343E-01
4833889. -0.2866155E-02 -0.1150675E-01  0.3677148E-02 -0.9906160E-01 -0.3687633E-02  0.3796531E-01
4797407. -0.3034992E-02  0.6392430E-01  0.4125354E-02 -0.5654219E-01 -0.3872979E-02  0.2666815E-01
4760926. -0.3515723E-02  0.9630417E-01  0.4317329E-02 -0.1017176E-01 -0.3992088E-02  0.1486886E-01
4724444. -0.4046774E-02  0.8113185E-01  0.4241505E-02  0.3637727E-01 -0.4042723E-02  0.2787825E-02
4687963. -0.4354142E-02  0.1860896E-01  0.3907294E-02  0.7949901E-01 -0.4023904E-02 -0.9352494E-02
4651482. -0.4178402E-02 -0.8643604E-01  0.3343827E-02  0.1159557E+00 -0.3935919E-02 -0.2133424E-01
4615000. -0.3300001E-02 -0.2249964E+00  0.2597102E-02  0.1431254E+00 -0.3780279E-02 -0.3294749E-01
4578518. -0.1561134E-02 -0.3846791E+00  0.1725931E-02  0.1591931E+00 -0.3559671E-02 -0.4399370E-01
4542037.  0.1117800E-02 -0.5507831E+00  0.7969059E-03  0.1632750E+00 -0.3277880E-02 -0.5429045E-01
4505556.  0.4728713E-02 -0.7075574E+00 -0.1211612E-03  0.1554604E+00 -0.2939667E-02 -0.6367542E-01
4469074.  0.9173534E-02 -0.8395203E+00 -0.9626725E-03  0.1367712E+00 -0.2550654E-02 -0.7200871E-01
4432593.  0.1426902E-01 -0.9327384E+00 -0.1670247E-02  0.1090560E+00 -0.2117228E-02 -0.7917476E-01
4396111.  0.1975997E-01 -0.9760092E+00 -0.2199133E-02  0.7481449E-01 -0.1646313E-02 -0.8508546E-01
4359630.  0.2533653E-01 -0.9617767E+00 -0.2520198E-02  0.3698745E-01 -0.1145315E-02 -0.8967900E-01
4323148.  0.3065822E-01 -0.8867711E+00 -0.2621861E-02 -0.1293207E-02 -0.6218558E-03 -0.9292223E-01
4286667.  0.3537835E-01 -0.7523270E+00 -0.2510431E-02 -0.3694409E-01 -0.8373100E-04 -0.9480722E-01
4250185.  0.3917151E-01 -0.5643001E+00 -0.2209138E-02 -0.6717519E-01  0.4613514E-03 -0.9535208E-01
4213704.  0.4175751E-01 -0.3327050E+00 -0.1755897E-02 -0.8968632E-01  0.1005793E-02 -0.9459682E-01
4177222.  0.4292400E-01 -0.7095982E-01 -0.1199938E-02 -0.1028333E+00  0.1542339E-02 -0.9260088E-01
4140741.  0.4254291E-01  0.2050213E+00 -0.5978325E-03 -0.1057285E+00  0.2064068E-02 -0.8944019E-01
4104259.  0.4058165E-01  0.4780259E+00 -0.8878536E-05 -0.9828654E-01  0.2564582E-02 -0.8520179E-01
4067778.  0.3710729E-01  0.7307096E+00  0.5093399E-03 -0.8120651E-01  0.3037957E-02 -0.7998208E-01
4031296.  0.3228315E-01  0.9468800E+00  0.9053773E-03 -0.5589529E-01  0.3478881E-02 -0.7387973E-01
3994815.  0.2635987E-01  0.1112581E+01  0.1137543E-02 -0.2434620E-01  0.3882561E-02 -0.6699419E-01
3958333.  0.1965855E-01  0.1217096E+01  0.1176878E-02  0.1102902E-01  0.4244807E-02 -0.5941967E-01
3921852.  0.1255129E-01  0.1253660E+01  0.1008991E-02  0.4758072E-01  0.4561908E-02 -0.5124259E-01
3885370.  0.5435729E-02  0.1219913E+01  0.6348485E-03  0.8262591E-01  0.4830648E-02 -0.4253710E-01
3848889. -0.1289233E-02  0.1118039E+01  0.7046008E-04  0.1136340E+00  0.5048166E-02 -0.3336326E-01
3812407. -0.7250615E-02  0.9545888E+00 -0.6546002E-03  0.1384069E+00  0.5211921E-02 -0.2376236E-01
3775926. -0.1212379E-01  0.7400435E+00 -0.1499386E-02  0.1552164E+00  0.5319531E-02 -0.1375623E-01
3739444. -0.1565420E-01  0.4880520E+00 -0.2414768E-02  0.1629168E+00  0.5368685E-02 -0.3342619E-02
3702963. -0.1767206E-01  0.2145616E+00 -0.3346768E-02  0.1609997E+00  0.5356986E-02  0.7505204E-02
3666482. -0.1810314E-01 -0.6327284E-01 -0.4240455E-02  0.1496124E+00  0.5281801E-02  0.1884284E-01
3630000. -0.1697217E-01 -0.3281918E+00 -0.5043540E-02  0.1295242E+00  0.5140089E-02  0.3075783E-01
3630000. -0.1697217E-01 -0.3281857E+00 -0.5043540E-02  0.1295230E+00  0.5140089E-02  0.3075783E-01
3592500. -0.1431548E-01 -0.5682374E+00 -0.5727050E-02  0.1014907E+00  0.4921205E-02  0.4376036E-01
3555000. -0.1037237E-01 -0.7627882E+00 -0.6225653E-02  0.6702793E-01  0.4623068E-02  0.5771763E-01
3517500. -0.5451773E-02 -0.8984352E+00 -0.6507783E-02  0.2833015E-01  0.4239465E-02  0.7284033E-01
3480000.  0.6929719E-04 -0.9655787E+00 -0.6555696E-02 -0.1212869E-01  0.3762772E-02  0.8939905E-01
3480000.  0.6929719E-04  0.1482129E-02  0.1350993E-05  0.1244129E-03  0.3762772E-02  0.8918107E-01
3409422.  0.5099379E-04  0.1791262E-02  0.1277243E-06  0.9507284E-04  0.2886485E-02  0.6976008E-01
3338844.  0.3036781E-04  0.1896764E-02 -0.7317919E-06  0.5935994E-04  0.2202415E-02  0.5433883E-01
3268266.  0.9746767E-05  0.1792910E-02 -0.1178802E-05  0.2130761E-04  0.1670633E-02  0.4214995E-01
3197688. -0.8696674E-05  0.1511314E-02 -0.1210724E-05 -0.1491149E-04  0.1258970E-02  0.3255638E-01
3127109. -0.2328512E-04  0.1107356E-02 -0.8687080E-06 -0.4567034E-04  0.9416738E-03  0.2503357E-01
3056531. -0.3302049E-04  0.6461603E-03 -0.2288294E-06 -0.6835171E-04  0.6982634E-03  0.1915397E-01
2985953. -0.3762278E-04  0.1903420E-03  0.6106175E-06 -0.8157631E-04  0.5125151E-03  0.1457192E-01
2915375. -0.3744887E-04 -0.2088547E-03  0.1543011E-05 -0.8520558E-04  0.3716440E-03  0.1101099E-01
2844797. -0.3333528E-04 -0.5166131E-03  0.2466346E-05 -0.8017170E-04  0.2656005E-03  0.8251834E-02
2774219. -0.2640513E-04 -0.7159662E-03  0.3293598E-05 -0.6819361E-04  0.1864982E-03  0.6121631E-02
2703641. -0.1787643E-04 -0.8063180E-03  0.3959614E-05 -0.5144500E-04  0.1281512E-03  0.4484803E-02
2633062. -0.8898174E-05 -0.8000121E-03  0.4424317E-05 -0.3222557E-04  0.8570545E-04  0.3235125E-02
2562484. -0.4316362E-06 -0.7178996E-03  0.4672459E-05 -0.1268176E-04  0.5535327E-04  0.2289286E-02
2491906.  0.6819550E-05 -0.5848526E-03  0.4710762E-05  0.5397635E-05  0.3410636E-04  0.1581567E-02
2421328.  0.1243069E-04 -0.4257945E-03  0.4563174E-05  0.2070409E-04  0.1962651E-04  0.1059841E-02
2350750.  0.1623923E-04 -0.2627145E-03  0.4265242E-05  0.3245251E-04  0.1009244E-04  0.6824710E-03
2280172.  0.1830052E-04 -0.1127447E-03  0.3858423E-05  0.4035133E-04  0.4096893E-05  0.4160172E-03
2209594.  0.1882874E-04  0.1262371E-04  0.3385004E-05  0.4452723E-04  0.5655800E-06  0.2335738E-03
2139016.  0.1813420E-04  0.1074489E-03  0.2884027E-05  0.4541935E-04 -0.1308124E-05  0.1135486E-03
2068438.  0.1656564E-04  0.1705684E-03  0.2388477E-05  0.4366416E-04 -0.2116780E-05  0.3875577E-04
1997859.  0.1446321E-04  0.2044760E-03  0.1923700E-05  0.3998499E-04 -0.2283646E-05 -0.4290248E-05
1927281.  0.1212536E-04  0.2140158E-03  0.1507009E-05  0.3509916E-04 -0.2100363E-05 -0.2595444E-04
1856703.  0.9789285E-05  0.2051938E-03  0.1148109E-05  0.2964970E-04 -0.1758651E-05 -0.3399243E-04
1786125.  0.7624153E-05  0.1841452E-03  0.8502145E-06  0.2416167E-04 -0.1376640E-05 -0.3400736E-04
1715547.  0.5733936E-05  0.1564049E-03  0.6114750E-06  0.1902309E-04 -0.1020342E-05 -0.2987246E-04
1644969.  0.4166874E-05  0.1264466E-03  0.4264999E-06  0.1448674E-04 -0.7206576E-06 -0.2411401E-04
1574391.  0.2928587E-05  0.9747271E-04  0.2877760E-06  0.1068679E-04 -0.4863699E-06 -0.1825120E-04
1503812.  0.1996448E-05  0.7138326E-04  0.1868343E-06  0.7666969E-05 -0.3136473E-06 -0.1308587E-04
1433234.  0.1333856E-05  0.4881123E-04  0.1150572E-06  0.5418182E-05 -0.1926430E-06 -0.8937887E-05
1362656.  0.9044167E-06  0.2904245E-04  0.6399084E-07  0.3929640E-05 -0.1117919E-06 -0.5820041E-05
1292078.  0.6892907E-06  0.9455099E-05  0.2493939E-07  0.3275938E-05 -0.6056689E-07 -0.3542944E-05
1221500.  0.7173118E-06 -0.1649202E-04 -0.1288596E-07  0.3808409E-05 -0.3160895E-07 -0.1709118E-05
1221500.  0.7173118E-06  0.2071787E-04  0.3145884E-07 -0.3577216E-05 -0.3160895E-07 -0.2019860E-05
1183328.  0.5267547E-06  0.4227163E-04  0.5009124E-07 -0.2518451E-05 -0.2142330E-07 -0.1412370E-05
1145156.  0.2225050E-06  0.5800443E-04  0.6056449E-07 -0.9249152E-06 -0.1434841E-07 -0.9735535E-06
1106984. -0.1505420E-06  0.6490871E-04  0.6098393E-07  0.7654692E-06 -0.9505137E-08 -0.6612679E-06
1068812. -0.5358289E-06  0.6213096E-04  0.5198210E-07  0.2164532E-05 -0.6237773E-08 -0.4427106E-06
1030641. -0.8780428E-06  0.5088464E-04  0.3614735E-07  0.3017884E-05 -0.4064118E-08 -0.2925040E-06
 992469. -0.1134066E-05  0.3389732E-04  0.1708994E-07  0.3239853E-05 -0.2635458E-08 -0.1911915E-06
 954297. -0.1279645E-05  0.1460444E-04 -0.1546215E-08  0.2899511E-05 -0.1705060E-08 -0.1240761E-06
 916125. -0.1311141E-05 -0.3680156E-05 -0.1687901E-07  0.2171878E-05 -0.1102198E-08 -0.8032242E-07
 877953. -0.1242717E-05 -0.1841275E-04 -0.2723318E-07  0.1274023E-05 -0.7117060E-09 -0.5209360E-07
 839781. -0.1100510E-05 -0.2817256E-04 -0.3220967E-07  0.4062931E-06 -0.4579356E-09 -0.3394142E-07
 801609. -0.9156402E-06 -0.3269751E-04 -0.3245221E-07 -0.2883268E-06 -0.2922151E-09 -0.2221312E-07
 763438. -0.7178380E-06 -0.3266431E-04 -0.2924404E-07 -0.7400729E-06 -0.1836972E-09 -0.1453708E-07
 725266. -0.5308411E-06 -0.2932395E-04 -0.2407540E-07 -0.9471357E-06 -0.1128912E-09 -0.9436317E-08
 687094. -0.3701766E-06 -0.2411019E-04 -0.1829270E-07 -0.9553607E-06 -0.6725577E-10 -0.6019643E-08
 648922. -0.2430551E-06 -0.1831917E-04 -0.1288702E-07 -0.8333516E-06 -0.3851024E-10 -0.3727755E-08
 610750. -0.1498633E-06 -0.1291104E-04 -0.8427749E-08 -0.6500497E-06 -0.2101825E-10 -0.2217833E-08
 572578. -0.8643644E-07 -0.8443953E-05 -0.5109577E-08 -0.4598688E-06 -0.1083853E-10 -0.1254490E-08
 534406. -0.4639046E-07 -0.5113705E-05 -0.2861981E-08 -0.2965719E-06 -0.5232060E-11 -0.6674363E-09
 496234. -0.2300883E-07 -0.2855024E-05 -0.1472718E-08 -0.1743322E-06 -0.2340648E-11 -0.3304299E-09
 458062. -0.1045201E-07 -0.1459487E-05 -0.6906567E-09 -0.9302315E-07 -0.9590915E-12 -0.1505237E-09
 419891. -0.4298192E-08 -0.6765828E-06 -0.2919777E-09 -0.4470671E-07 -0.3548608E-12 -0.6221411E-10
 381719. -0.1575691E-08 -0.2806687E-06 -0.1096334E-09 -0.1912048E-07 -0.1164731E-12 -0.2295429E-10
 343547. -0.5045085E-09 -0.1023149E-06 -0.3583785E-10 -0.7152860E-08 -0.3313104E-13 -0.7397362E-11
 305375. -0.1371868E-09 -0.3196076E-07 -0.9920469E-11 -0.2283882E-08 -0.7918510E-14 -0.2023353E-11
 267203. -0.3045342E-10 -0.8253854E-08 -0.2235958E-11 -0.6007940E-09 -0.1522287E-14 -0.4513071E-12
 229031. -0.5207094E-11 -0.1671294E-08 -0.3872471E-12 -0.1235373E-09 -0.2209190E-15 -0.7738263E-13
 190859. -0.6265417E-12 -0.2443083E-09 -0.4709113E-13 -0.1828742E-10 -0.2194210E-16 -0.9320717E-14
 152688. -0.4559296E-13 -0.2244276E-10 -0.3455990E-14 -0.1696864E-11 -0.1264827E-17 -0.6773926E-15
 114516. -0.1509688E-14 -0.9982620E-12 -0.1151752E-15 -0.7605152E-13 -0.3109020E-19 -0.2221765E-16
  76344.  0.0000000E+00  0.0000000E+00  0.0000000E+00  0.0000000E+00  0.0000000E+00  0.0000000E+00
  38172.  0.0000000E+00  0.0000000E+00  0.0000000E+00  0.0000000E+00  0.0000000E+00  0.0000000E+00
      0.  0.0000000E+00  0.0000000E+00  0.0000000E+00  0.0000000E+00  0.0000000E+00  0.0000000E+00
