       0       33 S       32        245.22540          4.87278          3.56561        173.55299      185    7
6371000.  0.2138522E+00 -0.2112165E+01 -0.4405276E-02 -0.2182575E+00 -0.5558123E-02 -0.2142991E+00
6370000.  0.2141805E+00 -0.2070225E+01 -0.4371013E-02 -0.2183158E+00 -0.5524633E-02 -0.2124249E+00
6369000.  0.2145021E+00 -0.2028245E+01 -0.4336742E-02 -0.2183642E+00 -0.5491438E-02 -0.2105542E+00
6368000.  0.2148172E+00 -0.1986227E+01 -0.4302464E-02 -0.2184025E+00 -0.5458536E-02 -0.2086869E+00
6368000.  0.2148172E+00 -0.1986227E+01 -0.4302464E-02 -0.2184025E+00 -0.5458536E-02 -0.2086869E+00
6367000.  0.2151256E+00 -0.1944173E+01 -0.4268181E-02 -0.2184309E+00 -0.5425926E-02 -0.2068231E+00
6366000.  0.2154275E+00 -0.1902084E+01 -0.4233894E-02 -0.2184493E+00 -0.5393609E-02 -0.2049627E+00
6365000.  0.2157227E+00 -0.1859962E+01 -0.4199605E-02 -0.2184576E+00 -0.5361584E-02 -0.2031055E+00
6364000.  0.2160114E+00 -0.1817808E+01 -0.4165316E-02 -0.2184560E+00 -0.5329850E-02 -0.2012516E+00
6363000.  0.2162934E+00 -0.1775625E+01 -0.4131028E-02 -0.2184443E+00 -0.5298406E-02 -0.1994010E+00
6362000.  0.2165688E+00 -0.1733414E+01 -0.4096742E-02 -0.2184226E+00 -0.5267253E-02 -0.1975535E+00
6361000.  0.2168376E+00 -0.1691177E+01 -0.4062461E-02 -0.2183909E+00 -0.5236390E-02 -0.1957091E+00
6360000.  0.2170997E+00 -0.1648916E+01 -0.4028185E-02 -0.2183491E+00 -0.5205815E-02 -0.1938678E+00
6359000.  0.2173552E+00 -0.1606631E+01 -0.3993916E-02 -0.2182973E+00 -0.5175530E-02 -0.1920296E+00
6358000.  0.2176040E+00 -0.1564326E+01 -0.3959657E-02 -0.2182355E+00 -0.5145533E-02 -0.1901943E+00
6357000.  0.2178463E+00 -0.1522001E+01 -0.3925408E-02 -0.2181636E+00 -0.5115823E-02 -0.1883619E+00
6356000.  0.2180818E+00 -0.1479658E+01 -0.3891171E-02 -0.2180816E+00 -0.5086401E-02 -0.1865324E+00
6356000.  0.2180818E+00 -0.1387384E+01 -0.3891171E-02 -0.2198318E+00 -0.5086401E-02 -0.2339845E+00
6355000.  0.2182970E+00 -0.1354537E+01 -0.3856711E-02 -0.2192535E+00 -0.5049828E-02 -0.2320306E+00
6354000.  0.2185071E+00 -0.1321742E+01 -0.3822343E-02 -0.2186729E+00 -0.5013561E-02 -0.2300839E+00
6353000.  0.2187119E+00 -0.1289000E+01 -0.3788065E-02 -0.2180898E+00 -0.4977600E-02 -0.2281442E+00
6352000.  0.2189117E+00 -0.1256310E+01 -0.3753880E-02 -0.2175044E+00 -0.4941942E-02 -0.2262115E+00
6351000.  0.2191063E+00 -0.1223674E+01 -0.3719786E-02 -0.2169166E+00 -0.4906586E-02 -0.2242857E+00
6350000.  0.2192958E+00 -0.1191092E+01 -0.3685785E-02 -0.2163265E+00 -0.4871533E-02 -0.2223669E+00
6349000.  0.2194802E+00 -0.1158563E+01 -0.3651876E-02 -0.2157340E+00 -0.4836780E-02 -0.2204548E+00
6348000.  0.2196595E+00 -0.1126090E+01 -0.3618061E-02 -0.2151392E+00 -0.4802327E-02 -0.2185496E+00
6347000.  0.2198337E+00 -0.1093673E+01 -0.3584339E-02 -0.2145420E+00 -0.4768172E-02 -0.2166511E+00
6346600.  0.2199020E+00 -0.1080721E+01 -0.3570877E-02 -0.2143024E+00 -0.4754594E-02 -0.2158935E+00
6346600.  0.2199020E+00 -0.1504212E+01 -0.3570877E-02 -0.2175606E+00 -0.4754594E-02 -0.2925701E+00
6318800.  0.2247740E+00 -0.7399104E+00 -0.2676626E-02 -0.1926159E+00 -0.3587957E-02 -0.2434060E+00
6291000.  0.2264549E+00 -0.4140663E-01 -0.1887588E-02 -0.1692690E+00 -0.2620372E-02 -0.2011272E+00
6291000.  0.2264549E+00 -0.6330758E-01 -0.1887588E-02 -0.1668094E+00 -0.2620372E-02 -0.2011272E+00
6263000.  0.2252815E+00  0.5859707E+00 -0.1204366E-02 -0.1442214E+00 -0.1818927E-02 -0.1644175E+00
6235000.  0.2214048E+00  0.1166533E+01 -0.6191186E-03 -0.1221726E+00 -0.1168620E-02 -0.1321821E+00
6207000.  0.2151321E+00  0.1675908E+01 -0.1301242E-03 -0.1003741E+00 -0.6519168E-03 -0.1034665E+00
6179000.  0.2067829E+00  0.2110866E+01  0.2631400E-03 -0.7856790E-01 -0.2552987E-03 -0.7739408E-01
6151000.  0.1966927E+00  0.2467422E+01  0.5601224E-03 -0.5652206E-01  0.3103600E-04 -0.5314634E-01
6151000.  0.1966927E+00  0.2006528E+01  0.5601224E-03 -0.7461940E-01  0.3103600E-04 -0.6402846E-01
6128500.  0.1892421E+00  0.2206413E+01  0.8005188E-03 -0.6162978E-01  0.2351352E-03 -0.5180665E-01
6106000.  0.1811538E+00  0.2367916E+01  0.9961763E-03 -0.4927339E-01  0.3985909E-03 -0.4097053E-01
6083500.  0.1725606E+00  0.2492559E+01  0.1149223E-02 -0.3748769E-01  0.5258706E-03 -0.3128166E-01
6061000.  0.1635904E+00  0.2581710E+01  0.1261555E-02 -0.2620430E-01  0.6206325E-03 -0.2251927E-01
6038500.  0.1543662E+00  0.2636566E+01  0.1334813E-02 -0.1534636E-01  0.6857684E-03 -0.1446880E-01
6016000.  0.1450073E+00  0.2658093E+01  0.1370353E-02 -0.4828919E-02  0.7234226E-03 -0.6922084E-02
5993500.  0.1356302E+00  0.2646987E+01  0.1369215E-02  0.5440298E-02  0.7350168E-03  0.3233437E-03
5971000.  0.1263493E+00  0.2603664E+01  0.1332099E-02  0.1556472E-01  0.7212488E-03  0.7475777E-02
5971000.  0.1263493E+00  0.2397743E+01  0.1332099E-02 -0.8453769E-03  0.7212488E-03 -0.9064414E-02
5937667.  0.1140522E+00  0.2298275E+01  0.1320348E-02  0.5105667E-02  0.7532161E-03 -0.3382968E-02
5904333.  0.1023411E+00  0.2174879E+01  0.1280921E-02  0.9765824E-02  0.7587941E-03  0.1066488E-02
5871000.  0.9132306E-01  0.2034554E+01  0.1220071E-02  0.1332766E-01  0.7437758E-03  0.4528822E-02
5837667.  0.8107067E-01  0.1883064E+01  0.1143039E-02  0.1598310E-01  0.7127401E-03  0.7224490E-02
5804333.  0.7162954E-01  0.1725001E+01  0.1054074E-02  0.1791865E-01  0.6691593E-03  0.9356095E-02
5771000.  0.6302508E-01  0.1563841E+01  0.9564830E-03  0.1931040E-01  0.6154958E-03  0.1110931E-01
5771000.  0.6302508E-01  0.1563910E+01  0.9564830E-03  0.1930753E-01  0.6154958E-03  0.1110931E-01
5701000.  0.4741694E-01  0.1263944E+01  0.6950710E-03  0.2845337E-01  0.4543388E-03  0.1856706E-01
5701000.  0.4741694E-01  0.1079554E+01  0.6950710E-03  0.1145221E-01  0.4543388E-03  0.5201929E-02
5667333.  0.4199837E-01  0.9720124E+00  0.6355954E-03  0.1099294E-01  0.4240325E-03  0.6181272E-02
5633667.  0.3713214E-01  0.8708575E+00  0.5795009E-03  0.1018420E-01  0.3898488E-03  0.6683114E-02
5600000.  0.3278005E-01  0.7776119E+00  0.5284774E-03  0.9080422E-02  0.3541226E-03  0.6773404E-02
5600000.  0.3278005E-01  0.7776304E+00  0.5284774E-03  0.9082623E-02  0.3541226E-03  0.6773404E-02
5563518.  0.2856564E-01  0.6952611E+00  0.4771258E-03  0.8822864E-02  0.3158473E-03  0.6564051E-02
5527037.  0.2480701E-01  0.6185375E+00  0.4277239E-03  0.8411597E-02  0.2792348E-03  0.6204329E-02
5490556.  0.2147085E-01  0.5477259E+00  0.3809866E-03  0.7899684E-02  0.2449679E-03  0.5753255E-02
5454074.  0.1852294E-01  0.4828957E+00  0.3373701E-03  0.7326907E-02  0.2134368E-03  0.5254615E-02
5417593.  0.1592936E-01  0.4239705E+00  0.2971341E-03  0.6723826E-02  0.1848211E-03  0.4739622E-02
5381111.  0.1365665E-01  0.3707596E+00  0.2603796E-03  0.6113883E-02  0.1591457E-03  0.4230416E-02
5344630.  0.1167294E-01  0.3229974E+00  0.2270959E-03  0.5514343E-02  0.1363329E-03  0.3742014E-02
5308148.  0.9947841E-02  0.2803607E+00  0.1971837E-03  0.4937749E-02  0.1162327E-03  0.3284015E-02
5271667.  0.8453089E-02  0.2424947E+00  0.1704873E-03  0.4392509E-02  0.9865452E-04  0.2861960E-02
5235185.  0.7162356E-02  0.2090252E+00  0.1468090E-03  0.3884050E-02  0.8338286E-04  0.2478487E-02
5198704.  0.6051610E-02  0.1795775E+00  0.1259297E-03  0.3415453E-02  0.7019536E-04  0.2134110E-02
5162222.  0.5098837E-02  0.1537781E+00  0.1076158E-03  0.2987895E-02  0.5886934E-04  0.1827952E-02
5125741.  0.4284230E-02  0.1312687E+00  0.9163325E-04  0.2601210E-02  0.4919180E-04  0.1558061E-02
5089259.  0.3589899E-02  0.1117057E+00  0.7775018E-04  0.2254195E-02  0.4096140E-04  0.1321970E-02
5052778.  0.2999939E-02  0.9476878E-01  0.6574525E-04  0.1944989E-02  0.3399306E-04  0.1116837E-02
5016296.  0.2500149E-02  0.8015799E-01  0.5540795E-04  0.1671209E-02  0.2811762E-04  0.9396927E-03
4979815.  0.2078035E-02  0.6759920E-01  0.4654338E-04  0.1430236E-02  0.2318358E-04  0.7875883E-03
4943333.  0.1722554E-02  0.5684077E-01  0.3897117E-04  0.1219277E-02  0.1905566E-04  0.6576307E-03
4906852.  0.1424077E-02  0.4765627E-01  0.3252781E-04  0.1035561E-02  0.1561497E-04  0.5471618E-03
4870370.  0.1174173E-02  0.3984079E-01  0.2706486E-04  0.8763372E-03  0.1275702E-04  0.4536666E-03
4833889.  0.9655468E-03  0.3321198E-01  0.2245001E-04  0.7389620E-03  0.1039138E-04  0.3748736E-03
4797407.  0.7918678E-03  0.2760741E-01  0.1856506E-04  0.6209641E-03  0.8439672E-05  0.3087528E-03
4760926.  0.6476989E-03  0.2288388E-01  0.1530594E-04  0.5200412E-03  0.6834756E-05  0.2534773E-03
4724444.  0.5283572E-03  0.1891495E-01  0.1258088E-04  0.4340613E-03  0.5519149E-05  0.2074410E-03
4687963.  0.4298507E-03  0.1559049E-01  0.1031007E-04  0.3611059E-03  0.4444123E-05  0.1692413E-03
4651482.  0.3487679E-03  0.1281422E-01  0.8423911E-05  0.2994353E-03  0.3568360E-05  0.1376533E-03
4615000.  0.2822130E-03  0.1050267E-01  0.6862278E-05  0.2474971E-03  0.2857077E-05  0.1116223E-03
4578518.  0.2277380E-03  0.8583881E-02  0.5573516E-05  0.2039146E-03  0.2281139E-05  0.9024215E-04
4542037.  0.1832771E-03  0.6995900E-02  0.4513354E-05  0.1674747E-03  0.1816194E-05  0.7274174E-04
4505556.  0.1470908E-03  0.5685571E-02  0.3643974E-05  0.1371133E-03  0.1441948E-05  0.5846215E-04
4469074.  0.1177217E-03  0.4607524E-02  0.2933267E-05  0.1119028E-03  0.1141586E-05  0.4684784E-04
4432593.  0.9395464E-04  0.3723264E-02  0.2354127E-05  0.9104220E-04  0.9012402E-06  0.3743103E-04
4396111.  0.7477491E-04  0.3000068E-02  0.1883650E-05  0.7383824E-04  0.7094738E-06  0.2981898E-04
4359630.  0.5934244E-04  0.2410387E-02  0.1502662E-05  0.5969861E-04  0.5569220E-06  0.2368634E-04
4323148.  0.4696037E-04  0.1930971E-02  0.1195090E-05  0.4811495E-04  0.4359124E-06  0.1875955E-04
4286667.  0.3705523E-04  0.1542392E-02  0.9475773E-06  0.3865802E-04  0.3402091E-06  0.1481459E-04
4250185.  0.2915441E-04  0.1228358E-02  0.7490090E-06  0.3096207E-04  0.2647353E-06  0.1166501E-04
4213704.  0.2287140E-04  0.9753446E-03  0.5902158E-06  0.2472048E-04  0.2053917E-06  0.9158442E-05
4177222.  0.1788967E-04  0.7720938E-03  0.4636229E-06  0.1967467E-04  0.1588629E-06  0.7169812E-05
4140741.  0.1395200E-04  0.6093202E-03  0.3630250E-06  0.1560949E-04  0.1224879E-06  0.5597119E-05
4104259.  0.1084907E-04  0.4793467E-03  0.2833316E-06  0.1234516E-04  0.9412818E-07  0.4357528E-05
4067778.  0.8411861E-05  0.3758783E-03  0.2204011E-06  0.9732775E-05  0.7207737E-07  0.3383788E-05
4031296.  0.6503753E-05  0.2937485E-03  0.1708608E-06  0.7649195E-05  0.5497259E-07  0.2621750E-05
3994815.  0.5015126E-05  0.2287468E-03  0.1319849E-06  0.5993163E-05  0.4173178E-07  0.2027859E-05
3958333.  0.3857992E-05  0.1774394E-03  0.1015690E-06  0.4681480E-05  0.3149508E-07  0.1567212E-05
3921852.  0.2962241E-05  0.1370455E-03  0.7784414E-07  0.3646202E-05  0.2358239E-07  0.1212121E-05
3885370.  0.2272011E-05  0.1053119E-03  0.5939062E-07  0.2831826E-05  0.1745438E-07  0.9405628E-06
3848889.  0.1743129E-05  0.8042635E-04  0.4507791E-07  0.2193310E-05  0.1268450E-07  0.7352710E-06
3812407.  0.1340681E-05  0.6093051E-04  0.3400720E-07  0.1693836E-05  0.8933311E-08  0.5827466E-06
3775926.  0.1037281E-05  0.4566255E-04  0.2547181E-07  0.1303345E-05  0.5929961E-08  0.4725923E-06
3739444.  0.8114437E-06  0.3370160E-04  0.1892069E-07  0.9969107E-06  0.3455455E-08  0.3968610E-06
3702963.  0.6463840E-06  0.2433263E-04  0.1393497E-07  0.7533503E-06  0.1330828E-08  0.3495452E-06
3666482.  0.5288719E-06  0.1701883E-04  0.1020939E-07  0.5537163E-06 -0.5930803E-09  0.3260868E-06
3630000.  0.4482720E-06  0.1139187E-04  0.7544709E-08  0.3796789E-06 -0.2442179E-08  0.3228373E-06
3630000.  0.4482720E-06  0.1139180E-04  0.7544709E-08  0.3796662E-06 -0.2442179E-08  0.3228373E-06
3592500.  0.3943990E-06  0.7160701E-05  0.5800143E-08  0.2121844E-06 -0.4377046E-08  0.3373654E-06
3555000.  0.3609777E-06  0.4467743E-05  0.5084225E-08  0.2536447E-07 -0.6441808E-08  0.3661678E-06
3517500.  0.3381853E-06  0.3634100E-05  0.5605588E-08 -0.2149907E-06 -0.8703691E-08  0.4030233E-06
3480000.  0.3130880E-06  0.5427035E-05  0.7816571E-08 -0.5588748E-06 -0.1118145E-07  0.4371608E-06
3480000.  0.3130880E-06  0.1737300E-04  0.9943557E-08  0.5548291E-06 -0.1118145E-07 -0.5476853E-06
3409422.  0.1680355E-06  0.9555709E-05  0.5319253E-08  0.3040037E-06 -0.6403915E-08 -0.3304108E-06
3338844.  0.8880032E-07  0.5175630E-05  0.2802528E-08  0.1640778E-06 -0.3567713E-08 -0.1926119E-06
3268266.  0.4618595E-07  0.2759331E-05  0.1453552E-08  0.8719395E-07 -0.1937271E-08 -0.1089492E-06
3197688.  0.2363016E-07  0.1447399E-05  0.7417577E-09  0.4560131E-07 -0.1026572E-08 -0.5995396E-07
3127109.  0.1188604E-07  0.7466053E-06  0.3722102E-09  0.2345772E-07 -0.5312572E-09 -0.3215013E-07
3056531.  0.5874371E-08  0.3785062E-06  0.1835446E-09  0.1186214E-07 -0.2686008E-09 -0.1681766E-07
2985953.  0.2850628E-08  0.1884757E-06  0.8888255E-10  0.5892806E-08 -0.1326878E-09 -0.8586265E-08
2915375.  0.1357231E-08  0.9211618E-07  0.4223620E-10  0.2873777E-08 -0.6403449E-10 -0.4279467E-08
2844797.  0.6335082E-09  0.4415507E-07  0.1967834E-10  0.1374739E-08 -0.3017911E-10 -0.2082093E-08
2774219.  0.2896444E-09  0.2074020E-07  0.8981075E-11  0.6445670E-09 -0.1388231E-10 -0.9886540E-09
2703641.  0.1296111E-09  0.9535936E-08  0.4010679E-11  0.2959807E-09 -0.6226315E-11 -0.4581321E-09
2633062.  0.5675573E-10  0.4283236E-08  0.1749108E-11  0.1330982E-09 -0.2714687E-11 -0.2075126E-09
2562484.  0.0000000E+00  0.0000000E+00  0.0000000E+00  0.0000000E+00  0.0000000E+00  0.0000000E+00
2491906.  0.0000000E+00  0.0000000E+00  0.0000000E+00  0.0000000E+00  0.0000000E+00  0.0000000E+00
2421328.  0.0000000E+00  0.0000000E+00  0.0000000E+00  0.0000000E+00  0.0000000E+00  0.0000000E+00
2350750.  0.0000000E+00  0.0000000E+00  0.0000000E+00  0.0000000E+00  0.0000000E+00  0.0000000E+00
2280172.  0.0000000E+00  0.0000000E+00  0.0000000E+00  0.0000000E+00  0.0000000E+00  0.0000000E+00
2209594.  0.0000000E+00  0.0000000E+00  0.0000000E+00  0.0000000E+00  0.0000000E+00  0.0000000E+00
2139016.  0.0000000E+00  0.0000000E+00  0.0000000E+00  0.0000000E+00  0.0000000E+00  0.0000000E+00
2068438.  0.0000000E+00  0.0000000E+00  0.0000000E+00  0.0000000E+00  0.0000000E+00  0.0000000E+00
1997859.  0.0000000E+00  0.0000000E+00  0.0000000E+00  0.0000000E+00  0.0000000E+00  0.0000000E+00
1927281.  0.0000000E+00  0.0000000E+00  0.0000000E+00  0.0000000E+00  0.0000000E+00  0.0000000E+00
1856703.  0.0000000E+00  0.0000000E+00  0.0000000E+00  0.0000000E+00  0.0000000E+00  0.0000000E+00
1786125.  0.0000000E+00  0.0000000E+00  0.0000000E+00  0.0000000E+00  0.0000000E+00  0.0000000E+00
1715547.  0.0000000E+00  0.0000000E+00  0.0000000E+00  0.0000000E+00  0.0000000E+00  0.0000000E+00
1644969.  0.0000000E+00  0.0000000E+00  0.0000000E+00  0.0000000E+00  0.0000000E+00  0.0000000E+00
1574391.  0.0000000E+00  0.0000000E+00  0.0000000E+00  0.0000000E+00  0.0000000E+00  0.0000000E+00
1503812.  0.0000000E+00  0.0000000E+00  0.0000000E+00  0.0000000E+00  0.0000000E+00  0.0000000E+00
1433234.  0.0000000E+00  0.0000000E+00  0.0000000E+00  0.0000000E+00  0.0000000E+00  0.0000000E+00
1362656.  0.0000000E+00  0.0000000E+00  0.0000000E+00  0.0000000E+00  0.0000000E+00  0.0000000E+00
1292078.  0.0000000E+00  0.0000000E+00  0.0000000E+00  0.0000000E+00  0.0000000E+00  0.0000000E+00
1221500.  0.0000000E+00  0.0000000E+00  0.0000000E+00  0.0000000E+00  0.0000000E+00  0.0000000E+00
1221500.  0.0000000E+00  0.0000000E+00  0.0000000E+00  0.0000000E+00  0.0000000E+00  0.0000000E+00
1183328.  0.0000000E+00  0.0000000E+00  0.0000000E+00  0.0000000E+00  0.0000000E+00  0.0000000E+00
1145156.  0.0000000E+00  0.0000000E+00  0.0000000E+00  0.0000000E+00  0.0000000E+00  0.0000000E+00
1106984.  0.0000000E+00  0.0000000E+00  0.0000000E+00  0.0000000E+00  0.0000000E+00  0.0000000E+00
1068812.  0.0000000E+00  0.0000000E+00  0.0000000E+00  0.0000000E+00  0.0000000E+00  0.0000000E+00
1030641.  0.0000000E+00  0.0000000E+00  0.0000000E+00  0.0000000E+00  0.0000000E+00  0.0000000E+00
 992469.  0.0000000E+00  0.0000000E+00  0.0000000E+00  0.0000000E+00  0.0000000E+00  0.0000000E+00
 954297.  0.0000000E+00  0.0000000E+00  0.0000000E+00  0.0000000E+00  0.0000000E+00  0.0000000E+00
 916125.  0.0000000E+00  0.0000000E+00  0.0000000E+00  0.0000000E+00  0.0000000E+00  0.0000000E+00
 877953.  0.0000000E+00  0.0000000E+00  0.0000000E+00  0.0000000E+00  0.0000000E+00  0.0000000E+00
 839781.  0.0000000E+00  0.0000000E+00  0.0000000E+00  0.0000000E+00  0.0000000E+00  0.0000000E+00
 801609.  0.0000000E+00  0.0000000E+00  0.0000000E+00  0.0000000E+00  0.0000000E+00  0.0000000E+00
 763438.  0.0000000E+00  0.0000000E+00  0.0000000E+00  0.0000000E+00  0.0000000E+00  0.0000000E+00
 725266.  0.0000000E+00  0.0000000E+00  0.0000000E+00  0.0000000E+00  0.0000000E+00  0.0000000E+00
 687094.  0.0000000E+00  0.0000000E+00  0.0000000E+00  0.0000000E+00  0.0000000E+00  0.0000000E+00
 648922.  0.0000000E+00  0.0000000E+00  0.0000000E+00  0.0000000E+00  0.0000000E+00  0.0000000E+00
 610750.  0.0000000E+00  0.0000000E+00  0.0000000E+00  0.0000000E+00  0.0000000E+00  0.0000000E+00
 572578.  0.0000000E+00  0.0000000E+00  0.0000000E+00  0.0000000E+00  0.0000000E+00  0.0000000E+00
 534406.  0.0000000E+00  0.0000000E+00  0.0000000E+00  0.0000000E+00  0.0000000E+00  0.0000000E+00
 496234.  0.0000000E+00  0.0000000E+00  0.0000000E+00  0.0000000E+00  0.0000000E+00  0.0000000E+00
 458062.  0.0000000E+00  0.0000000E+00  0.0000000E+00  0.0000000E+00  0.0000000E+00  0.0000000E+00
 419891.  0.0000000E+00  0.0000000E+00  0.0000000E+00  0.0000000E+00  0.0000000E+00  0.0000000E+00
 381719.  0.0000000E+00  0.0000000E+00  0.0000000E+00  0.0000000E+00  0.0000000E+00  0.0000000E+00
 343547.  0.0000000E+00  0.0000000E+00  0.0000000E+00  0.0000000E+00  0.0000000E+00  0.0000000E+00
 305375.  0.0000000E+00  0.0000000E+00  0.0000000E+00  0.0000000E+00  0.0000000E+00  0.0000000E+00
 267203.  0.0000000E+00  0.0000000E+00  0.0000000E+00  0.0000000E+00  0.0000000E+00  0.0000000E+00
 229031.  0.0000000E+00  0.0000000E+00  0.0000000E+00  0.0000000E+00  0.0000000E+00  0.0000000E+00
 190859.  0.0000000E+00  0.0000000E+00  0.0000000E+00  0.0000000E+00  0.0000000E+00  0.0000000E+00
 152688.  0.0000000E+00  0.0000000E+00  0.0000000E+00  0.0000000E+00  0.0000000E+00  0.0000000E+00
 114516.  0.0000000E+00  0.0000000E+00  0.0000000E+00  0.0000000E+00  0.0000000E+00  0.0000000E+00
  76344.  0.0000000E+00  0.0000000E+00  0.0000000E+00  0.0000000E+00  0.0000000E+00  0.0000000E+00
  38172.  0.0000000E+00  0.0000000E+00  0.0000000E+00  0.0000000E+00  0.0000000E+00  0.0000000E+00
      0.  0.0000000E+00  0.0000000E+00  0.0000000E+00  0.0000000E+00  0.0000000E+00  0.0000000E+00
