      23        3 S      728        116.32000         98.32523         10.42546        433.80099      185    7
6371000.  0.3980966E-01 -0.7915084E-01 -0.1014805E-01 -0.4995771E-01  0.3459777E-05 -0.7508554E-01
6370000.  0.3982035E-01 -0.5702515E-01 -0.1013876E-01 -0.6844266E-01  0.1524414E-04 -0.7506969E-01
6369000.  0.3982756E-01 -0.3486330E-01 -0.1012656E-01 -0.8690588E-01  0.2702550E-04 -0.7504731E-01
6368000.  0.3983129E-01 -0.1266725E-01 -0.1011148E-01 -0.1053421E+00  0.3880283E-04 -0.7501843E-01
6368000.  0.3983129E-01 -0.1266725E-01 -0.1011148E-01 -0.1053421E+00  0.3880283E-04 -0.7501843E-01
6367000.  0.3983153E-01  0.9561045E-02 -0.1009350E-01 -0.1237460E+00  0.5057513E-04 -0.7498304E-01
6366000.  0.3982829E-01  0.3181963E-01 -0.1007263E-01 -0.1421124E+00  0.6234135E-04 -0.7494113E-01
6365000.  0.3982154E-01  0.5410654E-01 -0.1004889E-01 -0.1604359E+00  0.7410049E-04 -0.7489272E-01
6364000.  0.3981130E-01  0.7641978E-01 -0.1002227E-01 -0.1787113E+00  0.8585152E-04 -0.7483780E-01
6363000.  0.3979755E-01  0.9875736E-01 -0.9992788E-02 -0.1969334E+00  0.9759342E-04 -0.7477638E-01
6362000.  0.3978030E-01  0.1211173E+00 -0.9960450E-02 -0.2150970E+00  0.1093252E-03 -0.7470846E-01
6361000.  0.3975953E-01  0.1434975E+00 -0.9925268E-02 -0.2331968E+00  0.1210457E-03 -0.7463405E-01
6360000.  0.3973525E-01  0.1658961E+00 -0.9887249E-02 -0.2512276E+00  0.1327541E-03 -0.7455314E-01
6359000.  0.3970745E-01  0.1883110E+00 -0.9846405E-02 -0.2691843E+00  0.1444493E-03 -0.7446574E-01
6358000.  0.3967613E-01  0.2107400E+00 -0.9802749E-02 -0.2870617E+00  0.1561303E-03 -0.7437187E-01
6357000.  0.3964129E-01  0.2331813E+00 -0.9756294E-02 -0.3048546E+00  0.1677960E-03 -0.7427152E-01
6356000.  0.3960293E-01  0.2556327E+00 -0.9707054E-02 -0.3225580E+00  0.1794454E-03 -0.7416470E-01
6356000.  0.3960293E-01  0.1495818E+00 -0.9707054E-02 -0.2142875E+00  0.1794454E-03 -0.8278184E-01
6355000.  0.3957818E-01  0.1658599E+00 -0.9672489E-02 -0.2261405E+00  0.1924319E-03 -0.8269148E-01
6354000.  0.3955086E-01  0.1821476E+00 -0.9636066E-02 -0.2379487E+00  0.2054039E-03 -0.8259588E-01
6353000.  0.3952100E-01  0.1984439E+00 -0.9597793E-02 -0.2497097E+00  0.2183604E-03 -0.8249506E-01
6352000.  0.3948857E-01  0.2147478E+00 -0.9557679E-02 -0.2614212E+00  0.2313006E-03 -0.8238901E-01
6351000.  0.3945358E-01  0.2310581E+00 -0.9515730E-02 -0.2730809E+00  0.2442239E-03 -0.8227776E-01
6350000.  0.3941603E-01  0.2473737E+00 -0.9471955E-02 -0.2846866E+00  0.2571292E-03 -0.8216129E-01
6349000.  0.3937592E-01  0.2636936E+00 -0.9426363E-02 -0.2962361E+00  0.2700159E-03 -0.8203963E-01
6348000.  0.3933325E-01  0.2800167E+00 -0.9378963E-02 -0.3077270E+00  0.2828830E-03 -0.8191276E-01
6347000.  0.3928802E-01  0.2963418E+00 -0.9329764E-02 -0.3191573E+00  0.2957298E-03 -0.8178071E-01
6346600.  0.3926921E-01  0.3028722E+00 -0.9309582E-02 -0.3237119E+00  0.3008627E-03 -0.8172644E-01
6346600.  0.3926921E-01  0.1508053E+00 -0.9309582E-02 -0.2343933E+00  0.3008627E-03 -0.9541904E-01
6318800.  0.3789092E-01  0.4818927E+00 -0.7772348E-02 -0.4629335E+00  0.7084839E-03 -0.9085719E-01
6291000.  0.3506518E-01  0.8119216E+00 -0.5351011E-02 -0.6356847E+00  0.1089017E-02 -0.8302647E-01
6291000.  0.3506518E-01  0.8220099E+00 -0.5351011E-02 -0.6559619E+00  0.1089017E-02 -0.8302647E-01
6263000.  0.3073720E-01  0.1143511E+01 -0.2216638E-02 -0.7554601E+00  0.1430580E-02 -0.7190618E-01
6235000.  0.2506116E-01  0.1432788E+01  0.1151775E-02 -0.7614313E+00  0.1716911E-02 -0.5795728E-01
6207000.  0.1821366E-01  0.1674058E+01  0.4338061E-02 -0.6734834E+00  0.1936520E-02 -0.4162703E-01
6179000.  0.1043807E-01  0.1852893E+01  0.6949573E-02 -0.5025908E+00  0.2080123E-02 -0.2346937E-01
6151000.  0.2036320E-02  0.1957254E+01  0.8664569E-02 -0.2697108E+00  0.2141077E-02 -0.4129430E-02
6151000.  0.2036320E-02  0.1586409E+01  0.8664569E-02 -0.2362515E+00  0.2141077E-02 -0.4242090E-02
6128500. -0.3560542E-02  0.1576947E+01  0.9164887E-02 -0.4575587E-01  0.2133264E-02  0.8659146E-02
6106000. -0.9058310E-02  0.1530500E+01  0.8986425E-02  0.1458784E+00  0.2080119E-02  0.2138793E-01
6083500. -0.1432924E-01  0.1448875E+01  0.8148910E-02  0.3253195E+00  0.1982691E-02  0.3369594E-01
6061000. -0.1925382E-01  0.1334907E+01  0.6717396E-02  0.4803741E+00  0.1842888E-02  0.4534844E-01
6038500. -0.2372421E-01  0.1192356E+01  0.4796794E-02  0.6007820E+00  0.1663413E-02  0.5612785E-01
6016000. -0.2764724E-01  0.1025722E+01  0.2523883E-02  0.6788480E+00  0.1447703E-02  0.6583755E-01
5993500. -0.3094664E-01  0.8400677E+00  0.5742087E-04  0.7098750E+00  0.1199848E-02  0.7430550E-01
5971000. -0.3356476E-01  0.6408230E+00 -0.2432923E-02  0.6924018E+00  0.9244997E-03  0.8138538E-01
5971000. -0.3356476E-01  0.5809811E+00 -0.2432923E-02  0.6197816E+00  0.9244997E-03  0.8577929E-01
5937667. -0.3582035E-01  0.2827413E+00 -0.5404050E-02  0.5042256E+00  0.4537506E-03  0.9358624E-01
5904333. -0.3655118E-01  0.3124690E-03 -0.7608224E-02  0.3309048E+00 -0.4863252E-04  0.9786132E-01
5871000. -0.3587142E-01 -0.2548452E+00 -0.8813332E-02  0.1269783E+00 -0.5641775E-03  0.9863937E-01
5837667. -0.3394604E-01 -0.4748067E+00 -0.8931026E-02 -0.8044041E-01 -0.1074951E-02  0.9607086E-01
5804333. -0.3097241E-01 -0.6550227E+00 -0.8007474E-02 -0.2674564E+00 -0.1564062E-02  0.9040089E-01
5771000. -0.2716396E-01 -0.7939253E+00 -0.6200608E-02 -0.4155526E+00 -0.2016069E-02  0.8195239E-01
5771000. -0.2716396E-01 -0.7939370E+00 -0.6200608E-02 -0.4155383E+00 -0.2016069E-02  0.8195239E-01
5701000. -0.1706400E-01 -0.1019068E+01 -0.4346168E-03 -0.5933791E+00 -0.2777321E-02  0.5501075E-01
5701000. -0.1706400E-01 -0.8415724E+00 -0.4346168E-03 -0.4653013E+00 -0.2777321E-02  0.5982048E-01
5667333. -0.1248421E-01 -0.8873930E+00  0.2005064E-02 -0.4512454E+00 -0.3056444E-02  0.4557971E-01
5633667. -0.7728842E-02 -0.9084584E+00  0.4267556E-02 -0.3993030E+00 -0.3256878E-02  0.3011279E-01
5600000. -0.2922155E-02 -0.9071815E+00  0.6171363E-02 -0.3168766E+00 -0.3373296E-02  0.1385263E-01
5600000. -0.2922155E-02 -0.9071804E+00  0.6171363E-02 -0.3168924E+00 -0.3373296E-02  0.1385263E-01
5563518.  0.2233943E-02 -0.8899508E+00  0.7689635E-02 -0.2091817E+00 -0.3401013E-02 -0.4215961E-02
5527037.  0.7229722E-02 -0.8517108E+00  0.8529551E-02 -0.8190542E-01 -0.3325040E-02 -0.2227202E-01
5490556.  0.1195314E-01 -0.7952762E+00  0.8613522E-02  0.5274962E-01 -0.3147011E-02 -0.3977266E-01
5454074.  0.1630772E-01 -0.7232540E+00  0.7935453E-02  0.1821786E+00 -0.2871599E-02 -0.5619952E-01
5417593.  0.2021069E-01 -0.6379241E+00  0.6559874E-02  0.2945301E+00 -0.2506366E-02 -0.7107200E-01
5381111.  0.2359167E-01 -0.5411922E+00  0.4614232E-02  0.3798053E+00 -0.2061443E-02 -0.8396219E-01
5344630.  0.2638987E-01 -0.4346459E+00  0.2276061E-02  0.4306934E+00 -0.1549291E-02 -0.9450268E-01
5308148.  0.2855318E-01 -0.3196271E+00 -0.2447093E-03  0.4431829E+00 -0.9842174E-03 -0.1023980E+00
5271667.  0.3003656E-01 -0.1973926E+00 -0.2725021E-02  0.4168070E+00 -0.3820644E-03 -0.1074293E+00
5235185.  0.3080248E-01 -0.6925658E-01 -0.4949536E-02  0.3545994E+00  0.2403698E-03 -0.1094600E+00
5198704.  0.3082140E-01  0.6322350E-01 -0.6729245E-02  0.2627255E+00  0.8656767E-03 -0.1084369E+00
5162222.  0.3007372E-01  0.1981366E+00 -0.7918133E-02  0.1498365E+00  0.1476451E-02 -0.1043902E+00
5125741.  0.2855217E-01  0.3330890E+00 -0.8424785E-02  0.2625545E-01  0.2055630E-02 -0.9743228E-01
5089259.  0.2626445E-01  0.4651964E+00 -0.8219454E-02 -0.9699620E-01  0.2587077E-02 -0.8775102E-01
5052778.  0.2323646E-01  0.5910724E+00 -0.7335208E-02 -0.2091571E+00  0.3055881E-02 -0.7560609E-01
5016296.  0.1951434E-01  0.7069516E+00 -0.5863620E-02 -0.3006806E+00  0.3448851E-02 -0.6131820E-01
4979815.  0.1516699E-01  0.8088111E+00 -0.3945695E-02 -0.3640101E+00  0.3754744E-02 -0.4526262E-01
4943333.  0.1028608E-01  0.8925989E+00 -0.1758284E-02 -0.3942003E+00  0.3964632E-02 -0.2785566E-01
4906852.  0.4986564E-02  0.9544550E+00  0.5016002E-03 -0.3892720E+00  0.4072036E-02 -0.9546269E-02
4870370. -0.5962570E-03  0.9909837E+00  0.2634661E-02 -0.3503155E+00  0.4073125E-02  0.9198883E-02
4833889. -0.6308952E-02  0.9994957E+00  0.4456067E-02 -0.2813298E+00  0.3966765E-02  0.2790399E-01
4797407. -0.1198591E-01  0.9782467E+00  0.5811522E-02 -0.1888207E+00  0.3754530E-02  0.4609978E-01
4760926. -0.1745406E-01  0.9266131E+00  0.6589611E-02 -0.8120401E-01  0.3440659E-02  0.6333120E-01
4724444. -0.2254086E-01  0.8452113E+00  0.6730885E-02  0.3195691E-01  0.3031893E-02  0.7917195E-01
4687963. -0.2708045E-01  0.7359579E+00  0.6232004E-02  0.1407529E+00  0.2537359E-02  0.9323063E-01
4651482. -0.3092198E-01  0.6020253E+00  0.5145305E-02  0.2357863E+00  0.1968259E-02  0.1051629E+00
4615000. -0.3393608E-01  0.4477292E+00  0.3573582E-02  0.3089350E+00  0.1337614E-02  0.1146770E+00
4578518. -0.3602076E-01  0.2783544E+00  0.1660979E-02  0.3540014E+00  0.6599839E-03  0.1215396E+00
4542037. -0.3710654E-01  0.9989858E-01 -0.4195770E-03  0.3672048E+00 -0.4891175E-04  0.1255810E+00
4505556. -0.3715968E-01 -0.8123875E-01 -0.2481258E-02  0.3474578E+00 -0.7726102E-03  0.1266984E+00
4469074. -0.3618342E-01 -0.2585723E+00 -0.4338882E-02  0.2964140E+00 -0.1494254E-02  0.1248562E+00
4432593. -0.3421768E-01 -0.4258467E+00 -0.5824115E-02  0.2183108E+00 -0.2196918E-02  0.1200871E+00
4396111. -0.3133655E-01 -0.5773870E+00 -0.6799576E-02  0.1195841E+00 -0.2864131E-02  0.1124890E+00
4359630. -0.2764462E-01 -0.7083442E+00 -0.7169700E-02  0.8345332E-02 -0.3480088E-02  0.1022230E+00
4323148. -0.2327092E-01 -0.8149464E+00 -0.6888610E-02 -0.1063045E+00 -0.4030147E-02  0.8950832E-01
4286667. -0.1836306E-01 -0.8946328E+00 -0.5963696E-02 -0.2149864E+00 -0.4501015E-02  0.7461781E-01
4250185. -0.1307914E-01 -0.9461493E+00 -0.4454936E-02 -0.3088089E+00 -0.4881148E-02  0.5786982E-01
4213704. -0.7581237E-02 -0.9695327E+00 -0.2470340E-02 -0.3800438E+00 -0.5160901E-02  0.3962324E-01
4177222. -0.2027119E-02 -0.9660324E+00 -0.1571523E-03 -0.4227372E+00 -0.5332805E-02  0.2026626E-01
4140741.  0.3435121E-02 -0.9379575E+00  0.2309223E-02 -0.4331508E+00 -0.5391667E-02  0.2118331E-03
4104259.  0.8673740E-02 -0.8884582E+00  0.4739293E-02 -0.4100398E+00 -0.5334708E-02 -0.2011532E-01
4067778.  0.1357627E-01 -0.8212774E+00  0.6943536E-02 -0.3547301E+00 -0.5161605E-02 -0.4028338E-01
4031296.  0.1805324E-01 -0.7404624E+00  0.8747400E-02 -0.2710005E+00 -0.4874484E-02 -0.5986637E-01
3994815.  0.2203809E-01 -0.6500987E+00  0.1000412E-01 -0.1647889E+00 -0.4477907E-02 -0.7844884E-01
3958333.  0.2548751E-01 -0.5540236E+00  0.1060617E-01 -0.4371655E-01 -0.3978719E-02 -0.9563817E-01
3921852.  0.2837858E-01 -0.4556287E+00  0.1049309E-01  0.8347110E-01 -0.3385987E-02 -0.1110680E+00
3885370.  0.3070635E-01 -0.3576498E+00  0.9656100E-02  0.2075852E+00 -0.2710714E-02 -0.1244097E+00
3848889.  0.3247916E-01 -0.2620801E+00  0.8138811E-02  0.3196526E+00 -0.1965743E-02 -0.1353746E+00
3812407.  0.3371467E-01 -0.1701018E+00  0.6033820E-02  0.4115945E+00 -0.1165352E-02 -0.1437231E+00
3775926.  0.3443493E-01 -0.8213128E-01  0.3476270E-02  0.4767884E+00 -0.3251329E-03 -0.1492662E+00
3739444.  0.3466240E-01  0.2113506E-02  0.6335819E-03  0.5105601E+00  0.5384861E-03 -0.1518705E+00
3702963.  0.3441631E-01  0.8344608E-01 -0.2306091E-02  0.5104865E+00  0.1408386E-02 -0.1514604E+00
3666482.  0.3371009E-01  0.1630388E+00 -0.5147850E-02  0.4765620E+00  0.2267250E-02 -0.1480182E+00
3630000.  0.3254994E-01  0.2421963E+00 -0.7703636E-02  0.4111670E+00  0.3097833E-02 -0.1415861E+00
3630000.  0.3254994E-01  0.2421965E+00 -0.7703636E-02  0.4111617E+00  0.3097833E-02 -0.1415861E+00
3592500.  0.3087613E-01  0.3269465E+00 -0.9861927E-02  0.3178158E+00  0.3904300E-02 -0.1319330E+00
3555000.  0.2869555E-01  0.4145032E+00 -0.1140040E-01  0.2018017E+00  0.4645142E-02 -0.1193161E+00
3517500.  0.2599034E-01  0.5052082E+00 -0.1220921E-01  0.7137829E-01  0.5303473E-02 -0.1039354E+00
3480000.  0.2274281E-01  0.5986303E+00 -0.1223087E-01 -0.6402795E-01  0.5863762E-02 -0.8605023E-01
3480000.  0.2274281E-01  0.1112433E+01 -0.1200452E-02  0.4385594E-01  0.5863762E-02 -0.1575897E+00
3409422.  0.8466083E-02  0.1417943E+01 -0.1554415E-02  0.1874376E-01  0.7071596E-02 -0.5599075E-01
3338844. -0.7579200E-02  0.1429242E+01 -0.1597040E-02 -0.1140252E-01  0.7047474E-02  0.6091996E-01
3268266. -0.2216002E-01  0.1160559E+01 -0.1305138E-02 -0.4064811E-01  0.5753027E-02  0.1694713E+00
3197688. -0.3249360E-01  0.6766510E+00 -0.7209384E-03 -0.6330202E-01  0.3402911E-02  0.2483794E+00
3127109. -0.3671931E-01  0.7602925E-01  0.5641026E-04 -0.7492482E-01  0.4161703E-03  0.2825491E+00
3056531. -0.3416175E-01 -0.5292754E+00  0.8890008E-03 -0.7305793E-01 -0.2666860E-02  0.2654647E+00
2985953. -0.2536773E-01 -0.1033811E+01  0.1624562E-02 -0.5758816E-01 -0.5285457E-02  0.1999169E+00
2915375. -0.1193666E-01 -0.1355362E+01  0.2122584E-02 -0.3071753E-01 -0.6957829E-02  0.9710088E-01
2844797.  0.3804873E-02 -0.1446213E+01  0.2278126E-02  0.3426176E-02 -0.7362987E-02 -0.2560657E-01
2774219.  0.1921796E-01 -0.1297946E+01  0.2039656E-02  0.3945613E-01 -0.6392692E-02 -0.1477283E+00
2703641.  0.3178367E-01 -0.9398913E+00  0.1418496E-02  0.7155786E-01 -0.4167057E-02 -0.2490774E+00
2633062.  0.3948709E-01 -0.4321541E+00  0.4886913E-03  0.9436217E-01 -0.1013328E-02 -0.3129190E+00
2562484.  0.4110072E-01  0.1451805E+00 -0.6223714E-03  0.1037332E+00  0.2586688E-02 -0.3284463E+00
2491906.  0.3633645E-01  0.7048407E+00 -0.1751269E-02  0.9737565E-01  0.6071832E-02 -0.2922678E+00
2421328.  0.2585333E-01  0.1165121E+01 -0.2721074E-02  0.7518313E-01  0.8886456E-02 -0.2087384E+00
2350750.  0.1113227E-01  0.1460977E+01 -0.3366197E-02  0.3929322E-01  0.1056293E-01 -0.8917633E-01
2280172. -0.5756354E-02  0.1552070E+01 -0.3556202E-02 -0.6146352E-02  0.1078995E-01  0.4986901E-01
2209594. -0.2245367E-01  0.1427027E+01 -0.3215579E-02 -0.5546771E-01  0.9457671E-02  0.1890082E+00
2139016. -0.3663791E-01  0.1103623E+01 -0.2336952E-02 -0.1021621E+00  0.6674389E-02  0.3087042E+00
2068438. -0.4633079E-01  0.6252080E+00 -0.9861058E-03 -0.1396651E+00  0.2753402E-02  0.3918958E+00
1997859. -0.5014632E-01  0.5404924E-01  0.7018625E-03 -0.1621514E+00 -0.1827273E-02  0.4262131E+00
1927281. -0.4745383E-01 -0.5372707E+00  0.2534705E-02 -0.1652500E+00 -0.6485824E-02  0.4055135E+00
1856703. -0.3844012E-01 -0.1075366E+01  0.4282546E-02 -0.1466011E+00 -0.1061074E-01  0.3305826E+00
1786125. -0.2406707E-01 -0.1495095E+01  0.5702133E-02 -0.1061887E+00 -0.1363701E-01  0.2089376E+00
1715547. -0.5936503E-02 -0.1747168E+01  0.6563517E-02 -0.4642233E-01 -0.1511579E-01  0.5380129E-01
1644969.  0.1391729E-01 -0.1803457E+01  0.6676144E-02  0.2804818E-01 -0.1476877E-01 -0.1175909E+00
1574391.  0.3327868E-01 -0.1659527E+01  0.5911525E-02  0.1107528E+00 -0.1252108E-01 -0.2861182E+00
1503812.  0.5001375E-01 -0.1334217E+01  0.4220151E-02  0.1940172E+00 -0.8509484E-02 -0.4330631E+00
1433234.  0.6231220E-01 -0.8665089E+00  0.1640889E-02  0.2697010E+00 -0.3065986E-02 -0.5422643E+00
1362656.  0.6888371E-01 -0.3101237E+00 -0.1698379E-02  0.3299933E+00  0.3321255E-02 -0.6019114E+00
1292078.  0.6908326E-01  0.2733442E+00 -0.5588531E-02  0.3681593E+00  0.1006309E-01 -0.6057384E+00
1221500.  0.6295707E-01  0.8219604E+00 -0.9754795E-02  0.3791741E+00  0.1653435E-01 -0.5535265E+00
1221500.  0.6295707E-01  0.6637318E+00 -0.1145062E-01 -0.3880896E+00  0.1653435E-01 -0.5807998E+00
1183328.  0.5751879E-01  0.1150569E+01 -0.9113240E-02 -0.3497687E+00  0.1987274E-01 -0.5317259E+00
1145156.  0.4928562E-01  0.1579400E+01 -0.7735973E-02 -0.7559039E-01  0.2288542E-01 -0.4723324E+00
1106984.  0.3890507E-01  0.1852921E+01 -0.8510964E-02  0.3486742E+00  0.2551541E-01 -0.4042768E+00
1068812.  0.2752640E-01  0.1905792E+01 -0.1193458E-01  0.7828134E+00  0.2771630E-01 -0.3294248E+00
1030641.  0.1653248E-01  0.1728342E+01 -0.1760840E-01  0.1076630E+01  0.2945331E-01 -0.2497879E+00
 992469.  0.7170982E-02  0.1374905E+01 -0.2432708E-01  0.1118362E+01  0.3070409E-01 -0.1674545E+00
 954297.  0.1953709E-03  0.9530235E+00 -0.3042750E-01  0.8716341E+00  0.3145878E-01 -0.8454285E-01
 916125. -0.4378313E-02  0.5953802E+00 -0.3429630E-01  0.3893864E+00  0.3172018E-01 -0.3134896E-02
 877953. -0.7309129E-02  0.4212910E+00 -0.3487709E-01 -0.1999134E+00  0.3150333E-01  0.7477614E-01
 839781. -0.9934324E-02  0.4987524E+00 -0.3202025E-01 -0.7297657E+00  0.3083483E-01  0.1473381E+00
 801609. -0.1377423E-01  0.8179644E+00 -0.2656390E-01 -0.1045533E+01  0.2975179E-01  0.2128907E+00
 763438. -0.2003600E-01  0.1285186E+01 -0.2011621E-01 -0.1051721E+01  0.2830065E-01  0.2700119E+00
 725266. -0.2915250E-01  0.1740395E+01 -0.1459790E-01 -0.7423708E+00  0.2653539E-01  0.3175662E+00
 687094. -0.4049037E-01  0.1995604E+01 -0.1168020E-01 -0.2051984E+00  0.2451601E-01  0.3547314E+00
 648922. -0.5233071E-01  0.1885099E+01 -0.1228040E-01  0.4018857E+00  0.2230635E-01  0.3810314E+00
 610750. -0.6215398E-01  0.1314741E+01 -0.1626725E-01  0.8953539E+00  0.1997206E-01  0.3963440E+00
 572578. -0.6718358E-01  0.2968669E+00 -0.2246515E-01  0.1118782E+01  0.1757844E-01  0.4009008E+00
 534406. -0.6506851E-01 -0.1039509E+01 -0.2896040E-01  0.9884559E+00  0.1518841E-01  0.3952701E+00
 496234. -0.5453992E-01 -0.2467756E+01 -0.3362523E-01  0.5186373E+00  0.1286052E-01  0.3803252E+00
 458062. -0.3587099E-01 -0.3709135E+01 -0.3471189E-01 -0.1808950E+00  0.1064730E-01  0.3572039E+00
 419891. -0.1100848E-01 -0.4494999E+01 -0.3134856E-01 -0.9344206E+00  0.8593819E-02  0.3272628E+00
 381719.  0.1668637E-01 -0.4631221E+01 -0.2379519E-01 -0.1548736E+01  0.6736345E-02  0.2920218E+00
 343547.  0.4304248E-01 -0.4048840E+01 -0.1338773E-01 -0.1866465E+01  0.5101831E-02  0.2531170E+00
 305375.  0.6391972E-01 -0.2828205E+01 -0.2184247E-02 -0.1809595E+01  0.3707159E-02  0.2122465E+00
 267203.  0.7609075E-01 -0.1189120E+01  0.7586952E-02 -0.1400536E+01  0.2558980E-02  0.1711203E+00
 229031.  0.7796345E-01  0.5518780E+00  0.1412220E-01 -0.7550855E+00  0.1653780E-02  0.1314122E+00
 190859.  0.6996903E-01  0.2048369E+01  0.1651390E-01 -0.4927088E-01  0.9782451E-03  0.9471182E-01
 152688.  0.5451401E-01  0.3000047E+01  0.1496737E-01  0.5304533E+00  0.5099274E-03  0.6247506E-01
 114516.  0.3549091E-01  0.3220438E+01  0.1070345E-01  0.8396192E+00  0.2181459E-03  0.3597393E-01
  76344.  0.1745396E-01  0.2680103E+01  0.5578182E-02  0.8156927E+00  0.6528279E-04  0.1625697E-01
  38172.  0.4631361E-02  0.1515448E+01  0.1528103E-02  0.4947554E+00  0.8209312E-05  0.4104835E-02
      0.  0.0000000E+00  0.0000000E+00  0.0000000E+00  0.0000000E+00  0.0000000E+00  0.0000000E+00
