      18        5 S      673        133.12680         54.67129          7.35313        216.07060      185    7
6371000. -0.3390881E-01  0.1428938E+00  0.9857392E-02  0.4376620E-01 -0.1475553E-03  0.6482942E-01
6370000. -0.3393010E-01  0.1284232E+00  0.9849452E-02  0.5740326E-01 -0.1577274E-03  0.6478305E-01
6369000. -0.3394912E-01  0.1138949E+00  0.9839373E-02  0.7102693E-01 -0.1678919E-03  0.6473248E-01
6368000. -0.3396586E-01  0.9930990E-01  0.9827156E-02  0.8463423E-01 -0.1780482E-03  0.6467771E-01
6368000. -0.3396586E-01  0.9930990E-01  0.9827156E-02  0.8463423E-01 -0.1780482E-03  0.6467771E-01
6367000. -0.3398030E-01  0.8466908E-01  0.9812805E-02  0.9822220E-01 -0.1881955E-03  0.6461873E-01
6366000. -0.3399243E-01  0.6997351E-01  0.9796322E-02  0.1117879E+00 -0.1983332E-03  0.6455556E-01
6365000. -0.3400226E-01  0.5522421E-01  0.9777714E-02  0.1253283E+00 -0.2084607E-03  0.6448819E-01
6364000. -0.3400977E-01  0.4042220E-01  0.9756980E-02  0.1388405E+00 -0.2185773E-03  0.6441664E-01
6363000. -0.3401494E-01  0.2556856E-01  0.9734130E-02  0.1523216E+00 -0.2286823E-03  0.6434090E-01
6362000. -0.3401779E-01  0.1066435E-01  0.9709165E-02  0.1657685E+00 -0.2387751E-03  0.6426097E-01
6361000. -0.3401829E-01 -0.4289370E-02  0.9682094E-02  0.1791784E+00 -0.2488551E-03  0.6417686E-01
6360000. -0.3401644E-01 -0.1929149E-01  0.9652919E-02  0.1925483E+00 -0.2589215E-03  0.6408858E-01
6359000. -0.3401223E-01 -0.3434091E-01  0.9621650E-02  0.2058754E+00 -0.2689737E-03  0.6399613E-01
6358000. -0.3400566E-01 -0.4943651E-01  0.9588293E-02  0.2191566E+00 -0.2790111E-03  0.6389951E-01
6357000. -0.3399671E-01 -0.6457716E-01  0.9552855E-02  0.2323891E+00 -0.2890330E-03  0.6379873E-01
6356000. -0.3398538E-01 -0.7976172E-01  0.9515343E-02  0.2455700E+00 -0.2990387E-03  0.6369379E-01
6356000. -0.3398538E-01 -0.2099561E-01  0.9515343E-02  0.1655096E+00 -0.2990387E-03  0.7108862E-01
6355000. -0.3398123E-01 -0.3196384E-01  0.9488674E-02  0.1743193E+00 -0.3101889E-03  0.7098684E-01
6354000. -0.3397535E-01 -0.4296194E-01  0.9460622E-02  0.1831029E+00 -0.3213229E-03  0.7088171E-01
6353000. -0.3396774E-01 -0.5398933E-01  0.9431195E-02  0.1918592E+00 -0.3324401E-03  0.7077324E-01
6352000. -0.3395840E-01 -0.6504539E-01  0.9400395E-02  0.2005868E+00 -0.3435400E-03  0.7066144E-01
6351000. -0.3394732E-01 -0.7612953E-01  0.9368227E-02  0.2092845E+00 -0.3546221E-03  0.7054630E-01
6350000. -0.3393450E-01 -0.8724114E-01  0.9334697E-02  0.2179510E+00 -0.3656859E-03  0.7042783E-01
6349000. -0.3391993E-01 -0.9837958E-01  0.9299810E-02  0.2265850E+00 -0.3767309E-03  0.7030605E-01
6348000. -0.3390361E-01 -0.1095443E+00  0.9263569E-02  0.2351852E+00 -0.3877564E-03  0.7018094E-01
6347000. -0.3388554E-01 -0.1207345E+00  0.9225981E-02  0.2437504E+00 -0.3987621E-03  0.7005252E-01
6346600. -0.3387782E-01 -0.1252176E+00  0.9210571E-02  0.2471664E+00 -0.4031586E-03  0.7000022E-01
6346600. -0.3387782E-01 -0.1233605E-01  0.9210571E-02  0.1809237E+00 -0.4031586E-03  0.8181293E-01
6318800. -0.3332004E-01 -0.2464408E+00  0.8032081E-02  0.3550033E+00 -0.7517753E-03  0.7762241E-01
6291000. -0.3170614E-01 -0.4948946E+00  0.6159992E-02  0.4964898E+00 -0.1077558E-02  0.7136106E-01
6291000. -0.3170614E-01 -0.5000014E+00  0.6159992E-02  0.5125706E+00 -0.1077558E-02  0.7136106E-01
6263000. -0.2893780E-01 -0.7595796E+00  0.3668488E-02  0.6122167E+00 -0.1373531E-02  0.6300423E-01
6235000. -0.2504092E-01 -0.1011383E+01  0.8635736E-03  0.6541165E+00 -0.1628650E-02  0.5280330E-01
6207000. -0.2007902E-01 -0.1241964E+01 -0.1990815E-02  0.6345891E+00 -0.1835298E-02  0.4098997E-01
6179000. -0.1417523E-01 -0.1437794E+01 -0.4627021E-02  0.5556293E+00 -0.1987002E-02  0.2785219E-01
6151000. -0.7510612E-02 -0.1586209E+01 -0.6798317E-02  0.4246903E+00 -0.2078671E-02  0.1373054E-01
6151000. -0.7510612E-02 -0.1294258E+01 -0.6798317E-02  0.3732146E+00 -0.2078671E-02  0.1414607E-01
6128500. -0.2859865E-02 -0.1334632E+01 -0.7906422E-02  0.2517277E+00 -0.2112204E-02  0.4826660E-02
6106000.  0.1880624E-02 -0.1344925E+01 -0.8562172E-02  0.1182253E+00 -0.2112722E-02 -0.4527338E-02
6083500.  0.6603553E-02 -0.1324697E+01 -0.8735884E-02 -0.2002632E-01 -0.2080350E-02 -0.1377698E-01
6061000.  0.1120182E-01 -0.1274506E+01 -0.8423782E-02 -0.1556880E+00 -0.2015693E-02 -0.2278841E-01
6038500.  0.1557207E-01 -0.1195897E+01 -0.7647576E-02 -0.2817261E+00 -0.1919820E-02 -0.3143451E-01
6016000.  0.1961800E-01 -0.1091322E+01 -0.6452752E-02 -0.3917648E+00 -0.1794233E-02 -0.3959652E-01
5993500.  0.2325347E-01 -0.9640447E+00 -0.4905703E-02 -0.4803863E+00 -0.1640838E-02 -0.4716579E-01
5971000.  0.2640509E-01 -0.8180119E+00 -0.3089882E-02 -0.5433826E+00 -0.1461904E-02 -0.5404410E-01
5971000.  0.2640509E-01 -0.7449332E+00 -0.3089882E-02 -0.4869870E+00 -0.1461904E-02 -0.5750075E-01
5937667.  0.2968459E-01 -0.5073645E+00 -0.4561076E-03 -0.5106490E+00 -0.1137835E-02 -0.6605401E-01
5904333.  0.3171243E-01 -0.2686928E+00  0.2162363E-02 -0.4821361E+00 -0.7741779E-03 -0.7261790E-01
5871000.  0.3251623E-01 -0.4138147E-01  0.4512064E-02 -0.4095872E+00 -0.3815002E-03 -0.7714948E-01
5837667.  0.3218307E-01  0.1644446E+00  0.6390715E-02 -0.3040806E+00  0.2958954E-04 -0.7966249E-01
5804333.  0.3084606E-01  0.3413233E+00  0.7658314E-02 -0.1781181E+00  0.4486799E-03 -0.8021643E-01
5771000.  0.2867027E-01  0.4845337E+00  0.8240933E-02 -0.4429582E-01  0.8657380E-03 -0.7890952E-01
5771000.  0.2867027E-01  0.4845499E+00  0.8240933E-02 -0.4429511E-01  0.8657380E-03 -0.7890952E-01
5701000.  0.2199699E-01  0.7068115E+00  0.7205377E-02  0.2275613E+00  0.1684738E-02 -0.6890167E-01
5701000.  0.2199699E-01  0.5933918E+00  0.7205377E-02  0.1764106E+00  0.1684738E-02 -0.7510183E-01
5667333.  0.1872041E-01  0.6422523E+00  0.6032507E-02  0.2642329E+00  0.2066649E-02 -0.6920441E-01
5633667.  0.1525326E-01  0.6660143E+00  0.4450664E-02  0.3306209E+00  0.2413775E-02 -0.6196670E-01
5600000.  0.1172003E-01  0.6678047E+00  0.2580694E-02  0.3729892E+00  0.2719474E-02 -0.5354952E-01
5600000.  0.1172003E-01  0.6678076E+00  0.2580694E-02  0.3730076E+00  0.2719474E-02 -0.5354952E-01
5563518.  0.7924754E-02  0.6542482E+00  0.3502537E-03  0.4012588E+00  0.2997166E-02 -0.4324245E-01
5527037.  0.4263271E-02  0.6219150E+00 -0.1959115E-02  0.4004787E+00  0.3212681E-02 -0.3187583E-01
5490556.  0.8286853E-03  0.5758705E+00 -0.4181241E-02  0.3710200E+00  0.3360668E-02 -0.1969943E-01
5454074. -0.2315695E-02  0.5213984E+00 -0.6157856E-02  0.3152641E+00  0.3437238E-02 -0.6975114E-02
5417593. -0.5136239E-02  0.4636055E+00 -0.7749473E-02  0.2373994E+00  0.3440020E-02  0.6027172E-02
5381111. -0.7627474E-02  0.4070511E+00 -0.8845138E-02  0.1430696E+00  0.3368197E-02  0.1903700E-01
5344630. -0.9807483E-02  0.3554608E+00 -0.9369248E-02  0.3895070E-01  0.3222502E-02  0.3178572E-01
5308148. -0.1171295E-01  0.3114839E+00 -0.9286269E-02 -0.6775317E-01  0.3005168E-02  0.4401427E-01
5271667. -0.1339209E-01  0.2765683E+00 -0.8602253E-02 -0.1697952E+00  0.2719902E-02  0.5547521E-01
5235185. -0.1489806E-01  0.2509133E+00 -0.7363597E-02 -0.2603969E+00  0.2371748E-02  0.6593964E-01
5198704. -0.1628151E-01  0.2335302E+00 -0.5653258E-02 -0.3336707E+00  0.1967040E-02  0.7519900E-01
5162222. -0.1758448E-01  0.2223776E+00 -0.3584245E-02 -0.3850061E+00  0.1513191E-02  0.8307071E-01
5125741. -0.1883469E-01  0.2145790E+00 -0.1291890E-02 -0.4113257E+00  0.1018631E-02  0.8939989E-01
5089259. -0.2004176E-01  0.2066977E+00  0.1075931E-02 -0.4112593E+00  0.4925334E-03  0.9406293E-01
5052778. -0.2119465E-01  0.1950461E+00  0.3368252E-02 -0.3851849E+00 -0.5525533E-04  0.9696887E-01
5016296. -0.2226136E-01  0.1760109E+00  0.5441389E-02 -0.3351581E+00 -0.6145257E-03  0.9806132E-01
4979815. -0.2319008E-01  0.1463741E+00  0.7167622E-02 -0.2647462E+00 -0.1174784E-02  0.9731867E-01
4943333. -0.2391251E-01  0.1035969E+00  0.8443546E-02 -0.1787499E+00 -0.1725576E-02  0.9475473E-01
4906852. -0.2434826E-01  0.4607007E-01  0.9195871E-02 -0.8288485E-01 -0.2256562E-02  0.9041719E-01
4870370. -0.2441088E-01 -0.2672041E-01  0.9385799E-02  0.1662492E-01 -0.2757833E-02  0.8438712E-01
4833889. -0.2401434E-01 -0.1140813E+00  0.9010666E-02  0.1134311E+00 -0.3219977E-02  0.7677705E-01
4797407. -0.2308010E-01 -0.2141024E+00  0.8103486E-02  0.2014836E+00 -0.3634360E-02  0.6772670E-01
4760926. -0.2154401E-01 -0.3237049E+00  0.6730284E-02  0.2753853E+00 -0.3993177E-02  0.5740292E-01
4724444. -0.1936236E-01 -0.4388041E+00  0.4985165E-02  0.3307306E+00 -0.4289683E-02  0.4599299E-01
4687963. -0.1651752E-01 -0.5544943E+00  0.2984208E-02  0.3643461E+00 -0.4518227E-02  0.3370344E-01
4651482. -0.1302141E-01 -0.6653453E+00  0.8575299E-03  0.3744712E+00 -0.4674402E-02  0.2075385E-01
4615000. -0.8917807E-02 -0.7656953E+00 -0.1258918E-02  0.3608318E+00 -0.4755083E-02  0.7373069E-02
4578518. -0.4283001E-02 -0.8499781E+00 -0.3231749E-02  0.3246298E+00 -0.4758467E-02 -0.6204050E-02
4542037.  0.7758970E-03 -0.9130654E+00 -0.4938483E-02  0.2684450E+00 -0.4684108E-02 -0.1974200E-01
4505556.  0.6124687E-02 -0.9505798E+00 -0.6275031E-02  0.1960475E+00 -0.4532895E-02 -0.3300942E-01
4469074.  0.1160694E-01 -0.9591665E+00 -0.7161684E-02  0.1121470E+00 -0.4307015E-02 -0.4578244E-01
4432593.  0.1705003E-01 -0.9367175E+00 -0.7547642E-02  0.2210254E-01 -0.4009931E-02 -0.5784748E-01
4396111.  0.2227383E-01 -0.8825293E+00 -0.7413876E-02 -0.6842843E-01 -0.3646254E-02 -0.6900702E-01
4359630.  0.2709785E-01 -0.7973906E+00 -0.6773829E-02 -0.1538142E+00 -0.3221716E-02 -0.7907946E-01
4323148.  0.3135092E-01 -0.6835617E+00 -0.5672220E-02 -0.2288029E+00 -0.2742987E-02 -0.8790526E-01
4286667.  0.3487840E-01 -0.5447201E+00 -0.4182152E-02 -0.2888131E+00 -0.2217641E-02 -0.9534512E-01
4250185.  0.3755075E-01 -0.3857685E+00 -0.2400229E-02 -0.3302072E+00 -0.1653924E-02 -0.1012852E+00
4213704.  0.3926925E-01 -0.2126416E+00 -0.4408912E-03 -0.3504838E+00 -0.1060724E-02 -0.1056352E+00
4177222.  0.3997156E-01 -0.3198396E-01  0.1570900E-02 -0.3484139E+00 -0.4473107E-03 -0.1083307E+00
4140741.  0.3963466E-01  0.1491363E+00  0.3506725E-02 -0.3240969E+00  0.1766843E-03 -0.1093327E+00
4104259.  0.3827628E-01  0.3236168E+00  0.5242707E-02 -0.2789350E+00  0.8015447E-03 -0.1086267E+00
4067778.  0.3595426E-01  0.4846339E+00  0.6666331E-02 -0.2155423E+00  0.1417476E-02 -0.1062236E+00
4031296.  0.3276362E-01  0.6260203E+00  0.7683296E-02 -0.1375748E+00  0.2014878E-02 -0.1021566E+00
3994815.  0.2883245E-01  0.7425357E+00  0.8222609E-02 -0.4952168E-01  0.2584340E-02 -0.9648155E-01
3958333.  0.2431511E-01  0.8301532E+00  0.8240787E-02  0.4357288E-01  0.3116893E-02 -0.8927421E-01
3921852.  0.1938558E-01  0.8862341E+00  0.7724157E-02  0.1363806E+00  0.3603996E-02 -0.8062904E-01
3885370.  0.1422810E-01  0.9096627E+00  0.6689569E-02  0.2236087E+00  0.4037751E-02 -0.7065653E-01
3848889.  0.9029410E-02  0.9008836E+00  0.5183511E-02  0.3002771E+00  0.4410887E-02 -0.5948247E-01
3812407.  0.3968716E-02  0.8618644E+00  0.3279252E-02  0.3620047E+00  0.4716932E-02 -0.4724381E-01
3775926. -0.7896021E-03  0.7959906E+00  0.1073092E-02  0.4052288E+00  0.4950192E-02 -0.3408878E-01
3739444. -0.5104677E-02  0.7078636E+00 -0.1321336E-02  0.4274075E+00  0.5105874E-02 -0.2017208E-01
3702963. -0.8864433E-02  0.6030664E+00 -0.3778799E-02  0.4271335E+00  0.5180067E-02 -0.5655545E-02
3666482. -0.1199120E-01  0.4878561E+00 -0.6169643E-02  0.4042069E+00  0.5169811E-02  0.9296522E-02
3630000. -0.1444424E-01  0.3688318E+00 -0.8366515E-02  0.3596265E+00  0.5073083E-02  0.2451876E-01
3630000. -0.1444424E-01  0.3688320E+00 -0.8366515E-02  0.3596227E+00  0.5073083E-02  0.2451876E-01
3592500. -0.1626877E-01  0.2520516E+00 -0.1030228E-01  0.2948161E+00  0.4882343E-02  0.4030667E-01
3555000. -0.1742897E-01  0.1441960E+00 -0.1180151E-01  0.2118962E+00  0.4598599E-02  0.5608901E-01
3517500. -0.1799606E-01  0.5148701E-01 -0.1276924E-01  0.1149838E+00  0.4222432E-02  0.7168075E-01
3480000. -0.1807518E-01 -0.2083457E-01 -0.1313735E-01  0.9039923E-02  0.3755497E-02  0.8690084E-01
3480000. -0.1807518E-01  0.4694794E+00 -0.5955153E-03 -0.3199062E-01  0.3755497E-02  0.1437579E+00
3409422. -0.2175130E-01  0.1877060E+00 -0.1902869E-03 -0.4028791E-01  0.1992026E-02  0.1709551E+00
3338844. -0.2217329E-01 -0.1105904E+00  0.2757804E-03 -0.4283846E-01  0.5416758E-04  0.1748857E+00
3268266. -0.1939708E-01 -0.3831427E+00  0.7360696E-03 -0.3924979E-01 -0.1795031E-02  0.1551737E+00
3197688. -0.1390898E-01 -0.5952429E+00  0.1124234E-02 -0.2995367E-01 -0.3306964E-02  0.1147262E+00
3127109. -0.6521078E-02 -0.7231909E+00  0.1382840E-02 -0.1610267E-01 -0.4280645E-02  0.5909783E-01
3056531.  0.1760864E-02 -0.7558878E+00  0.1470411E-02  0.6077439E-03 -0.4587161E-02 -0.4411979E-02
2985953.  0.9878376E-02 -0.6947087E+00  0.1366237E-02  0.1816536E-01 -0.4183399E-02 -0.6779559E-01
2915375.  0.1685052E-01 -0.5519376E+00  0.1072538E-02  0.3448287E-01 -0.3114138E-02 -0.1233511E+00
2844797.  0.2188132E-01 -0.3481911E+00  0.6139839E-03  0.4763056E-01 -0.1503603E-02 -0.1645699E+00
2774219.  0.2443484E-01 -0.1092442E+00  0.3481386E-04  0.5603470E-01  0.4616946E-03 -0.1868057E+00
2703641.  0.2427386E-01  0.1372958E+00 -0.6059845E-03  0.5862639E-01  0.2556078E-02 -0.1876771E+00
2633062.  0.2146247E-01  0.3651178E+00 -0.1240827E-02  0.5493042E-01  0.4540735E-02 -0.1671856E+00
2562484.  0.1633688E-01  0.5518107E+00 -0.1800272E-02  0.4509035E-01  0.6189426E-02 -0.1275707E+00
2491906.  0.9450469E-02  0.6808059E+00 -0.2219788E-02  0.2983414E-01  0.7311573E-02 -0.7293796E-01
2421328.  0.1502414E-02  0.7424837E+00 -0.2445756E-02  0.1038676E-01  0.7769980E-02 -0.8725784E-02
2350750. -0.6741900E-02  0.7344918E+00 -0.2440298E-02 -0.1165855E-01  0.7492215E-02  0.5892020E-01
2280172. -0.1452951E-01  0.6612973E+00 -0.2184531E-02 -0.3449230E-01  0.6474845E-02  0.1237948E+00
2209594. -0.2119016E-01  0.5331478E+00 -0.1680061E-02 -0.5625303E-01  0.4780692E-02  0.1802350E+00
2139016. -0.2619235E-01  0.3645723E+00 -0.9486582E-03 -0.7518671E-01  0.2529926E-02  0.2236235E+00
2068438. -0.2918127E-01  0.1726346E+00 -0.3026548E-04 -0.8978809E-01 -0.1136701E-03  0.2507518E+00
1997859. -0.2999674E-01 -0.2489181E-01  0.1020424E-02 -0.9891240E-01 -0.2959637E-02  0.2600249E+00
1927281. -0.2867145E-01 -0.2112185E+00  0.2138352E-02 -0.1018505E+00 -0.5808914E-02  0.2515000E+00
1856703. -0.2541170E-01 -0.3720142E+00  0.3253240E-02 -0.9836298E-01 -0.8471890E-02  0.2267744E+00
1786125. -0.2056369E-01 -0.4965047E+00  0.4294723E-02 -0.8867130E-01 -0.1078410E-01  0.1887486E+00
1715547. -0.1456987E-01 -0.5781594E+00  0.5197234E-02 -0.7340974E-01 -0.1261894E-01  0.1413013E+00
1644969. -0.7920162E-02 -0.6149572E+00  0.5904145E-02 -0.5353912E-01 -0.1389653E-01  0.8892293E-01
1574391. -0.1102254E-02 -0.6092673E+00  0.6370750E-02 -0.3023225E-01 -0.1458844E-01  0.3635836E-01
1503812.  0.5444943E-02 -0.5674216E+00  0.6565892E-02 -0.4733980E-02 -0.1471879E-01 -0.1169126E-01
1433234.  0.1137156E-01 -0.4991039E+00  0.6471841E-02  0.2180230E-01 -0.1436267E-01 -0.5074095E-01
1362656.  0.1645092E-01 -0.4167322E+00  0.6082285E-02  0.4850570E-01 -0.1364362E-01 -0.7650708E-01
1292078.  0.2060707E-01 -0.3350881E+00  0.5397928E-02  0.7502537E-01 -0.1273280E-01 -0.8458324E-01
1221500.  0.2394163E-01 -0.2715832E+00  0.4419038E-02  0.1018559E+00 -0.1185433E-01 -0.6963020E-01
1221500.  0.2394163E-01  0.2685750E+01  0.2773963E-01  0.1980927E-01 -0.1185433E-01 -0.8000181E-01
1183328.  0.7378976E-02  0.2727018E+01  0.2541441E-01  0.7477038E+00 -0.1130459E-01 -0.1026107E+00
1145156. -0.7335271E-02  0.2071901E+01  0.1905153E-01  0.1340597E+01 -0.1063514E-01 -0.1200152E+00
1106984. -0.1624461E-01  0.8186551E+00  0.9903143E-02  0.1658646E+01 -0.9876196E-02 -0.1325394E+00
1068812. -0.1642876E-01 -0.7900190E+00 -0.1155559E-03  0.1624637E+01 -0.9055975E-02 -0.1405292E+00
1030641. -0.6749854E-02 -0.2411734E+01 -0.8861080E-02  0.1240973E+01 -0.8200561E-02 -0.1443593E+00
 992469.  0.1174792E-01 -0.3672888E+01 -0.1444409E-01  0.5880187E+00 -0.7333619E-02 -0.1444415E+00
 954297.  0.3588081E-01 -0.4246012E+01 -0.1564566E-01 -0.1950157E+00 -0.6476286E-02 -0.1412316E+00
 916125.  0.6082279E-01 -0.3920656E+01 -0.1218003E-01 -0.9419041E+00 -0.5646806E-02 -0.1352308E+00
 877953.  0.8096644E-01 -0.2652085E+01 -0.4746238E-02 -0.1496248E+01 -0.4860300E-02 -0.1269802E+00
 839781.  0.9098251E-01 -0.5776057E+00  0.5134602E-02 -0.1744915E+01 -0.4128561E-02 -0.1170435E+00
 801609.  0.8686914E-01  0.2003266E+01  0.1545370E-01 -0.1640867E+01 -0.3460003E-02 -0.1059835E+00
 763438.  0.6678162E-01  0.4681126E+01  0.2414126E-01 -0.1210746E+01 -0.2859741E-02 -0.9433696E-01
 725266.  0.3147208E-01  0.7011578E+01  0.2949091E-01 -0.5463022E+00 -0.2329784E-02 -0.8258470E-01
 687094. -0.1574251E-01  0.8596828E+01  0.3048796E-01  0.2176296E+00 -0.1869526E-02 -0.7113170E-01
 648922. -0.6949060E-01  0.9159348E+01  0.2698077E-01  0.9331977E+00 -0.1476182E-02 -0.6029344E-01
 610750. -0.1232309E+00  0.8592095E+01  0.1966397E-01  0.1470663E+01 -0.1145358E-02 -0.5029131E-01
 572578. -0.1703448E+00  0.6976239E+01  0.9889622E-02  0.1743742E+01 -0.8716027E-03 -0.4125867E-01
 534406. -0.2052280E+00  0.4563382E+01 -0.6427556E-03  0.1724070E+01 -0.6489018E-03 -0.3325333E-01
 496234. -0.2241779E+00  0.1726412E+01 -0.1024347E-01  0.1442358E+01 -0.4710702E-03 -0.2627782E-01
 458062. -0.2259172E+00 -0.1110765E+01 -0.1755782E-01  0.9768943E+00 -0.3320209E-03 -0.2029944E-01
 419891. -0.2116685E+00 -0.3550360E+01 -0.2179250E-01  0.4328712E+00 -0.2259444E-03 -0.1526189E-01
 381719. -0.1847812E+00 -0.5289847E+01 -0.2280374E-01 -0.8233147E-01 -0.1473836E-03 -0.1110248E-01
 343547. -0.1500088E+00 -0.6169098E+01 -0.2103948E-01 -0.4818174E+00 -0.9128560E-04 -0.7752028E-02
 305375. -0.1125840E+00 -0.6188301E+01 -0.1736449E-01 -0.7152857E+00 -0.5301214E-04 -0.5140448E-02
 267203. -0.7728726E-01 -0.5493336E+01 -0.1281780E-01 -0.7749713E+00 -0.2836463E-04 -0.3189978E-02
 229031. -0.4768795E-01 -0.4333653E+01 -0.8365810E-02 -0.6913578E+00 -0.1363651E-04 -0.1814229E-02
 190859. -0.2569878E-01 -0.3001969E+01 -0.4708615E-02 -0.5201573E+00 -0.5668241E-05 -0.9165060E-03
 152688. -0.1151193E-01 -0.1769534E+01 -0.2180427E-02 -0.3247417E+00 -0.1910882E-05 -0.3905192E-03
 114516. -0.3901835E-02 -0.8300970E+00 -0.7573526E-03 -0.1585283E+00 -0.4637423E-06 -0.1274999E-03
  76344. -0.8092025E-03 -0.2648720E+00 -0.1597347E-03 -0.5193146E-01 -0.6205708E-07 -0.2576053E-04
  38172. -0.5206673E-04 -0.3459162E-01 -0.1037952E-04 -0.6884546E-02 -0.1957746E-08 -0.1630570E-05
      0.  0.0000000E+00  0.0000000E+00  0.0000000E+00  0.0000000E+00  0.0000000E+00  0.0000000E+00
