      13       15 S      593        118.07890         21.87176          9.78901        338.96390      185    7
6371000. -0.1240850E-01 -0.2915727E+00 -0.3194585E-02  0.9213916E-02  0.3157498E-03  0.1834754E-01
6370000. -0.1236221E-01 -0.2982927E+00 -0.3195610E-02  0.3847821E-02  0.3128600E-03  0.1847383E-01
6369000. -0.1231487E-01 -0.3048492E+00 -0.3195793E-02 -0.1523233E-02  0.3099506E-03  0.1859842E-01
6368000. -0.1226652E-01 -0.3112415E+00 -0.3195132E-02 -0.6897803E-02  0.3070217E-03  0.1872128E-01
6368000. -0.1226652E-01 -0.3112415E+00 -0.3195132E-02 -0.6897803E-02  0.3070217E-03  0.1872128E-01
6367000. -0.1221717E-01 -0.3174690E+00 -0.3193627E-02 -0.1227444E-01  0.3040736E-03  0.1884241E-01
6366000. -0.1216686E-01 -0.3235310E+00 -0.3191279E-02 -0.1765170E-01  0.3011067E-03  0.1896179E-01
6365000. -0.1211562E-01 -0.3294269E+00 -0.3188086E-02 -0.2302813E-01  0.2981212E-03  0.1907942E-01
6364000. -0.1206346E-01 -0.3351562E+00 -0.3184049E-02 -0.2840229E-01  0.2951174E-03  0.1919528E-01
6363000. -0.1201041E-01 -0.3407185E+00 -0.3179170E-02 -0.3377273E-01  0.2920954E-03  0.1930937E-01
6362000. -0.1195651E-01 -0.3461133E+00 -0.3173448E-02 -0.3913799E-01  0.2890558E-03  0.1942167E-01
6361000. -0.1190177E-01 -0.3513403E+00 -0.3166884E-02 -0.4449663E-01  0.2859987E-03  0.1953217E-01
6360000. -0.1184622E-01 -0.3563990E+00 -0.3159480E-02 -0.4984721E-01  0.2829243E-03  0.1964088E-01
6359000. -0.1178990E-01 -0.3612894E+00 -0.3151236E-02 -0.5518828E-01  0.2798330E-03  0.1974777E-01
6358000. -0.1173281E-01 -0.3660111E+00 -0.3142155E-02 -0.6051840E-01  0.2767251E-03  0.1985283E-01
6357000. -0.1167501E-01 -0.3705640E+00 -0.3132239E-02 -0.6583612E-01  0.2736009E-03  0.1995606E-01
6356000. -0.1161650E-01 -0.3749479E+00 -0.3121489E-02 -0.7114004E-01  0.2704606E-03  0.2005745E-01
6356000. -0.1161650E-01 -0.3083375E+00 -0.3121489E-02 -0.3956440E-01  0.2704606E-03  0.2258507E-01
6355000. -0.1156783E-01 -0.3117784E+00 -0.3115006E-02 -0.4303840E-01  0.2669050E-03  0.2271967E-01
6354000. -0.1151863E-01 -0.3151136E+00 -0.3107978E-02 -0.4650719E-01  0.2633284E-03  0.2285285E-01
6353000. -0.1146891E-01 -0.3183430E+00 -0.3100407E-02 -0.4997016E-01  0.2597311E-03  0.2298463E-01
6352000. -0.1141870E-01 -0.3214665E+00 -0.3092292E-02 -0.5342670E-01  0.2561131E-03  0.2311497E-01
6351000. -0.1136800E-01 -0.3244839E+00 -0.3083635E-02 -0.5687617E-01  0.2524748E-03  0.2324388E-01
6350000. -0.1131684E-01 -0.3273953E+00 -0.3074438E-02 -0.6031797E-01  0.2488164E-03  0.2337135E-01
6349000. -0.1126523E-01 -0.3302005E+00 -0.3064700E-02 -0.6375147E-01  0.2451381E-03  0.2349738E-01
6348000. -0.1121319E-01 -0.3328997E+00 -0.3054425E-02 -0.6717606E-01  0.2414401E-03  0.2362195E-01
6347000. -0.1116073E-01 -0.3354927E+00 -0.3043613E-02 -0.7059112E-01  0.2377227E-03  0.2374505E-01
6346600. -0.1113964E-01 -0.3365002E+00 -0.3039138E-02 -0.7195435E-01  0.2362304E-03  0.2379388E-01
6346600. -0.1113964E-01 -0.3405944E+00 -0.3039138E-02 -0.4593774E-01  0.2362304E-03  0.2767811E-01
6318800. -0.9577843E-02 -0.3648246E+00 -0.2685543E-02 -0.1148888E+00  0.1075702E-03  0.3113584E-01
6291000. -0.8043398E-02 -0.3290803E+00 -0.2052492E-02 -0.1728823E+00 -0.3405866E-04  0.3360835E-01
6291000. -0.8043398E-02 -0.3369786E+00 -0.2052492E-02 -0.1790033E+00 -0.3405866E-04  0.3360835E-01
6263000. -0.6749257E-02 -0.2443727E+00 -0.1164991E-02 -0.2212973E+00 -0.1851034E-03  0.3494401E-01
6235000. -0.5947573E-02 -0.1163351E+00 -0.1417207E-03 -0.2402011E+00 -0.3395831E-03  0.3516988E-01
6207000. -0.5745344E-02  0.2435743E-01  0.9087711E-03 -0.2335584E+00 -0.4926209E-03  0.3429097E-01
6179000. -0.6143622E-02  0.1527616E+00  0.1874632E-02 -0.2020340E+00 -0.6394209E-03  0.3233826E-01
6151000. -0.7034696E-02  0.2448515E+00  0.2653035E-02 -0.1490326E+00 -0.7753688E-03  0.2936221E-01
6151000. -0.7034696E-02  0.2508710E+00  0.2653035E-02 -0.1297814E+00 -0.7753688E-03  0.2975141E-01
6128500. -0.7986168E-02  0.2823499E+00  0.3027407E-02 -0.8128446E-01 -0.8753013E-03  0.2675547E-01
6106000. -0.8986872E-02  0.2782236E+00  0.3222406E-02 -0.2874762E-01 -0.9637748E-03  0.2327175E-01
6083500. -0.9907038E-02  0.2366632E+00  0.3229617E-02  0.2450624E-01 -0.1039174E-02  0.1936240E-01
6061000. -0.1061524E-01  0.1585595E+00  0.3052332E-02  0.7520339E-01 -0.1100117E-02  0.1509678E-01
6038500. -0.1098791E-01  0.4743685E-01  0.2705022E-02  0.1203202E+00 -0.1145475E-02  0.1054960E-01
6016000. -0.1091822E-01 -0.9079693E-01  0.2212127E-02  0.1572611E+00 -0.1174392E-02  0.5799670E-02
5993500. -0.1032384E-01 -0.2482577E+00  0.1606283E-02  0.1840012E+00 -0.1186296E-02  0.9284752E-03
5971000. -0.9153015E-02 -0.4156046E+00  0.9261048E-03  0.1991920E+00 -0.1180904E-02 -0.3982092E-02
5971000. -0.9153015E-02 -0.3677703E+00  0.9261048E-03  0.1784324E+00 -0.1180904E-02 -0.2783885E-02
5937667. -0.6685407E-02 -0.5715762E+00 -0.6151427E-05  0.1743386E+00 -0.1148520E-02 -0.9546090E-02
5904333. -0.3233630E-02 -0.7401873E+00 -0.8640945E-03  0.1507483E+00 -0.1081740E-02 -0.1589194E-01
5871000.  0.9647472E-03 -0.8543877E+00 -0.1558425E-02  0.1127471E+00 -0.9833267E-03 -0.2160787E-01
5837667.  0.5590682E-02 -0.9022884E+00 -0.2029030E-02  0.6623270E-01 -0.8570196E-03 -0.2653216E-01
5804333.  0.1028323E-01 -0.8797313E+00 -0.2246990E-02  0.1711801E-01 -0.7072606E-03 -0.3055763E-01
5771000.  0.1467857E-01 -0.7897996E+00 -0.2212933E-02 -0.2929549E-01 -0.5389242E-03 -0.3363081E-01
5771000.  0.1467857E-01 -0.7898389E+00 -0.2212933E-02 -0.2929514E-01 -0.5389242E-03 -0.3363081E-01
5701000.  0.2168082E-01 -0.4448610E+00 -0.1436029E-02 -0.1060401E+00 -0.1504043E-03 -0.3647899E-01
5701000.  0.2168082E-01 -0.3877312E+00 -0.1436029E-02 -0.8925128E-01 -0.1504043E-03 -0.4259003E-01
5667333.  0.2319681E-01 -0.1829306E+00 -0.9185997E-03 -0.1049192E+00  0.7344451E-04 -0.4199146E-01
5633667.  0.2359550E-01  0.3258981E-01 -0.3447519E-03 -0.1106351E+00  0.2920170E-03 -0.4061394E-01
5600000.  0.2285955E-01  0.2441139E+00  0.2340401E-03 -0.1069342E+00  0.5015151E-03 -0.3857555E-01
5600000.  0.2285955E-01  0.2441146E+00  0.2340401E-03 -0.1069381E+00  0.5015151E-03 -0.3857555E-01
5563518.  0.2083611E-01  0.4590982E+00  0.8179888E-03 -0.9542393E-01  0.7145804E-03 -0.3573828E-01
5527037.  0.1765682E-01  0.6453665E+00  0.1310069E-02 -0.7513051E-01  0.9097127E-03 -0.3232979E-01
5490556.  0.1352616E-01  0.7893940E+00  0.1665368E-02 -0.4802714E-01  0.1083922E-02 -0.2844654E-01
5454074.  0.8716757E-02  0.8810243E+00  0.1851811E-02 -0.1659546E-01  0.1234772E-02 -0.2418589E-01
5417593.  0.3548332E-02  0.9142018E+00  0.1852454E-02  0.1639353E-01  0.1360371E-02 -0.1964366E-01
5381111. -0.1638105E-02  0.8873909E+00  0.1666477E-02  0.4812410E-01  0.1459374E-02 -0.1491022E-01
5344630. -0.6505249E-02  0.8035961E+00  0.1308784E-02  0.7595921E-01  0.1530926E-02 -0.1006983E-01
5308148. -0.1074587E-01  0.6700401E+00  0.8083218E-03  0.9765203E-01  0.1574639E-02 -0.5198481E-02
5271667. -0.1410422E-01  0.4975343E+00  0.2054527E-03  0.1115018E+00  0.1590533E-02 -0.3643847E-03
5235185. -0.1639505E-01  0.2995712E+00 -0.4516446E-03  0.1164727E+00  0.1578997E-02  0.4372748E-02
5198704. -0.1751529E-01  0.9128640E-01 -0.1110833E-02  0.1122462E+00  0.1540741E-02  0.8960393E-02
5162222. -0.1745056E-01 -0.1117462E+00 -0.1720289E-02  0.9922013E-01  0.1476751E-02  0.1335301E-01
5125741. -0.1627415E-01 -0.2946363E+00 -0.2232330E-02  0.7845347E-01  0.1388266E-02  0.1751073E-01
5089259. -0.1413992E-01 -0.4442968E+00 -0.2607044E-02  0.5156019E-01  0.1276727E-02  0.2139855E-01
5052778. -0.1126948E-01 -0.5503311E+00 -0.2814990E-02  0.2057350E-01  0.1143777E-02  0.2498522E-01
5016296. -0.7934242E-02 -0.6057595E+00 -0.2839194E-02 -0.1222463E-01  0.9912145E-03  0.2824305E-01
4979815. -0.4435049E-02 -0.6074364E+00 -0.2676050E-02 -0.4447246E-01  0.8210036E-03  0.3114686E-01
4943333. -0.1078976E-02 -0.5562084E+00 -0.2335259E-02 -0.7390890E-01  0.6352267E-03  0.3367462E-01
4906852.  0.1842560E-02 -0.4567794E+00 -0.1838845E-02 -0.9852619E-01  0.4361050E-03  0.3580674E-01
4870370.  0.4075504E-02 -0.3172869E+00 -0.1219213E-02 -0.1167091E+00  0.2259408E-03  0.3752711E-01
4833889.  0.5420529E-02 -0.1486852E+00 -0.5167227E-03 -0.1273293E+00  0.7141080E-05  0.3882323E-01
4797407.  0.5747309E-02  0.3609732E-01  0.2234422E-03 -0.1298130E+00 -0.2178522E-03  0.3968736E-01
4760926.  0.5002974E-02  0.2230660E+00  0.9543706E-03 -0.1241568E+00 -0.4465425E-03  0.4011670E-01
4724444.  0.3215367E-02  0.3981798E+00  0.1630807E-02 -0.1109086E+00 -0.6764591E-03  0.4011451E-01
4687963.  0.4907874E-03  0.5482830E+00  0.2212015E-02 -0.9111331E-01 -0.9051428E-03  0.3969052E-01
4651482. -0.2994051E-02  0.6620219E+00  0.2664509E-02 -0.6622170E-01 -0.1130229E-02  0.3886131E-01
4615000. -0.7004414E-02  0.7305732E+00  0.2964002E-02 -0.3797965E-01 -0.1349467E-02  0.3765045E-01
4578518. -0.1126345E-01  0.7482017E+00  0.3096733E-02 -0.8303723E-02 -0.1560751E-02  0.3608854E-01
4542037. -0.1547121E-01  0.7126153E+00  0.3060102E-02  0.2085200E-01 -0.1762166E-02  0.3421251E-01
4505556. -0.1932500E-01  0.6250758E+00  0.2862490E-02  0.4762673E-01 -0.1952041E-02  0.3206516E-01
4469074. -0.2253929E-01  0.4902683E+00  0.2522380E-02  0.7036802E-01 -0.2128960E-02  0.2969392E-01
4432593. -0.2486418E-01  0.3159880E+00  0.2066908E-02  0.8772849E-01 -0.2291777E-02  0.2715021E-01
4396111. -0.2610231E-01  0.1125800E+00  0.1529818E-02  0.9874395E-01 -0.2439666E-02  0.2448740E-01
4359630. -0.2612119E-01 -0.1077006E+00  0.9492243E-03  0.1028762E+00 -0.2572091E-02  0.2175936E-01
4323148. -0.2486209E-01 -0.3315083E+00  0.3649871E-03  0.1000322E+00 -0.2688840E-02  0.1901973E-01
4286667. -0.2234402E-01 -0.5451962E+00 -0.1836906E-03  0.9055283E-01 -0.2789987E-02  0.1631924E-01
4250185. -0.1866265E-01 -0.7356949E+00 -0.6607715E-03  0.7517292E-01 -0.2875899E-02  0.1370530E-01
4213704. -0.1398545E-01 -0.8912480E+00 -0.1035366E-02  0.5496342E-01 -0.2947192E-02  0.1122028E-01
4177222. -0.8541219E-02 -0.1002130E+01 -0.1283530E-02  0.3124910E-01 -0.3004713E-02  0.8900194E-02
4140741. -0.2607903E-02 -0.1061169E+01 -0.1389401E-02  0.5523044E-02 -0.3049493E-02  0.6774587E-02
4104259.  0.3504402E-02 -0.1064144E+01 -0.1345919E-02 -0.2065512E-01 -0.3082711E-02  0.4865215E-02
4067778.  0.9469735E-02 -0.1009980E+01 -0.1154931E-02 -0.4574893E-01 -0.3105652E-02  0.3186424E-02
4031296.  0.1496573E-01 -0.9007653E+00 -0.8267723E-03 -0.6834028E-01 -0.3119657E-02  0.1744731E-02
3994815.  0.1969006E-01 -0.7415930E+00 -0.3794116E-03 -0.8720201E-01 -0.3126085E-02  0.5392430E-03
3958333.  0.2337795E-01 -0.5402074E+00  0.1629117E-03 -0.1013658E+00 -0.3126268E-02 -0.4381259E-03
3921852.  0.2581505E-01 -0.3065708E+00  0.7711992E-03 -0.1101623E+00 -0.3121476E-02 -0.1201462E-02
3885370.  0.2684930E-01 -0.5223221E-01  0.1413613E-02 -0.1132497E+00 -0.3112879E-02 -0.1770950E-02
3848889.  0.2639767E-01  0.2102757E+00  0.2057238E-02 -0.1106173E+00 -0.3101517E-02 -0.2171513E-02
3812407.  0.2444997E-01  0.4681769E+00  0.2670089E-02 -0.1025707E+00 -0.3088276E-02 -0.2432538E-02
3775926.  0.2106854E-01  0.7090755E+00  0.3222699E-02 -0.8970286E-01 -0.3073863E-02 -0.2586978E-02
3739444.  0.1638358E-01  0.9216608E+00  0.3689774E-02 -0.7284679E-01 -0.3058783E-02 -0.2671134E-02
3702963.  0.1058619E-01  0.1096215E+01  0.4051296E-02 -0.5302227E-01 -0.3043330E-02 -0.2724714E-02
3666482.  0.3916907E-02  0.1225119E+01  0.4293506E-02 -0.3137078E-01 -0.3027555E-02 -0.2790802E-02
3630000. -0.3346986E-02  0.1303180E+01  0.4409366E-02 -0.9091400E-02 -0.3011253E-02 -0.2917118E-02
3630000. -0.3346986E-02  0.1303170E+01  0.4409366E-02 -0.9091150E-02 -0.3011253E-02 -0.2917118E-02
3592500. -0.1112354E-01  0.1329686E+01  0.4396596E-02  0.1328921E-01 -0.2993471E-02 -0.3142688E-02
3555000. -0.1888785E-01  0.1299107E+01  0.4255787E-02  0.3421356E-01 -0.2973981E-02 -0.3509679E-02
3517500. -0.2630848E-01  0.1213499E+01  0.3998957E-02  0.5253011E-01 -0.2951714E-02 -0.4101790E-02
3480000. -0.3307481E-01  0.1077852E+01  0.3644519E-02  0.6722382E-01 -0.2925050E-02 -0.5022619E-02
3480000. -0.3307481E-01  0.3831358E+00 -0.5681368E-03 -0.5950207E-01 -0.2925050E-02  0.9901714E-01
3409422. -0.3533518E-01  0.3021615E-01  0.1348995E-03 -0.6628313E-01 -0.4359294E-02  0.1537566E+00
3338844. -0.3393281E-01 -0.2722164E+00  0.8758280E-03 -0.6642702E-01 -0.6203582E-02  0.1738926E+00
3268266. -0.2959194E-01 -0.4972055E+00  0.1585218E-02 -0.6078207E-01 -0.8106940E-02  0.1656094E+00
3197688. -0.2324410E-01 -0.6339895E+00  0.2206140E-02 -0.5071006E-01 -0.9796076E-02  0.1365519E+00
3127109. -0.1586195E-01 -0.6853079E+00  0.2698327E-02 -0.3781302E-01 -0.1108527E-01  0.9470943E-01
3056531. -0.8330649E-02 -0.6635988E+00  0.3039447E-02 -0.2369487E-01 -0.1187478E-01  0.4749016E-01
2985953. -0.1362492E-02 -0.5869079E+00  0.3224092E-02 -0.9778135E-02 -0.1214059E-01  0.1063007E-02
2915375.  0.4543670E-02 -0.4751858E+00  0.3261033E-02  0.2812546E-02 -0.1191836E-01 -0.3999822E-01
2844797.  0.9106746E-02 -0.3473847E+00  0.3169565E-02  0.1330618E-01 -0.1128506E-01 -0.7280441E-01
2774219.  0.1224038E-01 -0.2194599E+00  0.2975544E-02  0.2128571E-01 -0.1034085E-01 -0.9602788E-01
2703641.  0.1401320E-01 -0.1033319E+00  0.2707653E-02  0.2664837E-01 -0.9193094E-02 -0.1096360E+00
2633062.  0.1460201E-01 -0.6619252E-02  0.2394251E-02  0.2954342E-01 -0.7943905E-02 -0.1145520E+00
2562484.  0.1424540E-01  0.6704026E-01  0.2061003E-02  0.3029727E-01 -0.6681554E-02 -0.1123023E+00
2491906.  0.1320344E-01  0.1172798E+00  0.1729315E-02  0.2933789E-01 -0.5475520E-02 -0.1046944E+00
2421328.  0.1172614E-01  0.1461232E+00  0.1415600E-02  0.2713004E-01 -0.4374965E-02 -0.9355435E-01
2350750.  0.1003207E-01  0.1570790E+00  0.1131164E-02  0.2412338E-01 -0.3409621E-02 -0.8053812E-01
2280172.  0.8296439E-02  0.1543462E+00  0.8825975E-03  0.2071466E-01 -0.2592390E-02 -0.6701501E-01
2209594.  0.6647198E-02  0.1421673E+00  0.6724925E-03  0.1722663E-01 -0.1922857E-02 -0.5401599E-01
2139016.  0.5167207E-02  0.1243786E+00  0.5003191E-03  0.1389970E-01 -0.1391079E-02 -0.4223378E-01
2068438.  0.3900406E-02  0.1041417E+00  0.3633351E-03  0.1089409E-01 -0.9811609E-03 -0.3205839E-01
1997859.  0.2859983E-02  0.8383656E-01  0.2574249E-03  0.8299012E-02 -0.6743027E-03 -0.2363347E-01
1927281.  0.2037136E-02  0.6507163E-01  0.1778224E-03  0.6146102E-02 -0.4511955E-03 -0.1692074E-01
1856703.  0.1409067E-02  0.4877669E-01  0.1196564E-03  0.4424295E-02 -0.2936612E-03 -0.1176171E-01
1786125.  0.9458426E-03  0.3533812E-01  0.7834909E-04  0.3094246E-02 -0.1856901E-03 -0.7932360E-02
1715547.  0.6155623E-03  0.2474897E-01  0.4985642E-04  0.2100844E-02 -0.1139147E-03 -0.5185720E-02
1644969.  0.3879257E-03  0.1674926E-01  0.3078458E-04  0.1383229E-02 -0.6768561E-04 -0.3282096E-02
1574391.  0.2363551E-03  0.1094447E-01  0.1841144E-04  0.8819642E-03 -0.3887653E-04 -0.2007955E-02
1503812.  0.1389558E-03  0.6895962E-02  0.1064307E-04  0.5436292E-03 -0.2153494E-04 -0.1185216E-02
1433234.  0.7864250E-04  0.4182806E-02  0.5932297E-05  0.3232307E-03 -0.1147236E-04 -0.6735275E-03
1362656.  0.4271583E-04  0.2437625E-02  0.3179726E-05  0.1848626E-03 -0.5855596E-05 -0.3677572E-03
1292078.  0.2216699E-04  0.1363093E-02  0.1635208E-05  0.1012480E-03 -0.2843256E-05 -0.1930808E-03
1221500.  0.1087650E-04  0.7346112E-03  0.8083672E-06  0.5251823E-04 -0.1281379E-05 -0.9930380E-04
1221500.  0.1087650E-04 -0.9826957E-03 -0.7480661E-06 -0.6063046E-04 -0.1281379E-05 -0.1040155E-03
1183328.  0.1574340E-04 -0.6409845E-03 -0.4013448E-06 -0.5444330E-04 -0.7814540E-06 -0.6559745E-04
1145156.  0.1857997E-04 -0.3104042E-03 -0.1027825E-06 -0.4472113E-04 -0.4683849E-06 -0.4073379E-04
1106984.  0.1954580E-04 -0.2096741E-04  0.1301715E-06 -0.3281547E-04 -0.2754577E-06 -0.2487106E-04
1068812.  0.1895725E-04  0.2057612E-03  0.2895071E-06 -0.2043382E-04 -0.1586396E-06 -0.1490697E-04
1030641.  0.1722675E-04  0.3594901E-03  0.3772536E-06 -0.9151518E-05 -0.8926423E-07 -0.8753465E-05
 992469.  0.1479404E-04  0.4411314E-03  0.4036396E-06 -0.9061883E-07 -0.4893952E-07 -0.5023659E-05
 954297.  0.1206532E-04  0.4605060E-03  0.3838864E-06  0.6208680E-05 -0.2605892E-07 -0.2809992E-05
 916125.  0.9369654E-05  0.4329084E-03  0.3347596E-06  0.9755405E-05 -0.1342381E-07 -0.1526620E-05
 877953.  0.6937245E-05  0.3754590E-03  0.2716596E-06  0.1096674E-04 -0.6658327E-08 -0.8023092E-06
 839781.  0.4898122E-05  0.3040530E-03  0.2067365E-06  0.1047863E-04 -0.3161128E-08 -0.4058584E-06
 801609.  0.3296037E-05  0.2313521E-03  0.1481175E-06  0.8971830E-05 -0.1425483E-08 -0.1963757E-06
 763438.  0.2111071E-05  0.1659024E-03  0.1000650E-06  0.7038893E-05 -0.6042150E-09 -0.9015669E-07
 725266.  0.1284302E-05  0.1122263E-03  0.6374017E-07  0.5114484E-05 -0.2369954E-09 -0.3884854E-07
 687094.  0.7400925E-06  0.7157190E-04  0.3823021E-07  0.3458483E-05 -0.8385083E-10 -0.1544985E-07
 648922.  0.4025348E-06  0.4295132E-04  0.2153551E-07  0.2179681E-05 -0.2544890E-10 -0.5525229E-08
 610750.  0.2057108E-06  0.2417908E-04  0.1135096E-07  0.1279150E-05 -0.5766922E-11 -0.1684346E-08
 572578.  0.9821944E-07  0.1271200E-04  0.5569913E-08  0.6969584E-06 -0.3444280E-12 -0.3772133E-09
 534406.  0.4350853E-07  0.6205024E-05  0.2527874E-08  0.3508806E-06  0.5780640E-12 -0.1710155E-10
 496234.  0.1772455E-07  0.2790669E-05  0.1052209E-08  0.1621066E-06  0.4327671E-12  0.4190329E-10
 458062.  0.6567414E-08  0.1145047E-05  0.3973865E-09  0.6809323E-07  0.2059016E-12  0.3014725E-10
 419891.  0.2182299E-08  0.4232047E-06  0.1343001E-09  0.2568789E-07  0.7669364E-13  0.1394765E-10
 381719.  0.6384945E-09  0.1385482E-06  0.3988428E-10  0.8561359E-08  0.2335269E-13  0.5015775E-11
 343547.  0.1605477E-09  0.3929171E-07  0.1016107E-10  0.2465990E-08  0.5812078E-14  0.1451473E-11
 305375.  0.3356866E-10  0.9363440E-08  0.2148966E-11  0.5956063E-09  0.1156896E-14  0.3354198E-12
 267203.  0.5572022E-11  0.1796268E-08  0.3602339E-12  0.1155820E-09  0.1765242E-15  0.5986998E-13
 229031.  0.6859625E-12  0.2604561E-09  0.4472042E-13  0.1692285E-10  0.1928345E-16  0.7762749E-14
 190859.  0.5635639E-13  0.2588151E-10  0.3699740E-14  0.1695211E-11  0.1351151E-17  0.6613278E-15
 152688.  0.2589158E-14  0.1495628E-11  0.1709172E-15  0.9858833E-13  0.5036024E-19  0.3078531E-16
 114516.  0.0000000E+00  0.0000000E+00  0.0000000E+00  0.0000000E+00  0.0000000E+00  0.0000000E+00
  76344.  0.0000000E+00  0.0000000E+00  0.0000000E+00  0.0000000E+00  0.0000000E+00  0.0000000E+00
  38172.  0.0000000E+00  0.0000000E+00  0.0000000E+00  0.0000000E+00  0.0000000E+00  0.0000000E+00
      0.  0.0000000E+00  0.0000000E+00  0.0000000E+00  0.0000000E+00  0.0000000E+00  0.0000000E+00
