       3       32 S      252        144.48019          8.52503          8.66908        423.23669      185    7
6371000. -0.3161340E-03 -0.1610228E-01 -0.3938939E-04  0.2767445E-03  0.2936397E-04 -0.3728563E-03
6370000. -0.3135963E-03 -0.1623110E-01 -0.3943041E-04  0.2458694E-03  0.2942231E-04 -0.3704981E-03
6369000. -0.3110389E-03 -0.1635561E-01 -0.3946657E-04  0.2149204E-03  0.2948028E-04 -0.3681724E-03
6368000. -0.3084622E-03 -0.1647577E-01 -0.3949787E-04  0.1839020E-03  0.2953789E-04 -0.3658792E-03
6368000. -0.3084622E-03 -0.1647577E-01 -0.3949787E-04  0.1839020E-03  0.2953789E-04 -0.3658792E-03
6367000. -0.3058670E-03 -0.1659159E-01 -0.3952430E-04  0.1528189E-03  0.2959514E-04 -0.3636190E-03
6366000. -0.3032539E-03 -0.1670304E-01 -0.3954584E-04  0.1216758E-03  0.2965204E-04 -0.3613917E-03
6365000. -0.3006237E-03 -0.1681011E-01 -0.3956250E-04  0.9047738E-04  0.2970859E-04 -0.3591976E-03
6364000. -0.2979771E-03 -0.1691278E-01 -0.3957424E-04  0.5922824E-04  0.2976480E-04 -0.3570369E-03
6363000. -0.2953147E-03 -0.1701105E-01 -0.3958109E-04  0.2793310E-04  0.2982067E-04 -0.3549097E-03
6362000. -0.2926372E-03 -0.1710490E-01 -0.3958301E-04 -0.3403345E-05  0.2987622E-04 -0.3528162E-03
6361000. -0.2899453E-03 -0.1719432E-01 -0.3958001E-04 -0.3477640E-04  0.2993143E-04 -0.3507567E-03
6360000. -0.2872397E-03 -0.1727930E-01 -0.3957209E-04 -0.6618137E-04  0.2998633E-04 -0.3487312E-03
6359000. -0.2845212E-03 -0.1735982E-01 -0.3955924E-04 -0.9761352E-04  0.3004091E-04 -0.3467401E-03
6358000. -0.2817903E-03 -0.1743590E-01 -0.3954145E-04 -0.1290682E-03  0.3009518E-04 -0.3447834E-03
6357000. -0.2790479E-03 -0.1750750E-01 -0.3951872E-04 -0.1605405E-03  0.3014915E-04 -0.3428613E-03
6356000. -0.2762946E-03 -0.1757463E-01 -0.3949105E-04 -0.1920259E-03  0.3020281E-04 -0.3409740E-03
6356000. -0.2762946E-03 -0.1507916E-01 -0.3949105E-04 -0.2181454E-04  0.3020281E-04 -0.2808555E-03
6355000. -0.2739231E-03 -0.1513723E-01 -0.3948634E-04 -0.3818858E-04  0.3024662E-04 -0.2773470E-03
6354000. -0.2715428E-03 -0.1519298E-01 -0.3947906E-04 -0.5457819E-04  0.3028988E-04 -0.2738633E-03
6353000. -0.2691538E-03 -0.1524643E-01 -0.3946921E-04 -0.7098189E-04  0.3033259E-04 -0.2704046E-03
6352000. -0.2667567E-03 -0.1529756E-01 -0.3945678E-04 -0.8739819E-04  0.3037477E-04 -0.2669710E-03
6351000. -0.2643517E-03 -0.1534637E-01 -0.3944177E-04 -0.1038256E-03  0.3041640E-04 -0.2635623E-03
6350000. -0.2619392E-03 -0.1539286E-01 -0.3942419E-04 -0.1202627E-03  0.3045751E-04 -0.2601789E-03
6349000. -0.2595196E-03 -0.1543703E-01 -0.3940402E-04 -0.1367079E-03  0.3049808E-04 -0.2568206E-03
6348000. -0.2570933E-03 -0.1547886E-01 -0.3938127E-04 -0.1531598E-03  0.3053813E-04 -0.2534876E-03
6347000. -0.2546606E-03 -0.1551836E-01 -0.3935593E-04 -0.1696169E-03  0.3057766E-04 -0.2501799E-03
6346600. -0.2536858E-03 -0.1553350E-01 -0.3934508E-04 -0.1762009E-03  0.3059332E-04 -0.2488639E-03
6346600. -0.2536858E-03 -0.1730621E-01 -0.3934508E-04 -0.4906243E-04  0.3059332E-04 -0.1604073E-03
6318800. -0.1765118E-03 -0.1789097E-01 -0.3862326E-04 -0.2823162E-03  0.3105982E-04 -0.5564788E-04
6291000. -0.9911031E-04 -0.1740556E-01 -0.3688539E-04 -0.5127510E-03  0.3109730E-04  0.3650332E-04
6291000. -0.9911031E-04 -0.1794231E-01 -0.3688539E-04 -0.5333126E-03  0.3109730E-04  0.3650332E-04
6263000. -0.2354675E-04 -0.1625141E-01 -0.3401090E-04 -0.7708213E-03  0.3076634E-04  0.1123437E-03
6235000.  0.4210070E-04 -0.1344723E-01 -0.3015447E-04 -0.9780297E-03  0.3012418E-04  0.1783776E-03
6207000.  0.9322118E-04 -0.9669161E-02 -0.2547615E-04 -0.1143021E-02  0.2921059E-04  0.2361135E-03
6179000.  0.1259573E-03 -0.5119428E-02 -0.2018368E-04 -0.1256120E-02  0.2805882E-04  0.2869916E-03
6151000.  0.1374617E-03 -0.5340635E-04 -0.1452125E-04 -0.1310507E-02  0.2669608E-04  0.3323324E-03
6151000.  0.1374617E-03 -0.1323664E-02 -0.1452125E-04 -0.1170192E-02  0.2669608E-04  0.3247273E-03
6128500.  0.1361049E-03  0.2086484E-02 -0.1041608E-04 -0.1149733E-02  0.2550805E-04  0.3473223E-03
6106000.  0.1228227E-03  0.5412111E-02 -0.6433660E-05 -0.1101041E-02  0.2424795E-04  0.3655856E-03
6083500.  0.9809930E-04  0.8549434E-02 -0.2669436E-05 -0.1026644E-02  0.2293057E-04  0.3798123E-03
6061000.  0.6276932E-04  0.1140418E-01  0.7912581E-06 -0.9297272E-03  0.2156967E-04  0.3902740E-03
6038500.  0.1797970E-04  0.1389412E-01  0.3875323E-05 -0.8140107E-03  0.2017810E-04  0.3972281E-03
6016000. -0.3485618E-04  0.1595089E-01  0.6523521E-05 -0.6835974E-03  0.1876780E-04  0.4009178E-03
5993500. -0.9411025E-04  0.1752146E-01  0.8691550E-05 -0.5428193E-03  0.1734989E-04  0.4015752E-03
5971000. -0.1579959E-03  0.1856917E-01  0.1035062E-04 -0.3961090E-03  0.1593468E-04  0.3994224E-03
5971000. -0.1579959E-03  0.1718092E-01  0.1035062E-04 -0.3326824E-03  0.1593468E-04  0.4201054E-03
5937667. -0.2484139E-03  0.1721676E-01  0.1157377E-04 -0.1382902E-03  0.1378892E-04  0.3989489E-03
5904333. -0.3365460E-03  0.1632994E-01  0.1184020E-04  0.3184001E-04  0.1177160E-04  0.3711593E-03
5871000. -0.4179607E-03  0.1467835E-01  0.1129260E-04  0.1722562E-03  0.9914779E-05  0.3377934E-03
5837667. -0.4891170E-03  0.1243876E-01  0.1009369E-04  0.2806547E-03  0.8244783E-05  0.2999196E-03
5804333. -0.5474127E-03  0.9791234E-02  0.8411323E-05  0.3572606E-03  0.6782484E-05  0.2585427E-03
5771000. -0.5911645E-03  0.6907203E-02  0.6407077E-05  0.4041985E-03  0.5543865E-05  0.2145702E-03
5771000. -0.5911645E-03  0.6907702E-02  0.6407077E-05  0.4042068E-03  0.5543865E-05  0.2145702E-03
5701000. -0.6335298E-03  0.7754682E-03  0.1863898E-05  0.4068175E-03  0.3889126E-05  0.8469258E-04
5701000. -0.6335298E-03  0.8055990E-03  0.1863898E-05  0.4704141E-03  0.3889126E-05  0.2632618E-03
5667333. -0.6302183E-03 -0.2026946E-02 -0.5693399E-06  0.4488578E-03  0.2653326E-05  0.2058003E-03
5633667. -0.6124926E-03 -0.4641965E-02 -0.2866095E-05  0.4194349E-03  0.1699755E-05  0.1564797E-03
5600000. -0.5816017E-03 -0.7005113E-02 -0.4994892E-05  0.3858530E-03  0.9848578E-06  0.1155086E-03
5600000. -0.5816017E-03 -0.7005259E-02 -0.4994892E-05  0.3858400E-03  0.9848578E-06  0.1155086E-03
5563518. -0.5345353E-03 -0.9390170E-02 -0.7073764E-05  0.3397009E-03  0.4294616E-06  0.7976570E-04
5527037. -0.4745870E-03 -0.1150143E-01 -0.8880785E-05  0.2911999E-03  0.5779876E-07  0.5112728E-04
5490556. -0.4033753E-03 -0.1332240E-01 -0.1040737E-04  0.2420175E-03 -0.1673864E-06  0.2842591E-04
5454074. -0.3225821E-03 -0.1484715E-01 -0.1165407E-04  0.1936713E-03 -0.2771951E-06  0.1067896E-04
5417593. -0.2339021E-03 -0.1607934E-01 -0.1262954E-04  0.1474941E-03 -0.2975912E-06 -0.2927591E-05
5381111. -0.1389730E-03 -0.1703165E-01 -0.1334953E-04  0.1046048E-03 -0.2502517E-06 -0.1308452E-04
5344630. -0.3934882E-04 -0.1772410E-01 -0.1383556E-04  0.6591611E-04 -0.1532260E-06 -0.2037074E-04
5308148.  0.6356130E-04 -0.1818322E-01 -0.1411381E-04  0.3212836E-04 -0.2151133E-07 -0.2527354E-04
5271667.  0.1685034E-03 -0.1844041E-01 -0.1421386E-04  0.3749617E-05  0.1324385E-06 -0.2819997E-04
5235185.  0.2744269E-03 -0.1853118E-01 -0.1416773E-04 -0.1889045E-04  0.2983104E-06 -0.2948706E-04
5198704.  0.3804819E-03 -0.1849394E-01 -0.1400884E-04 -0.3561397E-04  0.4675310E-06 -0.2941221E-04
5162222.  0.4860563E-03 -0.1836916E-01 -0.1377127E-04 -0.4637271E-04  0.6329556E-06 -0.2819182E-04
5125741.  0.5907622E-03 -0.1819864E-01 -0.1348908E-04 -0.5121662E-04  0.7885350E-06 -0.2599900E-04
5089259.  0.6944651E-03 -0.1802499E-01 -0.1319580E-04 -0.5026497E-04  0.9290543E-06 -0.2294500E-04
5052778.  0.7972648E-03 -0.1789135E-01 -0.1292420E-04 -0.4367558E-04  0.1049797E-05 -0.1910023E-04
5016296.  0.8995202E-03 -0.1784120E-01 -0.1270606E-04 -0.3161792E-04  0.1146306E-05 -0.1447683E-04
4979815.  0.1001830E-02 -0.1791857E-01 -0.1257227E-04 -0.1424125E-04  0.1214018E-05 -0.9032875E-05
4943333.  0.1105057E-02 -0.1816835E-01 -0.1255294E-04  0.8350493E-05  0.1248016E-05 -0.2677723E-05
4906852.  0.1210316E-02 -0.1863701E-01 -0.1267782E-04  0.3613581E-04  0.1242582E-05  0.4775135E-05
4870370.  0.1319003E-02 -0.1937337E-01 -0.1297685E-04  0.6919212E-04  0.1190780E-05  0.1356298E-04
4833889.  0.1432794E-02 -0.2042960E-01 -0.1348066E-04  0.1077093E-03  0.1084067E-05  0.2402380E-04
4797407.  0.1553688E-02 -0.2186314E-01 -0.1422154E-04  0.1520675E-03  0.9115195E-06  0.3664457E-04
4760926.  0.1684018E-02 -0.2373800E-01 -0.1523437E-04  0.2028100E-03  0.6591697E-06  0.5201054E-04
4724444.  0.1826523E-02 -0.2612724E-01 -0.1655783E-04  0.2606946E-03  0.3091295E-06  0.7091215E-04
4687963.  0.1984376E-02 -0.2911541E-01 -0.1823553E-04  0.3267438E-03 -0.1616118E-06  0.9436053E-04
4651482.  0.2161287E-02 -0.3280196E-01 -0.2031784E-04  0.4022647E-03 -0.7826227E-06  0.1236409E-03
4615000.  0.2361590E-02 -0.3730502E-01 -0.2286365E-04  0.4889073E-03 -0.1591885E-05  0.1604146E-03
4578518.  0.2590346E-02 -0.4276561E-01 -0.2594216E-04  0.5886956E-03 -0.2638061E-05  0.2067851E-03
4542037.  0.2853501E-02 -0.4935320E-01 -0.2963540E-04  0.7041011E-03 -0.3983558E-05  0.2654814E-03
4505556.  0.3158084E-02 -0.5727291E-01 -0.3404121E-04  0.8381232E-03 -0.5708479E-05  0.3399586E-03
4469074.  0.3512420E-02 -0.6677287E-01 -0.3927624E-04  0.9943307E-03 -0.7915457E-05  0.4346679E-03
4432593.  0.3926368E-02 -0.7815305E-01 -0.4547906E-04  0.1176962E-02 -0.1073580E-04  0.5552769E-03
4396111.  0.4411731E-02 -0.9177829E-01 -0.5281523E-04  0.1391011E-02 -0.1433793E-04  0.7090764E-03
4359630.  0.4982558E-02 -0.1080894E+00 -0.6148050E-04  0.1642294E-02 -0.1893764E-04  0.9055041E-03
4323148.  0.5655744E-02 -0.1276219E+00 -0.7170724E-04  0.1937501E-02 -0.2481214E-04  0.1156543E-02
4286667.  0.6451490E-02 -0.1510219E+00 -0.8376801E-04  0.2284323E-02 -0.3231653E-04  0.1477773E-02
4250185.  0.7394155E-02 -0.1790713E+00 -0.9798294E-04  0.2691256E-02 -0.4190781E-04  0.1889104E-02
4213704.  0.8512915E-02 -0.2127086E+00 -0.1147218E-03  0.3167613E-02 -0.5417179E-04  0.2416227E-02
4177222.  0.9842962E-02 -0.2530619E+00 -0.1344108E-03  0.3723084E-02 -0.6986317E-04  0.3092302E-02
4140741.  0.1142641E-01 -0.3014731E+00 -0.1575295E-03  0.4367253E-02 -0.8995067E-04  0.3959883E-02
4104259.  0.1331393E-01 -0.3595366E+00 -0.1846118E-03  0.5108440E-02 -0.1156831E-03  0.5074037E-02
4067778.  0.1556588E-01 -0.4291150E+00 -0.2162286E-03  0.5951726E-02 -0.1486642E-03  0.6505229E-02
4031296.  0.1825438E-01 -0.5123740E+00 -0.2529678E-03  0.6896439E-02 -0.1909611E-03  0.8344575E-02
3994815.  0.2146449E-01 -0.6117649E+00 -0.2953820E-03  0.7931025E-02 -0.2452286E-03  0.1070860E-01
3958333.  0.2529647E-01 -0.7300119E+00 -0.3439150E-03  0.9026270E-02 -0.3148846E-03  0.1374692E-01
3921852.  0.2986627E-01 -0.8699933E+00 -0.3987612E-03  0.1012352E-01 -0.4043120E-03  0.1765078E-01
3885370.  0.3530687E-01 -0.1034574E+01 -0.4596625E-03  0.1111811E-01 -0.5191414E-03  0.2266384E-01
3848889.  0.4176620E-01 -0.1226216E+01 -0.5255642E-03  0.1183325E-01 -0.6665671E-03  0.2909456E-01
3812407.  0.4940444E-01 -0.1446379E+01 -0.5941069E-03  0.1197945E-01 -0.8557861E-03  0.3733187E-01
3775926.  0.5838396E-01 -0.1694417E+01 -0.6608073E-03  0.1109494E-01 -0.1098471E-02  0.4786085E-01
3739444.  0.6885458E-01 -0.1965903E+01 -0.7178460E-03  0.8455117E-02 -0.1409419E-02  0.6128142E-01
3702963.  0.8092233E-01 -0.2249770E+01 -0.7521787E-03  0.2934105E-02 -0.1807185E-02  0.7832025E-01
3666482.  0.9460182E-01 -0.2523920E+01 -0.7426973E-03 -0.7202674E-02 -0.2314908E-02  0.9984241E-01
3630000.  0.1097336E+00 -0.2748156E+01 -0.6558935E-03 -0.2461395E-01 -0.2961061E-02  0.1268382E+00
3630000.  0.1097336E+00 -0.2748143E+01 -0.6558935E-03 -0.2461582E-01 -0.2961061E-02  0.1268382E+00
3592500.  0.1263435E+00 -0.2867160E+01 -0.4328805E-03 -0.5366627E-01 -0.3805512E-02  0.1613088E+00
3555000.  0.1430063E+00 -0.2739055E+01  0.1274001E-04 -0.1016285E+00 -0.4875399E-02  0.2036167E+00
3517500.  0.1576979E+00 -0.2153080E+01  0.8205639E-03 -0.1788585E+00 -0.6219613E-02  0.2546180E+00
3480000.  0.1667949E+00 -0.7663608E+00  0.2206472E-02 -0.3013197E+00 -0.7890073E-02  0.3143767E+00
3480000.  0.1667949E+00  0.7613350E+01  0.6251315E-02  0.2938079E+00 -0.7890073E-02 -0.2102912E+00
3409422.  0.9958179E-01  0.4727283E+01  0.3679402E-02  0.1791648E+00 -0.5591219E-02 -0.1951421E+00
3338844.  0.5826590E-01  0.2871911E+01  0.2125254E-02  0.1071088E+00 -0.3675923E-02 -0.1489482E+00
3268266.  0.3341164E-01  0.1707701E+01  0.1204499E-02  0.6277821E-01 -0.2289274E-02 -0.1026006E+00
3197688.  0.1877555E-01  0.9940663E+00  0.6696724E-03  0.3607271E-01 -0.1365501E-02 -0.6605611E-01
3127109.  0.1033743E-01  0.5664945E+00  0.3651219E-03  0.2031711E-01 -0.7850980E-03 -0.4042337E-01
3056531.  0.5574914E-02  0.3160222E+00  0.1951502E-03  0.1121381E-01 -0.4368104E-03 -0.2373065E-01
2985953.  0.2943740E-02  0.1725369E+00  0.1021988E-03  0.6063117E-02 -0.2357467E-03 -0.1343670E-01
2915375.  0.1521209E-02  0.9216055E-01  0.5241165E-04  0.3209924E-02 -0.1236004E-03 -0.7362314E-02
2844797.  0.7688807E-03  0.4814090E-01  0.2630504E-04  0.1663095E-02 -0.6300495E-04 -0.3911540E-02
2774219.  0.3798582E-03  0.2457827E-01  0.1291119E-04  0.8427320E-03 -0.3123676E-04 -0.2017443E-02
2703641.  0.1832933E-03  0.1225663E-01  0.6192381E-05  0.4173460E-03 -0.1506244E-04 -0.1010712E-02
2633062.  0.8630895E-04  0.5965377E-02  0.2899457E-05  0.2018251E-03 -0.7062127E-05 -0.4919078E-03
2562484.  0.3962216E-04  0.2831260E-02  0.1324085E-05  0.9522123E-04 -0.3217867E-05 -0.2325377E-03
2491906.  0.1771412E-04  0.1309062E-02  0.5890690E-06  0.4378397E-04 -0.1423858E-05 -0.1067195E-03
2421328.  0.7703313E-05  0.5889702E-03  0.2549955E-06  0.1959818E-04 -0.6112543E-06 -0.4751355E-04
2350750.  0.3254099E-05  0.2575338E-03  0.1072563E-06  0.8528585E-05 -0.2542962E-06 -0.2050210E-04
2280172.  0.1333321E-05  0.1092883E-03  0.4377054E-07  0.3603104E-05 -0.1023863E-06 -0.8563995E-05
2209594.  0.5290220E-06  0.4494003E-04  0.1730158E-07  0.1475450E-05 -0.3983459E-07 -0.3458166E-05
2139016.  0.2028869E-06  0.1787542E-04  0.6611985E-08  0.5845931E-06 -0.1494980E-07 -0.1347733E-05
2068438.  0.7505737E-07  0.6864352E-05  0.2437988E-08  0.2236722E-06 -0.5401395E-08 -0.5059915E-06
1997859.  0.2672411E-07  0.2539312E-05  0.8653463E-09  0.8246032E-07 -0.1874537E-08 -0.1826167E-06
1927281.  0.9134855E-08  0.9027482E-06  0.2949300E-09  0.2922174E-07 -0.6233302E-09 -0.6320727E-07
1856703.  0.2989223E-08  0.3075874E-06  0.9624620E-10  0.9926723E-08 -0.1980336E-09 -0.2092371E-07
1786125.  0.9334710E-09  0.1001383E-06  0.2997826E-10  0.3222685E-08 -0.5991919E-10 -0.6604242E-08
1715547.  0.2771952E-09  0.3104357E-07  0.8880514E-11  0.9964343E-09 -0.1720389E-10 -0.1980665E-08
1644969.  0.7796169E-10  0.9128244E-08  0.2491831E-11  0.2922975E-09 -0.4667934E-11 -0.5622165E-09
1574391.  0.2068322E-10  0.2533412E-08  0.6589633E-12  0.8103185E-10 -0.1190635E-11 -0.1504572E-09
1503812.  0.0000000E+00  0.0000000E+00  0.0000000E+00  0.0000000E+00  0.0000000E+00  0.0000000E+00
1433234.  0.0000000E+00  0.0000000E+00  0.0000000E+00  0.0000000E+00  0.0000000E+00  0.0000000E+00
1362656.  0.0000000E+00  0.0000000E+00  0.0000000E+00  0.0000000E+00  0.0000000E+00  0.0000000E+00
1292078.  0.0000000E+00  0.0000000E+00  0.0000000E+00  0.0000000E+00  0.0000000E+00  0.0000000E+00
1221500.  0.0000000E+00  0.0000000E+00  0.0000000E+00  0.0000000E+00  0.0000000E+00  0.0000000E+00
1221500.  0.0000000E+00  0.0000000E+00  0.0000000E+00  0.0000000E+00  0.0000000E+00  0.0000000E+00
1183328.  0.0000000E+00  0.0000000E+00  0.0000000E+00  0.0000000E+00  0.0000000E+00  0.0000000E+00
1145156.  0.0000000E+00  0.0000000E+00  0.0000000E+00  0.0000000E+00  0.0000000E+00  0.0000000E+00
1106984.  0.0000000E+00  0.0000000E+00  0.0000000E+00  0.0000000E+00  0.0000000E+00  0.0000000E+00
1068812.  0.0000000E+00  0.0000000E+00  0.0000000E+00  0.0000000E+00  0.0000000E+00  0.0000000E+00
1030641.  0.0000000E+00  0.0000000E+00  0.0000000E+00  0.0000000E+00  0.0000000E+00  0.0000000E+00
 992469.  0.0000000E+00  0.0000000E+00  0.0000000E+00  0.0000000E+00  0.0000000E+00  0.0000000E+00
 954297.  0.0000000E+00  0.0000000E+00  0.0000000E+00  0.0000000E+00  0.0000000E+00  0.0000000E+00
 916125.  0.0000000E+00  0.0000000E+00  0.0000000E+00  0.0000000E+00  0.0000000E+00  0.0000000E+00
 877953.  0.0000000E+00  0.0000000E+00  0.0000000E+00  0.0000000E+00  0.0000000E+00  0.0000000E+00
 839781.  0.0000000E+00  0.0000000E+00  0.0000000E+00  0.0000000E+00  0.0000000E+00  0.0000000E+00
 801609.  0.0000000E+00  0.0000000E+00  0.0000000E+00  0.0000000E+00  0.0000000E+00  0.0000000E+00
 763438.  0.0000000E+00  0.0000000E+00  0.0000000E+00  0.0000000E+00  0.0000000E+00  0.0000000E+00
 725266.  0.0000000E+00  0.0000000E+00  0.0000000E+00  0.0000000E+00  0.0000000E+00  0.0000000E+00
 687094.  0.0000000E+00  0.0000000E+00  0.0000000E+00  0.0000000E+00  0.0000000E+00  0.0000000E+00
 648922.  0.0000000E+00  0.0000000E+00  0.0000000E+00  0.0000000E+00  0.0000000E+00  0.0000000E+00
 610750.  0.0000000E+00  0.0000000E+00  0.0000000E+00  0.0000000E+00  0.0000000E+00  0.0000000E+00
 572578.  0.0000000E+00  0.0000000E+00  0.0000000E+00  0.0000000E+00  0.0000000E+00  0.0000000E+00
 534406.  0.0000000E+00  0.0000000E+00  0.0000000E+00  0.0000000E+00  0.0000000E+00  0.0000000E+00
 496234.  0.0000000E+00  0.0000000E+00  0.0000000E+00  0.0000000E+00  0.0000000E+00  0.0000000E+00
 458062.  0.0000000E+00  0.0000000E+00  0.0000000E+00  0.0000000E+00  0.0000000E+00  0.0000000E+00
 419891.  0.0000000E+00  0.0000000E+00  0.0000000E+00  0.0000000E+00  0.0000000E+00  0.0000000E+00
 381719.  0.0000000E+00  0.0000000E+00  0.0000000E+00  0.0000000E+00  0.0000000E+00  0.0000000E+00
 343547.  0.0000000E+00  0.0000000E+00  0.0000000E+00  0.0000000E+00  0.0000000E+00  0.0000000E+00
 305375.  0.0000000E+00  0.0000000E+00  0.0000000E+00  0.0000000E+00  0.0000000E+00  0.0000000E+00
 267203.  0.0000000E+00  0.0000000E+00  0.0000000E+00  0.0000000E+00  0.0000000E+00  0.0000000E+00
 229031.  0.0000000E+00  0.0000000E+00  0.0000000E+00  0.0000000E+00  0.0000000E+00  0.0000000E+00
 190859.  0.0000000E+00  0.0000000E+00  0.0000000E+00  0.0000000E+00  0.0000000E+00  0.0000000E+00
 152688.  0.0000000E+00  0.0000000E+00  0.0000000E+00  0.0000000E+00  0.0000000E+00  0.0000000E+00
 114516.  0.0000000E+00  0.0000000E+00  0.0000000E+00  0.0000000E+00  0.0000000E+00  0.0000000E+00
  76344.  0.0000000E+00  0.0000000E+00  0.0000000E+00  0.0000000E+00  0.0000000E+00  0.0000000E+00
  38172.  0.0000000E+00  0.0000000E+00  0.0000000E+00  0.0000000E+00  0.0000000E+00  0.0000000E+00
      0.  0.0000000E+00  0.0000000E+00  0.0000000E+00  0.0000000E+00  0.0000000E+00  0.0000000E+00
