       8       18 S      456        139.61749         15.49801         14.81191         89.10678      185    7
6371000. -0.9449317E-09  0.3240452E-06  0.2404922E-08  0.3349853E-08 -0.4127829E-09  0.9624796E-08
6370000. -0.9957560E-09  0.3235383E-06  0.2404181E-08  0.6088667E-08 -0.4142840E-09  0.9501835E-08
6369000. -0.1046491E-08  0.3229101E-06  0.2403010E-08  0.8826977E-08 -0.4157658E-09  0.9378784E-08
6368000. -0.1097118E-08  0.3221606E-06  0.2401410E-08  0.1156427E-07 -0.4172282E-09  0.9255649E-08
6368000. -0.1097118E-08  0.3221606E-06  0.2401410E-08  0.1156427E-07 -0.4172282E-09  0.9255649E-08
6367000. -0.1147618E-08  0.3212899E-06  0.2399380E-08  0.1430004E-07 -0.4186713E-09  0.9132435E-08
6366000. -0.1197972E-08  0.3202981E-06  0.2396921E-08  0.1703377E-07 -0.4200951E-09  0.9009153E-08
6365000. -0.1248161E-08  0.3191851E-06  0.2394033E-08  0.1976494E-07 -0.4214995E-09  0.8885805E-08
6364000. -0.1298165E-08  0.3179512E-06  0.2390716E-08  0.2249306E-07 -0.4228845E-09  0.8762401E-08
6363000. -0.1347967E-08  0.3165964E-06  0.2386972E-08  0.2521760E-07 -0.4242502E-09  0.8638946E-08
6362000. -0.1397546E-08  0.3151210E-06  0.2382800E-08  0.2793806E-07 -0.4255965E-09  0.8515448E-08
6361000. -0.1446884E-08  0.3135250E-06  0.2378202E-08  0.3065392E-07 -0.4269234E-09  0.8391913E-08
6360000. -0.1495962E-08  0.3118089E-06  0.2373178E-08  0.3336469E-07 -0.4282309E-09  0.8268348E-08
6359000. -0.1544761E-08  0.3099726E-06  0.2367728E-08  0.3606985E-07 -0.4295190E-09  0.8144760E-08
6358000. -0.1593263E-08  0.3080167E-06  0.2361855E-08  0.3876888E-07 -0.4307877E-09  0.8021157E-08
6357000. -0.1641448E-08  0.3059413E-06  0.2355558E-08  0.4146131E-07 -0.4320370E-09  0.7897544E-08
6356000. -0.1689299E-08  0.3037468E-06  0.2348840E-08  0.4414660E-07 -0.4332670E-09  0.7773928E-08
6356000. -0.1689299E-08  0.2689987E-06  0.2348840E-08  0.2825121E-07 -0.4332670E-09  0.8141500E-08
6355000. -0.1731410E-08  0.2675773E-06  0.2344271E-08  0.2996173E-07 -0.4345329E-09  0.7989291E-08
6354000. -0.1773293E-08  0.2660826E-06  0.2339434E-08  0.3166896E-07 -0.4357750E-09  0.7837090E-08
6353000. -0.1814936E-08  0.2645146E-06  0.2334330E-08  0.3337270E-07 -0.4369931E-09  0.7684903E-08
6352000. -0.1856327E-08  0.2628736E-06  0.2328958E-08  0.3507273E-07 -0.4381874E-09  0.7532735E-08
6351000. -0.1897454E-08  0.2611596E-06  0.2323320E-08  0.3676885E-07 -0.4393578E-09  0.7380592E-08
6350000. -0.1938307E-08  0.2593729E-06  0.2317415E-08  0.3846085E-07 -0.4405044E-09  0.7228478E-08
6349000. -0.1978873E-08  0.2575136E-06  0.2311246E-08  0.4014852E-07 -0.4416270E-09  0.7076399E-08
6348000. -0.2019142E-08  0.2555820E-06  0.2304812E-08  0.4183166E-07 -0.4427258E-09  0.6924360E-08
6347000. -0.2059102E-08  0.2535782E-06  0.2298114E-08  0.4351006E-07 -0.4438007E-09  0.6772367E-08
6346600. -0.2074997E-08  0.2527565E-06  0.2295362E-08  0.4418005E-07 -0.4442240E-09  0.6711583E-08
6346600. -0.2074997E-08  0.3044650E-06  0.2295362E-08  0.3125299E-07 -0.4442240E-09  0.7435104E-08
6318800. -0.3288608E-08  0.2447134E-06  0.2086544E-08  0.6390182E-07 -0.4669130E-09  0.2976127E-08
6291000. -0.4152021E-08  0.1447947E-06  0.1744177E-08  0.9209948E-07 -0.4703384E-09 -0.1385749E-08
6291000. -0.4152021E-08  0.1513201E-06  0.1744177E-08  0.9515323E-07 -0.4703384E-09 -0.1385749E-08
6263000. -0.4521163E-08  0.1154464E-07  0.1273176E-08  0.1178542E-06 -0.4550088E-09 -0.5561879E-08
6235000. -0.4217100E-08 -0.1529718E-06  0.7210758E-09  0.1318291E-06 -0.4217317E-09 -0.9546060E-08
6207000. -0.3160134E-08 -0.3286448E-06  0.1287407E-09  0.1360540E-06 -0.3714435E-09 -0.1329613E-07
6179000. -0.1334352E-08 -0.5002163E-06 -0.4600882E-09  0.1302514E-06 -0.3052667E-09 -0.1676910E-07
6151000.  0.1207551E-08 -0.6519294E-06 -0.1002137E-08  0.1149104E-06 -0.2245205E-09 -0.1991798E-07
6151000.  0.1207551E-08 -0.5538476E-06 -0.1002137E-08  0.1006620E-06 -0.2245205E-09 -0.1998479E-07
6128500.  0.3301136E-08 -0.6283100E-06 -0.1329644E-08  0.8422418E-07 -0.1512939E-09 -0.2143608E-07
6106000.  0.5618457E-08 -0.6799641E-06 -0.1593407E-08  0.6470820E-07 -0.7345803E-10 -0.2259369E-07
6083500.  0.8073303E-08 -0.7057824E-06 -0.1784152E-08  0.4303341E-07  0.7937416E-11 -0.2345119E-07
6061000.  0.1057074E-07 -0.7038719E-06 -0.1895976E-08  0.2018104E-07  0.9182744E-10 -0.2400635E-07
6038500.  0.1301128E-07 -0.6735443E-06 -0.1926488E-08 -0.2848867E-08  0.1771460E-09 -0.2426074E-07
6016000.  0.1529513E-07 -0.6153244E-06 -0.1876796E-08 -0.2508105E-07  0.2628391E-09 -0.2421970E-07
5993500.  0.1732645E-07 -0.5309070E-06 -0.1751350E-08 -0.4560492E-07  0.3478786E-09 -0.2389245E-07
5971000.  0.1901734E-07 -0.4230748E-06 -0.1557648E-08 -0.6361004E-07  0.4312744E-09 -0.2329101E-07
5971000.  0.1901734E-07 -0.4021553E-06 -0.1557648E-08 -0.5902085E-07  0.4312744E-09 -0.2578054E-07
5937667.  0.2065484E-07 -0.2199496E-06 -0.1200851E-08 -0.7604270E-07  0.5625744E-09 -0.2431909E-07
5904333.  0.2129205E-07 -0.2229243E-07 -0.7759369E-09 -0.8505413E-07  0.6849019E-09 -0.2236999E-07
5871000.  0.2088698E-07  0.1760944E-06 -0.3242659E-09 -0.8638171E-07  0.7960255E-09 -0.2005855E-07
5837667.  0.1947148E-07  0.3618995E-06  0.1160661E-09 -0.8090218E-07  0.8943758E-09 -0.1750693E-07
5804333.  0.1714147E-07  0.5240026E-06  0.5125986E-09 -0.6986418E-07  0.9789983E-09 -0.1482771E-07
5771000.  0.1404448E-07  0.6539380E-06  0.8399729E-09 -0.5472132E-07  0.1049487E-08 -0.1212031E-07
5771000.  0.1404448E-07  0.6539601E-06  0.8399729E-09 -0.5472000E-07  0.1049487E-08 -0.1212031E-07
5701000.  0.5660648E-08  0.8433632E-06  0.1240436E-08 -0.1645991E-07  0.1147092E-08 -0.5617896E-08
5701000.  0.5660648E-08  0.7185304E-06  0.1240436E-08 -0.1404471E-07  0.1147092E-08 -0.7213429E-08
5667333.  0.1811973E-08  0.7322722E-06  0.1272079E-08  0.1957978E-08  0.1181248E-08 -0.5743255E-08
5633667. -0.2020146E-08  0.7127130E-06  0.1221606E-08  0.1690876E-07  0.1208125E-08 -0.4462736E-08
5600000. -0.5667614E-08  0.6629729E-06  0.1096392E-08  0.3015097E-07  0.1228769E-08 -0.3384755E-08
5600000. -0.5667614E-08  0.6629866E-06  0.1096392E-08  0.3015205E-07  0.1228769E-08 -0.3384755E-08
5563518. -0.9262211E-08  0.5873329E-06  0.8860628E-09  0.4295276E-07  0.1245194E-08 -0.2363949E-08
5527037. -0.1233909E-07  0.4830226E-06  0.6091495E-09  0.5331435E-07  0.1255988E-08 -0.1419088E-08
5490556. -0.1474978E-07  0.3556800E-06  0.2811001E-09  0.6074599E-07  0.1261592E-08 -0.5509271E-09
5454074. -0.1638113E-07  0.2119766E-06 -0.8033176E-10  0.6493334E-07  0.1262438E-08  0.2437855E-09
5417593. -0.1716021E-07  0.5927390E-07 -0.4560840E-09  0.6574462E-07  0.1258928E-08  0.9717429E-09
5381111. -0.1705735E-07 -0.9479228E-07 -0.8269015E-09  0.6322868E-07  0.1251420E-08  0.1641590E-08
5344630. -0.1608652E-07 -0.2426657E-06 -0.1174254E-08  0.5760117E-07  0.1240220E-08  0.2263019E-08
5308148. -0.1430367E-07 -0.3772704E-06 -0.1481316E-08  0.4922459E-07  0.1225576E-08  0.2845931E-08
5271667. -0.1180340E-07 -0.4922996E-06 -0.1733662E-08  0.3858203E-07  0.1207683E-08  0.3399650E-08
5235185. -0.8713186E-08 -0.5825231E-06 -0.1919935E-08  0.2624605E-07  0.1186682E-08  0.3932137E-08
5198704. -0.5187255E-08 -0.6439718E-06 -0.2032213E-08  0.1284737E-07  0.1162679E-08  0.4449558E-08
5162222. -0.1398167E-08 -0.6741002E-06 -0.2066285E-08 -0.9611338E-09  0.1135745E-08  0.4955864E-08
5125741.  0.2470765E-08 -0.6718433E-06 -0.2021660E-08 -0.1453401E-07  0.1105940E-08  0.5452738E-08
5089259.  0.6234816E-08 -0.6376222E-06 -0.1901445E-08 -0.2726601E-07  0.1073317E-08  0.5939556E-08
5052778.  0.9715372E-08 -0.5732779E-06 -0.1712047E-08 -0.3861521E-07  0.1037942E-08  0.6413425E-08
5016296.  0.1274850E-07 -0.4819327E-06 -0.1462723E-08 -0.4812695E-07  0.9999014E-09  0.6869630E-08
4979815.  0.1519108E-07 -0.3678274E-06 -0.1165071E-08 -0.5544735E-07  0.9593144E-09  0.7301838E-08
4943333.  0.1692720E-07 -0.2360795E-06 -0.8323695E-09 -0.6033537E-07  0.9163382E-09  0.7702429E-08
4906852.  0.1787203E-07 -0.9246086E-07 -0.4789779E-09 -0.6266605E-07  0.8711787E-09  0.8063469E-08
4870370.  0.1797509E-07  0.5689878E-07 -0.1196014E-09 -0.6242997E-07  0.8240842E-09  0.8376383E-08
4833889.  0.1722140E-07  0.2057487E-06  0.2312769E-09 -0.5972646E-07  0.7753571E-09  0.8632928E-08
4797407.  0.1563138E-07  0.3480094E-06  0.5600710E-09 -0.5475387E-07  0.7253380E-09  0.8825981E-08
4760926.  0.1325940E-07  0.4779849E-06  0.8545432E-09 -0.4779498E-07  0.6744128E-09  0.8948933E-08
4724444.  0.1019053E-07  0.5906056E-06  0.1104309E-08 -0.3919939E-07  0.6229950E-09  0.8996825E-08
4687963.  0.6537006E-08  0.6815825E-06  0.1301107E-08 -0.2936677E-07  0.5715279E-09  0.8966241E-08
4651482.  0.2432735E-08  0.7475684E-06  0.1439080E-08 -0.1872556E-07  0.5204652E-09  0.8855462E-08
4615000. -0.1972151E-08  0.7862404E-06  0.1514853E-08 -0.7714440E-08  0.4702652E-09  0.8664601E-08
4578518. -0.6517037E-08  0.7963496E-06  0.1527548E-08  0.3235387E-08  0.4213834E-09  0.8395508E-08
4542037. -0.1103727E-07  0.7777338E-06  0.1478697E-08  0.1371740E-07  0.3742600E-09  0.8051581E-08
4505556. -0.1537053E-07  0.7312784E-06  0.1372050E-08  0.2336495E-07  0.3293089E-09  0.7637664E-08
4469074. -0.1936240E-07  0.6588368E-06  0.1213312E-08  0.3186244E-07  0.2869134E-09  0.7159627E-08
4432593. -0.2287127E-07  0.5631352E-06  0.1009840E-08  0.3895356E-07  0.2474239E-09  0.6624283E-08
4396111. -0.2577371E-07  0.4476213E-06  0.7702522E-09  0.4444871E-07  0.2111457E-09  0.6038753E-08
4359630. -0.2796743E-07  0.3163326E-06  0.5040812E-09  0.4822621E-07  0.1783494E-09  0.5409595E-08
4323148. -0.2937476E-07  0.1737040E-06  0.2213317E-09  0.5023323E-07  0.1492633E-09  0.4743565E-08
4286667. -0.2994405E-07  0.2442757E-07 -0.6784832E-10  0.5048225E-07  0.1240858E-09  0.4045384E-08
4250185. -0.2965087E-07 -0.1267517E-06 -0.3535894E-09  0.4904612E-07  0.1029882E-09  0.3318746E-08
4213704. -0.2849777E-07 -0.2751633E-06 -0.6265638E-09  0.4605088E-07  0.8613038E-10  0.2564659E-08
4177222. -0.2651334E-07 -0.4163923E-06 -0.8783272E-09  0.4166674E-07  0.7367319E-10  0.1780955E-08
4140741. -0.2375063E-07 -0.5463791E-06 -0.1101486E-08  0.3609896E-07  0.6580097E-10  0.9619803E-09
4104259. -0.2028434E-07 -0.6615568E-06 -0.1289922E-08  0.2957652E-07  0.6274392E-10  0.9690600E-10
4067778. -0.1620838E-07 -0.7589057E-06 -0.1438851E-08  0.2234288E-07  0.6480857E-10 -0.8301066E-09
4031296. -0.1163175E-07 -0.8360393E-06 -0.1544914E-08  0.1464434E-07  0.7241256E-10 -0.1842280E-08
3994815. -0.6675790E-08 -0.8912097E-06 -0.1606138E-08  0.6721942E-08  0.8612785E-10 -0.2970675E-08
3958333. -0.1469396E-08 -0.9233326E-06 -0.1621900E-08 -0.1198890E-08  0.1067333E-09 -0.4256477E-08
3921852.  0.3853569E-08 -0.9319505E-06 -0.1592804E-08 -0.8914207E-08  0.1352752E-09 -0.5752865E-08
3885370.  0.9158923E-08 -0.9171999E-06 -0.1520539E-08 -0.1624949E-07  0.1731477E-09 -0.7527849E-08
3848889.  0.1431424E-07 -0.8797476E-06 -0.1407708E-08 -0.2306318E-07  0.2221809E-09 -0.9667464E-08
3812407.  0.1919279E-07 -0.8206972E-06 -0.1257607E-08 -0.2925189E-07  0.2847650E-09 -0.1228059E-07
3775926.  0.2367464E-07 -0.7415056E-06 -0.1074025E-08 -0.3475119E-07  0.3639844E-09 -0.1550382E-07
3739444.  0.2764948E-07 -0.6438640E-06 -0.8609855E-09 -0.3953832E-07  0.4638107E-09 -0.1950927E-07
3702963.  0.3101662E-07 -0.5295902E-06 -0.6225457E-09 -0.4363153E-07  0.5893135E-09 -0.2451332E-07
3666482.  0.3368612E-07 -0.4004892E-06 -0.3625217E-09 -0.4709055E-07  0.7469635E-09 -0.3078841E-07
3630000.  0.3557801E-07 -0.2582248E-06 -0.8426927E-10 -0.5001566E-07  0.9449931E-09 -0.3867951E-07
3630000.  0.3557801E-07 -0.2582235E-06 -0.8426927E-10 -0.5001580E-07  0.9449931E-09 -0.3867951E-07
3592500.  0.3663934E-07 -0.1003251E-06  0.2177692E-09 -0.5255940E-07  0.1201657E-08 -0.4894030E-07
3555000.  0.3673541E-07  0.6963348E-07  0.5339968E-09 -0.5486587E-07  0.1526548E-08 -0.6197178E-07
3517500.  0.3579700E-07  0.2511425E-06  0.8635683E-09 -0.5712945E-07  0.1938085E-08 -0.7852233E-07
3480000.  0.3375606E-07  0.4443496E-06  0.1206912E-08 -0.5958926E-07  0.2459698E-08 -0.9955589E-07
3480000.  0.3375606E-07 -0.6510891E-07 -0.3325271E-09  0.6241446E-07  0.2459698E-08 -0.2057386E-06
3409422.  0.3445827E-07 -0.7226454E-07 -0.1045442E-08  0.6635722E-07  0.4847173E-08 -0.2247479E-06
3338844.  0.3560055E-07 -0.1454221E-06 -0.1806744E-08  0.7139300E-07  0.7438019E-08 -0.2434410E-06
3268266.  0.3794974E-07 -0.2917792E-06 -0.2637151E-08  0.7912949E-07  0.1026210E-07 -0.2679048E-06
3197688.  0.4238551E-07 -0.5252642E-06 -0.3577270E-08  0.9158104E-07  0.1341956E-07 -0.3048201E-06
3127109.  0.5000274E-07 -0.8718024E-06 -0.4693435E-08  0.1114338E-06  0.1709067E-07 -0.3620973E-06
3056531.  0.6228284E-07 -0.1376849E-05 -0.6087399E-08  0.1425004E-06  0.2155453E-07 -0.4499104E-06
2985953.  0.8137145E-07 -0.2117310E-05 -0.7912760E-08  0.1904818E-06  0.2722284E-07 -0.5823300E-06
2915375.  0.1105258E-06 -0.3221149E-05 -0.1040225E-07  0.2642342E-06  0.3469583E-07 -0.7798610E-06
2844797.  0.1548485E-06 -0.4900763E-05 -0.1391347E-07  0.3779035E-06  0.4485416E-07 -0.1073456E-05
2774219.  0.2225152E-06 -0.7511179E-05 -0.1900598E-07  0.5545952E-06  0.5900746E-07 -0.1510958E-05
2703641.  0.3268707E-06 -0.1165313E-04 -0.2657277E-07  0.8327983E-06  0.7913496E-07 -0.2167633E-05
2633062.  0.4900819E-06 -0.1835922E-04 -0.3806809E-07  0.1277833E-05  0.1082783E-06 -0.3163663E-05
2562484.  0.7496115E-06 -0.2943547E-04 -0.5590752E-07  0.2002626E-05  0.1511863E-06 -0.4693622E-05
2491906.  0.1169974E-05 -0.4810203E-04 -0.8418824E-07  0.3206376E-05  0.2153969E-06 -0.7077153E-05
2421328.  0.1864434E-05 -0.8021665E-04 -0.1300057E-06  0.5247680E-05  0.3130631E-06 -0.1084691E-04
2350750.  0.3035966E-05 -0.1366629E-03 -0.2059166E-06  0.8786115E-05  0.4640914E-06 -0.1690404E-04
2280172.  0.5056281E-05 -0.2381186E-03 -0.3346491E-06  0.1506283E-04  0.7016171E-06 -0.2679684E-04
2209594.  0.8621845E-05 -0.4248046E-03 -0.5583241E-06  0.2646989E-04  0.1081700E-05 -0.4322790E-04
2139016.  0.1506950E-04 -0.7769198E-03 -0.9569609E-06  0.4773537E-04  0.1700769E-05 -0.7099113E-04
2068438.  0.2703170E-04 -0.1458634E-02 -0.1686603E-05  0.8845745E-04  0.2727494E-05 -0.1187277E-03
1997859.  0.4983483E-04 -0.2815537E-02 -0.3060091E-05  0.1686813E-03  0.4461939E-05 -0.2022655E-03
1927281.  0.9456844E-04 -0.5596857E-02 -0.5723124E-05  0.3315404E-03  0.7446731E-05 -0.3510304E-03
1856703.  0.1850440E-03 -0.1147938E-01 -0.1105084E-04  0.6728822E-03  0.1267922E-04 -0.6204994E-03
1786125.  0.3740873E-03 -0.2434456E-01 -0.2207047E-04  0.1413086E-02  0.2201934E-04 -0.1116409E-02
1715547.  0.7830784E-03 -0.5350921E-01 -0.4568734E-04  0.3077783E-02  0.3897734E-04 -0.2041459E-02
1644969.  0.1701638E-02 -0.1222274E+00 -0.9826543E-04  0.6971020E-02  0.7022360E-04 -0.3782648E-02
1574391.  0.3849524E-02 -0.2910379E+00 -0.2202100E-03  0.1646847E-01  0.1283955E-03 -0.7061000E-02
1503812.  0.9096158E-02 -0.7249264E+00 -0.5158312E-03  0.4072062E-01  0.2368794E-03 -0.1312499E-01
1433234.  0.2253471E-01 -0.1896398E+01 -0.1267703E-02  0.1058018E+00  0.4358881E-03 -0.2368508E-01
1362656.  0.5878871E-01 -0.5234443E+01 -0.3282832E-02  0.2901955E+00  0.7798670E-03 -0.3884665E-01
1292078.  0.1623283E+00 -0.1532676E+02 -0.9003095E-02  0.8447489E+00  0.1268628E-02 -0.4452552E-01
1221500.  0.4772483E+00 -0.4790727E+02 -0.2630395E-01  0.2626192E+01  0.1428952E-02  0.5070376E-01
1221500.  0.4772483E+00 -0.8806143E+01 -0.5703115E-02 -0.2518938E+01  0.1428952E-02 -0.1560421E+00
1183328.  0.4759892E+00  0.7207685E+01  0.4668395E-02 -0.1075594E+01  0.1788288E-02  0.9581107E-02
1145156.  0.4097271E+00  0.1372040E+02  0.8468287E-02 -0.2777301E+00  0.1534559E-02  0.6298832E-01
1106984.  0.3222396E+00  0.1484627E+02  0.8799499E-02  0.1154625E+00  0.1128710E-02  0.6768209E-01
1068812.  0.2371441E+00  0.1327307E+02  0.7558485E-02  0.2694722E+00  0.7570299E-03  0.5504101E-01
1030641.  0.1652274E+00  0.1065498E+02  0.5826743E-02  0.2937180E+00  0.4749126E-03  0.3923434E-01
 992469.  0.1096558E+00  0.7926014E+01  0.4158777E-02  0.2569253E+00  0.2820938E-03  0.2569611E-01
 954297.  0.6953605E-01  0.5544261E+01  0.2788184E-02  0.1993297E+00  0.1596523E-03  0.1577975E-01
 916125.  0.4218620E-01  0.3673815E+01  0.1768518E-02  0.1421486E+00  0.8635210E-04  0.9176962E-02
 877953.  0.2448654E-01  0.2314414E+01  0.1064915E-02  0.9468004E-01  0.4468170E-04  0.5078639E-02
 839781.  0.1358590E-01  0.1388058E+01  0.6094660E-03  0.5935102E-01  0.2211063E-04  0.2679846E-02
 801609.  0.7193138E-02  0.7924302E+00  0.3314115E-03  0.3513517E-01  0.1044907E-04  0.1348515E-02
 763438.  0.3625534E-02  0.4300805E+00  0.1709707E-03  0.1965963E-01  0.4704900E-05  0.6463326E-03
 725266.  0.1734042E-02  0.2214010E+00  0.8346530E-04  0.1038825E-01  0.2011933E-05  0.2943405E-03
 687094.  0.7839119E-03  0.1077611E+00  0.3842454E-04  0.5171999E-02  0.8137316E-06  0.1269417E-03
 648922.  0.3333351E-03  0.4938332E-01  0.1660612E-04  0.2417632E-02  0.3096758E-06  0.5160690E-04
 610750.  0.1325320E-03  0.2119523E-01  0.6699164E-05  0.1055962E-02  0.1101953E-06  0.1966537E-04
 572578.  0.4891469E-04  0.8464040E-02  0.2505003E-05  0.4282800E-03  0.3638212E-07  0.6974378E-05
 534406.  0.1661039E-04  0.3119261E-02  0.8606874E-06  0.1600286E-03  0.1103978E-07  0.2281804E-05
 496234.  0.5133077E-05  0.1050130E-02  0.2687970E-06  0.5454185E-04  0.3042999E-08  0.6811753E-06
 458062.  0.1423899E-05  0.3188622E-03  0.7527257E-07  0.1674354E-04  0.7508781E-09  0.1830232E-06
 419891.  0.3484582E-06  0.8591848E-04  0.1857749E-07  0.4555752E-05  0.1628310E-09  0.4349608E-07
 381719.  0.7355489E-07  0.2011531E-04  0.3951171E-08  0.1075843E-05  0.3029797E-10  0.8939306E-08
 343547.  0.1300192E-07  0.3979736E-05  0.7031094E-09  0.2144762E-06  0.4687365E-11  0.1542313E-08
 305375.  0.1848766E-08  0.6407116E-06  0.1005633E-09  0.3475999E-07  0.5777480E-12  0.2145693E-09
 267203.  0.1999112E-09  0.7959594E-07  0.1092710E-10  0.4342042E-08  0.5345658E-13  0.2268673E-10
 229031.  0.0000000E+00  0.0000000E+00  0.0000000E+00  0.0000000E+00  0.0000000E+00  0.0000000E+00
 190859.  0.0000000E+00  0.0000000E+00  0.0000000E+00  0.0000000E+00  0.0000000E+00  0.0000000E+00
 152688.  0.0000000E+00  0.0000000E+00  0.0000000E+00  0.0000000E+00  0.0000000E+00  0.0000000E+00
 114516.  0.0000000E+00  0.0000000E+00  0.0000000E+00  0.0000000E+00  0.0000000E+00  0.0000000E+00
  76344.  0.0000000E+00  0.0000000E+00  0.0000000E+00  0.0000000E+00  0.0000000E+00  0.0000000E+00
  38172.  0.0000000E+00  0.0000000E+00  0.0000000E+00  0.0000000E+00  0.0000000E+00  0.0000000E+00
      0.  0.0000000E+00  0.0000000E+00  0.0000000E+00  0.0000000E+00  0.0000000E+00  0.0000000E+00
