       0       32 S       31        250.71570          4.91273          3.57075        176.46800      185    7
6371000.  0.2161020E+00 -0.2072744E+01 -0.4581321E-02 -0.2206833E+00 -0.5782578E-02 -0.2166928E+00
6370000.  0.2164242E+00 -0.2032420E+01 -0.4546675E-02 -0.2207730E+00 -0.5748710E-02 -0.2148575E+00
6369000.  0.2167400E+00 -0.1992055E+01 -0.4512016E-02 -0.2208528E+00 -0.5715129E-02 -0.2130255E+00
6368000.  0.2170495E+00 -0.1951650E+01 -0.4477345E-02 -0.2209227E+00 -0.5681837E-02 -0.2111966E+00
6368000.  0.2170495E+00 -0.1951650E+01 -0.4477345E-02 -0.2209227E+00 -0.5681837E-02 -0.2111966E+00
6367000.  0.2173527E+00 -0.1911206E+01 -0.4442664E-02 -0.2209828E+00 -0.5648830E-02 -0.2093708E+00
6366000.  0.2176495E+00 -0.1870726E+01 -0.4407974E-02 -0.2210329E+00 -0.5616110E-02 -0.2075481E+00
6365000.  0.2179400E+00 -0.1830210E+01 -0.4373278E-02 -0.2210732E+00 -0.5583676E-02 -0.2057283E+00
6364000.  0.2182240E+00 -0.1789661E+01 -0.4338575E-02 -0.2211035E+00 -0.5551527E-02 -0.2039116E+00
6363000.  0.2185018E+00 -0.1749080E+01 -0.4303868E-02 -0.2211239E+00 -0.5519663E-02 -0.2020977E+00
6362000.  0.2187731E+00 -0.1708468E+01 -0.4269159E-02 -0.2211344E+00 -0.5488084E-02 -0.2002867E+00
6361000.  0.2190381E+00 -0.1667827E+01 -0.4234450E-02 -0.2211350E+00 -0.5456788E-02 -0.1984786E+00
6360000.  0.2192967E+00 -0.1627159E+01 -0.4199741E-02 -0.2211256E+00 -0.5425777E-02 -0.1966732E+00
6359000.  0.2195489E+00 -0.1586465E+01 -0.4165034E-02 -0.2211063E+00 -0.5395048E-02 -0.1948706E+00
6358000.  0.2197947E+00 -0.1545748E+01 -0.4130331E-02 -0.2210770E+00 -0.5364602E-02 -0.1930707E+00
6357000.  0.2200341E+00 -0.1505007E+01 -0.4095634E-02 -0.2210378E+00 -0.5334439E-02 -0.1912734E+00
6356000.  0.2202672E+00 -0.1464246E+01 -0.4060943E-02 -0.2209886E+00 -0.5304557E-02 -0.1894787E+00
6356000.  0.2202672E+00 -0.1370913E+01 -0.4060943E-02 -0.2225223E+00 -0.5304557E-02 -0.2374063E+00
6355000.  0.2204799E+00 -0.1339332E+01 -0.4026059E-02 -0.2219742E+00 -0.5267445E-02 -0.2354887E+00
6354000.  0.2206876E+00 -0.1307797E+01 -0.3991260E-02 -0.2214237E+00 -0.5230632E-02 -0.2335777E+00
6353000.  0.2208904E+00 -0.1276307E+01 -0.3956549E-02 -0.2208706E+00 -0.5194119E-02 -0.2316733E+00
6352000.  0.2210883E+00 -0.1244863E+01 -0.3921924E-02 -0.2203151E+00 -0.5157904E-02 -0.2297755E+00
6351000.  0.2212812E+00 -0.1213465E+01 -0.3887387E-02 -0.2197570E+00 -0.5121987E-02 -0.2278842E+00
6350000.  0.2214692E+00 -0.1182115E+01 -0.3852938E-02 -0.2191964E+00 -0.5086366E-02 -0.2259994E+00
6349000.  0.2216523E+00 -0.1150812E+01 -0.3818576E-02 -0.2186333E+00 -0.5051040E-02 -0.2241209E+00
6348000.  0.2218305E+00 -0.1119557E+01 -0.3784304E-02 -0.2180677E+00 -0.5016009E-02 -0.2222489E+00
6347000.  0.2220038E+00 -0.1088350E+01 -0.3750120E-02 -0.2174996E+00 -0.4981271E-02 -0.2203831E+00
6346600.  0.2220717E+00 -0.1075881E+01 -0.3736472E-02 -0.2172717E+00 -0.4967458E-02 -0.2196385E+00
6346600.  0.2220717E+00 -0.1490598E+01 -0.3736472E-02 -0.2203268E+00 -0.4967458E-02 -0.2970717E+00
6318800.  0.2269494E+00 -0.7550598E+00 -0.2828573E-02 -0.1960667E+00 -0.3779555E-02 -0.2485843E+00
6291000.  0.2287476E+00 -0.7898911E-01 -0.2023374E-02 -0.1731936E+00 -0.2788562E-02 -0.2066259E+00
6291000.  0.2287476E+00 -0.1017693E+00 -0.2023374E-02 -0.1707821E+00 -0.2788562E-02 -0.2066259E+00
6263000.  0.2277823E+00  0.5306498E+00 -0.1321913E-02 -0.1485229E+00 -0.1962733E-02 -0.1699771E+00
6235000.  0.2241758E+00  0.1099844E+01 -0.7173032E-03 -0.1266611E+00 -0.1288233E-02 -0.1376041E+00
6207000.  0.2182116E+00  0.1603009E+01 -0.2083896E-03 -0.1049327E+00 -0.7482711E-03 -0.1086092E+00
6179000.  0.2101873E+00  0.2036686E+01  0.2048857E-03 -0.8310173E-01 -0.3298447E-03 -0.8216382E-01
6151000.  0.2004173E+00  0.2396757E+01  0.5216002E-03 -0.6095712E-01 -0.2346812E-04 -0.5749179E-01
6151000.  0.2004173E+00  0.1942583E+01  0.5216002E-03 -0.7899878E-01 -0.2346812E-04 -0.6857998E-01
6128500.  0.1931873E+00  0.2145645E+01  0.7770763E-03 -0.6578113E-01  0.1960360E-03 -0.5597465E-01
6106000.  0.1853058E+00  0.2311753E+01  0.9869168E-03 -0.5314631E-01  0.3735012E-03 -0.4473351E-01
6083500.  0.1769011E+00  0.2442192E+01  0.1153086E-02 -0.4104033E-01  0.5133360E-03 -0.3462751E-01
6061000.  0.1680970E+00  0.2538122E+01  0.1277349E-02 -0.2940316E-01  0.6191706E-03 -0.2544392E-01
6038500.  0.1590135E+00  0.2600571E+01  0.1361241E-02 -0.1816600E-01  0.6938946E-03 -0.1697497E-01
6016000.  0.1497673E+00  0.2630370E+01  0.1406042E-02 -0.7251779E-02  0.7396727E-03 -0.9018527E-02
5993500.  0.1404727E+00  0.2628120E+01  0.1412745E-02  0.3423936E-02  0.7579678E-03 -0.1377871E-02
5971000.  0.1312420E+00  0.2594186E+01  0.1382028E-02  0.1395675E-01  0.7495386E-03  0.6149733E-02
5971000.  0.1312420E+00  0.2387638E+01  0.1382028E-02 -0.2845452E-02  0.7495386E-03 -0.1103095E-01
5937667.  0.1189682E+00  0.2299323E+01  0.1379498E-02  0.3578040E-02  0.7905912E-03 -0.4894574E-02
5904333.  0.1072248E+00  0.2185958E+01  0.1346875E-02  0.8688152E-02  0.8029591E-03 -0.2312580E-04
5871000.  0.9612539E-01  0.2054338E+01  0.1290553E-02  0.1266839E-01  0.7926150E-03  0.3825624E-02
5837667.  0.8574983E-01  0.1910120E+01  0.1215958E-02  0.1570456E-01  0.7643266E-03  0.6871490E-02
5804333.  0.7615127E-01  0.1757880E+01  0.1127544E-02  0.1797948E-01  0.7217539E-03  0.9317991E-02
5771000.  0.6736264E-01  0.1601143E+01  0.1028840E-02  0.1966746E-01  0.6675396E-03  0.1135255E-01
5771000.  0.6736264E-01  0.1601213E+01  0.1028840E-02  0.1966443E-01  0.6675396E-03  0.1135255E-01
5701000.  0.5129685E-01  0.1309238E+01  0.7585302E-03  0.2969693E-01  0.4995701E-03  0.1955003E-01
5701000.  0.5129685E-01  0.1117648E+01  0.7585302E-03  0.1153104E-01  0.4995701E-03  0.5091294E-02
5667333.  0.4567127E-01  0.1012100E+01  0.6982993E-03  0.1119276E-01  0.4693295E-03  0.6259945E-02
5633667.  0.4058995E-01  0.9120336E+00  0.6409214E-03  0.1046342E-01  0.4343219E-03  0.6909482E-02
5600000.  0.3601910E-01  0.8191082E+00  0.5882982E-03  0.9400409E-02  0.3970966E-03  0.7107989E-02
5600000.  0.3601910E-01  0.8191275E+00  0.5882982E-03  0.9402798E-02  0.3970966E-03  0.7107989E-02
5563518.  0.3156630E-01  0.7369096E+00  0.5347836E-03  0.9253016E-02  0.3566597E-03  0.6979303E-02
5527037.  0.2757035E-01  0.6596791E+00  0.4826738E-03  0.8922783E-02  0.3175070E-03  0.6672077E-02
5490556.  0.2400138E-01  0.5878200E+00  0.4328381E-03  0.8466818E-02  0.2804675E-03  0.6250483E-02
5454074.  0.2082794E-01  0.5215118E+00  0.3858658E-03  0.7928605E-02  0.2460495E-03  0.5762956E-02
5417593.  0.1801828E-01  0.4607786E+00  0.3421290E-03  0.7342162E-02  0.2145263E-03  0.5244726E-02
5381111.  0.1554057E-01  0.4055200E+00  0.3018220E-03  0.6734157E-02  0.1859945E-03  0.4721421E-02
5344630.  0.1336409E-01  0.3555495E+00  0.2650098E-03  0.6124754E-02  0.1604301E-03  0.4211006E-02
5308148.  0.1145915E-01  0.3106120E+00  0.2316529E-03  0.5529103E-02  0.1377209E-03  0.3725529E-02
5271667.  0.9797859E-02  0.2704100E+00  0.2016420E-03  0.4957856E-02  0.1177019E-03  0.3272525E-02
5235185.  0.8353947E-02  0.2346166E+00  0.1748132E-03  0.4418396E-02  0.1001727E-03  0.2856234E-02
5198704.  0.7103205E-02  0.2028954E+00  0.1509713E-03  0.3915466E-02  0.8491785E-04  0.2478423E-02
5162222.  0.6023234E-02  0.1749025E+00  0.1298974E-03  0.3451625E-02  0.7171527E-04  0.2139188E-02
5125741.  0.5093707E-02  0.1503023E+00  0.1113656E-03  0.3027841E-02  0.6034786E-04  0.1837283E-02
5089259.  0.4296092E-02  0.1287672E+00  0.9514572E-04  0.2643823E-02  0.5060656E-04  0.1570757E-02
5052778.  0.3613777E-02  0.1099874E+00  0.8101390E-04  0.2298426E-02  0.4229625E-04  0.1337108E-02
5016296.  0.3031797E-02  0.9366891E-01  0.6875322E-04  0.1989808E-02  0.3523610E-04  0.1133573E-02
4979815.  0.2536880E-02  0.7953984E-01  0.5815997E-04  0.1715749E-02  0.2926214E-04  0.9573064E-03
4943333.  0.2117195E-02  0.6734753E-01  0.4904281E-04  0.1473723E-02  0.2422620E-04  0.8054273E-03
4906852.  0.1762342E-02  0.5686233E-01  0.4122621E-04  0.1261135E-02  0.1999670E-04  0.6752422E-03
4870370.  0.1463139E-02  0.4787408E-01  0.3454880E-04  0.1075319E-02  0.1645670E-04  0.5641432E-03
4833889.  0.1211581E-02  0.4019393E-01  0.2886522E-04  0.9136469E-03  0.1350408E-04  0.4697398E-03
4797407.  0.1000658E-02  0.3365195E-01  0.2404413E-04  0.7736152E-03  0.1104937E-04  0.3898670E-03
4760926.  0.8243070E-03  0.2809696E-01  0.1996875E-04  0.6528485E-03  0.9015249E-05  0.3225465E-03
4724444.  0.6772600E-03  0.2339410E-01  0.1653502E-04  0.5491074E-03  0.7334880E-05  0.2660183E-03
4687963.  0.5549921E-03  0.1942493E-01  0.1365159E-04  0.4603514E-03  0.5951093E-05  0.2187280E-03
4651482.  0.4536039E-03  0.1608489E-01  0.1123799E-04  0.3847024E-03  0.4814971E-05  0.1793016E-03
4615000.  0.3697587E-03  0.1328250E-01  0.9224086E-05  0.3204636E-03  0.3884957E-05  0.1465440E-03
4578518.  0.3006136E-03  0.1093821E-01  0.7549029E-05  0.2661121E-03  0.3125941E-05  0.1194171E-03
4542037.  0.2437495E-03  0.8982910E-02  0.6160208E-05  0.2202900E-03  0.2508312E-05  0.9702926E-04
4505556.  0.1971126E-03  0.7356781E-02  0.5012257E-05  0.1817933E-03  0.2007177E-05  0.7861016E-04
4469074.  0.1589684E-03  0.6008297E-02  0.4066308E-05  0.1495602E-03  0.1601727E-05  0.6350417E-04
4432593.  0.1278586E-03  0.4893364E-02  0.3289260E-05  0.1226647E-03  0.1274651E-05  0.5115384E-04
4396111.  0.1025552E-03  0.3974157E-02  0.2652879E-05  0.1002966E-03  0.1011545E-05  0.4108651E-04
4359630.  0.8203342E-04  0.3218561E-02  0.2133326E-05  0.8175682E-04  0.8005130E-06  0.3290728E-04
4323148.  0.6543568E-04  0.2599217E-02  0.1710431E-05  0.6643902E-04  0.6317214E-06  0.2628049E-04
4286667.  0.5205060E-04  0.2093072E-02  0.1367284E-05  0.5382639E-04  0.4971079E-06  0.2092900E-04
4250185.  0.4128670E-04  0.1680613E-02  0.1089685E-05  0.4347393E-04  0.3900493E-06  0.1661984E-04
4213704.  0.3265628E-04  0.1345501E-02  0.8658137E-06  0.3500507E-04  0.3051510E-06  0.1316084E-04
4177222.  0.2575641E-04  0.1074010E-02  0.6858164E-06  0.2809899E-04  0.2380101E-06  0.1039285E-04
4140741.  0.2025689E-04  0.8547181E-03  0.5415482E-06  0.2248623E-04  0.1850612E-06  0.8184818E-05
4104259.  0.1588664E-04  0.6780940E-03  0.4262650E-06  0.1793939E-04  0.1434124E-06  0.6429364E-05
4067778.  0.1242486E-04  0.5362518E-03  0.3344304E-06  0.1426829E-04  0.1107351E-06  0.5038474E-05
4031296.  0.9691506E-05  0.4226585E-03  0.2614934E-06  0.1131410E-04  0.8515171E-07  0.3940661E-05
3994815.  0.7540850E-05  0.3319411E-03  0.2037421E-06  0.8944939E-05  0.6515736E-07  0.3077891E-05
3958333.  0.5854867E-05  0.2596758E-03  0.1581467E-06  0.7051353E-05  0.4954430E-07  0.2403244E-05
3921852.  0.4538691E-05  0.2022468E-03  0.1222531E-06  0.5543048E-05  0.3734758E-07  0.1879191E-05
3885370.  0.3516051E-05  0.1566959E-03  0.9407375E-07  0.4345477E-05  0.2779367E-07  0.1475622E-05
3848889.  0.2726103E-05  0.1206223E-03  0.7201151E-07  0.3397473E-05  0.2026399E-07  0.1168748E-05
3812407.  0.2120314E-05  0.9207582E-04  0.5478568E-07  0.2648407E-05  0.1426028E-07  0.9398310E-06
3775926.  0.1660266E-05  0.6949007E-04  0.4138174E-07  0.2056355E-05  0.9379878E-08  0.7743371E-06
3739444.  0.1315524E-05  0.5161465E-04  0.3100378E-07  0.1585953E-05  0.5292795E-08  0.6610786E-06
3702963.  0.1062045E-05  0.3747495E-04  0.2304540E-07  0.1206505E-05  0.1725686E-08  0.5915246E-06
3666482.  0.8806347E-06  0.2634091E-04  0.1706685E-07  0.8898421E-06 -0.1552284E-08  0.5591187E-06
3630000.  0.7556010E-06  0.1772088E-04  0.1278812E-07  0.6079527E-06 -0.4738161E-08  0.5584888E-06
3630000.  0.7556010E-06  0.1772076E-04  0.1278812E-07  0.6079317E-06 -0.4738161E-08  0.5584888E-06
3592500.  0.6715281E-06  0.1122752E-04  0.1001769E-07  0.3309838E-06 -0.8093832E-08  0.5860926E-06
3555000.  0.6187511E-06  0.7134213E-05  0.8962695E-08  0.1740122E-07 -0.1168220E-07  0.6362735E-06
3517500.  0.5818149E-06  0.5983033E-05  0.9990551E-08 -0.3875638E-06 -0.1560938E-07  0.6991112E-06
3480000.  0.5402264E-06  0.8990433E-05  0.1385827E-07 -0.9636469E-06 -0.1990436E-07  0.7575253E-06
3480000.  0.5402264E-06  0.2901108E-04  0.1770508E-07  0.9563347E-06 -0.1990436E-07 -0.9418047E-06
3409422.  0.2958050E-06  0.1628105E-04  0.9662337E-08  0.5345992E-06 -0.1161655E-07 -0.5792107E-06
3338844.  0.1595549E-06  0.9001302E-05  0.5195818E-08  0.2945053E-06 -0.6599585E-08 -0.3444406E-06
3268266.  0.8474210E-07  0.4900818E-05  0.2751765E-08  0.1598181E-06 -0.3656786E-08 -0.1988718E-06
3197688.  0.4429564E-07  0.2626539E-05  0.1434604E-08  0.8539337E-07 -0.1978581E-08 -0.1117743E-06
3127109.  0.2277487E-07  0.1384952E-05  0.7358142E-09  0.4490131E-07 -0.1046143E-08 -0.6125382E-07
3056531.  0.1151153E-07  0.7181106E-06  0.3710744E-09  0.2322154E-07 -0.5407296E-09 -0.3276384E-07
2985953.  0.5716152E-08  0.3659194E-06  0.1838717E-09  0.1180438E-07 -0.2732484E-09 -0.1711466E-07
2915375.  0.2786489E-08  0.1831158E-06  0.8945674E-10  0.5894075E-08 -0.1349793E-09 -0.8732727E-08
2844797.  0.1332462E-08  0.8992745E-07  0.4269828E-10  0.2888571E-08 -0.6515852E-10 -0.4352326E-08
2774219.  0.6244939E-09  0.4330438E-07  0.1997698E-10  0.1388325E-08 -0.3072253E-10 -0.2118241E-08
2703641.  0.2866063E-09  0.2042903E-07  0.9152763E-11  0.6538270E-09 -0.1413913E-10 -0.1006346E-08
2633062.  0.1286907E-09  0.9430752E-08  0.4101731E-11  0.3014652E-09 -0.6344144E-11 -0.4665834E-09
2562484.  0.5652142E-10  0.4251804E-08  0.1794482E-11  0.1360681E-09 -0.2767118E-11 -0.2114154E-09
2491906.  0.0000000E+00  0.0000000E+00  0.0000000E+00  0.0000000E+00  0.0000000E+00  0.0000000E+00
2421328.  0.0000000E+00  0.0000000E+00  0.0000000E+00  0.0000000E+00  0.0000000E+00  0.0000000E+00
2350750.  0.0000000E+00  0.0000000E+00  0.0000000E+00  0.0000000E+00  0.0000000E+00  0.0000000E+00
2280172.  0.0000000E+00  0.0000000E+00  0.0000000E+00  0.0000000E+00  0.0000000E+00  0.0000000E+00
2209594.  0.0000000E+00  0.0000000E+00  0.0000000E+00  0.0000000E+00  0.0000000E+00  0.0000000E+00
2139016.  0.0000000E+00  0.0000000E+00  0.0000000E+00  0.0000000E+00  0.0000000E+00  0.0000000E+00
2068438.  0.0000000E+00  0.0000000E+00  0.0000000E+00  0.0000000E+00  0.0000000E+00  0.0000000E+00
1997859.  0.0000000E+00  0.0000000E+00  0.0000000E+00  0.0000000E+00  0.0000000E+00  0.0000000E+00
1927281.  0.0000000E+00  0.0000000E+00  0.0000000E+00  0.0000000E+00  0.0000000E+00  0.0000000E+00
1856703.  0.0000000E+00  0.0000000E+00  0.0000000E+00  0.0000000E+00  0.0000000E+00  0.0000000E+00
1786125.  0.0000000E+00  0.0000000E+00  0.0000000E+00  0.0000000E+00  0.0000000E+00  0.0000000E+00
1715547.  0.0000000E+00  0.0000000E+00  0.0000000E+00  0.0000000E+00  0.0000000E+00  0.0000000E+00
1644969.  0.0000000E+00  0.0000000E+00  0.0000000E+00  0.0000000E+00  0.0000000E+00  0.0000000E+00
1574391.  0.0000000E+00  0.0000000E+00  0.0000000E+00  0.0000000E+00  0.0000000E+00  0.0000000E+00
1503812.  0.0000000E+00  0.0000000E+00  0.0000000E+00  0.0000000E+00  0.0000000E+00  0.0000000E+00
1433234.  0.0000000E+00  0.0000000E+00  0.0000000E+00  0.0000000E+00  0.0000000E+00  0.0000000E+00
1362656.  0.0000000E+00  0.0000000E+00  0.0000000E+00  0.0000000E+00  0.0000000E+00  0.0000000E+00
1292078.  0.0000000E+00  0.0000000E+00  0.0000000E+00  0.0000000E+00  0.0000000E+00  0.0000000E+00
1221500.  0.0000000E+00  0.0000000E+00  0.0000000E+00  0.0000000E+00  0.0000000E+00  0.0000000E+00
1221500.  0.0000000E+00  0.0000000E+00  0.0000000E+00  0.0000000E+00  0.0000000E+00  0.0000000E+00
1183328.  0.0000000E+00  0.0000000E+00  0.0000000E+00  0.0000000E+00  0.0000000E+00  0.0000000E+00
1145156.  0.0000000E+00  0.0000000E+00  0.0000000E+00  0.0000000E+00  0.0000000E+00  0.0000000E+00
1106984.  0.0000000E+00  0.0000000E+00  0.0000000E+00  0.0000000E+00  0.0000000E+00  0.0000000E+00
1068812.  0.0000000E+00  0.0000000E+00  0.0000000E+00  0.0000000E+00  0.0000000E+00  0.0000000E+00
1030641.  0.0000000E+00  0.0000000E+00  0.0000000E+00  0.0000000E+00  0.0000000E+00  0.0000000E+00
 992469.  0.0000000E+00  0.0000000E+00  0.0000000E+00  0.0000000E+00  0.0000000E+00  0.0000000E+00
 954297.  0.0000000E+00  0.0000000E+00  0.0000000E+00  0.0000000E+00  0.0000000E+00  0.0000000E+00
 916125.  0.0000000E+00  0.0000000E+00  0.0000000E+00  0.0000000E+00  0.0000000E+00  0.0000000E+00
 877953.  0.0000000E+00  0.0000000E+00  0.0000000E+00  0.0000000E+00  0.0000000E+00  0.0000000E+00
 839781.  0.0000000E+00  0.0000000E+00  0.0000000E+00  0.0000000E+00  0.0000000E+00  0.0000000E+00
 801609.  0.0000000E+00  0.0000000E+00  0.0000000E+00  0.0000000E+00  0.0000000E+00  0.0000000E+00
 763438.  0.0000000E+00  0.0000000E+00  0.0000000E+00  0.0000000E+00  0.0000000E+00  0.0000000E+00
 725266.  0.0000000E+00  0.0000000E+00  0.0000000E+00  0.0000000E+00  0.0000000E+00  0.0000000E+00
 687094.  0.0000000E+00  0.0000000E+00  0.0000000E+00  0.0000000E+00  0.0000000E+00  0.0000000E+00
 648922.  0.0000000E+00  0.0000000E+00  0.0000000E+00  0.0000000E+00  0.0000000E+00  0.0000000E+00
 610750.  0.0000000E+00  0.0000000E+00  0.0000000E+00  0.0000000E+00  0.0000000E+00  0.0000000E+00
 572578.  0.0000000E+00  0.0000000E+00  0.0000000E+00  0.0000000E+00  0.0000000E+00  0.0000000E+00
 534406.  0.0000000E+00  0.0000000E+00  0.0000000E+00  0.0000000E+00  0.0000000E+00  0.0000000E+00
 496234.  0.0000000E+00  0.0000000E+00  0.0000000E+00  0.0000000E+00  0.0000000E+00  0.0000000E+00
 458062.  0.0000000E+00  0.0000000E+00  0.0000000E+00  0.0000000E+00  0.0000000E+00  0.0000000E+00
 419891.  0.0000000E+00  0.0000000E+00  0.0000000E+00  0.0000000E+00  0.0000000E+00  0.0000000E+00
 381719.  0.0000000E+00  0.0000000E+00  0.0000000E+00  0.0000000E+00  0.0000000E+00  0.0000000E+00
 343547.  0.0000000E+00  0.0000000E+00  0.0000000E+00  0.0000000E+00  0.0000000E+00  0.0000000E+00
 305375.  0.0000000E+00  0.0000000E+00  0.0000000E+00  0.0000000E+00  0.0000000E+00  0.0000000E+00
 267203.  0.0000000E+00  0.0000000E+00  0.0000000E+00  0.0000000E+00  0.0000000E+00  0.0000000E+00
 229031.  0.0000000E+00  0.0000000E+00  0.0000000E+00  0.0000000E+00  0.0000000E+00  0.0000000E+00
 190859.  0.0000000E+00  0.0000000E+00  0.0000000E+00  0.0000000E+00  0.0000000E+00  0.0000000E+00
 152688.  0.0000000E+00  0.0000000E+00  0.0000000E+00  0.0000000E+00  0.0000000E+00  0.0000000E+00
 114516.  0.0000000E+00  0.0000000E+00  0.0000000E+00  0.0000000E+00  0.0000000E+00  0.0000000E+00
  76344.  0.0000000E+00  0.0000000E+00  0.0000000E+00  0.0000000E+00  0.0000000E+00  0.0000000E+00
  38172.  0.0000000E+00  0.0000000E+00  0.0000000E+00  0.0000000E+00  0.0000000E+00  0.0000000E+00
      0.  0.0000000E+00  0.0000000E+00  0.0000000E+00  0.0000000E+00  0.0000000E+00  0.0000000E+00
