       3       34 S      254        135.96741          8.53363          8.66266        424.01151      185    7
6371000. -0.2092585E-03 -0.1192885E-01 -0.2585410E-04  0.1834044E-03  0.1896388E-04 -0.2691233E-03
6370000. -0.2073785E-03 -0.1202493E-01 -0.2588109E-04  0.1604905E-03  0.1900598E-04 -0.2673105E-03
6369000. -0.2054838E-03 -0.1211739E-01 -0.2590448E-04  0.1375218E-03  0.1904780E-04 -0.2655225E-03
6368000. -0.2035748E-03 -0.1220623E-01 -0.2592426E-04  0.1145020E-03  0.1908934E-04 -0.2637596E-03
6368000. -0.2035748E-03 -0.1220623E-01 -0.2592426E-04  0.1145020E-03  0.1908934E-04 -0.2637596E-03
6367000. -0.2016521E-03 -0.1229141E-01 -0.2594042E-04  0.9143510E-04  0.1913060E-04 -0.2620219E-03
6366000. -0.1997164E-03 -0.1237295E-01 -0.2595296E-04  0.6832502E-04  0.1917159E-04 -0.2603096E-03
6365000. -0.1977682E-03 -0.1245081E-01 -0.2596187E-04  0.4517564E-04  0.1921232E-04 -0.2586227E-03
6364000. -0.1958080E-03 -0.1252500E-01 -0.2596714E-04  0.2199087E-04  0.1925278E-04 -0.2569615E-03
6363000. -0.1938365E-03 -0.1259550E-01 -0.2596877E-04 -0.1225338E-05  0.1929298E-04 -0.2553260E-03
6362000. -0.1918542E-03 -0.1266231E-01 -0.2596675E-04 -0.2446906E-04  0.1933293E-04 -0.2537165E-03
6361000. -0.1898617E-03 -0.1272540E-01 -0.2596108E-04 -0.4773636E-04  0.1937263E-04 -0.2521331E-03
6360000. -0.1878596E-03 -0.1278479E-01 -0.2595176E-04 -0.7102328E-04  0.1941209E-04 -0.2505759E-03
6359000. -0.1858485E-03 -0.1284045E-01 -0.2593879E-04 -0.9432587E-04  0.1945130E-04 -0.2490452E-03
6358000. -0.1838289E-03 -0.1289239E-01 -0.2592215E-04 -0.1176402E-03  0.1949027E-04 -0.2475409E-03
6357000. -0.1818015E-03 -0.1294059E-01 -0.2590186E-04 -0.1409623E-03  0.1952901E-04 -0.2460634E-03
6356000. -0.1797668E-03 -0.1298506E-01 -0.2587790E-04 -0.1642881E-03  0.1956751E-04 -0.2446127E-03
6356000. -0.1797668E-03 -0.1114377E-01 -0.2587790E-04 -0.3801743E-04  0.1956751E-04 -0.2054975E-03
6355000. -0.1780145E-03 -0.1118335E-01 -0.2587098E-04 -0.5015345E-04  0.1959956E-04 -0.2028514E-03
6354000. -0.1762561E-03 -0.1122100E-01 -0.2586216E-04 -0.6229858E-04  0.1963120E-04 -0.2002246E-03
6353000. -0.1744921E-03 -0.1125673E-01 -0.2585142E-04 -0.7445158E-04  0.1966242E-04 -0.1976174E-03
6352000. -0.1727225E-03 -0.1129051E-01 -0.2583878E-04 -0.8661121E-04  0.1969323E-04 -0.1950296E-03
6351000. -0.1709478E-03 -0.1132236E-01 -0.2582423E-04 -0.9877623E-04  0.1972364E-04 -0.1924614E-03
6350000. -0.1691683E-03 -0.1135227E-01 -0.2580778E-04 -0.1109454E-03  0.1975365E-04 -0.1899128E-03
6349000. -0.1673842E-03 -0.1138023E-01 -0.2578941E-04 -0.1231175E-03  0.1978326E-04 -0.1873838E-03
6348000. -0.1655959E-03 -0.1140625E-01 -0.2576913E-04 -0.1352912E-03  0.1981248E-04 -0.1848745E-03
6347000. -0.1638036E-03 -0.1143032E-01 -0.2574694E-04 -0.1474654E-03  0.1984130E-04 -0.1823849E-03
6346600. -0.1630857E-03 -0.1143940E-01 -0.2573752E-04 -0.1523349E-03  0.1985272E-04 -0.1813946E-03
6346600. -0.1630857E-03 -0.1275920E-01 -0.2573752E-04 -0.5805736E-04  0.1985272E-04 -0.1245290E-03
6318800. -0.1064928E-03 -0.1303369E-01 -0.2510931E-04 -0.2299725E-03  0.2022163E-04 -0.4631945E-04
6291000. -0.5063307E-04 -0.1242126E-01 -0.2373707E-04 -0.3974044E-03  0.2027129E-04  0.2203442E-04
6291000. -0.5063307E-04 -0.1280317E-01 -0.2373707E-04 -0.4123763E-03  0.2027129E-04  0.2203442E-04
6263000.  0.2464671E-05 -0.1120502E-01 -0.2154650E-04 -0.5808556E-03  0.2004821E-04  0.7813097E-04
6235000.  0.4656476E-04 -0.8727633E-02 -0.1867103E-04 -0.7223682E-03  0.1959545E-04  0.1267702E-03
6207000.  0.7809984E-04 -0.5515895E-02 -0.1525010E-04 -0.8277147E-03  0.1894303E-04  0.1691891E-03
6179000.  0.9426207E-04 -0.1768998E-02 -0.1145892E-04 -0.8899050E-03  0.1811572E-04  0.2065436E-03
6151000.  0.9321832E-04  0.2270921E-02 -0.7497622E-05 -0.9046663E-03  0.1713345E-04  0.2398639E-03
6151000.  0.9321832E-04  0.1083190E-02 -0.7497622E-05 -0.8074338E-03  0.1713345E-04  0.2347065E-03
6128500.  0.8472590E-04  0.3709562E-02 -0.4694893E-05 -0.7761104E-03  0.1627812E-04  0.2491061E-03
6106000.  0.6718626E-04  0.6191808E-02 -0.2040435E-05 -0.7238454E-03  0.1537782E-04  0.2602143E-03
6083500.  0.4126305E-04  0.8443969E-02  0.3961765E-06 -0.6532161E-03  0.1444378E-04  0.2682479E-03
6061000.  0.7904692E-05  0.1039113E-01  0.2555394E-05 -0.5673026E-03  0.1348650E-04  0.2734057E-03
6038500. -0.3169859E-04  0.1197157E-01  0.4389253E-05 -0.4695621E-03  0.1251581E-04  0.2758735E-03
6016000. -0.7616416E-04  0.1313823E-01  0.5862453E-05 -0.3636826E-03  0.1154090E-04  0.2758244E-03
5993500. -0.1239705E-03  0.1385964E-01  0.6952910E-05 -0.2534405E-03  0.1057037E-04  0.2734214E-03
5971000. -0.1735132E-03  0.1412043E-01  0.7651853E-05 -0.1425776E-03  0.9612257E-05  0.2688143E-03
5971000. -0.1735132E-03  0.1309534E-01  0.7651853E-05 -0.1055749E-03  0.9612257E-05  0.2915286E-03
5937667. -0.2403728E-03  0.1233269E-01  0.7836506E-05  0.3123175E-04  0.8136173E-05  0.2718902E-03
5904333. -0.3013478E-03  0.1087215E-01  0.7368426E-05  0.1432513E-03  0.6775085E-05  0.2477076E-03
5871000. -0.3532215E-03  0.8883658E-02  0.6385509E-05  0.2278313E-03  0.5550434E-05  0.2199036E-03
5837667. -0.3936941E-03  0.6542983E-02  0.5032532E-05  0.2848738E-03  0.4478779E-05  0.1893637E-03
5804333. -0.4213689E-03  0.4018015E-02  0.3449470E-05  0.3161971E-03  0.3572310E-05  0.1568688E-03
5771000. -0.4356825E-03  0.1459097E-02  0.1763250E-05  0.3249254E-03  0.2839553E-05  0.1230623E-03
5771000. -0.4356825E-03  0.1459269E-02  0.1763250E-05  0.3249306E-03  0.2839553E-05  0.1230623E-03
5701000. -0.4232182E-03 -0.3628463E-02 -0.1588217E-05  0.2729490E-03  0.2020955E-05  0.2413191E-04
5701000. -0.4232182E-03 -0.3054260E-02 -0.1588217E-05  0.3144980E-03  0.2020955E-05  0.1434219E-03
5667333. -0.4015125E-03 -0.5120541E-02 -0.3178214E-05  0.2864167E-03  0.1361887E-05  0.1070275E-03
5633667. -0.3695421E-03 -0.6935687E-02 -0.4608931E-05  0.2547351E-03  0.8790695E-06  0.7673959E-04
5600000. -0.3286715E-03 -0.8488007E-02 -0.5869017E-05  0.2222536E-03  0.5398558E-06  0.5270603E-04
5600000. -0.3286715E-03 -0.8488229E-02 -0.5869017E-05  0.2222466E-03  0.5398558E-06  0.5270603E-04
5563518. -0.2755400E-03 -0.1002485E-01 -0.7030298E-05  0.1831936E-03  0.2978360E-06  0.3262418E-04
5527037. -0.2143822E-03 -0.1129100E-01 -0.7966593E-05  0.1439056E-03  0.1578600E-06  0.1692969E-04
5490556. -0.1467566E-03 -0.1228428E-01 -0.8680378E-05  0.1056756E-03  0.9701612E-07  0.4870245E-05
5454074. -0.7420855E-04 -0.1301152E-01 -0.9180980E-05  0.6960901E-04  0.9635399E-07 -0.4186455E-05
5417593.  0.1773567E-05 -0.1348749E-01 -0.9483461E-05  0.3661499E-04  0.1402325E-06 -0.1076751E-04
5381111.  0.7981416E-04 -0.1373385E-01 -0.9607536E-05  0.7395196E-05  0.2157917E-06 -0.1531924E-04
5344630.  0.1586691E-03 -0.1377752E-01 -0.9576355E-05 -0.1754236E-04  0.3125130E-06 -0.1821689E-04
5308148.  0.2372694E-03 -0.1364960E-01 -0.9415448E-05 -0.3787435E-04  0.4218599E-06 -0.1977635E-04
5271667.  0.3147239E-03 -0.1338386E-01 -0.9151723E-05 -0.5344111E-04  0.5369483E-06 -0.2026336E-04
5235185.  0.3903487E-03 -0.1301582E-01 -0.8812576E-05 -0.6422141E-04  0.6522876E-06 -0.1989607E-04
5198704.  0.4636580E-03 -0.1258186E-01 -0.8425219E-05 -0.7030609E-04  0.7635178E-06 -0.1885551E-04
5162222.  0.5343822E-03 -0.1211828E-01 -0.8016045E-05 -0.7187241E-04  0.8671981E-06 -0.1727884E-04
5125741.  0.6024511E-03 -0.1166093E-01 -0.7610299E-05 -0.6915538E-04  0.9605938E-06 -0.1527950E-04
5089259.  0.6680043E-03 -0.1124473E-01 -0.7231735E-05 -0.6241929E-04  0.1041501E-05 -0.1292491E-04
5052778.  0.7313717E-03 -0.1090365E-01 -0.6902618E-05 -0.5193242E-04  0.1108019E-05 -0.1025890E-04
5016296.  0.7930817E-03 -0.1067069E-01 -0.6643678E-05 -0.3794376E-04  0.1158399E-05 -0.7284956E-05
4979815.  0.8538432E-03 -0.1057827E-01 -0.6474369E-05 -0.2065845E-04  0.1190796E-05 -0.3971416E-05
4943333.  0.9145563E-03 -0.1065863E-01 -0.6413117E-05 -0.2182753E-06  0.1203119E-05 -0.2572339E-06
4906852.  0.9763008E-03 -0.1094469E-01 -0.6477796E-05  0.2332604E-04  0.1192726E-05  0.3986871E-05
4870370.  0.1040356E-02 -0.1147095E-01 -0.6686285E-05  0.5002605E-04  0.1156146E-05  0.8918759E-05
4833889.  0.1108198E-02 -0.1227448E-01 -0.7057039E-05  0.8004397E-04  0.1088845E-05  0.1476466E-04
4797407.  0.1181534E-02 -0.1339677E-01 -0.7609951E-05  0.1137124E-03  0.9846764E-06  0.2185453E-04
4760926.  0.1262319E-02 -0.1488507E-01 -0.8367197E-05  0.1515127E-03  0.8354405E-06  0.3058223E-04
4724444.  0.1352806E-02 -0.1679475E-01 -0.9354294E-05  0.1941145E-03  0.6302865E-06  0.4148605E-04
4687963.  0.1455585E-02 -0.1919154E-01 -0.1060114E-04  0.2424165E-03  0.3548542E-06  0.5526075E-04
4651482.  0.1573669E-02 -0.2215481E-01 -0.1214356E-04  0.2975658E-03 -0.9740812E-08  0.7279819E-04
4615000.  0.1710572E-02 -0.2578109E-01 -0.1402481E-04  0.3610085E-03 -0.4882596E-06  0.9526609E-04
4578518.  0.1870414E-02 -0.3018815E-01 -0.1629724E-04  0.4345241E-03 -0.1113023E-05  0.1241622E-03
4542037.  0.2058058E-02 -0.3552034E-01 -0.1902451E-04  0.5202949E-03 -0.1926217E-05  0.1614573E-03
4505556.  0.2279299E-02 -0.4195546E-01 -0.2228424E-04  0.6209858E-03 -0.2982889E-05  0.2096832E-03
4469074.  0.2541064E-02 -0.4971221E-01 -0.2617086E-04  0.7398026E-03 -0.4354727E-05  0.2721505E-03
4432593.  0.2851647E-02 -0.5905911E-01 -0.3079866E-04  0.8806003E-03 -0.6134941E-05  0.3531418E-03
4396111.  0.3221088E-02 -0.7032751E-01 -0.3630657E-04  0.1047992E-02 -0.8444979E-05  0.4582520E-03
4359630.  0.3661493E-02 -0.8392380E-01 -0.4286184E-04  0.1247455E-02 -0.1144298E-04  0.5948366E-03
4323148.  0.4187600E-02 -0.1003485E+00 -0.5066639E-04  0.1485433E-02 -0.1533530E-04  0.7723942E-03
4286667.  0.4817271E-02 -0.1202150E+00 -0.5996155E-04  0.1769519E-02 -0.2039065E-04  0.1003465E-02
4250185.  0.5572334E-02 -0.1442762E+00 -0.7103619E-04  0.2108408E-02 -0.2696034E-04  0.1304351E-02
4213704.  0.6479308E-02 -0.1734507E+00 -0.8423135E-04  0.2512011E-02 -0.3550220E-04  0.1696430E-02
4177222.  0.7570628E-02 -0.2088602E+00 -0.9994912E-04  0.2991251E-02 -0.4661564E-04  0.2207754E-02
4140741.  0.8885705E-02 -0.2518634E+00 -0.1186550E-03  0.3557826E-02 -0.6108297E-04  0.2874943E-02
4104259.  0.1047266E-01 -0.3041046E+00 -0.1408840E-03  0.4223428E-02 -0.7992924E-04  0.3746167E-02
4067778.  0.1238974E-01 -0.3675456E+00 -0.1672322E-03  0.4998287E-02 -0.1044933E-03  0.4884166E-02
4031296.  0.1470771E-01 -0.4445193E+00 -0.1983485E-03  0.5889200E-02 -0.1365298E-03  0.6371416E-02
3994815.  0.1751148E-01 -0.5377391E+00 -0.2348982E-03  0.6895262E-02 -0.1783306E-03  0.8315294E-02
3958333.  0.2090298E-01 -0.6503158E+00 -0.2775097E-03  0.8001985E-02 -0.2328965E-03  0.1085607E-01
3921852.  0.2500255E-01 -0.7856782E+00 -0.3266610E-03  0.9170679E-02 -0.3041424E-03  0.1417623E-01
3885370.  0.2995121E-01 -0.9474441E+00 -0.3825092E-03  0.1032303E-01 -0.3971835E-03  0.1851247E-01
3848889.  0.3590997E-01 -0.1139072E+01 -0.4445869E-03  0.1131598E-01 -0.5186699E-03  0.2416988E-01
3812407.  0.4305850E-01 -0.1363279E+01 -0.5113381E-03  0.1190191E-01 -0.6772494E-03  0.3154020E-01
3775926.  0.5158667E-01 -0.1620930E+01 -0.5793446E-03  0.1166826E-01 -0.8840904E-03  0.4112112E-01
3739444.  0.6168086E-01 -0.1909257E+01 -0.6421481E-03  0.9943718E-02 -0.1153592E-02  0.5353955E-01
3702963.  0.7349309E-01 -0.2218733E+01 -0.6883634E-03  0.5651393E-02 -0.1504127E-02  0.6956957E-01
3666482.  0.8709113E-01 -0.2528108E+01 -0.6987714E-03 -0.2916217E-02 -0.1958993E-02  0.9015001E-01
3630000.  0.1023690E+00 -0.2796204E+01 -0.6417697E-03 -0.1844714E-01 -0.2547330E-02  0.1163770E+00
3630000.  0.1023690E+00 -0.2796191E+01 -0.6417697E-03 -0.1844892E-01 -0.2547330E-02  0.1163770E+00
3592500.  0.1194066E+00 -0.2964336E+01 -0.4611332E-03 -0.4542846E-01 -0.3328638E-02  0.1503837E+00
3555000.  0.1367680E+00 -0.2875795E+01 -0.6967648E-04 -0.9155789E-01 -0.4334047E-02  0.1927316E+00
3517500.  0.1522940E+00 -0.2289340E+01  0.6759588E-03 -0.1681054E+00 -0.5615892E-02  0.2444288E+00
3480000.  0.1619662E+00 -0.8013350E+00  0.2003189E-02 -0.2928519E+00 -0.7230126E-02  0.3055627E+00
3480000.  0.1619662E+00  0.7871880E+01  0.5722107E-02  0.2859455E+00 -0.7230126E-02 -0.2039164E+00
3409422.  0.9352250E-01  0.4727031E+01  0.3256762E-02  0.1686367E+00 -0.5009966E-02 -0.1868327E+00
3338844.  0.5285523E-01  0.2773758E+01  0.1816755E-02  0.9737537E-01 -0.3199193E-02 -0.1386895E+00
3268266.  0.2923824E-01  0.1591020E+01  0.9931601E-03  0.5505560E-01 -0.1927639E-02 -0.9239843E-01
3197688.  0.1582943E-01  0.8922512E+00  0.5319222E-03  0.3047758E-01 -0.1109435E-02 -0.5736016E-01
3127109.  0.8385654E-02  0.4892266E+00  0.2790197E-03  0.1651608E-01 -0.6141796E-03 -0.3377387E-01
3056531.  0.4345493E-02  0.2622410E+00  0.1432869E-03  0.8759251E-02 -0.3284260E-03 -0.1904351E-01
2985953.  0.2201859E-02  0.1373877E+00  0.7200129E-04  0.4544558E-02 -0.1700765E-03 -0.1034035E-01
2915375.  0.1090353E-02  0.7032236E-01  0.3538193E-04  0.2305538E-02 -0.8542594E-04 -0.5425163E-02
2844797.  0.5273604E-03  0.3515027E-01  0.1699171E-04  0.1143034E-02 -0.4165308E-04 -0.2755902E-02
2774219.  0.2489454E-03  0.1714731E-01  0.7968473E-05  0.5534271E-03 -0.1972305E-04 -0.1357043E-02
2703641.  0.1146053E-03  0.8158093E-02  0.3646038E-05  0.2614798E-03 -0.9069098E-05 -0.6481009E-03
2633062.  0.5140518E-04  0.3782210E-02  0.1626124E-05  0.1204497E-03 -0.4048312E-05 -0.3002267E-03
2562484.  0.2244255E-04  0.1707138E-02  0.7061851E-06  0.5404347E-04 -0.1753334E-05 -0.1348695E-03
2491906.  0.9525686E-05  0.7493591E-03  0.2982603E-06  0.2359193E-04 -0.7361788E-06 -0.5872102E-04
2421328.  0.3925747E-05  0.3195140E-03  0.1223532E-06  0.1000757E-04 -0.2993567E-06 -0.2475932E-04
2350750.  0.1568670E-05  0.1321556E-03  0.4867971E-07  0.4119483E-05 -0.1177476E-06 -0.1009939E-04
2280172.  0.6067888E-06  0.5294519E-04  0.1875412E-07  0.1643015E-05 -0.4473560E-07 -0.3980259E-05
2209594.  0.2268186E-06  0.2051103E-04  0.6983788E-08  0.6338531E-06 -0.1639003E-07 -0.1513333E-05
2139016.  0.8177293E-07  0.7669383E-05  0.2508864E-08  0.2360834E-06 -0.5779897E-08 -0.5541276E-06
2068438.  0.2837207E-07  0.2762138E-05  0.8675791E-09  0.8471560E-07 -0.1957747E-08 -0.1950171E-06
1997859.  0.9450845E-08  0.9559416E-06  0.2880898E-09  0.2921889E-07 -0.6354005E-09 -0.6581647E-07
1927281.  0.3014370E-08  0.3171095E-06  0.9161697E-10  0.9661617E-08 -0.1970794E-09 -0.2124696E-07
1856703.  0.9178235E-09  0.1005349E-06  0.2781879E-10  0.3053891E-08 -0.5823964E-10 -0.6541767E-08
1786125.  0.2658876E-09  0.3036288E-07  0.8038009E-11  0.9197289E-09 -0.1634179E-10 -0.1914733E-08
1715547.  0.7300996E-10  0.8703332E-08  0.2201637E-11  0.2629594E-09 -0.4337081E-11 -0.5308136E-09
1644969.  0.1893094E-10  0.2356740E-08  0.5689283E-12  0.7111671E-10 -0.1083318E-11 -0.1388798E-09
1574391.  0.0000000E+00  0.0000000E+00  0.0000000E+00  0.0000000E+00  0.0000000E+00  0.0000000E+00
1503812.  0.0000000E+00  0.0000000E+00  0.0000000E+00  0.0000000E+00  0.0000000E+00  0.0000000E+00
1433234.  0.0000000E+00  0.0000000E+00  0.0000000E+00  0.0000000E+00  0.0000000E+00  0.0000000E+00
1362656.  0.0000000E+00  0.0000000E+00  0.0000000E+00  0.0000000E+00  0.0000000E+00  0.0000000E+00
1292078.  0.0000000E+00  0.0000000E+00  0.0000000E+00  0.0000000E+00  0.0000000E+00  0.0000000E+00
1221500.  0.0000000E+00  0.0000000E+00  0.0000000E+00  0.0000000E+00  0.0000000E+00  0.0000000E+00
1221500.  0.0000000E+00  0.0000000E+00  0.0000000E+00  0.0000000E+00  0.0000000E+00  0.0000000E+00
1183328.  0.0000000E+00  0.0000000E+00  0.0000000E+00  0.0000000E+00  0.0000000E+00  0.0000000E+00
1145156.  0.0000000E+00  0.0000000E+00  0.0000000E+00  0.0000000E+00  0.0000000E+00  0.0000000E+00
1106984.  0.0000000E+00  0.0000000E+00  0.0000000E+00  0.0000000E+00  0.0000000E+00  0.0000000E+00
1068812.  0.0000000E+00  0.0000000E+00  0.0000000E+00  0.0000000E+00  0.0000000E+00  0.0000000E+00
1030641.  0.0000000E+00  0.0000000E+00  0.0000000E+00  0.0000000E+00  0.0000000E+00  0.0000000E+00
 992469.  0.0000000E+00  0.0000000E+00  0.0000000E+00  0.0000000E+00  0.0000000E+00  0.0000000E+00
 954297.  0.0000000E+00  0.0000000E+00  0.0000000E+00  0.0000000E+00  0.0000000E+00  0.0000000E+00
 916125.  0.0000000E+00  0.0000000E+00  0.0000000E+00  0.0000000E+00  0.0000000E+00  0.0000000E+00
 877953.  0.0000000E+00  0.0000000E+00  0.0000000E+00  0.0000000E+00  0.0000000E+00  0.0000000E+00
 839781.  0.0000000E+00  0.0000000E+00  0.0000000E+00  0.0000000E+00  0.0000000E+00  0.0000000E+00
 801609.  0.0000000E+00  0.0000000E+00  0.0000000E+00  0.0000000E+00  0.0000000E+00  0.0000000E+00
 763438.  0.0000000E+00  0.0000000E+00  0.0000000E+00  0.0000000E+00  0.0000000E+00  0.0000000E+00
 725266.  0.0000000E+00  0.0000000E+00  0.0000000E+00  0.0000000E+00  0.0000000E+00  0.0000000E+00
 687094.  0.0000000E+00  0.0000000E+00  0.0000000E+00  0.0000000E+00  0.0000000E+00  0.0000000E+00
 648922.  0.0000000E+00  0.0000000E+00  0.0000000E+00  0.0000000E+00  0.0000000E+00  0.0000000E+00
 610750.  0.0000000E+00  0.0000000E+00  0.0000000E+00  0.0000000E+00  0.0000000E+00  0.0000000E+00
 572578.  0.0000000E+00  0.0000000E+00  0.0000000E+00  0.0000000E+00  0.0000000E+00  0.0000000E+00
 534406.  0.0000000E+00  0.0000000E+00  0.0000000E+00  0.0000000E+00  0.0000000E+00  0.0000000E+00
 496234.  0.0000000E+00  0.0000000E+00  0.0000000E+00  0.0000000E+00  0.0000000E+00  0.0000000E+00
 458062.  0.0000000E+00  0.0000000E+00  0.0000000E+00  0.0000000E+00  0.0000000E+00  0.0000000E+00
 419891.  0.0000000E+00  0.0000000E+00  0.0000000E+00  0.0000000E+00  0.0000000E+00  0.0000000E+00
 381719.  0.0000000E+00  0.0000000E+00  0.0000000E+00  0.0000000E+00  0.0000000E+00  0.0000000E+00
 343547.  0.0000000E+00  0.0000000E+00  0.0000000E+00  0.0000000E+00  0.0000000E+00  0.0000000E+00
 305375.  0.0000000E+00  0.0000000E+00  0.0000000E+00  0.0000000E+00  0.0000000E+00  0.0000000E+00
 267203.  0.0000000E+00  0.0000000E+00  0.0000000E+00  0.0000000E+00  0.0000000E+00  0.0000000E+00
 229031.  0.0000000E+00  0.0000000E+00  0.0000000E+00  0.0000000E+00  0.0000000E+00  0.0000000E+00
 190859.  0.0000000E+00  0.0000000E+00  0.0000000E+00  0.0000000E+00  0.0000000E+00  0.0000000E+00
 152688.  0.0000000E+00  0.0000000E+00  0.0000000E+00  0.0000000E+00  0.0000000E+00  0.0000000E+00
 114516.  0.0000000E+00  0.0000000E+00  0.0000000E+00  0.0000000E+00  0.0000000E+00  0.0000000E+00
  76344.  0.0000000E+00  0.0000000E+00  0.0000000E+00  0.0000000E+00  0.0000000E+00  0.0000000E+00
  38172.  0.0000000E+00  0.0000000E+00  0.0000000E+00  0.0000000E+00  0.0000000E+00  0.0000000E+00
      0.  0.0000000E+00  0.0000000E+00  0.0000000E+00  0.0000000E+00  0.0000000E+00  0.0000000E+00
