      13       16 S      594        114.30760         21.22407         12.24698        434.76959      185    7
6371000.  0.3970925E-01  0.1318662E+00  0.1525559E-02 -0.3818369E-01 -0.2948057E-03 -0.6987066E-01
6370000.  0.3968672E-01  0.1552515E+00  0.1531339E-02 -0.3546778E-01 -0.2838334E-03 -0.6993733E-01
6369000.  0.3966052E-01  0.1785494E+00  0.1536692E-02 -0.3273294E-01 -0.2728511E-03 -0.6999804E-01
6368000.  0.3963067E-01  0.2017571E+00  0.1541614E-02 -0.2997993E-01 -0.2618598E-03 -0.7005282E-01
6368000.  0.3963067E-01  0.2017571E+00  0.1541614E-02 -0.2997993E-01 -0.2618598E-03 -0.7005282E-01
6367000.  0.3959719E-01  0.2248721E+00  0.1546102E-02 -0.2720955E-01 -0.2508603E-03 -0.7010163E-01
6366000.  0.3956008E-01  0.2478917E+00  0.1550155E-02 -0.2442258E-01 -0.2398536E-03 -0.7014448E-01
6365000.  0.3951937E-01  0.2708134E+00  0.1553769E-02 -0.2161982E-01 -0.2288407E-03 -0.7018137E-01
6364000.  0.3947507E-01  0.2936347E+00  0.1556941E-02 -0.1880205E-01 -0.2178224E-03 -0.7021228E-01
6363000.  0.3942720E-01  0.3163531E+00  0.1559670E-02 -0.1597008E-01 -0.2067998E-03 -0.7023722E-01
6362000.  0.3937577E-01  0.3389661E+00  0.1561954E-02 -0.1312473E-01 -0.1957737E-03 -0.7025617E-01
6361000.  0.3932080E-01  0.3614713E+00  0.1563790E-02 -0.1026680E-01 -0.1847451E-03 -0.7026914E-01
6360000.  0.3926230E-01  0.3838664E+00  0.1565176E-02 -0.7397112E-02 -0.1737149E-03 -0.7027612E-01
6359000.  0.3920030E-01  0.4061489E+00  0.1566111E-02 -0.4516486E-02 -0.1626842E-03 -0.7027710E-01
6358000.  0.3913481E-01  0.4283165E+00  0.1566593E-02 -0.1625748E-02 -0.1516537E-03 -0.7027210E-01
6357000.  0.3906585E-01  0.4503670E+00  0.1566621E-02  0.1274273E-02 -0.1406245E-03 -0.7026109E-01
6356000.  0.3899343E-01  0.4722981E+00  0.1566193E-02  0.4182742E-02 -0.1295975E-03 -0.7024409E-01
6356000.  0.3899343E-01  0.3386615E+00  0.1566193E-02 -0.1234665E-01 -0.1295975E-03 -0.7872861E-01
6355000.  0.3893901E-01  0.3548264E+00  0.1567981E-02 -0.1043796E-01 -0.1172385E-03 -0.7874890E-01
6354000.  0.3888205E-01  0.3709188E+00  0.1569469E-02 -0.8521671E-02 -0.1048767E-03 -0.7876460E-01
6353000.  0.3882257E-01  0.3869375E+00  0.1570656E-02 -0.6598135E-02 -0.9251274E-04 -0.7877570E-01
6352000.  0.3876058E-01  0.4028811E+00  0.1571540E-02 -0.4667722E-02 -0.8014744E-04 -0.7878223E-01
6351000.  0.3869610E-01  0.4187485E+00  0.1572121E-02 -0.2730798E-02 -0.6778147E-04 -0.7878416E-01
6350000.  0.3862913E-01  0.4345384E+00  0.1572397E-02 -0.7877329E-03 -0.5541556E-04 -0.7878151E-01
6349000.  0.3855969E-01  0.4502496E+00  0.1572368E-02  0.1161104E-02 -0.4305043E-04 -0.7877426E-01
6348000.  0.3848780E-01  0.4658808E+00  0.1572032E-02  0.3115340E-02 -0.3068679E-04 -0.7876242E-01
6347000.  0.3841345E-01  0.4814311E+00  0.1571389E-02  0.5074603E-02 -0.1832537E-04 -0.7874598E-01
6346600.  0.3838303E-01  0.4876282E+00  0.1571046E-02  0.5859631E-02 -0.1338159E-04 -0.7873812E-01
6346600.  0.3838303E-01  0.3665516E+00  0.1571046E-02 -0.8048579E-02 -0.1338159E-04 -0.9212172E-01
6318800.  0.3611776E-01  0.6639352E+00  0.1513643E-02  0.3466297E-01  0.3877665E-03 -0.9127620E-01
6291000.  0.3266562E-01  0.9087195E+00  0.1269480E-02  0.7672805E-01  0.7791179E-03 -0.8763437E-01
6291000.  0.3266562E-01  0.9230239E+00  0.1269480E-02  0.8041389E-01  0.7791179E-03 -0.8763437E-01
6263000.  0.2817961E-01  0.1107416E+01  0.8294070E-03  0.1183969E+00  0.1150755E-02 -0.8102857E-01
6235000.  0.2302821E-01  0.1226112E+01  0.2448463E-03  0.1454609E+00  0.1487466E-02 -0.7177789E-01
6207000.  0.1749192E-01  0.1283821E+01 -0.4279033E-03  0.1580631E+00  0.1778191E-02 -0.6015482E-01
6179000.  0.1181876E-01  0.1290379E+01 -0.1120401E-02  0.1542769E+00  0.2013262E-02 -0.4651773E-01
6151000.  0.6205357E-02  0.1259000E+01 -0.1759761E-02  0.1340281E+00  0.2184750E-02 -0.3129633E-01
6151000.  0.6205357E-02  0.9748721E+00 -0.1759761E-02  0.1168239E+00  0.2184750E-02 -0.3163964E-01
6128500.  0.2868360E-02  0.9145251E+00 -0.2130313E-02  0.9197134E-01  0.2277666E-02 -0.2091367E-01
6106000. -0.2550139E-03  0.8548726E+00 -0.2402946E-02  0.6166639E-01  0.2332113E-02 -0.9885265E-02
6083500. -0.3176829E-02  0.8011242E+00 -0.2561695E-02  0.2781393E-01  0.2347353E-02  0.1257862E-02
6061000. -0.5924905E-02  0.7569537E+00 -0.2597682E-02 -0.7499152E-02  0.2323312E-02  0.1233033E-01
6038500. -0.8537056E-02  0.7243273E+00 -0.2509518E-02 -0.4214364E-01  0.2260557E-02  0.2315196E-01
6016000. -0.1105491E-01  0.7034369E+00 -0.2303200E-02 -0.7408618E-01  0.2160282E-02  0.3355048E-01
5993500. -0.1351774E-01  0.6927950E+00 -0.1991555E-02 -0.1015145E+00  0.2024270E-02  0.4336428E-01
5971000. -0.1595692E-01  0.6894465E+00 -0.1593253E-02 -0.1229458E+00  0.1854853E-02  0.5244430E-01
5971000. -0.1595692E-01  0.6100152E+00 -0.1593253E-02 -0.1077129E+00  0.1854853E-02  0.5453319E-01
5937667. -0.1906951E-01  0.5804968E+00 -0.9873175E-03 -0.1215551E+00  0.1537951E-02  0.6625187E-01
5904333. -0.2202784E-01  0.5490035E+00 -0.3451700E-03 -0.1217521E+00  0.1165490E-02  0.7573381E-01
5871000. -0.2479119E-01  0.5042948E+00  0.2661654E-03 -0.1102011E+00  0.7496335E-03  0.8282763E-01
5837667. -0.2726651E-01  0.4377465E+00  0.7925305E-03 -0.8981241E-01  0.3030537E-03  0.8747583E-01
5804333. -0.2932493E-01  0.3444151E+00  0.1196486E-02 -0.6398509E-01 -0.1615032E-03  0.8970539E-01
5771000. -0.3082213E-01  0.2234236E+00  0.1458586E-02 -0.3614155E-01 -0.6315928E-03  0.8961891E-01
5771000. -0.3082213E-01  0.2234500E+00  0.1458586E-02 -0.3613921E-01 -0.6315928E-03  0.8961891E-01
5701000. -0.3150358E-01 -0.1190000E+00  0.1569140E-02  0.1457809E-01 -0.1576871E-02  0.8097312E-01
5701000. -0.3150358E-01 -0.7355104E-01  0.1569140E-02  0.1926154E-01 -0.1576871E-02  0.8985285E-01
5667333. -0.3063602E-01 -0.2561299E+00  0.1422716E-02  0.3523208E-01 -0.2034214E-02  0.8296762E-01
5633667. -0.2879243E-01 -0.4411747E+00  0.1207009E-02  0.4541833E-01 -0.2451090E-02  0.7458470E-01
5600000. -0.2598774E-01 -0.6181163E+00  0.9531206E-03  0.4970808E-01 -0.2820302E-02  0.6496921E-01
5600000. -0.2598774E-01 -0.6181070E+00  0.9531206E-03  0.4970900E-01 -0.2820302E-02  0.6496921E-01
5563518. -0.2193421E-01 -0.7939628E+00  0.6685171E-03  0.4867991E-01 -0.3159831E-02  0.5344643E-01
5527037. -0.1694818E-01 -0.9420301E+00  0.4065927E-03  0.4191962E-01 -0.3430710E-02  0.4104283E-01
5490556. -0.1121815E-01 -0.1052350E+01  0.1974687E-03  0.3044493E-01 -0.3628725E-02  0.2804337E-01
5454074. -0.4982983E-02 -0.1117383E+01  0.6423567E-04  0.1567369E-01 -0.3751269E-02  0.1472752E-01
5417593.  0.1483159E-02 -0.1132610E+01  0.2106873E-04 -0.7201209E-03 -0.3797301E-02  0.1363968E-02
5381111.  0.7890584E-02 -0.1096918E+01  0.7220481E-04 -0.1696998E-01 -0.3767275E-02 -0.1179785E-01
5344630.  0.1395250E-01 -0.1012671E+01  0.2118758E-03 -0.3137395E-01 -0.3663013E-02 -0.2452911E-01
5308148.  0.1940588E-01 -0.8855054E+00  0.4251271E-03 -0.4244429E-01 -0.3487567E-02 -0.3662768E-01
5271667.  0.2402769E-01 -0.7238880E+00  0.6893645E-03 -0.4902458E-01 -0.3245086E-02 -0.4791763E-01
5235185.  0.2765046E-01 -0.5384324E+00  0.9765698E-03 -0.5037908E-01 -0.2940621E-02 -0.5825251E-01
5198704.  0.3017135E-01 -0.3411172E+00  0.1255805E-02 -0.4623876E-01 -0.2580010E-02 -0.6751341E-01
5162222.  0.3155812E-01 -0.1443476E+00  0.1495986E-02 -0.3680833E-01 -0.2169656E-02 -0.7560994E-01
5125741.  0.3184847E-01  0.3991585E-01  0.1668463E-02 -0.2273502E-01 -0.1716445E-02 -0.8247800E-01
5089259.  0.3114530E-01  0.2010405E+00  0.1749424E-02 -0.5040320E-02 -0.1227508E-02 -0.8807853E-01
5052778.  0.2960691E-01  0.3304176E+00  0.1721757E-02  0.1497040E-01 -0.7101895E-03 -0.9239522E-01
5016296.  0.2743352E-01  0.4220470E+00  0.1576366E-02  0.3582292E-01 -0.1718067E-03 -0.9543289E-01
4979815.  0.2485164E-01  0.4728603E+00  0.1312815E-02  0.5599010E-01  0.3803442E-03 -0.9721465E-01
4943333.  0.2209629E-01  0.4828604E+00  0.9392466E-03  0.7401472E-01  0.9392098E-03 -0.9778074E-01
4906852.  0.1939421E-01  0.4550059E+00  0.4717275E-03  0.8861482E-01  0.1497946E-02 -0.9718512E-01
4870370.  0.1694714E-01  0.3948923E+00 -0.6711169E-04  0.9877711E-01  0.2050119E-02 -0.9549493E-01
4833889.  0.1491866E-01  0.3102632E+00 -0.6497069E-03  0.1038200E+00  0.2589648E-02 -0.9278802E-01
4797407.  0.1342311E-01  0.2103603E+00 -0.1245718E-02  0.1034382E+00  0.3110985E-02 -0.8915082E-01
4760926.  0.1251952E-01  0.1052142E+00 -0.1824089E-02  0.9770870E-01  0.3609041E-02 -0.8467814E-01
4724444.  0.1220892E-01  0.4872431E-02 -0.2355328E-02  0.8707345E-01  0.4079345E-02 -0.7947014E-01
4687963.  0.1243657E-01 -0.8132000E-01 -0.2813369E-02  0.7229862E-01  0.4517959E-02 -0.7363220E-01
4651482.  0.1309781E-01 -0.1453917E+00 -0.3177346E-02  0.5440687E-01  0.4921600E-02 -0.6727261E-01
4615000.  0.1404765E-01 -0.1812866E+00 -0.3432791E-02  0.3459869E-01  0.5287603E-02 -0.6050123E-01
4578518.  0.1511282E-01 -0.1852516E+00 -0.3572395E-02  0.1416475E-01  0.5613917E-02 -0.5342880E-01
4542037.  0.1610569E-01 -0.1560602E+00 -0.3596286E-02 -0.5605639E-02  0.5899124E-02 -0.4616472E-01
4505556.  0.1683910E-01 -0.9505703E-01 -0.3511766E-02 -0.2351260E-01  0.6142443E-02 -0.3881567E-01
4469074.  0.1714056E-01 -0.6003540E-02 -0.3332557E-02 -0.3852114E-01  0.6343687E-02 -0.3148412E-01
4432593.  0.1686541E-01  0.1052004E+00 -0.3077704E-02 -0.4982188E-01  0.6503231E-02 -0.2426785E-01
4396111.  0.1590780E-01  0.2309827E+00 -0.2770100E-02 -0.5687753E-01  0.6622003E-02 -0.1725697E-01
4359630.  0.1420887E-01  0.3626185E+00 -0.2434910E-02 -0.5944401E-01  0.6701414E-02 -0.1053400E-01
4323148.  0.1176142E-01  0.4908479E+00 -0.2097810E-02 -0.5757472E-01  0.6743331E-02 -0.4172022E-02
4286667.  0.8611588E-02  0.6064786E+00 -0.1783388E-02 -0.5160394E-01  0.6750005E-02  0.1765717E-02
4250185.  0.4856115E-02  0.7010211E+00 -0.1513559E-02 -0.4211133E-01  0.6724020E-02  0.7227042E-02
4213704.  0.6374815E-03  0.7672052E+00 -0.1306357E-02 -0.2987559E-01  0.6668228E-02  0.1217065E-01
4177222. -0.3865289E-02  0.7994508E+00 -0.1174906E-02 -0.1581313E-01  0.6585681E-02  0.1656725E-01
4140741. -0.8446382E-02  0.7941925E+00 -0.1126850E-02 -0.9166114E-03  0.6479574E-02  0.2039844E-01
4104259. -0.1288636E-01  0.7500849E+00 -0.1164090E-02  0.1381441E-01  0.6353163E-02  0.2365736E-01
4067778. -0.1696412E-01  0.6680619E+00 -0.1282926E-02  0.2743318E-01  0.6209728E-02  0.2634755E-01
4031296. -0.2047069E-01  0.5512425E+00 -0.1474540E-02  0.3910515E-01  0.6052482E-02  0.2848253E-01
3994815. -0.2322040E-01  0.4047380E+00 -0.1725747E-02  0.4815150E-01  0.5884553E-02  0.3008483E-01
3958333. -0.2506201E-01  0.2352890E+00 -0.2020036E-02  0.5408582E-01  0.5708897E-02  0.3118525E-01
3921852. -0.2588649E-01  0.5089900E-01 -0.2338678E-02  0.5663276E-01  0.5528295E-02  0.3182117E-01
3885370. -0.2563308E-01 -0.1397003E+00 -0.2662029E-02  0.5573621E-01  0.5345273E-02  0.3203649E-01
3848889. -0.2429200E-01 -0.3275134E+00 -0.2970702E-02  0.5155200E-01  0.5162111E-02  0.3188005E-01
3812407. -0.2190432E-01 -0.5038250E+00 -0.3246801E-02  0.4442854E-01  0.4980779E-02  0.3140520E-01
3775926. -0.1855940E-01 -0.6606392E+00 -0.3474877E-02  0.3487907E-01  0.4802946E-02  0.3066920E-01
3739444. -0.1438880E-01 -0.7911572E+00 -0.3642833E-02  0.2354344E-01  0.4629926E-02  0.2973309E-01
3702963. -0.9559306E-02 -0.8900821E+00 -0.3742482E-02  0.1114832E-01  0.4462689E-02  0.2866218E-01
3666482. -0.4262632E-02 -0.9539058E+00 -0.3769951E-02 -0.1538121E-02  0.4301805E-02  0.2752649E-01
3630000.  0.1294934E-02 -0.9810575E+00 -0.3725779E-02 -0.1374811E-01  0.4147423E-02  0.2640266E-01
3630000.  0.1294934E-02 -0.9810488E+00 -0.3725779E-02 -0.1374805E-01  0.4147423E-02  0.2640266E-01
3592500.  0.7059958E-02 -0.9715340E+00 -0.3610483E-02 -0.2520010E-01  0.3995201E-02  0.2534377E-01
3555000.  0.1265985E-01 -0.9253995E+00 -0.3432512E-02 -0.3492720E-01  0.3848689E-02  0.2448178E-01
3517500.  0.1788924E-01 -0.8464473E+00 -0.3203991E-02 -0.4227608E-01  0.3706366E-02  0.2394338E-01
3480000.  0.2257103E-01 -0.7404419E+00 -0.2940572E-02 -0.4670529E-01  0.3565890E-02  0.2388270E-01
3480000.  0.2257103E-01 -0.1169195E+00  0.1136705E-03  0.4111217E-01  0.3565890E-02 -0.4711647E-01
3409422.  0.2257835E-01  0.1089971E+00 -0.3556388E-03  0.4286011E-01  0.4296574E-02 -0.8033229E-01
3338844.  0.2034093E-01  0.2852914E+00 -0.8202903E-03  0.4038522E-01  0.5256365E-02 -0.8938577E-01
3268266.  0.1648641E-01  0.3999538E+00 -0.1238001E-02  0.3455639E-01  0.6209434E-02 -0.8015097E-01
3197688.  0.1171117E-01  0.4521696E+00 -0.1577614E-02  0.2647883E-01  0.6987663E-02 -0.5884404E-01
3127109.  0.6671580E-02  0.4494388E+00 -0.1820621E-02  0.1730109E-01  0.7490278E-02 -0.3130102E-01
3056531.  0.1910030E-02  0.4043357E+00 -0.1960752E-02  0.8065104E-02  0.7676511E-02 -0.2453506E-02
2985953. -0.2184386E-02  0.3314565E+00 -0.2002213E-02 -0.3936939E-03  0.7553738E-02  0.2397338E-01
2915375. -0.5383756E-02  0.2449729E+00 -0.1957078E-02 -0.7494102E-02  0.7163436E-02  0.4554483E-01
2844797. -0.7606759E-02  0.1569636E+00 -0.1842404E-02 -0.1291506E-01  0.6567239E-02  0.6103149E-01
2774219. -0.8889682E-02  0.7649066E-01 -0.1677483E-02 -0.1656789E-01  0.5834613E-02  0.7020841E-01
2703641. -0.9351127E-02  0.9358595E-02 -0.1481517E-02 -0.1854839E-01  0.5033142E-02  0.7359422E-01
2633062. -0.9156880E-02 -0.4164812E-01 -0.1271875E-02 -0.1908152E-01  0.4221799E-02  0.7217962E-01
2562484. -0.8489273E-02 -0.7622034E-01 -0.1062989E-02 -0.1846558E-01  0.3447155E-02  0.6718089E-01
2491906. -0.7523520E-02 -0.9583152E-01 -0.8658032E-03 -0.1702277E-01  0.2741971E-02  0.5984032E-01
2421328. -0.6411876E-02 -0.1030419E+00 -0.6877409E-03 -0.1506181E-01  0.2125796E-02  0.5128392E-01
2350750. -0.5275121E-02 -0.1008822E+00 -0.5330050E-03 -0.1285215E-01  0.1606768E-02  0.4243637E-01
2280172. -0.4200106E-02 -0.9237996E-01 -0.4031046E-03 -0.1060904E-01  0.1184083E-02  0.3398488E-01
2209594. -0.3241753E-02 -0.8023038E-01 -0.2974892E-03 -0.8489100E-02  0.8506432E-03  0.2638097E-01
2139016. -0.2427865E-02 -0.6661383E-01 -0.2141868E-03 -0.6593166E-02  0.5955354E-03  0.1986835E-01
2068438. -0.1765289E-02 -0.5313201E-01 -0.1503846E-03 -0.4973886E-02  0.4061087E-03  0.1452463E-01
1997859. -0.1246237E-02 -0.4083303E-01 -0.1029059E-03 -0.3645856E-02  0.2695557E-03  0.1030767E-01
1927281. -0.8540533E-03 -0.3029029E-01 -0.6857519E-04 -0.2596466E-02  0.1739998E-03  0.7099525E-02
1856703. -0.5678509E-03 -0.2170879E-01 -0.4445864E-04 -0.1795896E-02  0.1091116E-03  0.4743244E-02
1786125. -0.3660062E-03 -0.1503588E-01 -0.2800856E-04 -0.1205599E-02  0.6638216E-04  0.3071415E-02
1715547. -0.2284337E-03 -0.1006177E-01 -0.1712198E-04 -0.7847418E-03  0.3912205E-04  0.1925449E-02
1644969. -0.1378578E-03 -0.6500698E-02 -0.1013951E-04 -0.4946602E-03  0.2229439E-04  0.1166911E-02
1574391. -0.8030618E-04 -0.4050150E-02 -0.5805183E-05 -0.3014865E-03  0.1225889E-04  0.6824939E-03
1503812. -0.4506421E-04 -0.2429167E-02 -0.3205587E-05 -0.1773441E-03  0.6487719E-05  0.3844239E-03
1433234. -0.2430983E-04 -0.1398903E-02 -0.1701937E-05 -0.1005021E-03  0.3294509E-05  0.2080444E-03
1362656. -0.1259592E-04 -0.7694248E-03 -0.8642621E-06 -0.5485444E-04  0.1598498E-05  0.1079312E-03
1292078. -0.6317422E-05 -0.3970965E-03 -0.4135643E-06 -0.2911325E-04  0.7352350E-06  0.5366502E-04
1221500. -0.3248150E-05 -0.1742091E-03 -0.1729013E-06 -0.1604085E-04  0.3126562E-06  0.2587980E-04
1221500. -0.3248150E-05  0.2541202E-03  0.1713284E-06  0.1783504E-04  0.3126562E-06  0.2728691E-04
1183328. -0.4428135E-05  0.1417980E-03  0.7470951E-07  0.1434673E-04  0.1837137E-06  0.1658204E-04
1145156. -0.4978589E-05  0.4506004E-04  0.3058849E-11  0.1056665E-04  0.1059492E-06  0.9908607E-05
1106984. -0.5010048E-05 -0.3077387E-04 -0.5199133E-07  0.6826893E-05  0.5986222E-07  0.5813259E-05
1068812. -0.4656704E-05 -0.8323976E-04 -0.8259800E-07  0.3481780E-05  0.3306589E-07  0.3342563E-05
1030641. -0.4058213E-05 -0.1129486E-03 -0.9504523E-07  0.7992297E-06  0.1781069E-07  0.1879538E-05
 992469. -0.3342490E-05 -0.1230568E-03 -0.9376447E-07 -0.1091440E-05  0.9326548E-08  0.1030812E-05
 954297. -0.2613325E-05 -0.1182999E-03 -0.8353251E-07 -0.2200789E-05  0.4730511E-08  0.5496915E-06
 916125. -0.1944046E-05 -0.1039343E-03 -0.6871962E-07 -0.2646750E-05  0.2313558E-08  0.2839007E-06
 877953. -0.1377263E-05 -0.8482815E-04 -0.5278659E-07 -0.2606533E-05  0.1084911E-08  0.1413485E-06
 839781. -0.9291758E-06 -0.6485884E-04 -0.3807708E-07 -0.2268663E-05  0.4842428E-09  0.6744143E-07
 801609. -0.5964411E-06 -0.4665523E-04 -0.2586260E-07 -0.1797887E-05  0.2036818E-09  0.3059906E-07
 763438. -0.3636898E-06 -0.3163066E-04 -0.1655295E-07 -0.1315266E-05  0.7957132E-10  0.1306565E-07
 725266. -0.2101661E-06 -0.2021220E-04 -0.9976017E-08 -0.8940896E-06  0.2818669E-10  0.5171829E-08
 687094. -0.1147421E-06 -0.1215780E-04 -0.5650459E-08 -0.5662176E-06  0.8644643E-11  0.1849786E-08
 648922. -0.5895215E-07 -0.6866654E-05 -0.2998611E-08 -0.3340482E-06  0.2034284E-11  0.5700997E-09
 610750. -0.2836301E-07 -0.3628037E-05 -0.1484609E-08 -0.1832206E-06  0.1773622E-12  0.1330529E-09
 572578. -0.1270060E-07 -0.1784241E-05 -0.6819076E-09 -0.9306995E-07 -0.1654648E-12  0.1010541E-10
 534406. -0.5253158E-08 -0.8114271E-06 -0.2884962E-09 -0.4353567E-07 -0.1356578E-12 -0.1198954E-10
 496234. -0.1988072E-08 -0.3383865E-06 -0.1114007E-09 -0.1860855E-07 -0.6738023E-13 -0.9413197E-11
 458062. -0.6802852E-09 -0.1280183E-06 -0.3880737E-10 -0.7193713E-08 -0.2617383E-13 -0.4563111E-11
 419891. -0.2073123E-09 -0.4333284E-07 -0.1201546E-10 -0.2481538E-08 -0.8386793E-14 -0.1719908E-11
 381719. -0.5516606E-10 -0.1288724E-07 -0.3242508E-11 -0.7503458E-09 -0.2233810E-14 -0.5285714E-12
 343547. -0.1248960E-10 -0.3287393E-08 -0.7432155E-12 -0.1941897E-09 -0.4877339E-15 -0.1325748E-12
 305375. -0.2322203E-11 -0.6960399E-09 -0.1396823E-12 -0.4163354E-10 -0.8475692E-16 -0.2655792E-13
 267203. -0.3374000E-12 -0.1167939E-09 -0.2048429E-13 -0.7061411E-11 -0.1116810E-16 -0.4075170E-14
 229031. -0.3561444E-13 -0.1451146E-10 -0.2179374E-14 -0.8853768E-12 -0.1035310E-17 -0.4471426E-15
 190859. -0.2439356E-14 -0.1201368E-11 -0.1502380E-15 -0.7384183E-13 -0.6007251E-19 -0.3102000E-16
 152688.  0.0000000E+00  0.0000000E+00  0.0000000E+00  0.0000000E+00  0.0000000E+00  0.0000000E+00
 114516.  0.0000000E+00  0.0000000E+00  0.0000000E+00  0.0000000E+00  0.0000000E+00  0.0000000E+00
  76344.  0.0000000E+00  0.0000000E+00  0.0000000E+00  0.0000000E+00  0.0000000E+00  0.0000000E+00
  38172.  0.0000000E+00  0.0000000E+00  0.0000000E+00  0.0000000E+00  0.0000000E+00  0.0000000E+00
      0.  0.0000000E+00  0.0000000E+00  0.0000000E+00  0.0000000E+00  0.0000000E+00  0.0000000E+00
