      17       12 S      664        109.33560         29.28975         10.86136        471.08780      185    7
6371000. -0.2574367E-01  0.2041248E+00  0.2999555E-02  0.2874323E-01 -0.6186571E-04  0.4935080E-01
6370000. -0.2577442E-01  0.1876286E+00  0.2994570E-02  0.3476915E-01 -0.6960577E-04  0.4927222E-01
6369000. -0.2580257E-01  0.1710065E+00  0.2988641E-02  0.4078010E-01 -0.7733313E-04  0.4918911E-01
6368000. -0.2582810E-01  0.1542600E+00  0.2981769E-02  0.4677417E-01 -0.8504710E-04  0.4910149E-01
6368000. -0.2582810E-01  0.1542600E+00  0.2981769E-02  0.4677417E-01 -0.8504710E-04  0.4910149E-01
6367000. -0.2585099E-01  0.1373913E+00  0.2973958E-02  0.5274943E-01 -0.9274696E-04  0.4900936E-01
6366000. -0.2587122E-01  0.1204021E+00  0.2965211E-02  0.5870397E-01 -0.1004320E-03  0.4891272E-01
6365000. -0.2588878E-01  0.1032945E+00  0.2955531E-02  0.6463588E-01 -0.1081015E-03  0.4881159E-01
6364000. -0.2590364E-01  0.8607040E-01  0.2944922E-02  0.7054327E-01 -0.1157548E-03  0.4870597E-01
6363000. -0.2591579E-01  0.6873191E-01  0.2933387E-02  0.7642425E-01 -0.1233912E-03  0.4859588E-01
6362000. -0.2592521E-01  0.5128114E-01  0.2920932E-02  0.8227694E-01 -0.1310099E-03  0.4848131E-01
6361000. -0.2593188E-01  0.3372021E-01  0.2907560E-02  0.8809946E-01 -0.1386103E-03  0.4836229E-01
6360000. -0.2593579E-01  0.1605131E-01  0.2893277E-02  0.9388995E-01 -0.1461917E-03  0.4823881E-01
6359000. -0.2593692E-01 -0.1723329E-02  0.2878088E-02  0.9964656E-01 -0.1537534E-03  0.4811090E-01
6358000. -0.2593525E-01 -0.1960144E-01  0.2861998E-02  0.1053675E+00 -0.1612946E-03  0.4797856E-01
6357000. -0.2593076E-01 -0.3758070E-01  0.2845013E-02  0.1110508E+00 -0.1688147E-03  0.4784180E-01
6356000. -0.2592344E-01 -0.5565876E-01  0.2827139E-02  0.1166948E+00 -0.1763130E-03  0.4770064E-01
6356000. -0.2592344E-01  0.6961778E-02  0.2827139E-02  0.8186020E-01 -0.1763130E-03  0.5334128E-01
6355000. -0.2592351E-01 -0.6047311E-02  0.2813997E-02  0.8558843E-01 -0.1846744E-03  0.5319986E-01
6354000. -0.2592154E-01 -0.1912153E-01  0.2800272E-02  0.8929591E-01 -0.1930134E-03  0.5305496E-01
6353000. -0.2591751E-01 -0.3225964E-01  0.2785966E-02  0.9298184E-01 -0.2013294E-03  0.5290660E-01
6352000. -0.2591141E-01 -0.4546041E-01  0.2771083E-02  0.9664541E-01 -0.2096218E-03  0.5275478E-01
6351000. -0.2590323E-01 -0.5872256E-01  0.2755628E-02  0.1002859E+00 -0.2178901E-03  0.5259952E-01
6350000. -0.2589297E-01 -0.7204481E-01  0.2739603E-02  0.1039024E+00 -0.2261338E-03  0.5244083E-01
6349000. -0.2588061E-01 -0.8542588E-01  0.2723012E-02  0.1074943E+00 -0.2343523E-03  0.5227870E-01
6348000. -0.2586615E-01 -0.9886442E-01  0.2705859E-02  0.1110607E+00 -0.2425451E-03  0.5211316E-01
6347000. -0.2584958E-01 -0.1123591E+00  0.2688149E-02  0.1146009E+00 -0.2507116E-03  0.5194422E-01
6346600. -0.2584235E-01 -0.1177724E+00  0.2680909E-02  0.1160095E+00 -0.2539707E-03  0.5187569E-01
6346600. -0.2584235E-01  0.1594665E-01  0.2680909E-02  0.8762445E-01 -0.2539707E-03  0.6088654E-01
6318800. -0.2528965E-01 -0.2751234E+00  0.2145008E-02  0.1550424E+00 -0.5088947E-03  0.5560956E-01
6291000. -0.2340516E-01 -0.5908839E+00  0.1359383E-02  0.2008752E+00 -0.7363595E-03  0.4832866E-01
6291000. -0.2340516E-01 -0.5969957E+00  0.1359383E-02  0.2067877E+00 -0.7363595E-03  0.4832866E-01
6263000. -0.2006093E-01 -0.9226835E+00  0.3977727E-03  0.2255979E+00 -0.9291045E-03  0.3909665E-01
6235000. -0.1533595E-01 -0.1220368E+01 -0.5770255E-03  0.2127725E+00 -0.1077718E-02  0.2830075E-01
6207000. -0.9418266E-02 -0.1460728E+01 -0.1428913E-02  0.1703558E+00 -0.1176109E-02  0.1630963E-01
6179000. -0.2618980E-02 -0.1617644E+01 -0.2039762E-02  0.1043856E+00 -0.1219965E-02  0.3562043E-02
6151000.  0.4648957E-02 -0.1671392E+01 -0.2325327E-02  0.2406599E-01 -0.1207037E-02 -0.9444918E-02
6151000.  0.4648957E-02 -0.1378394E+01 -0.2325327E-02  0.2028701E-01 -0.1207037E-02 -0.9702123E-02
6128500.  0.9437544E-02 -0.1324589E+01 -0.2291715E-02 -0.3904115E-01 -0.1158586E-02 -0.1767521E-01
6106000.  0.1394374E-01 -0.1219096E+01 -0.2054277E-02 -0.9438553E-01 -0.1082713E-02 -0.2520660E-01
6083500.  0.1799332E-01 -0.1067092E+01 -0.1634783E-02 -0.1414834E+00 -0.9812368E-03 -0.3215157E-01
6061000.  0.2143500E-01 -0.8763003E+00 -0.1068848E-02 -0.1768025E+00 -0.8564596E-03 -0.3838244E-01
6038500.  0.2414853E-01 -0.6564863E+00 -0.4029048E-03 -0.1977845E+00 -0.7111023E-03 -0.4378965E-01
6016000.  0.2605079E-01 -0.4187996E+00  0.3095524E-03 -0.2030057E+00 -0.5482387E-03 -0.4828321E-01
5993500.  0.2709945E-01 -0.1750600E+00  0.1012116E-02 -0.1922460E+00 -0.3712234E-03 -0.5179401E-01
5971000.  0.2729400E-01  0.6298584E-01  0.1649718E-02 -0.1664730E+00 -0.1836201E-03 -0.5427279E-01
5971000.  0.2729400E-01  0.6387497E-01  0.1649718E-02 -0.1511476E+00 -0.1836201E-03 -0.5784580E-01
5937667.  0.2617045E-01  0.3553462E+00  0.2294938E-02 -0.9282697E-01  0.1260900E-03 -0.6016811E-01
5904333.  0.2369736E-01  0.5773158E+00  0.2602422E-02 -0.2381557E-01  0.4421474E-03 -0.6029073E-01
5871000.  0.2026713E-01  0.7205771E+00  0.2543673E-02  0.4551928E-01  0.7534188E-03 -0.5837265E-01
5837667.  0.1629385E-01  0.7857381E+00  0.2141348E-02  0.1061953E+00  0.1049746E-02 -0.5461423E-01
5804333.  0.1216639E-01  0.7814692E+00  0.1459341E-02  0.1515311E+00  0.1322094E-02 -0.4924241E-01
5771000.  0.8212549E-02  0.7221596E+00  0.5895077E-03  0.1775807E+00  0.1562638E-02 -0.4250156E-01
5771000.  0.8212549E-02  0.7221732E+00  0.5895077E-03  0.1775746E+00  0.1562638E-02 -0.4250156E-01
5701000.  0.1227924E-02  0.5311633E+00 -0.1452820E-02  0.1790200E+00  0.1933310E-02 -0.2422874E-01
5701000.  0.1227924E-02  0.4277922E+00 -0.1452820E-02  0.1409481E+00  0.1933310E-02 -0.2457484E-01
5667333. -0.7986440E-03  0.3403347E+00 -0.2128297E-02  0.1129574E+00  0.2038392E-02 -0.1510616E-01
5633667. -0.2388827E-02  0.2640668E+00 -0.2631531E-02  0.7640518E-01  0.2092224E-02 -0.5217803E-02
5600000. -0.3621351E-02  0.2058382E+00 -0.2927650E-02  0.3522734E-01  0.2093205E-02  0.4858506E-02
5600000. -0.3621351E-02  0.2058238E+00 -0.2927650E-02  0.3522899E-01  0.2093205E-02  0.4858506E-02
5563518. -0.4669102E-02  0.1644676E+00 -0.2998981E-02 -0.1048911E-01  0.2034238E-02  0.1569497E-01
5527037. -0.5556776E-02  0.1501321E+00 -0.2809880E-02 -0.5498438E-01  0.1914227E-02  0.2613061E-01
5490556. -0.6438857E-02  0.1620587E+00 -0.2379842E-02 -0.9397304E-01  0.1736299E-02  0.3587829E-01
5454074. -0.7454413E-02  0.1956990E+00 -0.1751138E-02 -0.1238401E+00  0.1505153E-02  0.4467482E-01
5417593. -0.8706975E-02  0.2433530E+00 -0.9840687E-03 -0.1419681E+00  0.1226930E-02  0.5228732E-01
5381111. -0.1024935E-01  0.2951439E+00 -0.1504187E-03 -0.1469628E+00  0.9089745E-03  0.5852025E-01
5344630. -0.1207415E-01  0.3401874E+00  0.6736854E-03 -0.1387363E+00  0.5596675E-03  0.6321862E-01
5308148. -0.1411200E-01  0.3678528E+00  0.1415385E-02 -0.1184690E+00  0.1881132E-03  0.6627267E-01
5271667. -0.1623603E-01  0.3689575E+00  0.2011762E-02 -0.8844584E-01 -0.1960483E-03  0.6761906E-01
5235185. -0.1827371E-01  0.3368155E+00  0.2415616E-02 -0.5179673E-01 -0.5829915E-03  0.6724180E-01
5198704. -0.2002309E-01  0.2680135E+00  0.2599272E-02 -0.1217207E-01 -0.9628912E-03  0.6517138E-01
5162222. -0.2127337E-01  0.1628441E+00  0.2556598E-02  0.2662788E-01 -0.1326264E-02  0.6148181E-01
5125741. -0.2182617E-01  0.2539692E-01  0.2302797E-02  0.6100697E-01 -0.1664130E-02  0.5628823E-01
5089259. -0.2151681E-01 -0.1367635E+00  0.1872245E-02  0.8790889E-01 -0.1968310E-02  0.4974031E-01
5052778. -0.2023254E-01 -0.3131936E+00  0.1314681E-02  0.1050750E+00 -0.2231533E-02  0.4201850E-01
5016296. -0.1792633E-01 -0.4915101E+00  0.6899728E-03  0.1112301E+00 -0.2447665E-02  0.3332569E-01
4979815. -0.1462538E-01 -0.6584330E+00  0.6232144E-04  0.1061631E+00 -0.2611759E-02  0.2388237E-01
4943333. -0.1043233E-01 -0.8009884E+00 -0.5059641E-03  0.9071208E-01 -0.2720179E-02  0.1391795E-01
4906852. -0.5520955E-02 -0.9076186E+00 -0.9600750E-03  0.6665554E-01 -0.2770604E-02  0.3665596E-02
4870370. -0.1241408E-03 -0.9692250E+00 -0.1257686E-02  0.3651816E-01 -0.2762046E-02 -0.6645592E-02
4833889.  0.5481536E-02 -0.9799504E+00 -0.1372453E-02  0.3325779E-02 -0.2694808E-02 -0.1679455E-01
4797407.  0.1099721E-01 -0.9377205E+00 -0.1296123E-02 -0.2968537E-01 -0.2570412E-02 -0.2657519E-01
4760926.  0.1612290E-01 -0.8444365E+00 -0.1038886E-02 -0.5935736E-01 -0.2391526E-02 -0.3579847E-01
4724444.  0.2058122E-01 -0.7058368E+00 -0.6280882E-03 -0.8289359E-01 -0.2161819E-02 -0.4429748E-01
4687963.  0.2413717E-01 -0.5310681E+00 -0.1055289E-03 -0.9809005E-01 -0.1885876E-02 -0.5192768E-01
4651482.  0.2661648E-01 -0.3319343E+00  0.4765564E-03 -0.1035176E+00 -0.1569019E-02 -0.5857009E-01
4615000.  0.2791784E-01 -0.1219642E+00  0.1060235E-02 -0.9862481E-01 -0.1217176E-02 -0.6413066E-01
4578518.  0.2801972E-01  0.8464295E-01  0.1586982E-02 -0.8376656E-01 -0.8367599E-03 -0.6854020E-01
4542037.  0.2698126E-01  0.2741410E+00  0.2002808E-02 -0.6015553E-01 -0.4345141E-03 -0.7175338E-01
4505556.  0.2493636E-01  0.4343138E+00  0.2262872E-02 -0.2973985E-01 -0.1735179E-04 -0.7374838E-01
4469074.  0.2208220E-01  0.5553880E+00  0.2335170E-02  0.4974573E-02  0.4077512E-03 -0.7452434E-01
4432593.  0.1866339E-01  0.6307510E+00  0.2203132E-02  0.4113903E-01  0.8338360E-03 -0.7410005E-01
4396111.  0.1495181E-01  0.6574333E+00  0.1866889E-02  0.7580912E-01  0.1254149E-02 -0.7251181E-01
4359630.  0.1122584E-01  0.6362665E+00  0.1343174E-02  0.1061786E+00  0.1662144E-02 -0.6981134E-01
4323148.  0.7748041E-02  0.5717561E+00  0.6637897E-03  0.1298087E+00  0.2051656E-02 -0.6606437E-01
4286667.  0.4745957E-02  0.4716775E+00 -0.1269285E-03  0.1448112E+00  0.2416888E-02 -0.6134848E-01
4250185.  0.2394464E-02  0.3463981E+00 -0.9758376E-03  0.1499881E+00  0.2752557E-02 -0.5575119E-01
4213704.  0.8038630E-03  0.2080515E+00 -0.1825023E-02  0.1449105E+00  0.3053872E-02 -0.4936895E-01
4177222.  0.1209380E-04  0.6953654E-01 -0.2616462E-02  0.1299340E+00  0.3316645E-02 -0.4230448E-01
4140741. -0.1648388E-04 -0.5647056E-01 -0.3296240E-02  0.1061579E+00  0.3537264E-02 -0.3466654E-01
4104259.  0.6129441E-03 -0.1585276E+00 -0.3818704E-02  0.7531854E-01  0.3712777E-02 -0.2656682E-01
4067778.  0.1735213E-02 -0.2272724E+00 -0.4149579E-02  0.3964866E-01  0.3840855E-02 -0.1811998E-01
4031296.  0.3139400E-02 -0.2561510E+00 -0.4268399E-02  0.1691800E-02  0.3919847E-02 -0.9440158E-02
3994815.  0.4586100E-02 -0.2418773E+00 -0.4169682E-02 -0.3588866E-01  0.3948741E-02 -0.6410966E-03
3958333.  0.5827250E-02 -0.1846751E+00 -0.3863038E-02 -0.7051726E-01  0.3927170E-02  0.8167610E-02
3921852.  0.6625907E-02 -0.8822569E-01 -0.3372165E-02 -0.9988541E-01  0.3855386E-02  0.1688063E-01
3885370.  0.6775580E-02  0.4062162E-01 -0.2732764E-02 -0.1221197E+00  0.3734215E-02  0.2540072E-01
3848889.  0.6116853E-02  0.1923643E+00 -0.1989785E-02 -0.1359002E+00  0.3565028E-02  0.3363882E-01
3812407.  0.4550528E-02  0.3555927E+00 -0.1193869E-02 -0.1405427E+00  0.3349656E-02  0.4151782E-01
3775926.  0.2046420E-02  0.5178043E+00 -0.3977629E-03 -0.1360261E+00  0.3090362E-02  0.4897281E-01
3739444. -0.1353426E-02  0.6663500E+00  0.3476239E-03 -0.1229756E+00  0.2789706E-02  0.5595448E-01
3702963. -0.5535903E-02  0.7893218E+00  0.9965836E-03 -0.1025979E+00  0.2450521E-02  0.6242900E-01
3666482. -0.1032428E-01  0.8764400E+00  0.1511803E-02 -0.7657690E-01  0.2075755E-02  0.6838072E-01
3630000. -0.1548939E-01  0.9197633E+00  0.1866654E-02 -0.4694047E-01  0.1668392E-02  0.7381286E-01
3630000. -0.1548939E-01  0.9197587E+00  0.1866654E-02 -0.4693962E-01  0.1668392E-02  0.7381286E-01
3592500. -0.2092030E-01  0.9166623E+00  0.2049978E-02 -0.1525604E-01  0.1218696E-02  0.7891586E-01
3555000. -0.2617363E-01  0.8592892E+00  0.2047519E-02  0.1578285E-01  0.7402048E-03  0.8360299E-01
3517500. -0.3093137E-01  0.7487783E+00  0.1870097E-02  0.4381445E-01  0.2352395E-03  0.8792072E-01
3480000. -0.3489355E-01  0.5901077E+00  0.1541846E-02  0.6670399E-01 -0.2942054E-03  0.9193298E-01
3480000. -0.3489355E-01  0.5280988E+00 -0.5202043E-03 -0.6292021E-01 -0.2942054E-03  0.2016937E+00
3409422. -0.3737997E-01 -0.7795600E-01  0.2286835E-03 -0.7028045E-01 -0.2749132E-02  0.2331417E+00
3338844. -0.3338773E-01 -0.6250374E+00  0.9922491E-03 -0.6560993E-01 -0.5277543E-02  0.2155354E+00
3268266. -0.2405876E-01 -0.1030631E+01  0.1642142E-02 -0.5010711E-01 -0.7369077E-02  0.1560227E+00
3197688. -0.1124867E-01 -0.1249110E+01  0.2072545E-02 -0.2654422E-01 -0.8626876E-02  0.6749041E-01
3127109.  0.2890782E-02 -0.1272052E+01  0.2214127E-02  0.1379126E-02 -0.8815308E-02 -0.3433779E-01
3056531.  0.1629494E-01 -0.1122347E+01  0.2040515E-02  0.2971498E-01 -0.7875318E-02 -0.1337498E+00
2985953.  0.2728311E-01 -0.8445210E+00  0.1567601E-02  0.5487194E-01 -0.5910647E-02 -0.2173991E+00
2915375.  0.3473691E-01 -0.4937873E+00  0.8469371E-03  0.7406251E-01 -0.3152214E-02 -0.2758592E+00
2844797.  0.3816096E-01 -0.1258605E+00 -0.4478877E-04  0.8556256E-01  0.8994703E-04 -0.3043184E+00
2774219.  0.3764144E-01  0.2110982E+00 -0.1018069E-02  0.8877845E-01  0.3477905E-02 -0.3024763E+00
2703641.  0.3373091E-01  0.4816647E+00 -0.1982704E-02  0.8415189E-01  0.6692273E-02 -0.2738211E+00
2633062.  0.2729204E-01  0.6653999E+00 -0.2858188E-02  0.7294551E-01  0.9468315E-02 -0.2245200E+00
2562484.  0.1933192E-01  0.7564743E+00 -0.3581228E-02  0.5696151E-01  0.1161856E-01 -0.1621666E+00
2491906.  0.1085075E-01  0.7614121E+00 -0.4110142E-02  0.3824474E-01  0.1304205E-01 -0.9457812E-01
2421328.  0.2723817E-02  0.6956320E+00 -0.4425957E-02  0.1880948E-01  0.1372094E-01 -0.2881037E-01
2350750. -0.4376035E-02  0.5796188E+00 -0.4530792E-02  0.4187591E-03  0.1370802E-01  0.2953105E-01
2280172. -0.1001374E-01  0.4352541E+00 -0.4444199E-02 -0.1556045E-01  0.1310831E-01  0.7665329E-01
2209594. -0.1399034E-01  0.2828575E+00 -0.4198312E-02 -0.2823090E-01  0.1205842E-01  0.1106364E+00
2139016. -0.1631321E-01  0.1390931E+00 -0.3832548E-02 -0.3716946E-01  0.1070658E-01  0.1312516E+00
2068438. -0.1714854E-01  0.1585911E-01 -0.3388601E-02 -0.4237783E-01  0.9195753E-02  0.1396174E+00
1997859. -0.1676624E-01 -0.7999648E-01 -0.2906169E-02 -0.4419489E-01  0.7650961E-02  0.1377721E+00
1927281. -0.1548610E-01 -0.1461983E+00 -0.2419846E-02 -0.4319005E-01  0.6171645E-02  0.1282401E+00
1856703. -0.1363156E-01 -0.1841874E+00 -0.1957111E-02 -0.4005706E-01  0.4828341E-02  0.1136447E+00
1786125. -0.1149482E-01 -0.1979643E+00 -0.1537534E-02 -0.3551604E-01  0.3663436E-02  0.9640712E-01
1715547. -0.9314869E-02 -0.1929568E+00 -0.1172931E-02 -0.3023637E-01  0.2694583E-02  0.7854570E-01
1644969. -0.7267449E-02 -0.1749958E+00 -0.8682351E-03 -0.2478469E-01  0.1919823E-02  0.6157471E-01
1574391. -0.5465311E-02 -0.1495141E+00 -0.6228106E-03 -0.1959668E-01  0.1323312E-02  0.4648914E-01
1503812. -0.3965820E-02 -0.1210033E+00 -0.4319512E-03 -0.1497245E-01  0.8808589E-03  0.3381275E-01
1433234. -0.2783407E-02 -0.9269686E-01 -0.2883200E-03 -0.1109211E-01  0.5646988E-03  0.2368638E-01
1362656. -0.1904451E-02 -0.6638767E-01 -0.1830986E-03 -0.8048894E-02  0.3471452E-03  0.1596884E-01
1292078. -0.1304415E-02 -0.4219965E-01 -0.1066698E-03 -0.5906486E-02  0.2032007E-03  0.1033022E-01
1221500. -0.9694148E-03 -0.1788924E-01 -0.4842809E-04 -0.4803947E-02  0.1122912E-03  0.6305154E-02
1221500. -0.9694148E-03  0.3209405E-01  0.2188953E-04  0.5170364E-02  0.1122912E-03  0.6725109E-02
1183328. -0.1078641E-02  0.2768162E-02 -0.1387770E-04  0.6465183E-02  0.7796001E-04  0.4828049E-02
1145156. -0.9912761E-03 -0.3218983E-01 -0.5197137E-04  0.5967319E-02  0.5345550E-04  0.3423205E-02
1106984. -0.6979275E-03 -0.6467161E-01 -0.8244683E-04  0.4009448E-02  0.3618978E-04  0.2394634E-02
1068812. -0.2354488E-03 -0.8765975E-01 -0.9837832E-04  0.1235024E-02  0.2419220E-04  0.1651295E-02
1030641.  0.3245562E-03 -0.9677292E-01 -0.9711196E-04 -0.1609658E-02  0.1597619E-04  0.1121951E-02
 992469.  0.8942188E-03 -0.9099263E-01 -0.8025581E-04 -0.3878231E-02  0.1043242E-04  0.7511029E-03
 954297.  0.1389370E-02 -0.7248919E-01 -0.5261686E-04 -0.5166061E-02  0.6745602E-05  0.4958432E-03
 916125.  0.1746295E-02 -0.4572004E-01 -0.2054294E-04 -0.5364775E-02  0.4326009E-05  0.3233477E-03
 877953.  0.1931631E-02 -0.1612998E-01  0.9794964E-05 -0.4630442E-02  0.2755606E-05  0.2088251E-03
 839781.  0.1944264E-02  0.1116293E-01  0.3373327E-04 -0.3291666E-02  0.1744766E-05  0.1339770E-03
 801609.  0.1810141E-02  0.3237231E-01  0.4880505E-04 -0.1733941E-02  0.1097443E-05  0.8564758E-04
 763438.  0.1572503E-02  0.4555655E-01  0.5476009E-04 -0.2971478E-03  0.6840426E-06  0.5463648E-04
 725266.  0.1280559E-02  0.5061715E-01  0.5306919E-04  0.7916660E-03  0.4206536E-06  0.3474231E-04
 687094.  0.9795664E-03  0.4888751E-01  0.4616196E-04  0.1439321E-02  0.2536049E-06  0.2194370E-04
 648922.  0.7040235E-03  0.4251157E-01  0.3665926E-04  0.1669871E-02  0.1487298E-06  0.1365565E-04
 610750.  0.4747805E-03  0.3380263E-01  0.2678583E-04  0.1583630E-02  0.8412828E-07  0.8295968E-05
 572578.  0.2996204E-03  0.2474295E-01  0.1805540E-04  0.1310091E-02  0.4546617E-07  0.4866571E-05
 534406.  0.1762008E-03  0.1670272E-01  0.1121937E-04  0.9689116E-03  0.2324204E-07  0.2723671E-05
 496234.  0.9599973E-04  0.1038087E-01  0.6404185E-05  0.6466253E-03  0.1111859E-07  0.1436581E-05
 458062.  0.4807907E-04  0.5912604E-02  0.3337316E-05  0.3899671E-03  0.4917775E-08  0.7052764E-06
 419891.  0.2190604E-04  0.3062646E-02  0.1573181E-05  0.2116753E-03  0.1982829E-08  0.3175952E-06
 381719.  0.8955273E-05  0.1426541E-02  0.6621768E-06  0.1024950E-03  0.7163721E-09  0.1290717E-06
 343547.  0.3224362E-05  0.5880799E-03  0.2444629E-06  0.4364210E-04  0.2268368E-09  0.4635599E-07
 305375.  0.9967345E-06  0.2098006E-03  0.7720410E-07  0.1599641E-04  0.6115104E-10  0.1432131E-07
 267203.  0.2551587E-06  0.6271783E-04  0.2012570E-07  0.4890988E-05  0.1347574E-10  0.3666918E-08
 229031.  0.5129148E-07  0.1497595E-04  0.4107619E-08  0.1189846E-05  0.2288861E-11  0.7368637E-09
 190859.  0.7453385E-08  0.2650344E-05  0.6044102E-09  0.2137878E-06  0.2736719E-12  0.1069767E-09
 152688.  0.6814739E-09  0.3064966E-06  0.5581759E-10  0.2502218E-07  0.1978005E-13  0.9758351E-11
 114516.  0.3020471E-10  0.1827657E-07  0.2492954E-11  0.1505754E-08  0.6497876E-15  0.4305213E-12
  76344.  0.3613904E-12  0.3300794E-09  0.2998755E-13  0.2736795E-10  0.5122768E-17  0.5101713E-14
  38172.  0.0000000E+00  0.0000000E+00  0.0000000E+00  0.0000000E+00  0.0000000E+00  0.0000000E+00
      0.  0.0000000E+00  0.0000000E+00  0.0000000E+00  0.0000000E+00  0.0000000E+00  0.0000000E+00
