       3       36 S      256        128.40669          8.54097          8.65691        424.66830      185    7
6371000. -0.1705366E-03 -0.1094746E-01 -0.2116648E-04  0.1493700E-03  0.1525699E-04 -0.2429163E-03
6370000. -0.1688114E-03 -0.1103501E-01 -0.2118827E-04  0.1283115E-03  0.1529498E-04 -0.2411903E-03
6369000. -0.1670727E-03 -0.1111883E-01 -0.2120676E-04  0.1072033E-03  0.1533270E-04 -0.2394878E-03
6368000. -0.1653211E-03 -0.1119892E-01 -0.2122192E-04  0.8604940E-04  0.1537016E-04 -0.2378088E-03
6368000. -0.1653211E-03 -0.1119892E-01 -0.2122192E-04  0.8604940E-04  0.1537016E-04 -0.2378088E-03
6367000. -0.1635573E-03 -0.1127525E-01 -0.2123377E-04  0.6485377E-04  0.1540736E-04 -0.2361537E-03
6366000. -0.1617818E-03 -0.1134783E-01 -0.2124228E-04  0.4362046E-04  0.1544430E-04 -0.2345226E-03
6365000. -0.1599952E-03 -0.1141662E-01 -0.2124746E-04  0.2235352E-04  0.1548098E-04 -0.2329155E-03
6364000. -0.1581980E-03 -0.1148164E-01 -0.2124930E-04  0.1056974E-05  0.1551742E-04 -0.2313327E-03
6363000. -0.1563910E-03 -0.1154286E-01 -0.2124779E-04 -0.2026512E-04  0.1555360E-04 -0.2297742E-03
6362000. -0.1545747E-03 -0.1160027E-01 -0.2124293E-04 -0.4160870E-04  0.1558955E-04 -0.2282403E-03
6361000. -0.1527496E-03 -0.1165388E-01 -0.2123473E-04 -0.6296972E-04  0.1562525E-04 -0.2267311E-03
6360000. -0.1509165E-03 -0.1170366E-01 -0.2122317E-04 -0.8434409E-04  0.1566073E-04 -0.2252468E-03
6359000. -0.1490758E-03 -0.1174962E-01 -0.2120825E-04 -0.1057278E-03  0.1569596E-04 -0.2237874E-03
6358000. -0.1472282E-03 -0.1179175E-01 -0.2118998E-04 -0.1271166E-03  0.1573098E-04 -0.2223533E-03
6357000. -0.1453743E-03 -0.1183005E-01 -0.2116835E-04 -0.1485067E-03  0.1576577E-04 -0.2209444E-03
6356000. -0.1435147E-03 -0.1186450E-01 -0.2114336E-04 -0.1698938E-03  0.1580034E-04 -0.2195610E-03
6356000. -0.1435147E-03 -0.1018779E-01 -0.2114336E-04 -0.5392413E-04  0.1580034E-04 -0.1883338E-03
6355000. -0.1419130E-03 -0.1021985E-01 -0.2113402E-04 -0.6505416E-04  0.1582971E-04 -0.1858601E-03
6354000. -0.1403065E-03 -0.1024993E-01 -0.2112293E-04 -0.7618975E-04  0.1585869E-04 -0.1834050E-03
6353000. -0.1386955E-03 -0.1027803E-01 -0.2111010E-04 -0.8732964E-04  0.1588728E-04 -0.1809686E-03
6352000. -0.1370801E-03 -0.1030415E-01 -0.2109552E-04 -0.9847256E-04  0.1591550E-04 -0.1785509E-03
6351000. -0.1354609E-03 -0.1032827E-01 -0.2107919E-04 -0.1096172E-03  0.1594333E-04 -0.1761520E-03
6350000. -0.1338380E-03 -0.1035040E-01 -0.2106111E-04 -0.1207623E-03  0.1597080E-04 -0.1737720E-03
6349000. -0.1322117E-03 -0.1037054E-01 -0.2104128E-04 -0.1319066E-03  0.1599789E-04 -0.1714108E-03
6348000. -0.1305825E-03 -0.1038868E-01 -0.2101970E-04 -0.1430489E-03  0.1602461E-04 -0.1690685E-03
6347000. -0.1289506E-03 -0.1040482E-01 -0.2099637E-04 -0.1541877E-03  0.1605096E-04 -0.1667453E-03
6346600. -0.1282972E-03 -0.1041072E-01 -0.2098655E-04 -0.1586420E-03  0.1606140E-04 -0.1658213E-03
6346600. -0.1282972E-03 -0.1163436E-01 -0.2098655E-04 -0.7211105E-04  0.1606140E-04 -0.1210859E-03
6318800. -0.7703182E-04 -0.1171326E-01 -0.2032995E-04 -0.2285859E-03  0.1642821E-04 -0.4874812E-04
6291000. -0.2738780E-04 -0.1089186E-01 -0.1900132E-04 -0.3784335E-03  0.1650068E-04  0.1406478E-04
6291000. -0.2738780E-04 -0.1122697E-01 -0.1900132E-04 -0.3919104E-03  0.1650068E-04  0.1406478E-04
6263000.  0.1831925E-04 -0.9421254E-02 -0.1694788E-04 -0.5385368E-03  0.1632307E-04  0.6548241E-04
6235000.  0.5418343E-04 -0.6772137E-02 -0.1431037E-04 -0.6560860E-03  0.1593537E-04  0.1098879E-03
6207000.  0.7686837E-04 -0.3458573E-02 -0.1123628E-04 -0.7359831E-03  0.1536562E-04  0.1485233E-03
6179000.  0.8395240E-04  0.2843614E-03 -0.7905251E-05 -0.7722688E-03  0.1463666E-04  0.1825225E-03
6151000.  0.7414247E-04  0.4181109E-02 -0.4516404E-05 -0.7620958E-03  0.1376663E-04  0.2128627E-03
6151000.  0.7414247E-04  0.2864872E-02 -0.4516404E-05 -0.6795360E-03  0.1376663E-04  0.2087607E-03
6128500.  0.5967955E-04  0.5296538E-02 -0.2186984E-05 -0.6363060E-03  0.1300879E-04  0.2198811E-03
6106000.  0.3699178E-04  0.7507693E-02 -0.4398726E-07 -0.5744292E-03  0.1221718E-04  0.2279211E-03
6083500.  0.7011018E-05  0.9413873E-02  0.1852019E-05 -0.4969878E-03  0.1140233E-04  0.2330769E-03
6061000. -0.2905805E-04  0.1094546E-01  0.3452188E-05 -0.4075099E-03  0.1057409E-04  0.2355276E-03
6038500. -0.6979435E-04  0.1204980E-01  0.4720695E-05 -0.3098160E-03  0.9741726E-05  0.2354380E-03
6016000. -0.1136227E-03  0.1269239E-01  0.5635478E-05 -0.2078504E-03  0.8913944E-05  0.2329585E-03
5993500. -0.1588790E-03  0.1285743E-01  0.6188384E-05 -0.1055227E-03  0.8098933E-05  0.2282274E-03
5971000. -0.2038762E-03  0.1254767E-01  0.6384806E-05 -0.6570154E-05  0.7304428E-05  0.2213646E-03
5971000. -0.2038762E-03  0.1165411E-01  0.6384806E-05  0.1886919E-04  0.7304428E-05  0.2480537E-03
5937667. -0.2612877E-03  0.1017420E-01  0.5977858E-05  0.1321611E-03  0.6059267E-05  0.2272337E-03
5904333. -0.3092885E-03  0.8090575E-02  0.5051700E-05  0.2169672E-03  0.4932989E-05  0.2027623E-03
5871000. -0.3452611E-03  0.5611507E-02  0.3758602E-05  0.2725435E-03  0.3942184E-05  0.1756187E-03
5837667. -0.3676713E-03  0.2938481E-02  0.2247912E-05  0.3005909E-03  0.3098410E-05  0.1466954E-03
5804333. -0.3759887E-03  0.2521564E-03  0.6553554E-06  0.3044842E-03  0.2408957E-05  0.1167273E-03
5771000. -0.3705528E-03 -0.2296375E-02 -0.9036967E-06  0.2885753E-03  0.1877818E-05  0.8625681E-04
5771000. -0.3705528E-03 -0.2296430E-02 -0.9036967E-06  0.2885792E-03  0.1877818E-05  0.8625681E-04
5701000. -0.3183963E-03 -0.6975014E-02 -0.3622141E-05  0.1958097E-03  0.1402457E-05 -0.1594643E-05
5701000. -0.3183963E-03 -0.5982381E-02 -0.3622141E-05  0.2284805E-03  0.1402457E-05  0.8814981E-04
5667333. -0.2823517E-03 -0.7608647E-02 -0.4741459E-05  0.1947871E-03  0.1006978E-05  0.6237304E-04
5633667. -0.2385133E-03 -0.8932083E-02 -0.5679291E-05  0.1602420E-03  0.7342631E-06  0.4170914E-04
5600000. -0.1884666E-03 -0.9960392E-02 -0.6437649E-05  0.1271999E-03  0.5569555E-06  0.2628716E-04
5600000. -0.1884666E-03 -0.9960677E-02 -0.6437649E-05  0.1271961E-03  0.5569555E-06  0.2628716E-04
5563518. -0.1285041E-03 -0.1093413E-01 -0.7062322E-05  0.9109006E-04  0.4427753E-06  0.1411861E-04
5527037. -0.6379958E-04 -0.1161853E-01 -0.7483315E-05  0.5626205E-04  0.3897455E-06  0.4840366E-05
5490556.  0.4019598E-05 -0.1202457E-01 -0.7711199E-05  0.2380515E-04  0.3827684E-06 -0.2042701E-05
5454074.  0.7341307E-04 -0.1217157E-01 -0.7762143E-05 -0.5414895E-05  0.4093713E-06 -0.6952902E-05
5417593.  0.1429659E-03 -0.1208574E-01 -0.7656617E-05 -0.3075758E-04  0.4593142E-06 -0.1025069E-04
5381111.  0.2114368E-03 -0.1179865E-01 -0.7418123E-05 -0.5180260E-04  0.5242740E-06 -0.1224483E-04
5344630.  0.2777690E-03 -0.1134541E-01 -0.7072006E-05 -0.6832805E-04  0.5975579E-06 -0.1319915E-04
5308148.  0.3411205E-03 -0.1076324E-01 -0.6644340E-05 -0.8028744E-04  0.6738749E-06 -0.1333813E-04
5271667.  0.4008580E-03 -0.1009002E-01 -0.6161062E-05 -0.8778417E-04  0.7491187E-06 -0.1285391E-04
5235185.  0.4565711E-03 -0.9363217E-02 -0.5647123E-05 -0.9103566E-04  0.8201888E-06 -0.1190374E-04
5198704.  0.5080546E-03 -0.8619060E-02 -0.5126027E-05 -0.9034450E-04  0.8848072E-06 -0.1062011E-04
5162222.  0.5553106E-03 -0.7891721E-02 -0.4619318E-05 -0.8606837E-04  0.9413591E-06 -0.9100805E-05
5125741.  0.5985254E-03 -0.7213077E-02 -0.4146455E-05 -0.7859208E-04  0.9887449E-06 -0.7430248E-05
5089259.  0.6380652E-03 -0.6612386E-02 -0.3724636E-05 -0.6829855E-04  0.1026250E-05 -0.5655515E-05
5052778.  0.6744521E-03 -0.6116509E-02 -0.3368970E-05 -0.5554708E-04  0.1053377E-05 -0.3809345E-05
5016296.  0.7083598E-03 -0.5750020E-02 -0.3092583E-05 -0.4065293E-04  0.1069743E-05 -0.1894540E-05
4979815.  0.7405934E-03 -0.5535825E-02 -0.2907005E-05 -0.2386844E-04  0.1074900E-05  0.1101624E-06
4943333.  0.7720896E-03 -0.5495714E-02 -0.2822508E-05 -0.5368372E-05  0.1068239E-05  0.2243799E-05
4906852.  0.8039051E-03 -0.5651304E-02 -0.2848648E-05  0.1476997E-04  0.1048783E-05  0.4595576E-05
4870370.  0.8372259E-03 -0.6025042E-02 -0.2994838E-05  0.3657295E-04  0.1014995E-05  0.7269256E-05
4833889.  0.8733679E-03 -0.6641306E-02 -0.3270919E-05  0.6017400E-04  0.9646362E-06  0.1041510E-04
4797407.  0.9137998E-03 -0.7528074E-02 -0.3687950E-05  0.8585869E-04  0.8943875E-06  0.1425570E-04
4760926.  0.9601600E-03 -0.8718372E-02 -0.4258973E-05  0.1140455E-03  0.7995540E-06  0.1905335E-04
4724444.  0.1014300E-02 -0.1025238E-01 -0.4999922E-05  0.1453153E-03  0.6736643E-06  0.2517112E-04
4687963.  0.1078323E-02 -0.1217960E-01 -0.5930534E-05  0.1804435E-03  0.5078693E-06  0.3308116E-04
4651482.  0.1154650E-02 -0.1456177E-01 -0.7075637E-05  0.2204161E-03  0.2902331E-06  0.4339510E-04
4615000.  0.1246103E-02 -0.1747622E-01 -0.8466433E-05  0.2664738E-03  0.4763923E-08  0.5692379E-04
4578518.  0.1355994E-02 -0.2101961E-01 -0.1014196E-04  0.3201449E-03 -0.3698157E-06  0.7472055E-04
4542037.  0.1488254E-02 -0.2531300E-01 -0.1215095E-04  0.3833094E-03 -0.8617740E-06  0.9819136E-04
4505556.  0.1647600E-02 -0.3050821E-01 -0.1455421E-04  0.4582745E-03 -0.1508619E-05  0.1291685E-03
4469074.  0.1839724E-02 -0.3679511E-01 -0.1742714E-04  0.5478419E-03 -0.2359996E-05  0.1700847E-03
4432593.  0.2071519E-02 -0.4441042E-01 -0.2086264E-04  0.6554173E-03 -0.3481508E-05  0.2241370E-03
4396111.  0.2351421E-02 -0.5365036E-01 -0.2497546E-04  0.7851326E-03 -0.4959989E-05  0.2955677E-03
4359630.  0.2689735E-02 -0.6488340E-01 -0.2990600E-04  0.9419727E-03 -0.6910350E-05  0.3900427E-03
4323148.  0.3099160E-02 -0.7856961E-01 -0.3582645E-04  0.1131922E-02 -0.9484944E-05  0.5150023E-03
4286667.  0.3595299E-02 -0.9528065E-01 -0.4294609E-04  0.1362176E-02 -0.1288540E-04  0.6804246E-03
4250185.  0.4197464E-02 -0.1157284E+00 -0.5151967E-04  0.1641207E-02 -0.1737959E-04  0.8995016E-03
4213704.  0.4929452E-02 -0.1407942E+00 -0.6185385E-04  0.1978966E-02 -0.2332243E-04  0.1189820E-02
4177222.  0.5820767E-02 -0.1715716E+00 -0.7431745E-04  0.2386877E-02 -0.3118619E-04  0.1574837E-02
4140741.  0.6907786E-02 -0.2094067E+00 -0.8934768E-04  0.2877791E-02 -0.4159760E-04  0.2085709E-02
4104259.  0.8235568E-02 -0.2559571E+00 -0.1074600E-03  0.3465567E-02 -0.5539150E-04  0.2764093E-02
4067778.  0.9859531E-02 -0.3132395E+00 -0.1292481E-03  0.4164069E-02 -0.7367694E-04  0.3665215E-02
4031296.  0.1184801E-01 -0.3837009E+00 -0.1553842E-03  0.4985739E-02 -0.9793162E-04  0.4862895E-02
3994815.  0.1428446E-01 -0.4702566E+00 -0.1865970E-03  0.5938167E-02 -0.1301193E-03  0.6454958E-02
3958333.  0.1727077E-01 -0.5763398E+00 -0.2236372E-03  0.7019148E-02 -0.1728548E-03  0.8571438E-02
3921852.  0.2092958E-01 -0.7058659E+00 -0.2671898E-03  0.8207340E-02 -0.2296086E-03  0.1138452E-01
3885370.  0.2540754E-01 -0.8631524E+00 -0.3177352E-03  0.9448175E-02 -0.3049940E-03  0.1512155E-01
3848889.  0.3087609E-01 -0.1052624E+01 -0.3752879E-03  0.1063017E-01 -0.4051134E-03  0.2008098E-01
3812407.  0.3753167E-01 -0.1278279E+01 -0.4389792E-03  0.1154644E-01 -0.5380402E-03  0.2665300E-01
3775926.  0.4558926E-01 -0.1542587E+01 -0.5063390E-03  0.1183437E-01 -0.7143858E-03  0.3534266E-01
3739444.  0.5527033E-01 -0.1844651E+01 -0.5721655E-03  0.1087983E-01 -0.9480669E-03  0.4679799E-01
3702963.  0.6677298E-01 -0.2176853E+01 -0.6266633E-03  0.7663535E-02 -0.1257156E-02  0.6183470E-01
3666482.  0.8022089E-01 -0.2519339E+01 -0.6524994E-03  0.5200049E-03 -0.1664959E-02  0.8146098E-01
3630000.  0.9556802E-01 -0.2830661E+01 -0.6200806E-03 -0.1324568E-01 -0.2201121E-02  0.1068777E+00
3630000.  0.9556802E-01 -0.2830647E+01 -0.6200806E-03 -0.1324740E-01 -0.2201121E-02  0.1068777E+00
3592500.  0.1129566E+00 -0.3049511E+01 -0.4759330E-03 -0.3821261E-01 -0.2924757E-02  0.1403525E+00
3555000.  0.1309571E+00 -0.3004715E+01 -0.1326819E-03 -0.8247222E-01 -0.3870714E-02  0.1826599E+00
3517500.  0.1472876E+00 -0.2423164E+01  0.5561934E-03 -0.1581963E+00 -0.5094755E-02  0.2349799E+00
3480000.  0.1575281E+00 -0.8347454E+00  0.1829161E-02 -0.2850455E+00 -0.6656961E-02  0.2974378E+00
3480000.  0.1575281E+00  0.8122246E+01  0.5263370E-02  0.2786680E+00 -0.6656961E-02 -0.1980809E+00
3409422.  0.8797041E-01  0.4716865E+01  0.2896796E-02  0.1589386E+00 -0.4509591E-02 -0.1790788E+00
3338844.  0.4802187E-01  0.2673301E+01  0.1560646E-02  0.8864319E-01 -0.2796099E-02 -0.1292084E+00
3268266.  0.2562572E-01  0.1479161E+01  0.8229130E-03  0.4834608E-01 -0.1629559E-02 -0.8322464E-01
3197688.  0.1336607E-01  0.7991518E+00  0.4245756E-03  0.2578368E-01 -0.9047514E-03 -0.4980440E-01
3127109.  0.6812743E-02  0.4215895E+00  0.2142655E-03  0.1344343E-01 -0.4821759E-03 -0.2821050E-01
3056531.  0.3392312E-02  0.2171422E+00  0.1057215E-03  0.6850694E-02 -0.2477754E-03 -0.1527604E-01
2985953.  0.1649419E-02  0.1091616E+00  0.5097454E-04  0.3410654E-02 -0.1231034E-03 -0.7953614E-02
2915375.  0.7826946E-03  0.5354195E-01  0.2400230E-04  0.1658046E-02 -0.5923077E-04 -0.3995480E-02
2844797.  0.3622427E-03  0.2560894E-01  0.1102941E-04  0.7865839E-03 -0.2762337E-04 -0.1940515E-02
2774219.  0.1633904E-03  0.1193674E-01  0.4941968E-05  0.3638915E-03 -0.1249152E-04 -0.9122393E-03
2703641.  0.7176286E-04  0.5418107E-02  0.2157246E-05  0.1640279E-03 -0.5477055E-05 -0.4153088E-03
2633062.  0.3066136E-04  0.2392719E-02  0.9164419E-06  0.7197325E-04 -0.2327621E-05 -0.1831144E-03
2562484.  0.1273025E-04  0.1027053E-02  0.3784726E-06  0.3071038E-04 -0.9581869E-06 -0.7816967E-04
2491906.  0.5129805E-05  0.4280084E-03  0.1517529E-06  0.1272746E-04 -0.3817514E-06 -0.3228843E-04
2421328.  0.2003514E-05  0.1729483E-03  0.5899420E-07  0.5116461E-05 -0.1470385E-06 -0.1289330E-04
2350750.  0.7572781E-06  0.6766506E-04  0.2220157E-07  0.1992207E-05 -0.5468087E-07 -0.4971627E-05
2280172.  0.2765422E-06  0.2559201E-04  0.8074608E-08  0.7501195E-06 -0.1960350E-07 -0.1848655E-05
2209594.  0.9738731E-07  0.9340378E-05  0.2832732E-08  0.2726307E-06 -0.6763425E-08 -0.6618149E-06
2139016.  0.3300516E-07  0.3283109E-05  0.9566006E-09  0.9545483E-07 -0.2241157E-08 -0.2276846E-06
2068438.  0.1073998E-07  0.1108945E-05  0.3102373E-09  0.3212430E-07 -0.7116651E-09 -0.7511468E-07
1997859.  0.3346964E-08  0.3590571E-06  0.9637684E-10  0.1036573E-07 -0.2160085E-09 -0.2370592E-07
1927281.  0.9960999E-09  0.1111391E-06  0.2859821E-10  0.3198230E-08 -0.6249367E-10 -0.7137734E-08
1856703.  0.2822089E-09  0.3278519E-07  0.8079747E-11  0.9406252E-09 -0.1717796E-10 -0.2044050E-08
1786125.  0.7584330E-10  0.9185085E-08  0.2165621E-11  0.2628025E-09 -0.4469862E-11 -0.5548235E-09
1715547.  0.1926749E-10  0.2433041E-08  0.5481806E-12  0.6951752E-10 -0.1095881E-11 -0.1422713E-09
1644969.  0.0000000E+00  0.0000000E+00  0.0000000E+00  0.0000000E+00  0.0000000E+00  0.0000000E+00
1574391.  0.0000000E+00  0.0000000E+00  0.0000000E+00  0.0000000E+00  0.0000000E+00  0.0000000E+00
1503812.  0.0000000E+00  0.0000000E+00  0.0000000E+00  0.0000000E+00  0.0000000E+00  0.0000000E+00
1433234.  0.0000000E+00  0.0000000E+00  0.0000000E+00  0.0000000E+00  0.0000000E+00  0.0000000E+00
1362656.  0.0000000E+00  0.0000000E+00  0.0000000E+00  0.0000000E+00  0.0000000E+00  0.0000000E+00
1292078.  0.0000000E+00  0.0000000E+00  0.0000000E+00  0.0000000E+00  0.0000000E+00  0.0000000E+00
1221500.  0.0000000E+00  0.0000000E+00  0.0000000E+00  0.0000000E+00  0.0000000E+00  0.0000000E+00
1221500.  0.0000000E+00  0.0000000E+00  0.0000000E+00  0.0000000E+00  0.0000000E+00  0.0000000E+00
1183328.  0.0000000E+00  0.0000000E+00  0.0000000E+00  0.0000000E+00  0.0000000E+00  0.0000000E+00
1145156.  0.0000000E+00  0.0000000E+00  0.0000000E+00  0.0000000E+00  0.0000000E+00  0.0000000E+00
1106984.  0.0000000E+00  0.0000000E+00  0.0000000E+00  0.0000000E+00  0.0000000E+00  0.0000000E+00
1068812.  0.0000000E+00  0.0000000E+00  0.0000000E+00  0.0000000E+00  0.0000000E+00  0.0000000E+00
1030641.  0.0000000E+00  0.0000000E+00  0.0000000E+00  0.0000000E+00  0.0000000E+00  0.0000000E+00
 992469.  0.0000000E+00  0.0000000E+00  0.0000000E+00  0.0000000E+00  0.0000000E+00  0.0000000E+00
 954297.  0.0000000E+00  0.0000000E+00  0.0000000E+00  0.0000000E+00  0.0000000E+00  0.0000000E+00
 916125.  0.0000000E+00  0.0000000E+00  0.0000000E+00  0.0000000E+00  0.0000000E+00  0.0000000E+00
 877953.  0.0000000E+00  0.0000000E+00  0.0000000E+00  0.0000000E+00  0.0000000E+00  0.0000000E+00
 839781.  0.0000000E+00  0.0000000E+00  0.0000000E+00  0.0000000E+00  0.0000000E+00  0.0000000E+00
 801609.  0.0000000E+00  0.0000000E+00  0.0000000E+00  0.0000000E+00  0.0000000E+00  0.0000000E+00
 763438.  0.0000000E+00  0.0000000E+00  0.0000000E+00  0.0000000E+00  0.0000000E+00  0.0000000E+00
 725266.  0.0000000E+00  0.0000000E+00  0.0000000E+00  0.0000000E+00  0.0000000E+00  0.0000000E+00
 687094.  0.0000000E+00  0.0000000E+00  0.0000000E+00  0.0000000E+00  0.0000000E+00  0.0000000E+00
 648922.  0.0000000E+00  0.0000000E+00  0.0000000E+00  0.0000000E+00  0.0000000E+00  0.0000000E+00
 610750.  0.0000000E+00  0.0000000E+00  0.0000000E+00  0.0000000E+00  0.0000000E+00  0.0000000E+00
 572578.  0.0000000E+00  0.0000000E+00  0.0000000E+00  0.0000000E+00  0.0000000E+00  0.0000000E+00
 534406.  0.0000000E+00  0.0000000E+00  0.0000000E+00  0.0000000E+00  0.0000000E+00  0.0000000E+00
 496234.  0.0000000E+00  0.0000000E+00  0.0000000E+00  0.0000000E+00  0.0000000E+00  0.0000000E+00
 458062.  0.0000000E+00  0.0000000E+00  0.0000000E+00  0.0000000E+00  0.0000000E+00  0.0000000E+00
 419891.  0.0000000E+00  0.0000000E+00  0.0000000E+00  0.0000000E+00  0.0000000E+00  0.0000000E+00
 381719.  0.0000000E+00  0.0000000E+00  0.0000000E+00  0.0000000E+00  0.0000000E+00  0.0000000E+00
 343547.  0.0000000E+00  0.0000000E+00  0.0000000E+00  0.0000000E+00  0.0000000E+00  0.0000000E+00
 305375.  0.0000000E+00  0.0000000E+00  0.0000000E+00  0.0000000E+00  0.0000000E+00  0.0000000E+00
 267203.  0.0000000E+00  0.0000000E+00  0.0000000E+00  0.0000000E+00  0.0000000E+00  0.0000000E+00
 229031.  0.0000000E+00  0.0000000E+00  0.0000000E+00  0.0000000E+00  0.0000000E+00  0.0000000E+00
 190859.  0.0000000E+00  0.0000000E+00  0.0000000E+00  0.0000000E+00  0.0000000E+00  0.0000000E+00
 152688.  0.0000000E+00  0.0000000E+00  0.0000000E+00  0.0000000E+00  0.0000000E+00  0.0000000E+00
 114516.  0.0000000E+00  0.0000000E+00  0.0000000E+00  0.0000000E+00  0.0000000E+00  0.0000000E+00
  76344.  0.0000000E+00  0.0000000E+00  0.0000000E+00  0.0000000E+00  0.0000000E+00  0.0000000E+00
  38172.  0.0000000E+00  0.0000000E+00  0.0000000E+00  0.0000000E+00  0.0000000E+00  0.0000000E+00
      0.  0.0000000E+00  0.0000000E+00  0.0000000E+00  0.0000000E+00  0.0000000E+00  0.0000000E+00
