      20        9 S      703        102.17390         41.24048         13.97259        293.48441      185    7
6371000.  0.2761236E-01 -0.1094765E+00 -0.2481873E-02 -0.3009424E-01 -0.9893458E-07 -0.5206947E-01
6370000.  0.2762797E-01 -0.8943656E-01 -0.2476694E-02 -0.3588531E-01  0.8071158E-05 -0.5203290E-01
6369000.  0.2764043E-01 -0.6932344E-01 -0.2470608E-02 -0.4165788E-01  0.1623506E-04 -0.5199062E-01
6368000.  0.2764973E-01 -0.4913954E-01 -0.2463618E-02 -0.4740983E-01  0.2439188E-04 -0.5194264E-01
6368000.  0.2764973E-01 -0.4913954E-01 -0.2463618E-02 -0.4740983E-01  0.2439188E-04 -0.5194264E-01
6367000.  0.2765586E-01 -0.2888732E-01 -0.2455727E-02 -0.5313901E-01  0.3254072E-04 -0.5188896E-01
6366000.  0.2765880E-01 -0.8569226E-02 -0.2446938E-02 -0.5884332E-01  0.4068069E-04 -0.5182958E-01
6365000.  0.2765854E-01  0.1181223E-01 -0.2437256E-02 -0.6452064E-01  0.4881090E-04 -0.5176451E-01
6364000.  0.2765509E-01  0.3225452E-01 -0.2426685E-02 -0.7016889E-01  0.5693044E-04 -0.5169374E-01
6363000.  0.2764841E-01  0.5275508E-01 -0.2415230E-02 -0.7578597E-01  0.6503842E-04 -0.5161731E-01
6362000.  0.2763852E-01  0.7331134E-01 -0.2402896E-02 -0.8136980E-01  0.7313398E-04 -0.5153519E-01
6361000.  0.2762540E-01  0.9392069E-01 -0.2389688E-02 -0.8691833E-01  0.8121618E-04 -0.5144741E-01
6360000.  0.2760904E-01  0.1145805E+00 -0.2375612E-02 -0.9242950E-01  0.8928417E-04 -0.5135397E-01
6359000.  0.2758943E-01  0.1352880E+00 -0.2360674E-02 -0.9790128E-01  0.9733706E-04 -0.5125488E-01
6358000.  0.2756656E-01  0.1560407E+00 -0.2344881E-02 -0.1033316E+00  0.1053739E-03 -0.5115015E-01
6357000.  0.2754044E-01  0.1768357E+00 -0.2328238E-02 -0.1087186E+00  0.1133939E-03 -0.5103979E-01
6356000.  0.2751105E-01  0.1976703E+00 -0.2310754E-02 -0.1140601E+00  0.1213962E-03 -0.5092381E-01
6356000.  0.2751105E-01  0.1058647E+00 -0.2310754E-02 -0.8069559E-01  0.1213962E-03 -0.5690989E-01
6355000.  0.2749325E-01  0.1209338E+00 -0.2297809E-02 -0.8424489E-01  0.1303207E-03 -0.5680529E-01
6354000.  0.2747308E-01  0.1360314E+00 -0.2284309E-02 -0.8776994E-01  0.1392284E-03 -0.5669620E-01
6353000.  0.2745054E-01  0.1511564E+00 -0.2270257E-02 -0.9126987E-01  0.1481186E-03 -0.5658263E-01
6352000.  0.2742563E-01  0.1663070E+00 -0.2255659E-02 -0.9474380E-01  0.1569907E-03 -0.5646459E-01
6351000.  0.2739833E-01  0.1814819E+00 -0.2240516E-02 -0.9819087E-01  0.1658439E-03 -0.5634207E-01
6350000.  0.2736866E-01  0.1966797E+00 -0.2224836E-02 -0.1016102E+00  0.1746775E-03 -0.5621510E-01
6349000.  0.2733659E-01  0.2118988E+00 -0.2208620E-02 -0.1050011E+00  0.1834909E-03 -0.5608368E-01
6348000.  0.2730214E-01  0.2271377E+00 -0.2191875E-02 -0.1083625E+00  0.1922832E-03 -0.5594781E-01
6347000.  0.2726529E-01  0.2423950E+00 -0.2174604E-02 -0.1116937E+00  0.2010539E-03 -0.5580752E-01
6346600.  0.2724988E-01  0.2485027E+00 -0.2167550E-02 -0.1130175E+00  0.2045560E-03 -0.5575016E-01
6346600.  0.2724988E-01  0.1061282E+00 -0.2167550E-02 -0.8589605E-01  0.2045560E-03 -0.6525179E-01
6318800.  0.2610402E-01  0.4213207E+00 -0.1649481E-02 -0.1481690E+00  0.4802098E-03 -0.6062994E-01
6291000.  0.2356825E-01  0.7396687E+00 -0.9100233E-03 -0.1861266E+00  0.7297581E-03 -0.5331845E-01
6291000.  0.2356825E-01  0.7485588E+00 -0.9100233E-03 -0.1914715E+00  0.7297581E-03 -0.5331845E-01
6263000.  0.1959343E-01  0.1054857E+01 -0.3874155E-04 -0.1994597E+00  0.9431030E-03 -0.4337949E-01
6235000.  0.1436220E-01  0.1316196E+01  0.7947991E-03 -0.1745895E+00  0.1107948E-02 -0.3132263E-01
6207000.  0.8124696E-02  0.1509157E+01  0.1453793E-02 -0.1211489E+00  0.1216057E-02 -0.1765369E-01
6179000.  0.1225526E-02  0.1614595E+01  0.1830506E-02 -0.4790111E-01  0.1261642E-02 -0.2977702E-02
6151000. -0.5920296E-02  0.1619961E+01  0.1863127E-02  0.3329658E-01  0.1241750E-02  0.1202481E-01
6151000. -0.5920296E-02  0.1321244E+01  0.1863127E-02  0.3025446E-01  0.1241750E-02  0.1235235E-01
6128500. -0.1045720E-01  0.1240601E+01  0.1657967E-02  0.8490125E-01  0.1181207E-02  0.2185681E-01
6106000. -0.1463276E-01  0.1117488E+01  0.1273538E-02  0.1310069E+00  0.1088045E-02  0.3078811E-01
6083500. -0.1830745E-01  0.9581335E+00  0.7475712E-03  0.1644631E+00  0.9646663E-03  0.3893613E-01
6061000. -0.2136677E-01  0.7704208E+00  0.1302547E-03  0.1823703E+00  0.8141716E-03  0.4611515E-01
6038500. -0.2372626E-01  0.5633662E+00 -0.5204609E-03  0.1832580E+00  0.6402717E-03  0.5216675E-01
6016000. -0.2533440E-01  0.3465230E+00 -0.1144101E-02  0.1671700E+00  0.4471841E-03  0.5696269E-01
5993500. -0.2617349E-01  0.1293868E+00 -0.1682969E-02  0.1356179E+00  0.2395217E-03  0.6040734E-01
5971000. -0.2625842E-01 -0.7917394E-01 -0.2087071E-02  0.9141487E-01  0.2217824E-04  0.6243739E-01
5971000. -0.2625842E-01 -0.7622262E-01 -0.2087071E-02  0.8418525E-01  0.2217824E-04  0.6587484E-01
5937667. -0.2516791E-01 -0.3315229E+00 -0.2336054E-02  0.1007056E-01 -0.3262676E-03  0.6680994E-01
5904333. -0.2289261E-01 -0.5278489E+00 -0.2194106E-02 -0.6315708E-01 -0.6717172E-03  0.6475983E-01
5871000. -0.1975361E-01 -0.6617891E+00 -0.1696610E-02 -0.1242095E+00 -0.9991584E-03  0.5998035E-01
5837667. -0.1607031E-01 -0.7370102E+00 -0.9297341E-03 -0.1651248E+00 -0.1295179E-02  0.5281127E-01
5804333. -0.1212872E-01 -0.7622375E+00 -0.1107808E-04 -0.1818821E+00 -0.1548308E-02  0.4365174E-01
5771000. -0.8161151E-02 -0.7490436E+00  0.9309001E-03 -0.1743208E+00 -0.1749251E-02  0.3294066E-01
5771000. -0.8161151E-02 -0.7490487E+00  0.9309001E-03 -0.1743148E+00 -0.1749251E-02  0.3294066E-01
5701000. -0.1465781E-03 -0.6969252E+00  0.2531603E-02 -0.1031876E+00 -0.1969753E-02  0.6620016E-02
5701000. -0.1465781E-03 -0.5650098E+00  0.2531603E-02 -0.8099213E-01 -0.1969753E-02  0.6661332E-02
5667333.  0.2739102E-02 -0.5270909E+00  0.2827626E-02 -0.3047374E-01 -0.1971771E-02 -0.5901906E-02
5633667.  0.5426260E-02 -0.4903095E+00  0.2852773E-02  0.2057929E-01 -0.1907693E-02 -0.1828725E-01
5600000.  0.7925480E-02 -0.4559764E+00  0.2618507E-02  0.6691142E-01 -0.1779500E-02 -0.3010424E-01
5600000.  0.7925480E-02 -0.4559699E+00  0.2618507E-02  0.6691492E-01 -0.1779500E-02 -0.3010424E-01
5563518.  0.1044104E-01 -0.4229816E+00  0.2107095E-02  0.1099368E+00 -0.1572840E-02 -0.4186207E-01
5527037.  0.1277111E-01 -0.3907146E+00  0.1383890E-02  0.1402228E+00 -0.1302915E-02 -0.5213754E-01
5490556.  0.1490975E-01 -0.3553656E+00  0.5316531E-03  0.1546380E+00 -0.9792718E-03 -0.6057022E-01
5454074.  0.1682563E-01 -0.3120315E+00 -0.3543764E-03  0.1519868E+00 -0.6133158E-03 -0.6687137E-01
5417593.  0.1845830E-01 -0.2556689E+00 -0.1177813E-02  0.1330815E+00 -0.2179093E-03 -0.7083247E-01
5381111.  0.1972059E-01 -0.1820728E+00 -0.1852415E-02  0.1005742E+00  0.1931771E-03 -0.7233080E-01
5344630.  0.2050565E-01 -0.8876104E-01 -0.2311467E-02  0.5858360E-01  0.6056752E-03 -0.7133088E-01
5308148.  0.2069904E-01  0.2438843E-01 -0.2514855E-02  0.1216301E-01  0.1005407E-02 -0.6788352E-01
5271667.  0.2019327E-01  0.1547673E+00 -0.2452606E-02 -0.3330452E-01  0.1378680E-02 -0.6212205E-01
5235185.  0.1890367E-01  0.2970509E+00 -0.2145010E-02 -0.7273690E-01  0.1712826E-02 -0.5425432E-01
5198704.  0.1678326E-01  0.4435113E+00 -0.1639268E-02 -0.1019096E+00  0.1996522E-02 -0.4455493E-01
5162222.  0.1383443E-01  0.5846939E+00 -0.1003149E-02 -0.1179091E+00  0.2220211E-02 -0.3335181E-01
5125741.  0.1011699E-01  0.7102613E+00 -0.3167156E-03 -0.1194090E+00  0.2376317E-02 -0.2101634E-01
5089259.  0.5749562E-02  0.8100498E+00  0.3372738E-03 -0.1067688E+00  0.2459494E-02 -0.7946714E-02
5052778.  0.9065499E-03  0.8750730E+00  0.8826902E-03 -0.8193894E-01  0.2466717E-02  0.5442859E-02
5016296. -0.4192460E-02  0.8984991E+00  0.1258585E-02 -0.4819136E-01  0.2397339E-02  0.1873881E-01
4979815. -0.9296200E-02  0.8763904E+00  0.1425562E-02 -0.9723802E-02  0.2253064E-02  0.3153829E-01
4943333. -0.1414094E-01  0.8081915E+00  0.1369770E-02  0.2883647E-01  0.2037820E-02  0.4346406E-01
4906852. -0.1846938E-01  0.6968958E+00  0.1103856E-02  0.6294470E-01  0.1757627E-02  0.5417186E-01
4870370. -0.2205164E-01  0.5488437E+00  0.6650214E-03  0.8864148E-01  0.1420322E-02  0.6336241E-01
4833889. -0.2470220E-01  0.3732419E+00  0.1105015E-03  0.1029625E+00  0.1035355E-02  0.7078573E-01
4797407. -0.2629495E-01  0.1813567E+00 -0.4891624E-03  0.1042448E+00  0.6134057E-03  0.7624765E-01
4760926. -0.2677174E-01 -0.1442334E-01 -0.1057961E-02  0.9227571E-01  0.1661458E-03  0.7961271E-01
4724444. -0.2614606E-01 -0.2016935E+00 -0.1522917E-02  0.6829061E-01 -0.2941981E-03  0.8080554E-01
4687963. -0.2450004E-01 -0.3690510E+00 -0.1821886E-02  0.3482137E-01 -0.7550883E-03  0.7981025E-01
4651482. -0.2197578E-01 -0.5070830E+00 -0.1910310E-02 -0.4593281E-02 -0.1204102E-02  0.7666901E-01
4615000. -0.1876171E-01 -0.6090983E+00 -0.1765867E-02 -0.4578871E-01 -0.1629214E-02  0.7147809E-01
4578518. -0.1507573E-01 -0.6716066E+00 -0.1390846E-02 -0.8440921E-01 -0.2019072E-02  0.6438436E-01
4542037. -0.1114607E-01 -0.6945081E+00 -0.8119633E-03 -0.1163583E+00 -0.2363299E-02  0.5557943E-01
4505556. -0.7191894E-02 -0.6809442E+00 -0.7761946E-04 -0.1382128E+00 -0.2652750E-02  0.4529344E-01
4469074. -0.3406087E-02 -0.6368521E+00  0.7469382E-03 -0.1475548E+00 -0.2879686E-02  0.3378833E-01
4432593.  0.5856034E-04 -0.5702779E+00  0.1586006E-02 -0.1432023E+00 -0.3037929E-02  0.2135206E-01
4396111.  0.3099701E-02 -0.4905005E+00  0.2361016E-02 -0.1253112E+00 -0.3123019E-02  0.8288895E-02
4359630.  0.5669058E-02 -0.4070876E+00  0.2997998E-02 -0.9534612E-01 -0.3132264E-02 -0.5085189E-02
4323148.  0.7771910E-02 -0.3289157E+00  0.3434833E-02 -0.5591901E-01 -0.3064793E-02 -0.1845294E-01
4286667.  0.9460101E-02 -0.2633305E+00  0.3626995E-02 -0.1053109E-01 -0.2921549E-02 -0.3149987E-01
4250185.  0.1082163E-01 -0.2154476E+00  0.3551751E-02  0.3678111E-01 -0.2705232E-02 -0.4392447E-01
4213704.  0.1196615E-01 -0.1877169E+00  0.3210116E-02  0.8182426E-01 -0.2420245E-02 -0.5544184E-01
4177222.  0.1300933E-01 -0.1797436E+00  0.2626568E-02  0.1206524E+00 -0.2072520E-02 -0.6579244E-01
4140741.  0.1405656E-01 -0.1884125E+00  0.1846667E-02  0.1499222E+00 -0.1669437E-02 -0.7474529E-01
4104259.  0.1518858E-01 -0.2082776E+00  0.9325660E-03  0.1671985E+00 -0.1219553E-02 -0.8210463E-01
4067778.  0.1644959E-01 -0.2321822E+00 -0.4264736E-04  0.1711551E+00 -0.7324912E-03 -0.8771244E-01
4031296.  0.1783991E-01 -0.2520520E+00 -0.1001851E-02  0.1616807E+00 -0.2186063E-03 -0.9145238E-01
3994815.  0.1931292E-01 -0.2597724E+00 -0.1870643E-02  0.1398615E+00  0.3111462E-03 -0.9325113E-01
3958333.  0.2077773E-01 -0.2480785E+00 -0.2584098E-02  0.1078573E+00  0.8455763E-03 -0.9307982E-01
3921852.  0.2210607E-01 -0.2113605E+00 -0.3092152E-02  0.6868647E-01  0.1373395E-02 -0.9095319E-01
3885370.  0.2314403E-01 -0.1463179E+00 -0.3363858E-02  0.2593021E-01  0.1883580E-02 -0.8692870E-01
3848889.  0.2372644E-01 -0.5240766E-01 -0.3389569E-02 -0.1659440E-01  0.2365496E-02 -0.8110422E-01
3812407.  0.2369345E-01  0.6799115E-01 -0.3181334E-02 -0.5519114E-01  0.2809232E-02 -0.7361407E-01
3775926.  0.2290704E-01  0.2096484E+00 -0.2771267E-02 -0.8660184E-01  0.3205691E-02 -0.6462555E-01
3739444.  0.2126646E-01  0.3648578E+00 -0.2208144E-02 -0.1082947E+00  0.3546855E-02 -0.5433243E-01
3702963.  0.1872099E-01  0.5240005E+00 -0.1552718E-02 -0.1186653E+00  0.3825849E-02 -0.4295141E-01
3666482.  0.1527845E-01  0.6763480E+00 -0.8718976E-03 -0.1171621E+00  0.4037107E-02 -0.3071364E-01
3630000.  0.1100917E-01  0.8109251E+00 -0.2326671E-03 -0.1043073E+00  0.4176416E-02 -0.1785996E-01
3630000.  0.1100917E-01  0.8109230E+00 -0.2326671E-03 -0.1043063E+00  0.4176416E-02 -0.1785996E-01
3592500.  0.5883969E-02  0.9248787E+00  0.3178941E-03 -0.8119348E-01  0.4241542E-02 -0.4206649E-02
3555000.  0.1976122E-03  0.1000094E+01  0.7072814E-03 -0.5001865E-01  0.4225449E-02  0.9695264E-02
3517500. -0.5797994E-02  0.1028935E+01  0.8971526E-03 -0.1398453E-01  0.4127412E-02  0.2359550E-01
3480000. -0.1181519E-01  0.1006995E+01  0.8695980E-03  0.2322264E-01  0.3948166E-02  0.3724909E-01
3480000. -0.1181519E-01  0.1348468E+01 -0.1169291E-02 -0.1946925E-01  0.3948166E-02  0.7441481E-01
3409422. -0.2464739E-01  0.9244819E+00 -0.8081176E-03 -0.4453758E-01  0.2563245E-02  0.1702600E+00
3338844. -0.3158567E-01  0.3085072E+00 -0.2188474E-03 -0.5985097E-01  0.3299761E-03  0.2247442E+00
3268266. -0.3133417E-01 -0.3480180E+00  0.4689458E-03 -0.6199754E-01 -0.2220975E-02  0.2267769E+00
3197688. -0.2425637E-01 -0.9025468E+00  0.1104141E-02 -0.5052950E-01 -0.4503218E-02  0.1773763E+00
3127109. -0.1210985E-01 -0.1249641E+01  0.1546715E-02 -0.2782274E-01 -0.6003536E-02  0.8830449E-01
3056531.  0.2463989E-02 -0.1336799E+01  0.1695634E-02  0.1604236E-02 -0.6383418E-02 -0.2133390E-01
2985953.  0.1655437E-01 -0.1167235E+01  0.1507191E-02  0.3210925E-01 -0.5536315E-02 -0.1295513E+00
2915375.  0.2756010E-01 -0.7915215E+00  0.1001231E-02  0.5804226E-01 -0.3594359E-02 -0.2159359E+00
2844797.  0.3363192E-01 -0.2918130E+00  0.2554959E-03  0.7474812E-01 -0.8897713E-03 -0.2652749E+00
2774219.  0.3391832E-01  0.2371244E+00 -0.6097173E-03  0.7929178E-01  0.2116528E-02 -0.2697864E+00
2703641.  0.2860223E-01  0.7060780E+00 -0.1452972E-02  0.7081959E-01  0.4922241E-02 -0.2297570E+00
2633062.  0.1875534E-01  0.1045737E+01 -0.2134998E-02  0.5054179E-01  0.7069679E-02 -0.1527026E+00
2562484.  0.6064474E-02  0.1215377E+01 -0.2539869E-02  0.2138802E-01  0.8215750E-02 -0.5141874E-01
2491906. -0.7506149E-02  0.1205505E+01 -0.2591076E-02 -0.1256966E-01  0.8176641E-02  0.5860576E-01
2421328. -0.2004876E-01  0.1034967E+01 -0.2260375E-02 -0.4680634E-01  0.6942536E-02  0.1618712E+00
2350750. -0.2999078E-01  0.7440253E+00 -0.1568958E-02 -0.7702901E-01  0.4664320E-02  0.2452066E+00
2280172. -0.3628225E-01  0.3851523E+00 -0.5815692E-03 -0.9975065E-01  0.1617807E-02  0.2994395E+00
2209594. -0.3847758E-01  0.1344486E-01  0.6048151E-03 -0.1126881E+00 -0.1845977E-02  0.3202317E+00
2139016. -0.3671624E-01 -0.3218148E+00  0.1875545E-02 -0.1149465E+00 -0.5355086E-02  0.3080798E+00
2068438. -0.3162163E-01 -0.5833435E+00  0.3113716E-02 -0.1069923E+00 -0.8566856E-02  0.2676073E+00
1997859. -0.2414684E-01 -0.7491996E+00  0.4214256E-02 -0.9044648E-01 -0.1120736E-01  0.2063677E+00
1927281. -0.1539961E-01 -0.8133347E+00  0.5094920E-02 -0.6775493E-01 -0.1309592E-01  0.1334141E+00
1856703. -0.6474249E-02 -0.7836720E+00  0.5703351E-02 -0.4179168E-01 -0.1415389E-01  0.5787749E-01
1786125.  0.1684016E-02 -0.6785327E+00  0.6019566E-02 -0.1546861E-01 -0.1439855E-01 -0.1223092E-01
1715547.  0.8369799E-02 -0.5221056E+00  0.6054475E-02  0.8597289E-02 -0.1392555E-01 -0.7087361E-01
1644969.  0.1315674E-01 -0.3398373E+00  0.5845201E-02  0.2832041E-01 -0.1288426E-01 -0.1144373E+00
1574391.  0.1588803E-01 -0.1543246E+00  0.5448469E-02  0.4225229E-01 -0.1145013E-01 -0.1418139E+00
1503812.  0.1662578E-01  0.1798762E-01  0.4933618E-02  0.4954586E-01 -0.9797772E-02 -0.1542108E+00
1433234.  0.1556828E-01  0.1693332E+00  0.4376861E-02  0.4976292E-01 -0.8076999E-02 -0.1548662E+00
1362656.  0.1294104E-01  0.3030086E+00  0.3858682E-02  0.4248158E-01 -0.6391137E-02 -0.1489402E+00
1292078.  0.8856059E-02  0.4370773E+00  0.3467195E-02  0.2659199E-01 -0.4773781E-02 -0.1440461E+00
1221500.  0.3108234E-02  0.6128413E+00  0.3312327E-02 -0.1040802E-02 -0.3151993E-02 -0.1523762E+00
1221500.  0.3108234E-02 -0.4149249E+01 -0.8888215E-02 -0.6257010E-01 -0.3151993E-02 -0.1537227E+00
1183328.  0.2707789E-01 -0.3597336E+01 -0.6939095E-02 -0.5696374E+00 -0.2341451E-02 -0.1181588E+00
1145156.  0.4340735E-01 -0.1656574E+01 -0.2453746E-02 -0.8832251E+00 -0.1721736E-02 -0.8979063E-01
1106984.  0.4528280E-01  0.1097536E+01  0.3032898E-02 -0.8942910E+00 -0.1253632E-02 -0.6736522E-01
1068812.  0.3040473E-01  0.3776193E+01  0.7650272E-02 -0.6023510E+00 -0.9046419E-03 -0.4987945E-01
1030641.  0.2019428E-02  0.5469841E+01  0.9845885E-02 -0.1097984E+00 -0.6477413E-03 -0.3649931E-01
 992469. -0.3187762E-01  0.5546439E+01  0.8892874E-02  0.4192180E+00 -0.4605463E-03 -0.2649332E-01
 954297. -0.6087621E-01  0.3854641E+01  0.5086666E-02  0.8176960E+00 -0.3248797E-03 -0.1919086E-01
 916125. -0.7525684E-01  0.7690635E+00 -0.4094740E-03  0.9706732E+00 -0.2264308E-03 -0.1397011E-01
 877953. -0.6885352E-01 -0.2931043E+01 -0.5987722E-02  0.8476084E+00 -0.1544499E-03 -0.1026748E-01
 839781. -0.4079884E-01 -0.6302133E+01 -0.1012131E-01  0.5037435E+00 -0.1013213E-03 -0.7605633E-02
 801609.  0.4325370E-02 -0.8513106E+01 -0.1181069E-01  0.5362852E-01 -0.6197034E-04 -0.5616587E-02
 763438.  0.5787958E-01 -0.9070289E+01 -0.1081652E-01 -0.3710085E+00 -0.3317434E-04 -0.4050443E-02
 725266.  0.1095887E+00 -0.7926585E+01 -0.7633093E-02 -0.6631408E+00 -0.1286863E-04 -0.2766849E-02
 687094.  0.1501892E+00 -0.5452559E+01 -0.3247387E-02 -0.7683761E+00  0.4301353E-06 -0.1707338E-02
 648922.  0.1735544E+00 -0.2293436E+01  0.1208926E-02 -0.6922167E+00  0.8029620E-05 -0.8657913E-03
 610750.  0.1777464E+00  0.8325784E+00  0.4789505E-02 -0.4876433E+00  0.1125077E-04 -0.2465867E-03
 572578.  0.1648555E+00  0.3327400E+01  0.6947738E-02 -0.2305276E+00  0.1142247E-04  0.1538488E-03
 534406.  0.1398503E+00  0.4842598E+01  0.7592815E-02  0.6922200E-02  0.9796962E-05  0.3589623E-03
 496234.  0.1089192E+00  0.5318047E+01  0.7003882E-02  0.1757853E+00  0.7421398E-05  0.4128474E-03
 458062.  0.7784802E-01  0.4934720E+01  0.5660591E-02  0.2583313E+00  0.5039806E-05  0.3700744E-03
 419891.  0.5086479E-01  0.4012235E+01  0.4062142E-02  0.2643877E+00  0.3076068E-05  0.2812369E-03
 381719.  0.3015814E-01  0.2892783E+01  0.2592877E-02  0.2202451E+00  0.1679416E-05  0.1861123E-03
 343547.  0.1604045E-01  0.1849314E+01  0.1463142E-02  0.1557172E+00  0.8108659E-06  0.1075176E-03
 305375.  0.7524153E-02  0.1038953E+01  0.7200350E-03  0.9423522E-01  0.3400568E-06  0.5377014E-04
 267203.  0.3035577E-02  0.5037352E+00  0.3020495E-03  0.4835334E-01  0.1204370E-06  0.2280523E-04
 229031.  0.1014319E-02  0.2044586E+00  0.1041710E-03  0.2050525E-01  0.3454007E-07  0.7916085E-05
 190859.  0.2645084E-03  0.6606730E-01  0.2786254E-04  0.6854702E-02  0.7505484E-08  0.2125504E-05
 152688.  0.4868957E-04  0.1558624E-01  0.5231680E-05  0.1659608E-02  0.1103146E-08  0.3995885E-06
 114516.  0.5235780E-05  0.2276936E-02  0.5710490E-06  0.2471343E-03  0.8860954E-10  0.4352591E-07
  76344.  0.2149269E-06  0.1420349E-03  0.2368659E-07  0.1562072E-04  0.2410337E-11  0.1796439E-08
  38172.  0.8653891E-09  0.1152560E-05  0.9595912E-10  0.1277370E-06  0.4813913E-14  0.7209766E-11
      0.  0.0000000E+00  0.0000000E+00  0.0000000E+00  0.0000000E+00  0.0000000E+00  0.0000000E+00
