      18        6 S      674        125.71410         48.98805         14.47351        402.88159      185    7
6371000.  0.3708555E-01  0.2659831E-01  0.3377244E-02 -0.3370830E-01 -0.8133147E-04 -0.6936535E-01
6370000.  0.3707999E-01  0.4427795E-01  0.3382126E-02 -0.2849627E-01 -0.7044131E-04 -0.6939621E-01
6369000.  0.3707165E-01  0.6193588E-01  0.3386189E-02 -0.2326936E-01 -0.5954671E-04 -0.6942198E-01
6368000.  0.3706054E-01  0.7957070E-01  0.3389430E-02 -0.1802886E-01 -0.4864846E-04 -0.6944267E-01
6368000.  0.3706054E-01  0.7957070E-01  0.3389430E-02 -0.1802886E-01 -0.4864846E-04 -0.6944267E-01
6367000.  0.3704667E-01  0.9718106E-01  0.3391848E-02 -0.1277602E-01 -0.3774736E-04 -0.6945827E-01
6366000.  0.3703004E-01  0.1147656E+00  0.3393441E-02 -0.7512121E-02 -0.2684421E-04 -0.6946877E-01
6365000.  0.3701065E-01  0.1323228E+00  0.3394206E-02 -0.2238439E-02 -0.1593982E-04 -0.6947418E-01
6364000.  0.3698850E-01  0.1498516E+00  0.3394143E-02  0.3043747E-02 -0.5034972E-05 -0.6947450E-01
6363000.  0.3696360E-01  0.1673504E+00  0.3393250E-02  0.8333153E-02  0.5869522E-05 -0.6946971E-01
6362000.  0.3693597E-01  0.1848179E+00  0.3391527E-02  0.1362849E-01  0.1677286E-04 -0.6945983E-01
6361000.  0.3690559E-01  0.2022528E+00  0.3388972E-02  0.1892848E-01  0.2767426E-04 -0.6944485E-01
6360000.  0.3687248E-01  0.2196539E+00  0.3385584E-02  0.2423183E-01  0.3857290E-04 -0.6942476E-01
6359000.  0.3683664E-01  0.2370197E+00  0.3381364E-02  0.2953724E-01  0.4946798E-04 -0.6939958E-01
6358000.  0.3679807E-01  0.2543489E+00  0.3376312E-02  0.3484342E-01  0.6035872E-04 -0.6936930E-01
6357000.  0.3675679E-01  0.2716403E+00  0.3370426E-02  0.4014908E-01  0.7124430E-04 -0.6933392E-01
6356000.  0.3671280E-01  0.2888925E+00  0.3363708E-02  0.4545293E-01  0.8212392E-04 -0.6929343E-01
6356000.  0.3671280E-01  0.1944192E+00  0.3363708E-02  0.1418426E-01  0.8212392E-04 -0.7728171E-01
6355000.  0.3668130E-01  0.2070102E+00  0.3361203E-02  0.1773385E-01  0.9425273E-04 -0.7726280E-01
6354000.  0.3664782E-01  0.2195781E+00  0.3358141E-02  0.2128572E-01  0.1063782E-03 -0.7723979E-01
6353000.  0.3661237E-01  0.2321224E+00  0.3354521E-02  0.2483929E-01  0.1184998E-03 -0.7721270E-01
6352000.  0.3657495E-01  0.2446423E+00  0.3350343E-02  0.2839398E-01  0.1306168E-03 -0.7718152E-01
6351000.  0.3653557E-01  0.2571372E+00  0.3345608E-02  0.3194921E-01  0.1427286E-03 -0.7714625E-01
6350000.  0.3649423E-01  0.2696063E+00  0.3340314E-02  0.3550439E-01  0.1548345E-03 -0.7710689E-01
6349000.  0.3645094E-01  0.2820490E+00  0.3334462E-02  0.3905894E-01  0.1669340E-03 -0.7706344E-01
6348000.  0.3640569E-01  0.2944646E+00  0.3328052E-02  0.4261228E-01  0.1790263E-03 -0.7701591E-01
6347000.  0.3635850E-01  0.3068524E+00  0.3321085E-02  0.4616382E-01  0.1911108E-03 -0.7696429E-01
6346600.  0.3633908E-01  0.3117996E+00  0.3318142E-02  0.4758380E-01  0.1959423E-03 -0.7694250E-01
6346600.  0.3633908E-01  0.2047142E+00  0.3318142E-02  0.2135743E-01  0.1959423E-03 -0.8961341E-01
6318800.  0.3490976E-01  0.4481441E+00  0.3057882E-02  0.9742431E-01  0.5834666E-03 -0.8756906E-01
6291000.  0.3245302E-01  0.6744868E+00  0.2477749E-02  0.1667507E+00  0.9563613E-03 -0.8291480E-01
6291000.  0.3245302E-01  0.6840988E+00  0.2477749E-02  0.1735849E+00  0.9563613E-03 -0.8291480E-01
6263000.  0.2898342E-01  0.8902637E+00  0.1581369E-02  0.2312698E+00  0.1305509E-02 -0.7555038E-01
6235000.  0.2467114E-01  0.1066876E+01  0.4759397E-03  0.2678560E+00  0.1616873E-02 -0.6575665E-01
6207000.  0.1965427E-01  0.1210441E+01 -0.7361041E-03  0.2793144E+00  0.1880309E-02 -0.5378819E-01
6179000.  0.1408319E-01  0.1318817E+01 -0.1939994E-02  0.2641088E+00  0.2086958E-02 -0.3997577E-01
6151000.  0.8115218E-02  0.1390959E+01 -0.3020009E-02  0.2233464E+00  0.2229569E-02 -0.2471768E-01
6151000.  0.8115218E-02  0.1109701E+01 -0.3020009E-02  0.1948717E+00  0.2229569E-02 -0.2516666E-01
6128500.  0.4188154E-02  0.1111821E+01 -0.3631065E-02  0.1496157E+00  0.2299769E-02 -0.1453351E-01
6106000.  0.2785663E-03  0.1100064E+01 -0.4067403E-02  0.9640481E-01  0.2331937E-02 -0.3657988E-02
6083500. -0.3567236E-02  0.1075937E+01 -0.4306193E-02  0.3827038E-01  0.2325533E-02  0.7280246E-02
6061000. -0.7308011E-02  0.1040796E+01 -0.4335733E-02 -0.2154769E-01  0.2280650E-02  0.1810386E-01
6038500. -0.1090697E-01  0.9957997E+00 -0.4155859E-02 -0.7978839E-01  0.2197999E-02  0.2864059E-01
6016000. -0.1433101E-01  0.9418684E+00 -0.3777684E-02 -0.1333535E+00  0.2078886E-02  0.3872574E-01
5993500. -0.1754985E-01  0.8796864E+00 -0.3222732E-02 -0.1794735E+00  0.1925183E-02  0.4820490E-01
5971000. -0.2053525E-01  0.8097343E+00 -0.2521506E-02 -0.2158531E+00  0.1739285E-02  0.5693544E-01
5971000. -0.2053525E-01  0.7302825E+00 -0.2521506E-02 -0.1899558E+00  0.1739285E-02  0.5962368E-01
5937667. -0.2401686E-01  0.5996677E+00 -0.1453820E-02 -0.2143051E+00  0.1397419E-02  0.7069045E-01
5904333. -0.2680200E-01  0.4642812E+00 -0.3186228E-03 -0.2160046E+00  0.1003611E-02  0.7944255E-01
5871000. -0.2886943E-01  0.3255751E+00  0.7713473E-03 -0.1976126E+00  0.5704194E-03  0.8573333E-01
5837667. -0.3020548E-01  0.1849439E+00  0.1721388E-02 -0.1633093E+00  0.1109035E-03  0.8950157E-01
5804333. -0.3080413E-01  0.4398429E-01  0.2461359E-02 -0.1181921E+00 -0.3617604E-03  0.9076245E-01
5771000. -0.3066856E-01 -0.9536085E-01  0.2948686E-02 -0.6762683E-01 -0.8346182E-03  0.8960048E-01
5771000. -0.3066856E-01 -0.9535269E-01  0.2948686E-02 -0.6762342E-01 -0.8346182E-03  0.8960048E-01
5701000. -0.2795124E-01 -0.3994625E+00  0.3129661E-02  0.3382291E-01 -0.1765171E-02  0.7818252E-01
5701000. -0.2795124E-01 -0.3209219E+00  0.3129661E-02  0.3401366E-01 -0.1765171E-02  0.8606096E-01
5667333. -0.2592050E-01 -0.4465390E+00  0.2850157E-02  0.7043537E-01 -0.2199828E-02  0.7813132E-01
5633667. -0.2324695E-01 -0.5636101E+00  0.2400892E-02  0.9801204E-01 -0.2587824E-02  0.6844734E-01
5600000. -0.1998518E-01 -0.6685461E+00  0.1831825E-02  0.1156671E+00 -0.2920599E-02  0.5727351E-01
5600000. -0.1998518E-01 -0.6685434E+00  0.1831825E-02  0.1156715E+00 -0.2920599E-02  0.5727351E-01
5563518. -0.1585667E-01 -0.7704928E+00  0.1134617E-02  0.1259316E+00 -0.3210533E-02  0.4377115E-01
5527037. -0.1119865E-01 -0.8528815E+00  0.4115568E-03  0.1247268E+00 -0.3419704E-02  0.2912764E-01
5490556. -0.6133602E-02 -0.9121131E+00 -0.2729636E-03  0.1126454E+00 -0.3542638E-02  0.1371346E-01
5454074. -0.8026052E-03 -0.9453148E+00 -0.8604871E-03  0.9115253E-01 -0.3576009E-02 -0.2091289E-02
5417593.  0.4638922E-02 -0.9505312E+00 -0.1303067E-02  0.6244146E-01 -0.3518674E-02 -0.1790466E-01
5381111.  0.1002799E-01 -0.9268908E+00 -0.1566973E-02  0.2922740E-01 -0.3371650E-02 -0.3335500E-01
5344630.  0.1519937E-01 -0.8747006E+00 -0.1634934E-02 -0.5483465E-02 -0.3138057E-02 -0.4808565E-01
5308148.  0.1999360E-01 -0.7954651E+00 -0.1507135E-02 -0.3864856E-01 -0.2822962E-02 -0.6176580E-01
5271667.  0.2426265E-01 -0.6918429E+00 -0.1200727E-02 -0.6742387E-01 -0.2433277E-02 -0.7409395E-01
5235185.  0.2787721E-01 -0.5675249E+00 -0.7480102E-03 -0.8938757E-01 -0.1977497E-02 -0.8480611E-01
5198704.  0.3073129E-01 -0.4270764E+00 -0.1935664E-03 -0.1027121E+00 -0.1465563E-02 -0.9367794E-01
5162222.  0.3274728E-01 -0.2756815E+00  0.4096413E-03 -0.1062947E+00 -0.9085216E-03 -0.1005298E+00
5125741.  0.3387822E-01 -0.1189093E+00  0.1004515E-02 -0.9982209E-01 -0.3183737E-03 -0.1052282E+00
5089259.  0.3410956E-01  0.3759754E-01  0.1534521E-02 -0.8377782E-01  0.2923128E-03 -0.1076872E+00
5052778.  0.3345862E-01  0.1883745E+00  0.1948006E-02 -0.5939057E-01  0.9105491E-03 -0.1078687E+00
5016296.  0.3197272E-01  0.3284346E+00  0.2202283E-02 -0.2852424E-01  0.1523331E-02 -0.1057815E+00
4979815.  0.2972604E-01  0.4534697E+00  0.2266787E-02  0.6466655E-02  0.2117768E-02 -0.1014801E+00
4943333.  0.2681470E-01  0.5600671E+00  0.2125413E-02  0.4292493E-01  0.2681474E-02 -0.9506187E-01
4906852.  0.2335185E-01  0.6458147E+00  0.1777687E-02  0.7808293E-01  0.3202672E-02 -0.8666420E-01
4870370.  0.1946101E-01  0.7093884E+00  0.1238771E-02  0.1092715E+00  0.3670534E-02 -0.7646056E-01
4833889.  0.1527059E-01  0.7505375E+00  0.5384404E-03  0.1341015E+00  0.4075272E-02 -0.6465729E-01
4797407.  0.1090700E-01  0.7700376E+00 -0.2811464E-03  0.1506399E+00  0.4408400E-02 -0.5148664E-01
4760926.  0.6490055E-02  0.7695585E+00 -0.1168285E-02  0.1575315E+00  0.4662796E-02 -0.3720530E-01
4724444.  0.2127347E-02  0.7515038E+00 -0.2065487E-02  0.1540906E+00  0.4832886E-02 -0.2208563E-01
4687963. -0.2088445E-02  0.7188064E+00 -0.2913265E-02  0.1403408E+00  0.4914676E-02 -0.6413841E-02
4651482. -0.6082782E-02  0.6747077E+00 -0.3654357E-02  0.1170035E+00  0.4905842E-02  0.9518253E-02
4615000. -0.9799987E-02  0.6225204E+00 -0.4237494E-02  0.8544113E-01  0.4805732E-02  0.2541729E-01
4578518. -0.1320283E-01  0.5654155E+00 -0.4620786E-02  0.4756005E-01  0.4615368E-02  0.4099264E-01
4542037. -0.1627138E-01  0.5062251E+00 -0.4774518E-02  0.5677028E-02  0.4337428E-02  0.5596206E-01
4505556. -0.1900070E-01  0.4472705E+00 -0.4683055E-02 -0.3764183E-01  0.3976149E-02  0.7005759E-01
4469074. -0.2139741E-01  0.3902526E+00 -0.4345743E-02 -0.7975017E-01  0.3537249E-02  0.8302867E-01
4432593. -0.2347570E-01  0.3361874E+00 -0.3776939E-02 -0.1180908E+00  0.3027862E-02  0.9464555E-01
4396111. -0.2525381E-01  0.2853852E+00 -0.3004921E-02 -0.1503669E+00  0.2456307E-02  0.1047050E+00
4359630. -0.2674964E-01  0.2375048E+00 -0.2070121E-02 -0.1746775E+00  0.1832056E-02  0.1130303E+00
4323148. -0.2797764E-01  0.1916268E+00 -0.1022335E-02 -0.1896375E+00  0.1165429E-02  0.1194776E+00
4286667. -0.2894548E-01  0.1463998E+00  0.8227641E-04 -0.1944556E+00  0.4675582E-03  0.1239340E+00
4250185. -0.2965238E-01  0.1001910E+00  0.1184937E-02 -0.1889721E+00 -0.2499582E-03  0.1263223E+00
4213704. -0.3008773E-01  0.5127825E-01  0.2227658E-02 -0.1736607E+00 -0.9750983E-03  0.1265994E+00
4177222. -0.3023132E-01 -0.1972245E-02  0.3156994E-02 -0.1495828E+00 -0.1695774E-02  0.1247577E+00
4140741. -0.3005425E-01 -0.6091258E-01  0.3926991E-02 -0.1183162E+00 -0.2399875E-02  0.1208244E+00
4104259. -0.2952105E-01 -0.1264634E+00  0.4502028E-02 -0.8183921E-01 -0.3075619E-02  0.1148599E+00
4067778. -0.2859262E-01 -0.1989697E+00  0.4858598E-02 -0.4240676E-01 -0.3711593E-02  0.1069577E+00
4031296. -0.2722963E-01 -0.2781216E+00  0.4986584E-02 -0.2398637E-02 -0.4297070E-02  0.9723996E-01
3994815. -0.2539669E-01 -0.3628956E+00  0.4889492E-02  0.3582327E-01 -0.4822042E-02  0.8585747E-01
3958333. -0.2306612E-01 -0.4515693E+00  0.4583930E-02  0.7006799E-01 -0.5277493E-02  0.7298417E-01
3921852. -0.2022222E-01 -0.5417692E+00  0.4098289E-02  0.9843880E-01 -0.5655412E-02  0.5881577E-01
3885370. -0.1686421E-01 -0.6305764E+00  0.3470648E-02  0.1194505E+00 -0.5949002E-02  0.4356388E-01
3848889. -0.1300966E-01 -0.7146559E+00  0.2746284E-02  0.1321067E+00 -0.6152686E-02  0.2745474E-01
3812407. -0.8695533E-02 -0.7904498E+00  0.1974565E-02  0.1359534E+00 -0.6262231E-02  0.1072203E-01
3775926. -0.3979858E-02 -0.8543610E+00  0.1205949E-02  0.1310936E+00 -0.6274748E-02 -0.6394084E-02
3739444.  0.1059662E-02 -0.9029688E+00  0.4886560E-03  0.1181704E+00 -0.6188727E-02 -0.2365453E-01
3702963.  0.6326163E-02 -0.9332240E+00 -0.1341289E-03  0.9831678E-01 -0.6004028E-02 -0.4082166E-01
3666482.  0.1170731E-01 -0.9426554E+00 -0.6269852E-03  0.7307547E-01 -0.5721845E-02 -0.5766636E-01
3630000.  0.1707862E-01 -0.9295179E+00 -0.9642497E-03  0.4429712E-01 -0.5344643E-02 -0.7397054E-01
3630000.  0.1707862E-01 -0.9295147E+00 -0.9642497E-03  0.4429628E-01 -0.5344643E-02 -0.7397054E-01
3592500.  0.2246357E-01 -0.8959820E+00 -0.1134435E-02  0.1341348E-01 -0.4861678E-02 -0.9000269E-01
3555000.  0.2757619E-01 -0.8370150E+00 -0.1123020E-02 -0.1702894E-01 -0.4286884E-02 -0.1051378E+00
3517500.  0.3226852E-01 -0.7534003E+00 -0.9392585E-03 -0.4478083E-01 -0.3626146E-02 -0.1191732E+00
3480000.  0.3640062E-01 -0.6470722E+00 -0.6052621E-03 -0.6774842E-01 -0.2886489E-02 -0.1319238E+00
3480000.  0.3640062E-01 -0.9663602E+00  0.1121900E-02  0.6456719E-01 -0.2886489E-02 -0.2464252E+00
3409422.  0.4372386E-01 -0.3418590E+00  0.3039483E-03  0.8113337E-01  0.2092428E-03 -0.3042927E+00
3338844.  0.4386900E-01  0.3115672E+00 -0.6282199E-03  0.8491247E-01  0.3663443E-02 -0.3104600E+00
3268266.  0.3709073E-01  0.8926109E+00 -0.1527629E-02  0.7528739E-01  0.6896471E-02 -0.2650773E+00
3197688.  0.2465948E-01  0.1321065E+01 -0.2251616E-02  0.5362073E-01  0.9374678E-02 -0.1760737E+00
3127109.  0.8575377E-02  0.1546329E+01 -0.2682208E-02  0.2293492E-01  0.1068743E-01 -0.5735984E-01
3056531. -0.8781159E-02  0.1550563E+01 -0.2741823E-02 -0.1259266E-01  0.1060022E-01  0.7360590E-01
2985953. -0.2500849E-01  0.1347020E+01 -0.2402777E-02 -0.4823877E-01  0.9079270E-02  0.1984929E+00
2915375. -0.3799987E-01  0.9745754E+00 -0.1689857E-02 -0.7935350E-01  0.6287007E-02  0.3005942E+00
2844797. -0.4618545E-01  0.4898314E+00 -0.6763167E-03 -0.1019208E+00  0.2552241E-02  0.3668650E+00
2774219. -0.4867913E-01 -0.4189456E-01  0.5257017E-03 -0.1129972E+00 -0.1678658E-02  0.3892928E+00
2703641. -0.4532549E-01 -0.5554034E+00  0.1778770E-02 -0.1109939E+00 -0.5901608E-02  0.3655095E+00
2633062. -0.3665441E-01 -0.9932922E+00  0.2935969E-02 -0.9578682E-01 -0.9617326E-02  0.2986605E+00
2562484. -0.2376134E-01 -0.1311695E+01  0.3856872E-02 -0.6865901E-01 -0.1238849E-01  0.1966421E+00
2491906. -0.8134872E-02 -0.1483828E+01  0.4422237E-02 -0.3209863E-01 -0.1388609E-01  0.7084702E-01
2421328.  0.8540448E-02 -0.1501120E+01  0.4545637E-02  0.1051423E-01 -0.1391969E-01 -0.6535927E-01
2350750.  0.2458240E-01 -0.1372237E+01  0.4181277E-02  0.5529172E-01 -0.1245040E-01 -0.1982429E+00
2280172.  0.3848804E-01 -0.1120297E+01  0.3327380E-02  0.9824098E-01 -0.9586537E-02 -0.3151950E+00
2209594.  0.4907276E-01 -0.7789245E+00  0.2025174E-02  0.1356527E+00 -0.5564037E-02 -0.4059594E+00
2139016.  0.5556135E-01 -0.3876097E+00  0.3538351E-03  0.1644338E+00 -0.7152534E-03 -0.4634944E+00
2068438.  0.5762680E-01  0.1297860E-01 -0.1577808E-02  0.1823583E+00  0.4569472E-02 -0.4844099E+00
1997859.  0.5537906E-01  0.3852736E+00 -0.3641842E-02  0.1882173E+00  0.9882812E-02 -0.4689848E+00
1927281.  0.4931080E-01  0.6982519E+00 -0.5702767E-02  0.1818651E+00  0.1483910E-01 -0.4208031E+00
1856703.  0.4021044E-01  0.9298276E+00 -0.7629230E-02  0.1641629E+00  0.1910793E-01 -0.3460879E+00
1786125.  0.2905549E-01  0.1068056E+01 -0.9304332E-02  0.1368333E+00  0.2243849E-01 -0.2528403E+00
1715547.  0.1689899E-01  0.1111156E+01 -0.1063408E-01  0.1022511E+00  0.2467403E-01 -0.1498840E+00
1644969.  0.4761579E-02  0.1066526E+01 -0.1155323E-01  0.6318229E-01  0.2575577E-01 -0.4593209E-01
1574391. -0.6461110E-02  0.9489878E+00 -0.1202805E-01  0.2251172E-01  0.2571694E-01  0.5124019E-01
1503812. -0.1606858E-01  0.7785244E+00 -0.1205623E-01 -0.1702607E-01  0.2466860E-01  0.1354482E+00
1433234. -0.2359867E-01  0.5778584E+00 -0.1166372E-01 -0.5309301E-01  0.2277945E-01  0.2025323E+00
1362656. -0.2884589E-01  0.3701781E+00 -0.1089920E-01 -0.8395840E-01  0.2025184E-01  0.2505884E+00
1292078. -0.3185559E-01  0.1773779E+00 -0.9826335E-02 -0.1086802E+00  0.1729649E-01  0.2800086E+00
1221500. -0.3290381E-01  0.1915835E-01 -0.8514067E-02 -0.1272707E+00  0.1410731E-01  0.2934293E+00
1221500. -0.3290381E-01  0.2649274E+01  0.6070033E-02  0.2032766E+00  0.1410731E-01  0.3076833E+00
1183328. -0.4753003E-01  0.2112309E+01  0.3288091E-02  0.7038465E+00  0.1233250E-01  0.2846559E+00
1145156. -0.5688525E-01  0.9150047E+00 -0.1986000E-02  0.1016720E+01  0.1069719E-01  0.2611704E+00
1106984. -0.5763215E-01 -0.7098626E+00 -0.8353406E-02  0.1060597E+01  0.9203155E-02  0.2375512E+00
1068812. -0.4823712E-01 -0.2404120E+01 -0.1412688E-01  0.8223208E+00  0.7850151E-02  0.2141560E+00
1030641. -0.2949483E-01 -0.3763958E+01 -0.1775305E-01  0.3585014E+00  0.6635793E-02  0.1913375E+00
 992469. -0.4522284E-02 -0.4432893E+01 -0.1819111E-01 -0.2203823E+00  0.5555594E-02  0.1694115E+00
 954297.  0.2178249E-01 -0.4185544E+01 -0.1515439E-01 -0.7783917E+00  0.4603430E-02  0.1486356E+00
 916125.  0.4371291E-01 -0.2983292E+01 -0.9163354E-02 -0.1187597E+01  0.3771822E-02  0.1291934E+00
 877953.  0.5593712E-01 -0.9884284E+00 -0.1404214E-02 -0.1357978E+01  0.3052416E-02  0.1111941E+00
 839781.  0.5463223E-01  0.1466171E+01  0.6562504E-02 -0.1256660E+01  0.2436400E-02  0.9468459E-01
 801609.  0.3831922E-01  0.3944655E+01  0.1316598E-01 -0.9125586E+00  0.1914824E-02  0.7966677E-01
 763438.  0.8218927E-02  0.5997630E+01  0.1717143E-01 -0.4061693E+00  0.1478826E-02  0.6611665E-01
 725266. -0.3194841E-01  0.7253641E+01  0.1792932E-01  0.1519990E+00  0.1119688E-02  0.5400074E-01
 687094. -0.7665668E-01  0.7491887E+01  0.1547507E-01  0.6482798E+00  0.8289259E-03  0.4328745E-01
 648922. -0.1196188E+00  0.6682178E+01  0.1046963E-01  0.9913487E+00  0.5982195E-03  0.3394959E-01
 610750. -0.1549449E+00  0.4983749E+01  0.4006433E-02  0.1130343E+01  0.4194150E-03  0.2595683E-01
 572578. -0.1781758E+00  0.2705351E+01 -0.2658278E-02  0.1061959E+01  0.2845664E-03  0.1926925E-01
 534406. -0.1869841E+00  0.2369823E+00 -0.8382273E-02  0.8259090E+00  0.1860185E-03  0.1382772E-01
 496234. -0.1814218E+00 -0.2030582E+01 -0.1235703E-01  0.4909748E+00  0.1165530E-03  0.9544158E-02
 458062. -0.1636940E+00 -0.3780496E+01 -0.1422621E-01  0.1359932E+00  0.6957632E-04  0.6298953E-02
 419891. -0.1375432E+00 -0.4823140E+01 -0.1408792E-01 -0.1690644E+00  0.3928514E-04  0.3948996E-02
 381719. -0.1074009E+00 -0.5118254E+01 -0.1239548E-01 -0.3773904E+00  0.2079442E-04  0.2332077E-02
 343547. -0.7751549E-01 -0.4763422E+01 -0.9794768E-02 -0.4719265E+00  0.1020458E-04  0.1284691E-02
 305375. -0.5122924E-01 -0.3954964E+01 -0.6946571E-02 -0.4638546E+00  0.4575836E-05  0.6515617E-03
 267203. -0.3054972E-01 -0.2932228E+01 -0.4379832E-02 -0.3841972E+00  0.1839225E-05  0.2991721E-03
 229031. -0.1606661E-01 -0.1920164E+01 -0.2407434E-02 -0.2719748E+00  0.6445978E-06  0.1215384E-03
 190859. -0.7184096E-02 -0.1083514E+01 -0.1114578E-02 -0.1624015E+00  0.1889011E-06  0.4214896E-04
 152688. -0.2566150E-02 -0.5027250E+00 -0.4089804E-03 -0.7852915E-01  0.4322031E-07  0.1179135E-04
 114516. -0.6507692E-03 -0.1748695E+00 -0.1058155E-03 -0.2813608E-01  0.6771983E-08  0.2395664E-05
  76344. -0.8982875E-04 -0.3691871E-01 -0.1481016E-04 -0.6059748E-02  0.5357281E-09  0.2761498E-06
  38172. -0.2887173E-05 -0.2400332E-02 -0.4799005E-06 -0.3985458E-03  0.7841977E-11  0.7963749E-08
      0.  0.0000000E+00  0.0000000E+00  0.0000000E+00  0.0000000E+00  0.0000000E+00  0.0000000E+00
