       4       32 S      301        135.78050          9.07124          6.55710        251.05450      185    7
6371000. -0.7864226E-02 -0.1287124E+01 -0.3115783E-02  0.4748442E-02  0.1769390E-02 -0.4355977E-01
6370000. -0.7661937E-02 -0.1290376E+01 -0.3116298E-02  0.1812344E-02  0.1776205E-02 -0.4327930E-01
6369000. -0.7459169E-02 -0.1293217E+01 -0.3116352E-02 -0.1125530E-02  0.1782976E-02 -0.4300050E-01
6368000. -0.7255988E-02 -0.1295648E+01 -0.3115945E-02 -0.4064667E-02  0.1789704E-02 -0.4272339E-01
6368000. -0.7255988E-02 -0.1295648E+01 -0.3115945E-02 -0.4064667E-02  0.1789704E-02 -0.4272339E-01
6367000. -0.7052458E-02 -0.1297668E+01 -0.3115076E-02 -0.7004553E-02  0.1796388E-02 -0.4244798E-01
6366000. -0.6848643E-02 -0.1299275E+01 -0.3113746E-02 -0.9944675E-02  0.1803029E-02 -0.4217430E-01
6365000. -0.6644608E-02 -0.1300471E+01 -0.3111954E-02 -0.1288452E-01  0.1809628E-02 -0.4190236E-01
6364000. -0.6440417E-02 -0.1301254E+01 -0.3109701E-02 -0.1582357E-01  0.1816184E-02 -0.4163217E-01
6363000. -0.6236136E-02 -0.1301626E+01 -0.3106987E-02 -0.1876132E-01  0.1822697E-02 -0.4136376E-01
6362000. -0.6031829E-02 -0.1301584E+01 -0.3103812E-02 -0.2169725E-01  0.1829169E-02 -0.4109713E-01
6361000. -0.5827561E-02 -0.1301131E+01 -0.3100176E-02 -0.2463085E-01  0.1835598E-02 -0.4083231E-01
6360000. -0.5623396E-02 -0.1300265E+01 -0.3096080E-02 -0.2756161E-01  0.1841987E-02 -0.4056932E-01
6359000. -0.5419401E-02 -0.1298988E+01 -0.3091524E-02 -0.3048901E-01  0.1848334E-02 -0.4030816E-01
6358000. -0.5215637E-02 -0.1297299E+01 -0.3086509E-02 -0.3341255E-01  0.1854641E-02 -0.4004886E-01
6357000. -0.5012170E-02 -0.1295198E+01 -0.3081035E-02 -0.3633170E-01  0.1860907E-02 -0.3979144E-01
6356000. -0.4809066E-02 -0.1292687E+01 -0.3075104E-02 -0.3924597E-01  0.1867132E-02 -0.3953590E-01
6356000. -0.4809066E-02 -0.1127633E+01 -0.3075104E-02 -0.2299972E-01  0.1867132E-02 -0.3848950E-01
6355000. -0.4632161E-02 -0.1126450E+01 -0.3071370E-02 -0.2458320E-01  0.1873144E-02 -0.3811421E-01
6354000. -0.4455460E-02 -0.1125047E+01 -0.3067387E-02 -0.2616475E-01  0.1879097E-02 -0.3774054E-01
6353000. -0.4278996E-02 -0.1123425E+01 -0.3063156E-02 -0.2774422E-01  0.1884992E-02 -0.3736848E-01
6352000. -0.4102803E-02 -0.1121582E+01 -0.3058677E-02 -0.2932143E-01  0.1890828E-02 -0.3699806E-01
6351000. -0.3926917E-02 -0.1119520E+01 -0.3053951E-02 -0.3089621E-01  0.1896606E-02 -0.3662926E-01
6350000. -0.3751372E-02 -0.1117238E+01 -0.3048979E-02 -0.3246839E-01  0.1902327E-02 -0.3626211E-01
6349000. -0.3576203E-02 -0.1114738E+01 -0.3043759E-02 -0.3403782E-01  0.1907990E-02 -0.3589660E-01
6348000. -0.3401442E-02 -0.1112018E+01 -0.3038293E-02 -0.3560432E-01  0.1913596E-02 -0.3553275E-01
6347000. -0.3227127E-02 -0.1109080E+01 -0.3032582E-02 -0.3716773E-01  0.1919145E-02 -0.3517055E-01
6346600. -0.3157532E-02 -0.1107844E+01 -0.3030229E-02 -0.3779219E-01  0.1921348E-02 -0.3502613E-01
6346600. -0.3157532E-02 -0.1284474E+01 -0.3030229E-02 -0.2547356E-01  0.1921348E-02 -0.3392515E-01
6318800.  0.2269463E-02 -0.1185600E+01 -0.2867321E-02 -0.4891006E-01  0.2045481E-02 -0.2315452E-01
6291000.  0.7041897E-02 -0.9856650E+00 -0.2606876E-02 -0.6995344E-01  0.2124930E-02 -0.1342257E-01
6291000.  0.7041897E-02 -0.1019890E+01 -0.2606876E-02 -0.7207471E-01  0.2124930E-02 -0.1342257E-01
6263000.  0.1088453E-01 -0.7136738E+00 -0.2246839E-02 -0.9098142E-01  0.2164898E-02 -0.4909859E-02
6235000.  0.1319737E-01 -0.3274754E+00 -0.1814915E-02 -0.1046095E+00  0.2169264E-02  0.2798530E-02
6207000.  0.1368286E-01  0.1132119E+00 -0.1336396E-02 -0.1120691E+00  0.2141313E-02  0.9814685E-02
6179000.  0.1216662E-01  0.5781153E+00 -0.8396116E-03 -0.1128783E+00  0.2083862E-02  0.1623843E-01
6151000.  0.8614304E-02  0.1034137E+01 -0.3540308E-03 -0.1070032E+00  0.1999328E-02  0.2215091E-01
6151000.  0.8614304E-02  0.8015692E+00 -0.3540308E-03 -0.9513261E-01  0.1999328E-02  0.2167432E-01
6128500.  0.5309590E-02  0.1064774E+01 -0.3243477E-04 -0.8654924E-01  0.1918310E-02  0.2412676E-01
6106000.  0.1135763E-02  0.1292237E+01  0.2544373E-03 -0.7554577E-01  0.1829471E-02  0.2610653E-01
6083500. -0.3765657E-02  0.1475588E+01  0.4988995E-03 -0.6261934E-01  0.1734449E-02  0.2763081E-01
6061000. -0.9226830E-02  0.1608328E+01  0.6951091E-03 -0.4831309E-01  0.1634824E-02  0.2871654E-01
6038500. -0.1506055E-01  0.1686007E+01  0.8391925E-03 -0.3319514E-01  0.1532114E-02  0.2938046E-01
6016000. -0.2106762E-01  0.1706292E+01  0.9292928E-03 -0.1783600E-01  0.1427780E-02  0.2963893E-01
5993500. -0.2704435E-01  0.1668973E+01  0.9655412E-03 -0.2787820E-02  0.1323225E-02  0.2950808E-01
5971000. -0.3279002E-01  0.1575906E+01  0.9499608E-03  0.1143316E-01  0.1219798E-02  0.2900252E-01
5971000. -0.3279002E-01  0.1461970E+01  0.9499608E-03  0.1413963E-01  0.1219798E-02  0.3329501E-01
5937667. -0.3981895E-01  0.1212144E+01  0.8326425E-03  0.2998378E-01  0.1050879E-02  0.3115213E-01
5904333. -0.4536323E-01  0.8986785E+00  0.6440098E-03  0.4136654E-01  0.8949785E-03  0.2834385E-01
5871000. -0.4915688E-01  0.5472228E+00  0.4075685E-03  0.4829289E-01  0.7551683E-03  0.2502873E-01
5837667. -0.5106562E-01  0.1819937E+00  0.1458806E-03  0.5109410E-01  0.6337048E-03  0.2135353E-01
5804333. -0.5107473E-01 -0.1756598E+00 -0.1208473E-03  0.5032148E-01  0.5321298E-03  0.1744396E-01
5771000. -0.4927170E-01 -0.5081264E+00 -0.3756351E-03  0.4665167E-01  0.4513993E-03  0.1340088E-01
5771000. -0.4927170E-01 -0.5081485E+00 -0.3756351E-03  0.4665191E-01  0.4513993E-03  0.1340088E-01
5701000. -0.4019968E-01 -0.1111836E+01 -0.8100843E-03  0.3086827E-01  0.3674056E-03  0.1644213E-02
5701000. -0.4019968E-01 -0.9590060E+00 -0.8100843E-03  0.3362455E-01  0.3674056E-03  0.1297506E-01
5667333. -0.3460026E-01 -0.1153260E+01 -0.9726787E-03  0.2785347E-01  0.3072390E-03  0.9886581E-02
5633667. -0.2808342E-01 -0.1306222E+01 -0.1104174E-02  0.2192020E-01  0.2619252E-03  0.7362340E-02
5600000. -0.2086577E-01 -0.1418713E+01 -0.1204670E-02  0.1617147E-01  0.2283576E-03  0.5447658E-02
5600000. -0.2086577E-01 -0.1418756E+01 -0.1204670E-02  0.1617118E-01  0.2283576E-03  0.5447658E-02
5563518. -0.1242680E-01 -0.1521848E+01 -0.1279533E-02  0.9978735E-02  0.2017924E-03  0.3884380E-02
5527037. -0.3516455E-02 -0.1583532E+01 -0.1319200E-02  0.3914794E-02  0.1832892E-03  0.2626080E-02
5490556.  0.5630575E-02 -0.1604787E+01 -0.1324994E-02 -0.1822349E-02  0.1712015E-03  0.1637916E-02
5454074.  0.1478881E-01 -0.1587813E+01 -0.1299268E-02 -0.7070285E-02  0.1640785E-03  0.8865473E-03
5417593.  0.2374760E-01 -0.1535821E+01 -0.1245200E-02 -0.1170366E-01  0.1606563E-03  0.3401675E-03
5381111.  0.3231809E-01 -0.1452821E+01 -0.1166577E-02 -0.1563494E-01  0.1598482E-03 -0.3131018E-04
5344630.  0.4033512E-01 -0.1343392E+01 -0.1067587E-02 -0.1881202E-01  0.1607343E-03 -0.2561204E-03
5308148.  0.4766180E-01 -0.1212457E+01 -0.9526135E-03 -0.2121582E-01  0.1625508E-03 -0.3604889E-03
5271667.  0.5418906E-01 -0.1065086E+01 -0.8260750E-03 -0.2285651E-01  0.1646791E-03 -0.3688598E-03
5235185.  0.5983758E-01 -0.9063008E+00 -0.6922450E-03 -0.2376882E-01  0.1666328E-03 -0.3029712E-03
5198704.  0.6455569E-01 -0.7409444E+00 -0.5551538E-03 -0.2400737E-01  0.1680451E-03 -0.1827584E-03
5162222.  0.6831907E-01 -0.5735146E+00 -0.4184579E-03 -0.2364209E-01  0.1686532E-03 -0.2477480E-04
5125741.  0.7112759E-01 -0.4080981E+00 -0.2853956E-03 -0.2275357E-01  0.1682869E-03  0.1552803E-03
5089259.  0.7300336E-01 -0.2482606E+00 -0.1587098E-03 -0.2142845E-01  0.1668549E-03  0.3456211E-03
5052778.  0.7398720E-01 -0.9703708E-01 -0.4065285E-04 -0.1975572E-01  0.1643297E-03  0.5355413E-03
5016296.  0.7413577E-01  0.4312779E-01  0.6704416E-04 -0.1782330E-01  0.1607377E-03  0.7170915E-03
4979815.  0.7351805E-01  0.1703445E+00  0.1631313E-03 -0.1571523E-01  0.1561449E-03  0.8841239E-03
4943333.  0.7221218E-01  0.2832925E+00  0.2468344E-03 -0.1350934E-01  0.1506508E-03  0.1031295E-02
4906852.  0.7030252E-01  0.3811588E+00  0.3177924E-03 -0.1127529E-01  0.1443754E-03  0.1156760E-02
4870370.  0.6787648E-01  0.4636151E+00  0.3760258E-03 -0.9073776E-02  0.1374495E-03  0.1258077E-02
4833889.  0.6502236E-01  0.5307440E+00  0.4218713E-03 -0.6956754E-02  0.1300157E-03  0.1334344E-02
4797407.  0.6182666E-01  0.5830004E+00  0.4559366E-03 -0.4964879E-02  0.1222128E-03  0.1387096E-02
4760926.  0.5837268E-01  0.6211281E+00  0.4790318E-03 -0.3130073E-02  0.1141750E-03  0.1416645E-02
4724444.  0.5473842E-01  0.6461129E+00  0.4921276E-03 -0.1475209E-02  0.1060298E-03  0.1424877E-02
4687963.  0.5099610E-01  0.6591159E+00  0.4962978E-03 -0.1437074E-04  0.9789350E-04  0.1413947E-02
4651482.  0.4721058E-01  0.6614196E+00  0.4926763E-03  0.1245727E-02  0.8986983E-04  0.1385950E-02
4615000.  0.4343919E-01  0.6543750E+00  0.4824153E-03  0.2305000E-02  0.8204883E-04  0.1343485E-02
4578518.  0.3973162E-01  0.6393555E+00  0.4666525E-03  0.3168612E-02  0.7450720E-04  0.1288804E-02
4542037.  0.3612974E-01  0.6177206E+00  0.4464830E-03  0.3846208E-02  0.6730705E-04  0.1224690E-02
4505556.  0.3266754E-01  0.5907807E+00  0.4229353E-03  0.4350990E-02  0.6049608E-04  0.1153225E-02
4469074.  0.2937172E-01  0.5597703E+00  0.3969549E-03  0.4698357E-02  0.5410993E-04  0.1076577E-02
4432593.  0.2626247E-01  0.5258337E+00  0.3693963E-03  0.4905384E-02  0.4817353E-04  0.9964363E-03
4396111.  0.2335334E-01  0.4900039E+00  0.3410109E-03  0.4989874E-02  0.4270244E-04  0.9143018E-03
4359630.  0.2065265E-01  0.4532025E+00  0.3124503E-03  0.4969816E-02  0.3770308E-04  0.8319007E-03
4323148.  0.1816347E-01  0.4162264E+00  0.2842617E-03  0.4862534E-02  0.3317482E-04  0.7498501E-03
4286667.  0.1588492E-01  0.3797610E+00  0.2568972E-03  0.4684905E-02  0.2911283E-04  0.6692090E-03
4250185.  0.1381229E-01  0.3443697E+00  0.2307138E-03  0.4452205E-02  0.2550778E-04  0.5902288E-03
4213704.  0.1193817E-01  0.3105139E+00  0.2059871E-03  0.4178554E-02  0.2234988E-04  0.5130853E-03
4177222.  0.1025259E-01  0.2785502E+00  0.1829142E-03  0.3876303E-02  0.1962857E-04  0.4376380E-03
4140741.  0.8743991E-02  0.2487511E+00  0.1616281E-03  0.3556396E-02  0.1733584E-04  0.3633104E-03
4104259.  0.7399326E-02  0.2213059E+00  0.1422013E-03  0.3228074E-02  0.1546717E-04  0.2893199E-03
4067778.  0.6204796E-02  0.1963397E+00  0.1246604E-03  0.2899028E-02  0.1402451E-04  0.2142792E-03
4031296.  0.5145929E-02  0.1739190E+00  0.1089899E-03  0.2575627E-02  0.1301842E-04  0.1364942E-03
3994815.  0.4208121E-02  0.1540662E+00  0.9514284E-04  0.2263033E-02  0.1247105E-04  0.5361867E-04
3958333.  0.3376650E-02  0.1367648E+00  0.8304418E-04  0.1965489E-02  0.1241984E-04 -0.3736180E-04
3921852.  0.2637065E-02  0.1219703E+00  0.7259773E-04  0.1686646E-02  0.1292159E-04 -0.1402345E-03
3885370.  0.1975163E-02  0.1096116E+00  0.6368586E-04  0.1430013E-02  0.1405785E-04 -0.2598837E-03
3848889.  0.1377288E-02  0.9959549E-01  0.5617073E-04  0.1199630E-02  0.1594151E-04 -0.4024407E-03
3812407.  0.8303326E-03  0.9179737E-01  0.4988736E-04  0.1000763E-02  0.1872517E-04 -0.5756451E-03
3775926.  0.3220761E-03  0.8605175E-01  0.4463500E-04  0.8411540E-03  0.2261081E-04 -0.7891639E-03
3739444. -0.1586340E-03  0.8212482E-01  0.4015709E-04  0.7326548E-03  0.2786278E-04 -0.1055046E-02
3702963. -0.6212636E-03  0.7967088E-01  0.3611239E-04  0.6936624E-03  0.3482159E-04 -0.1388102E-02
3666482. -0.1072852E-02  0.7815895E-01  0.3202708E-04  0.7526824E-03  0.4392202E-04 -0.1806349E-02
3630000. -0.1516601E-02  0.7675619E-01  0.2722292E-04  0.9536752E-03  0.5571188E-04 -0.2331196E-02
3630000. -0.1516601E-02  0.7675579E-01  0.2722292E-04  0.9536946E-03  0.5571188E-04 -0.2331196E-02
3592500. -0.1962307E-02  0.7432661E-01  0.2050841E-04  0.1373431E-02  0.7134357E-04 -0.3004739E-02
3555000. -0.2384717E-02  0.6835612E-01  0.1039429E-04  0.2131813E-02  0.9140137E-04 -0.3840031E-02
3517500. -0.2752907E-02  0.5513206E-01 -0.5585544E-05  0.3401939E-02  0.1169215E-03 -0.4865057E-02
3480000. -0.3008120E-02  0.2873919E-01 -0.3117092E-04  0.5450040E-02  0.1490868E-03 -0.6100244E-02
3480000. -0.3008120E-02 -0.1319693E+00 -0.1162995E-03 -0.5292193E-02  0.1490868E-03  0.3362062E-02
3409422. -0.1830300E-02 -0.8386723E-01 -0.6955930E-04 -0.3289387E-02  0.1095244E-03  0.3536261E-02
3338844. -0.1089993E-02 -0.5204741E-01 -0.4078964E-04 -0.2001730E-02  0.7380657E-04  0.2848960E-02
3268266. -0.6354369E-03 -0.3156220E-01 -0.2344943E-04 -0.1192884E-02  0.4684426E-04  0.2027555E-02
3197688. -0.3626453E-03 -0.1870986E-01 -0.1321393E-04 -0.6961787E-03  0.2838054E-04  0.1336122E-02
3127109. -0.2025862E-03 -0.1084420E-01 -0.7296860E-05 -0.3978735E-03  0.1653778E-04  0.8327371E-03
3056531. -0.1107577E-03 -0.6145757E-02 -0.3947339E-05 -0.2226403E-03  0.9311319E-05  0.4963774E-03
2985953. -0.5924283E-04 -0.3405306E-02 -0.2090973E-05 -0.1219475E-03  0.5079717E-05  0.2848048E-03
2915375. -0.3098960E-04 -0.1844332E-02 -0.1084043E-05 -0.6535598E-04  0.2689734E-05  0.1579053E-03
2844797. -0.1584496E-04 -0.9760421E-03 -0.5497180E-06 -0.3425573E-04  0.1383731E-05  0.8479836E-04
2774219. -0.7913971E-05 -0.5044728E-03 -0.2724771E-06 -0.1754950E-04  0.6919478E-06  0.4416993E-04
2703641. -0.3858463E-05 -0.2545006E-03 -0.1319103E-06 -0.8781788E-05  0.3363662E-06  0.2233234E-04
2633062. -0.1834802E-05 -0.1252302E-03 -0.6231625E-07 -0.4288869E-05  0.1589163E-06  0.1096264E-04
2562484. -0.8502028E-06 -0.6005479E-04 -0.2869995E-07 -0.2042519E-05  0.7293630E-07  0.5224294E-05
2491906. -0.3834895E-06 -0.2804049E-04 -0.1287180E-07 -0.9475661E-06  0.3249584E-07  0.2415930E-05
2421328. -0.1681788E-06 -0.1273366E-04 -0.5614990E-08 -0.4277416E-06  0.1404183E-07  0.1083398E-05
2350750. -0.7161515E-07 -0.5617197E-05 -0.2379177E-08 -0.1876436E-06  0.5878254E-08  0.4706934E-06
2280172. -0.2956783E-07 -0.2403744E-05 -0.9777423E-09 -0.7988294E-07  0.2380844E-08  0.1978960E-06
2209594. -0.1181702E-07 -0.9963034E-06 -0.3890673E-09 -0.3295037E-07  0.9315619E-09  0.8040617E-07
2139016. -0.4563355E-08 -0.3992849E-06 -0.1496344E-09 -0.1314600E-07  0.3515088E-09  0.3152104E-07
2068438. -0.1699311E-08 -0.1544288E-06 -0.5550871E-10 -0.5063013E-08  0.1276582E-09  0.1190065E-07
1997859. -0.6088242E-09 -0.5751598E-07 -0.1981636E-10 -0.1878271E-08  0.4452210E-10  0.4317998E-08
1927281. -0.2093461E-09 -0.2057936E-07 -0.6791047E-11 -0.6695770E-09  0.1487440E-10  0.1502146E-08
1856703. -0.6889174E-10 -0.7054760E-08 -0.2227761E-11 -0.2287452E-09  0.4746834E-11  0.4996664E-09
1786125. -0.2162871E-10 -0.2310063E-08 -0.6973422E-12 -0.7466049E-10  0.1442388E-11  0.1584375E-09
1715547. -0.6455302E-11 -0.7200660E-09 -0.2075502E-12 -0.2320214E-10  0.4158188E-12  0.4772436E-10
1644969. -0.1824305E-11 -0.2128318E-09 -0.5849832E-13 -0.6839033E-11  0.1132599E-12  0.1360286E-10
1574391. -0.4861918E-12 -0.5935812E-10 -0.1553542E-13 -0.1904598E-11  0.2899539E-13  0.3654542E-11
1503812.  0.0000000E+00  0.0000000E+00  0.0000000E+00  0.0000000E+00  0.0000000E+00  0.0000000E+00
1433234.  0.0000000E+00  0.0000000E+00  0.0000000E+00  0.0000000E+00  0.0000000E+00  0.0000000E+00
1362656.  0.0000000E+00  0.0000000E+00  0.0000000E+00  0.0000000E+00  0.0000000E+00  0.0000000E+00
1292078.  0.0000000E+00  0.0000000E+00  0.0000000E+00  0.0000000E+00  0.0000000E+00  0.0000000E+00
1221500.  0.0000000E+00  0.0000000E+00  0.0000000E+00  0.0000000E+00  0.0000000E+00  0.0000000E+00
1221500.  0.0000000E+00  0.0000000E+00  0.0000000E+00  0.0000000E+00  0.0000000E+00  0.0000000E+00
1183328.  0.0000000E+00  0.0000000E+00  0.0000000E+00  0.0000000E+00  0.0000000E+00  0.0000000E+00
1145156.  0.0000000E+00  0.0000000E+00  0.0000000E+00  0.0000000E+00  0.0000000E+00  0.0000000E+00
1106984.  0.0000000E+00  0.0000000E+00  0.0000000E+00  0.0000000E+00  0.0000000E+00  0.0000000E+00
1068812.  0.0000000E+00  0.0000000E+00  0.0000000E+00  0.0000000E+00  0.0000000E+00  0.0000000E+00
1030641.  0.0000000E+00  0.0000000E+00  0.0000000E+00  0.0000000E+00  0.0000000E+00  0.0000000E+00
 992469.  0.0000000E+00  0.0000000E+00  0.0000000E+00  0.0000000E+00  0.0000000E+00  0.0000000E+00
 954297.  0.0000000E+00  0.0000000E+00  0.0000000E+00  0.0000000E+00  0.0000000E+00  0.0000000E+00
 916125.  0.0000000E+00  0.0000000E+00  0.0000000E+00  0.0000000E+00  0.0000000E+00  0.0000000E+00
 877953.  0.0000000E+00  0.0000000E+00  0.0000000E+00  0.0000000E+00  0.0000000E+00  0.0000000E+00
 839781.  0.0000000E+00  0.0000000E+00  0.0000000E+00  0.0000000E+00  0.0000000E+00  0.0000000E+00
 801609.  0.0000000E+00  0.0000000E+00  0.0000000E+00  0.0000000E+00  0.0000000E+00  0.0000000E+00
 763438.  0.0000000E+00  0.0000000E+00  0.0000000E+00  0.0000000E+00  0.0000000E+00  0.0000000E+00
 725266.  0.0000000E+00  0.0000000E+00  0.0000000E+00  0.0000000E+00  0.0000000E+00  0.0000000E+00
 687094.  0.0000000E+00  0.0000000E+00  0.0000000E+00  0.0000000E+00  0.0000000E+00  0.0000000E+00
 648922.  0.0000000E+00  0.0000000E+00  0.0000000E+00  0.0000000E+00  0.0000000E+00  0.0000000E+00
 610750.  0.0000000E+00  0.0000000E+00  0.0000000E+00  0.0000000E+00  0.0000000E+00  0.0000000E+00
 572578.  0.0000000E+00  0.0000000E+00  0.0000000E+00  0.0000000E+00  0.0000000E+00  0.0000000E+00
 534406.  0.0000000E+00  0.0000000E+00  0.0000000E+00  0.0000000E+00  0.0000000E+00  0.0000000E+00
 496234.  0.0000000E+00  0.0000000E+00  0.0000000E+00  0.0000000E+00  0.0000000E+00  0.0000000E+00
 458062.  0.0000000E+00  0.0000000E+00  0.0000000E+00  0.0000000E+00  0.0000000E+00  0.0000000E+00
 419891.  0.0000000E+00  0.0000000E+00  0.0000000E+00  0.0000000E+00  0.0000000E+00  0.0000000E+00
 381719.  0.0000000E+00  0.0000000E+00  0.0000000E+00  0.0000000E+00  0.0000000E+00  0.0000000E+00
 343547.  0.0000000E+00  0.0000000E+00  0.0000000E+00  0.0000000E+00  0.0000000E+00  0.0000000E+00
 305375.  0.0000000E+00  0.0000000E+00  0.0000000E+00  0.0000000E+00  0.0000000E+00  0.0000000E+00
 267203.  0.0000000E+00  0.0000000E+00  0.0000000E+00  0.0000000E+00  0.0000000E+00  0.0000000E+00
 229031.  0.0000000E+00  0.0000000E+00  0.0000000E+00  0.0000000E+00  0.0000000E+00  0.0000000E+00
 190859.  0.0000000E+00  0.0000000E+00  0.0000000E+00  0.0000000E+00  0.0000000E+00  0.0000000E+00
 152688.  0.0000000E+00  0.0000000E+00  0.0000000E+00  0.0000000E+00  0.0000000E+00  0.0000000E+00
 114516.  0.0000000E+00  0.0000000E+00  0.0000000E+00  0.0000000E+00  0.0000000E+00  0.0000000E+00
  76344.  0.0000000E+00  0.0000000E+00  0.0000000E+00  0.0000000E+00  0.0000000E+00  0.0000000E+00
  38172.  0.0000000E+00  0.0000000E+00  0.0000000E+00  0.0000000E+00  0.0000000E+00  0.0000000E+00
      0.  0.0000000E+00  0.0000000E+00  0.0000000E+00  0.0000000E+00  0.0000000E+00  0.0000000E+00
