      20       11 S      705        100.07190         34.78385          5.06888        268.88821      185    7
6371000. -0.2927621E-01 -0.1766278E+00 -0.3848787E-02  0.2542742E-01  0.1687732E-03  0.5318281E-01
6370000. -0.2924675E-01 -0.1986734E+00 -0.3852049E-02  0.1613648E-01  0.1604184E-03  0.5327369E-01
6369000. -0.2921385E-01 -0.2205685E+00 -0.3853851E-02  0.6828714E-02  0.1520497E-03  0.5335842E-01
6368000. -0.2917752E-01 -0.2423103E+00 -0.3854192E-02 -0.2492331E-02  0.1436683E-03  0.5343696E-01
6368000. -0.2917752E-01 -0.2423103E+00 -0.3854192E-02 -0.2492331E-02  0.1436683E-03  0.5343696E-01
6367000. -0.2913779E-01 -0.2638960E+00 -0.3853068E-02 -0.1182310E-01  0.1352750E-03  0.5350933E-01
6366000. -0.2909469E-01 -0.2853229E+00 -0.3850480E-02 -0.2116003E-01  0.1268708E-03  0.5357550E-01
6365000. -0.2904823E-01 -0.3065884E+00 -0.3846426E-02 -0.3049956E-01  0.1184568E-03  0.5363546E-01
6364000. -0.2899845E-01 -0.3276899E+00 -0.3840906E-02 -0.3983811E-01  0.1100338E-03  0.5368922E-01
6363000. -0.2894537E-01 -0.3486248E+00 -0.3833920E-02 -0.4917212E-01  0.1016029E-03  0.5373675E-01
6362000. -0.2888902E-01 -0.3693909E+00 -0.3825470E-02 -0.5849803E-01  0.9316495E-04  0.5377804E-01
6361000. -0.2882942E-01 -0.3899857E+00 -0.3815557E-02 -0.6781225E-01  0.8472105E-04  0.5381311E-01
6360000. -0.2876660E-01 -0.4104069E+00 -0.3804183E-02 -0.7711123E-01  0.7627213E-04  0.5384193E-01
6359000. -0.2870059E-01 -0.4306524E+00 -0.3791351E-02 -0.8639140E-01  0.6781919E-04  0.5386451E-01
6358000. -0.2863142E-01 -0.4507199E+00 -0.3777064E-02 -0.9564921E-01  0.5936318E-04  0.5388083E-01
6357000. -0.2855911E-01 -0.4706075E+00 -0.3761325E-02 -0.1048811E+00  0.5090511E-04  0.5389090E-01
6356000. -0.2848369E-01 -0.4903131E+00 -0.3744141E-02 -0.1140835E+00  0.4244595E-04  0.5389471E-01
6356000. -0.2848369E-01 -0.3582398E+00 -0.3744141E-02 -0.5903031E-01  0.4244595E-04  0.6009243E-01
6355000. -0.2842632E-01 -0.3727965E+00 -0.3734395E-02 -0.6514411E-01  0.3301040E-04  0.6013440E-01
6354000. -0.2836667E-01 -0.3872409E+00 -0.3723691E-02 -0.7124813E-01  0.2356867E-04  0.6017142E-01
6353000. -0.2830476E-01 -0.4015719E+00 -0.3712030E-02 -0.7734079E-01  0.1412151E-04  0.6020347E-01
6352000. -0.2824062E-01 -0.4157883E+00 -0.3699413E-02 -0.8342052E-01  0.4669707E-05  0.6023055E-01
6351000. -0.2817424E-01 -0.4298891E+00 -0.3685843E-02 -0.8948576E-01 -0.4785953E-05  0.6025265E-01
6350000. -0.2810567E-01 -0.4438732E+00 -0.3671322E-02 -0.9553496E-01 -0.1424469E-04  0.6026978E-01
6349000. -0.2803491E-01 -0.4577396E+00 -0.3655853E-02 -0.1015666E+00 -0.2370573E-04  0.6028193E-01
6348000. -0.2796198E-01 -0.4714874E+00 -0.3639439E-02 -0.1075790E+00 -0.3316828E-04  0.6028910E-01
6347000. -0.2788690E-01 -0.4851156E+00 -0.3622083E-02 -0.1135707E+00 -0.4263157E-04  0.6029128E-01
6346600. -0.2785628E-01 -0.4905331E+00 -0.3614877E-02 -0.1159613E+00 -0.4641692E-04  0.6029076E-01
6346600. -0.2785628E-01 -0.3816901E+00 -0.3614877E-02 -0.7038498E-01 -0.4641692E-04  0.7000384E-01
6318800. -0.2563535E-01 -0.6249838E+00 -0.3035777E-02 -0.1922201E+00 -0.3518077E-03  0.6944087E-01
6291000. -0.2250332E-01 -0.7989795E+00 -0.1975079E-02 -0.2882550E+00 -0.6478165E-03  0.6571085E-01
6291000. -0.2250332E-01 -0.8109881E+00 -0.1975079E-02 -0.2984455E+00 -0.6478165E-03  0.6571085E-01
6263000. -0.1868361E-01 -0.9165354E+00 -0.5203406E-03 -0.3551754E+00 -0.9223644E-03  0.5872482E-01
6235000. -0.1452969E-01 -0.9659424E+00  0.1067931E-02 -0.3583183E+00 -0.1159817E-02  0.4888983E-01
6207000. -0.1024707E-01 -0.9785944E+00  0.2548803E-02 -0.3068615E+00 -0.1348543E-02  0.3663193E-01
6179000. -0.5951235E-02 -0.9752889E+00  0.3695878E-02 -0.2083400E+00 -0.1479047E-02  0.2249374E-01
6151000. -0.1671731E-02 -0.9735973E+00  0.4332675E-02 -0.7763221E-01 -0.1544426E-02  0.7106848E-02
6151000. -0.1671731E-02 -0.7379513E+00  0.4332675E-02 -0.6752941E-01 -0.1544426E-02  0.7199337E-02
6128500.  0.9064614E-03 -0.7247553E+00  0.4389266E-02  0.3552610E-01 -0.1550530E-02 -0.3753987E-02
6106000.  0.3466391E-02 -0.7275720E+00  0.4086795E-02  0.1343123E+00 -0.1517997E-02 -0.1463475E-01
6083500.  0.6062156E-02 -0.7444438E+00  0.3455721E-02  0.2202857E+00 -0.1447568E-02 -0.2516979E-01
6061000.  0.8735155E-02 -0.7702206E+00  0.2554495E-02  0.2862483E+00 -0.1340930E-02 -0.3509869E-01
6038500.  0.1150389E-01 -0.7972178E+00  0.1463714E-02  0.3269434E+00 -0.1200656E-02 -0.4417989E-01
6016000.  0.1435653E-01 -0.8161036E+00  0.2784897E-03  0.3394533E+00 -0.1030131E-02 -0.5219644E-01
5993500.  0.1724693E-01 -0.8169614E+00 -0.9001798E-03  0.3233755E+00 -0.8334544E-03 -0.5896124E-01
5971000.  0.2009452E-01 -0.7904064E+00 -0.1974293E-02  0.2807827E+00 -0.6153289E-03 -0.6432058E-01
5971000.  0.2009452E-01 -0.7252291E+00 -0.1974293E-02  0.2472556E+00 -0.6153289E-03 -0.6695113E-01
5937667.  0.2359693E-01 -0.6021478E+00 -0.3021480E-02  0.1490092E+00 -0.2508383E-03 -0.7179697E-01
5904333.  0.2627548E-01 -0.4106387E+00 -0.3509428E-02  0.3690758E-01  0.1298517E-03 -0.7314393E-01
5871000.  0.2778847E-01 -0.1589685E+00 -0.3417830E-02 -0.6951649E-01  0.5086444E-03 -0.7111020E-01
5837667.  0.2786638E-01  0.1340991E+00 -0.2819638E-02 -0.1545544E+00  0.8685305E-03 -0.6597460E-01
5804333.  0.2635792E-01  0.4427417E+00 -0.1855925E-02 -0.2080443E+00  0.1194301E-02 -0.5814141E-01
5771000.  0.2325658E-01  0.7382004E+00 -0.7051096E-03 -0.2259048E+00  0.1473086E-02 -0.4810543E-01
5771000.  0.2325658E-01  0.7382032E+00 -0.7051096E-03 -0.2258983E+00  0.1473086E-02 -0.4810543E-01
5701000.  0.1196655E-01  0.1275512E+01  0.1590169E-02 -0.1691213E+00  0.1855836E-02 -0.2060871E-01
5701000.  0.1196655E-01  0.1064796E+01  0.1590169E-02 -0.1361994E+00  0.1855836E-02 -0.2398165E-01
5667333.  0.6016159E-02  0.1174711E+01  0.2162286E-02 -0.7861322E-01  0.1949607E-02 -0.1144492E-01
5633667. -0.3128440E-03  0.1207580E+01  0.2410273E-02 -0.1492029E-01  0.1976530E-02  0.1242748E-02
5600000. -0.6610989E-02  0.1163567E+01  0.2323396E-02  0.4686432E-01  0.1936970E-02  0.1364852E-01
5600000. -0.6610989E-02  0.1163580E+01  0.2323396E-02  0.4686608E-01  0.1936970E-02  0.1364852E-01
5563518. -0.1298060E-01  0.1047807E+01  0.1879905E-02  0.1061553E+00  0.1821819E-02  0.2643913E-01
5527037. -0.1847102E-01  0.8590654E+00  0.1136145E-02  0.1505989E+00  0.1636097E-02  0.3822770E-01
5490556. -0.2271388E-01  0.6155666E+00  0.1945962E-03  0.1745035E+00  0.1386698E-02  0.4861956E-01
5454074. -0.2545994E-01  0.3403472E+00 -0.8172906E-03  0.1749120E+00  0.1082591E-02  0.5728349E-01
5417593. -0.2659944E-01  0.5870878E-01 -0.1763634E-02  0.1518820E+00  0.7344682E-03  0.6395861E-01
5381111. -0.2616747E-01 -0.2045965E+00 -0.2517475E-02  0.1083876E+00  0.3542694E-03  0.6845853E-01
5344630. -0.2433304E-01 -0.4279272E+00 -0.2976151E-02  0.4987287E-01 -0.4517373E-04  0.7067153E-01
5308148. -0.2137456E-01 -0.5949962E+00 -0.3073613E-02 -0.1648150E-01 -0.4506457E-03  0.7056017E-01
5271667. -0.1764497E-01 -0.6963292E+00 -0.2787767E-02 -0.8265167E-01 -0.8488785E-03  0.6815825E-01
5235185. -0.1352963E-01 -0.7300037E+00 -0.2142520E-02 -0.1407525E+00 -0.1227034E-02  0.6356592E-01
5198704. -0.9403951E-02 -0.7014564E+00 -0.1204399E-02 -0.1839441E+00 -0.1572984E-02  0.5694500E-01
5162222. -0.5592871E-02 -0.6225041E+00 -0.7410991E-04 -0.2072082E+00 -0.1875724E-02  0.4851103E-01
5125741. -0.2339655E-02 -0.5096807E+00  0.1125313E-02 -0.2078697E+00 -0.2125591E-02  0.3852784E-01
5089259.  0.2159638E-03 -0.3820992E+00  0.2263029E-02 -0.1858485E+00 -0.2314575E-02  0.2729727E-01
5052778.  0.2045214E-02 -0.2591189E+00  0.3214979E-02 -0.1436046E+00 -0.2436465E-02  0.1515287E-01
5016296.  0.3225553E-02 -0.1580368E+00  0.3877824E-02 -0.8579724E-01 -0.2487040E-02  0.2448234E-02
4979815.  0.3922636E-02 -0.9212593E-01  0.4179826E-02 -0.1872527E-01 -0.2464135E-02 -0.1045001E-01
4943333.  0.4363010E-02 -0.6915377E-01  0.4088310E-02  0.5041587E-01 -0.2367692E-02 -0.2317492E-01
4906852.  0.4799840E-02 -0.9059983E-01  0.3612481E-02  0.1143263E+00 -0.2199748E-02 -0.3536632E-01
4870370.  0.5476488E-02 -0.1515975E+00  0.2801668E-02  0.1664067E+00 -0.1964333E-02 -0.4668351E-01
4833889.  0.6591653E-02 -0.2416030E+00  0.1739408E-02  0.2014349E+00 -0.1667383E-02 -0.5681220E-01
4797407.  0.8270515E-02 -0.3457112E+00  0.5337663E-03  0.2161013E+00 -0.1316499E-02 -0.6547546E-01
4760926.  0.1054441E-01 -0.4464331E+00 -0.6943410E-03  0.2093000E+00 -0.9207819E-03 -0.7243956E-01
4724444.  0.1334231E-01 -0.5257820E+00 -0.1824314E-02  0.1821907E+00 -0.4904890E-03 -0.7752203E-01
4687963.  0.1649352E-01 -0.5673737E+00 -0.2748189E-02  0.1380227E+00 -0.3681144E-04 -0.8059498E-01
4651482.  0.1974307E-01 -0.5583818E+00 -0.3381772E-02  0.8173426E-01  0.4285298E-03 -0.8158930E-01
4615000.  0.2277655E-01 -0.4910796E+00 -0.3672658E-02  0.1939699E-01  0.8935878E-03 -0.8049481E-01
4578518.  0.2525232E-01 -0.3638566E+00 -0.3604890E-02 -0.4243740E-01  0.1346500E-02 -0.7735977E-01
4542037.  0.2683807E-01 -0.1815854E+00 -0.3199775E-02 -0.9742744E-01  0.1775839E-02 -0.7228766E-01
4505556.  0.2724747E-01  0.4470867E-01 -0.2512749E-02 -0.1400909E+00  0.2170947E-02 -0.6543273E-01
4469074.  0.2627268E-01  0.2988090E+00 -0.1626848E-02 -0.1663385E+00  0.2522171E-02 -0.5699320E-01
4432593.  0.2381028E-01  0.5607795E+00 -0.6436608E-03 -0.1738551E+00  0.2821079E-02 -0.4720507E-01
4396111.  0.1987685E-01  0.8089083E+00  0.3276649E-03 -0.1622947E+00  0.3060707E-02 -0.3633168E-01
4359630.  0.1461394E-01  0.1021742E+01  0.1181548E-02 -0.1332674E+00  0.3235633E-02 -0.2465659E-01
4323148.  0.8279574E-02  0.1180202E+01  0.1826867E-02 -0.9012987E-01  0.3342112E-02 -0.1247325E-01
4286667.  0.1230451E-02  0.1269412E+01  0.2195804E-02 -0.3761809E-01  0.3378077E-02 -0.7765372E-04
4250185. -0.6107990E-02  0.1280184E+01  0.2250462E-02  0.1866400E-01  0.3343147E-02  0.1224156E-01
4213704. -0.1327553E-01  0.1209939E+01  0.1986169E-02  0.7280503E-01  0.3238559E-02  0.2420809E-01
4177222. -0.1981777E-01  0.1063004E+01  0.1431534E-02  0.1191853E+00  0.3067068E-02  0.3556645E-01
4140741. -0.2532351E-01  0.8503017E+00  0.6452678E-03  0.1530103E+00  0.2832846E-02  0.4608440E-01
4104259. -0.2946142E-01  0.5883625E+00 -0.2900304E-03  0.1707699E+00  0.2541287E-02  0.5555844E-01
4067778. -0.3200707E-01  0.2979049E+00 -0.1276012E-02  0.1705463E+00  0.2198898E-02  0.6381466E-01
4031296. -0.3286257E-01  0.1940614E-02 -0.2208436E-02  0.1521748E+00  0.1813056E-02  0.7071058E-01
3994815. -0.3206345E-01 -0.2762102E+00 -0.2987039E-02  0.1172285E+00  0.1391907E-02  0.7613442E-01
3958333. -0.2977459E-01 -0.5150430E+00 -0.3525234E-02  0.6883772E-01  0.9441025E-03  0.8000516E-01
3921852. -0.2627455E-01 -0.6966905E+00 -0.3758038E-02  0.1137890E-01  0.4787271E-03  0.8226936E-01
3885370. -0.2192954E-01 -0.8085223E+00 -0.3648116E-02 -0.4996027E-01  0.5041901E-05  0.8290065E-01
3848889. -0.1716097E-01 -0.8441740E+00 -0.3189023E-02 -0.1096600E+00 -0.4675579E-03  0.8189619E-01
3812407. -0.1240685E-01 -0.8040626E+00 -0.2405596E-02 -0.1623872E+00 -0.9297747E-03  0.7927436E-01
3775926. -0.8084046E-02 -0.6952834E+00 -0.1351626E-02 -0.2034599E+00 -0.1372420E-02  0.7507209E-01
3739444. -0.4550691E-02 -0.5309092E+00 -0.1047226E-03 -0.2292664E+00 -0.1786609E-02  0.6934148E-01
3702963. -0.2076110E-02 -0.3288020E+00  0.1240476E-02 -0.2375536E+00 -0.2163751E-02  0.6214804E-01
3666482. -0.8171774E-03 -0.1099775E+00  0.2580884E-02 -0.2276053E+00 -0.2495692E-02  0.5356669E-01
3630000. -0.8059034E-03  0.1032578E+00  0.3813804E-02 -0.2002665E+00 -0.2774722E-02  0.4367921E-01
3630000. -0.8059034E-03  0.1032546E+00  0.3813804E-02 -0.2002642E+00 -0.2774722E-02  0.4367921E-01
3592500. -0.1989848E-02  0.2925633E+00  0.4873110E-02 -0.1572019E+00 -0.2998736E-02  0.3222324E-01
3555000. -0.4153708E-02  0.4329682E+00  0.5639181E-02 -0.1013245E+00 -0.3151624E-02  0.1952697E-01
3517500. -0.6957040E-02  0.5074730E+00  0.6049924E-02 -0.3732294E-01 -0.3226350E-02  0.5679187E-02
3480000. -0.9976326E-02  0.5050849E+00  0.6073229E-02  0.2938268E-01 -0.3216380E-02 -0.9239140E-02
3480000. -0.9976326E-02 -0.1786538E+00  0.1836468E-03 -0.1860378E-01 -0.3216380E-02  0.2214228E-01
3409422. -0.6915714E-02 -0.3609829E+00  0.3658308E-03 -0.1361114E-01 -0.3410295E-02  0.1005272E-01
3338844. -0.2316827E-02 -0.4525043E+00  0.4729815E-03 -0.5327041E-02 -0.3389300E-02 -0.1545235E-01
3268266.  0.2732165E-02 -0.4424844E+00  0.4785389E-03  0.4391105E-02 -0.3047759E-02 -0.4641346E-01
3197688.  0.7153982E-02 -0.3428721E+00  0.3779741E-03  0.1349977E-01 -0.2371293E-02 -0.7462724E-01
3127109.  0.1010177E-01 -0.1820231E+00  0.1884113E-03  0.2019697E-01 -0.1429753E-02 -0.9332977E-01
3056531.  0.1109533E-01  0.3650916E-02 -0.5593938E-04  0.2324348E-01 -0.3544122E-03 -0.9833941E-01
2985953.  0.1006346E-01  0.1780364E+00 -0.3111346E-03  0.2213503E-01  0.6939616E-03 -0.8852649E-01
2915375.  0.7301453E-02  0.3119918E+00 -0.5318465E-03  0.1711661E-01  0.1558398E-02 -0.6563055E-01
2844797.  0.3368471E-02  0.3874686E+00 -0.6791090E-03  0.9062572E-02  0.2114112E-02 -0.3357854E-01
2774219. -0.1045151E-02  0.3988342E+00 -0.7261795E-03 -0.7347185E-03  0.2287532E-02  0.2484612E-02
2703641. -0.5251242E-02  0.3517563E+00 -0.6617898E-03 -0.1081663E-01  0.2064031E-02  0.3722738E-01
2633062. -0.8674429E-02  0.2603446E+00 -0.4906046E-03 -0.1980280E-01  0.1484808E-02  0.6603274E-01
2562484. -0.1092514E-01  0.1434099E+00 -0.2312136E-03 -0.2658829E-01  0.6351957E-03  0.8563468E-01
2491906. -0.1183064E-01  0.2065796E-01  0.8771123E-04 -0.3047125E-01 -0.3724216E-03  0.9443548E-01
2421328. -0.1142614E-01 -0.9052385E-01  0.4322125E-03 -0.3120141E-01 -0.1417304E-02  0.9250180E-01
2350750. -0.9915849E-02 -0.1772927E+00  0.7679766E-03 -0.2895518E-01 -0.2387567E-02  0.8130502E-01
2280172. -0.7615584E-02 -0.2324213E+00  0.1064649E-02 -0.2425365E-01 -0.3193472E-02  0.6329203E-01
2209594. -0.4889714E-02 -0.2542937E+00  0.1299026E-02 -0.1784508E-01 -0.3775493E-02  0.4138630E-01
2139016. -0.2093093E-02 -0.2460454E+00  0.1456847E-02 -0.1057486E-01 -0.4106895E-02  0.1851039E-01
2068438.  0.4742448E-03 -0.2141782E+00  0.1533186E-02 -0.3263552E-02 -0.4191464E-02 -0.2802206E-02
1997859.  0.2595505E-02 -0.1669462E+00  0.1531604E-02  0.3390748E-02 -0.4057643E-02 -0.2066457E-01
1927281.  0.4147978E-02 -0.1128653E+00  0.1462405E-02  0.8875879E-02 -0.3750609E-02 -0.3395109E-01
1856703.  0.5098919E-02 -0.5947427E-01  0.1340388E-02  0.1289542E-01 -0.3323789E-02 -0.4228517E-01
1786125.  0.5489857E-02 -0.1255467E-01  0.1182446E-02  0.1536350E-01 -0.2831130E-02 -0.4592464E-01
1715547.  0.5414745E-02  0.2423567E-01  0.1005390E-02  0.1637477E-01 -0.2320996E-02 -0.4558789E-01
1644969.  0.4996344E-02  0.4931680E-01  0.8241864E-03  0.1615923E-01 -0.1832151E-02 -0.4225670E-01
1574391.  0.4364934E-02  0.6283243E-01  0.6507408E-03  0.1503087E-01 -0.1391892E-02 -0.3699039E-01
1503812.  0.3642141E-02  0.6609463E-01  0.4932314E-03  0.1334169E-01 -0.1016075E-02 -0.3077267E-01
1433234.  0.2931714E-02  0.6090251E-01  0.3558828E-03  0.1145127E-01 -0.7106207E-03 -0.2440154E-01
1362656.  0.2318348E-02  0.4874408E-01  0.2389219E-03  0.9723295E-02 -0.4739769E-03 -0.1841435E-01
1292078.  0.1876713E-02  0.2972115E-01  0.1383439E-03  0.8572388E-02 -0.3003861E-03 -0.1302076E-01
1221500.  0.1696137E-02  0.6380698E-03  0.4465401E-04  0.8613982E-02 -0.1841373E-03 -0.7967031E-02
1221500.  0.1696137E-02  0.4353184E-01  0.1233408E-03 -0.8203263E-02 -0.1841373E-03 -0.8701804E-02
1183328.  0.1302047E-02  0.8684051E-01  0.1669334E-03 -0.5695677E-02 -0.1378539E-03 -0.6808440E-02
1145156.  0.6856348E-03  0.1152287E+00  0.1853981E-03 -0.1190042E-03 -0.1018678E-03 -0.5257414E-02
1106984. -0.2470699E-04  0.1168458E+00  0.1665094E-03  0.6379432E-02 -0.7425594E-04 -0.4005978E-02
1068812. -0.6535822E-03  0.8825879E-01  0.1116826E-03  0.1153293E-01 -0.5335024E-04 -0.3011893E-02
1030641. -0.1033189E-02  0.3531901E-01  0.3432633E-04  0.1371256E-01 -0.3773252E-04 -0.2234317E-02
 992469. -0.1053918E-02 -0.2898078E-01 -0.4554820E-04  0.1238349E-01 -0.2622127E-04 -0.1634861E-02
 954297. -0.6951622E-03 -0.8871340E-01 -0.1081966E-03  0.8143456E-02 -0.1785573E-04 -0.1178830E-02
 916125. -0.2848619E-04 -0.1297996E+00 -0.1400901E-03  0.2389700E-02 -0.1186934E-04 -0.8360614E-03
 877953.  0.8056408E-03 -0.1438015E+00 -0.1371360E-03 -0.3221313E-02 -0.7661541E-05 -0.5813404E-03
 839781.  0.1638064E-02 -0.1296767E+00 -0.1045712E-03 -0.7310446E-02 -0.4767995E-05 -0.3943569E-03
 801609.  0.2314662E-02 -0.9321469E-01 -0.5410667E-04 -0.9134972E-02 -0.2832625E-05 -0.2591734E-03
 763438.  0.2730780E-02 -0.4463391E-01  0.3146536E-06 -0.8687166E-02 -0.1583580E-05 -0.1634788E-03
 725266.  0.2848167E-02  0.4683635E-02  0.4659674E-04 -0.6549842E-02 -0.8140196E-06 -0.9770299E-04
 687094.  0.2692469E-02  0.4521595E-01  0.7719249E-04 -0.3605921E-02 -0.3683144E-06 -0.5426143E-04
 648922.  0.2335547E-02  0.7127530E-01  0.8994664E-04 -0.7235134E-03 -0.1312685E-06 -0.2715311E-04
 610750.  0.1870132E-02  0.8155551E-01  0.8724591E-04  0.1477878E-02 -0.2026576E-07 -0.1145660E-04
 572578.  0.1385228E-02  0.7840329E-01  0.7415908E-04  0.2727415E-02  0.2095625E-07 -0.3295152E-05
 534406.  0.9485048E-03  0.6630875E-01  0.5638144E-04  0.3072942E-02  0.2829499E-07  0.2727093E-06
 496234.  0.5985308E-03  0.5023418E-01  0.3864120E-04  0.2766554E-02  0.2258164E-07  0.1348849E-05
 458062.  0.3461606E-03  0.3429756E-01  0.2389189E-04  0.2126576E-02  0.1431566E-07  0.1298920E-05
 419891.  0.1819927E-03  0.2108561E-01  0.1327021E-04  0.1426890E-02  0.7682926E-08  0.8946818E-06
 381719.  0.8597300E-04  0.1159900E-01  0.6561520E-05  0.8396427E-03  0.3545910E-08  0.5021562E-06
 343547.  0.3590872E-04  0.5642473E-02  0.2847092E-05  0.4308170E-03  0.1400954E-08  0.2362567E-06
 305375.  0.1296439E-04  0.2383126E-02  0.1061226E-05  0.1899170E-03  0.4656970E-09  0.9298423E-07
 267203.  0.3917173E-05  0.8499962E-03  0.3292907E-06  0.7012344E-04  0.1261703E-09  0.2995001E-07
 229031.  0.9441349E-06  0.2454620E-03  0.8113140E-07  0.2082393E-04  0.2649918E-10  0.7563833E-08
 190859.  0.1684235E-06  0.5369076E-04  0.1473420E-07  0.4657714E-05  0.3981064E-11  0.1396218E-08
 152688.  0.1960542E-07  0.7946551E-05  0.1739633E-08  0.7015040E-06  0.3725936E-12  0.1663674E-09
 114516.  0.1175097E-08  0.6433009E-06  0.1053967E-09  0.5753827E-07  0.1674412E-13  0.1010234E-10
  76344.  0.2130109E-10  0.1765030E-07  0.1925000E-11  0.1593149E-08  0.2013152E-15  0.1838137E-12
  38172.  0.2135951E-13  0.3558647E-10  0.1938904E-14  0.3229394E-11  0.9995450E-19  0.1831523E-15
      0.  0.0000000E+00  0.0000000E+00  0.0000000E+00  0.0000000E+00  0.0000000E+00  0.0000000E+00
