       4       19 S      288        192.26210         10.67724          6.45022        259.15689      185    7
6371000. -0.1847157E-01  0.8812865E+00  0.5800945E-02  0.2427251E-01 -0.1855002E-02  0.7193311E-01
6370000. -0.1860955E-01  0.8768490E+00  0.5796895E-02  0.2733218E-01 -0.1866272E-02  0.7166357E-01
6369000. -0.1874682E-01  0.8722577E+00  0.5792365E-02  0.3038886E-01 -0.1877499E-02  0.7139361E-01
6368000. -0.1888336E-01  0.8675128E+00  0.5787355E-02  0.3344225E-01 -0.1888684E-02  0.7112325E-01
6368000. -0.1888336E-01  0.8675128E+00  0.5787355E-02  0.3344225E-01 -0.1888684E-02  0.7112325E-01
6367000. -0.1901915E-01  0.8626144E+00  0.5781867E-02  0.3649208E-01 -0.1899826E-02  0.7085248E-01
6366000. -0.1915415E-01  0.8575628E+00  0.5775900E-02  0.3953806E-01 -0.1910926E-02  0.7058132E-01
6365000. -0.1928835E-01  0.8523583E+00  0.5769455E-02  0.4257991E-01 -0.1921983E-02  0.7030979E-01
6364000. -0.1942172E-01  0.8470011E+00  0.5762533E-02  0.4561735E-01 -0.1932998E-02  0.7003786E-01
6363000. -0.1955423E-01  0.8414915E+00  0.5755135E-02  0.4865011E-01 -0.1943970E-02  0.6976557E-01
6362000. -0.1968587E-01  0.8358297E+00  0.5747261E-02  0.5167789E-01 -0.1954899E-02  0.6949290E-01
6361000. -0.1981661E-01  0.8300161E+00  0.5738913E-02  0.5470043E-01 -0.1965785E-02  0.6921988E-01
6360000. -0.1994642E-01  0.8240510E+00  0.5730090E-02  0.5771744E-01 -0.1976628E-02  0.6894650E-01
6359000. -0.2007529E-01  0.8179348E+00  0.5720794E-02  0.6072864E-01 -0.1987429E-02  0.6867278E-01
6358000. -0.2020318E-01  0.8116677E+00  0.5711026E-02  0.6373374E-01 -0.1998186E-02  0.6839873E-01
6357000. -0.2033008E-01  0.8052502E+00  0.5700787E-02  0.6673250E-01 -0.2008901E-02  0.6812434E-01
6356000. -0.2045596E-01  0.7986827E+00  0.5690077E-02  0.6972460E-01 -0.2019572E-02  0.6784963E-01
6356000. -0.2045596E-01  0.7146174E+00  0.5690077E-02  0.5247433E-01 -0.2019572E-02  0.7230061E-01
6355000. -0.2056777E-01  0.7100497E+00  0.5681702E-02  0.5423407E-01 -0.2030893E-02  0.7195123E-01
6354000. -0.2067886E-01  0.7053956E+00  0.5673052E-02  0.5599029E-01 -0.2042159E-02  0.7160181E-01
6353000. -0.2078921E-01  0.7006553E+00  0.5664126E-02  0.5774288E-01 -0.2053370E-02  0.7125237E-01
6352000. -0.2089881E-01  0.6958289E+00  0.5654925E-02  0.5949174E-01 -0.2064527E-02  0.7090290E-01
6351000. -0.2100764E-01  0.6909167E+00  0.5645451E-02  0.6123677E-01 -0.2075628E-02  0.7055341E-01
6350000. -0.2111570E-01  0.6859187E+00  0.5635702E-02  0.6297786E-01 -0.2086675E-02  0.7020392E-01
6349000. -0.2122296E-01  0.6808354E+00  0.5625681E-02  0.6471492E-01 -0.2097667E-02  0.6985441E-01
6348000. -0.2132942E-01  0.6756668E+00  0.5615387E-02  0.6644784E-01 -0.2108604E-02  0.6950489E-01
6347000. -0.2143506E-01  0.6704132E+00  0.5604822E-02  0.6817653E-01 -0.2119486E-02  0.6915537E-01
6346600. -0.2147709E-01  0.6682880E+00  0.5600519E-02  0.6886680E-01 -0.2123824E-02  0.6901556E-01
6346600. -0.2147709E-01  0.8210541E+00  0.5600519E-02  0.5532504E-01 -0.2123824E-02  0.7650431E-01
6318800. -0.2479972E-01  0.6940711E+00  0.5293016E-02  0.8519200E-01 -0.2435191E-02  0.6624336E-01
6291000. -0.2746858E-01  0.5219944E+00  0.4861463E-02  0.1120247E+00 -0.2702220E-02  0.5617980E-01
6291000. -0.2746858E-01  0.5448743E+00  0.4861463E-02  0.1150258E+00 -0.2702220E-02  0.5617980E-01
6263000. -0.2938999E-01  0.3227143E+00  0.4300361E-02  0.1395241E+00 -0.2927725E-02  0.4646860E-01
6235000. -0.3025067E-01  0.6345972E-01  0.3642626E-02  0.1588710E+00 -0.3110901E-02  0.3691471E-01
6207000. -0.2990598E-01 -0.2242529E+00  0.2912463E-02  0.1723882E+00 -0.3252406E-02  0.2750231E-01
6179000. -0.2825258E-01 -0.5303073E+00  0.2136596E-02  0.1796107E+00 -0.3352827E-02  0.1821685E-01
6151000. -0.2523428E-01 -0.8434276E+00  0.1343292E-02  0.1803049E+00 -0.3412700E-02  0.9048160E-02
6151000. -0.2523428E-01 -0.6336042E+00  0.1343292E-02  0.1615706E+00 -0.3412700E-02  0.1044426E-01
6128500. -0.2266091E-01 -0.8224225E+00  0.7801512E-03  0.1568240E+00 -0.3440128E-02  0.5138136E-02
6106000. -0.1943693E-01 -0.1001406E+01  0.2391293E-03  0.1490841E+00 -0.3449346E-02  0.1325873E-03
6083500. -0.1560384E-01 -0.1166777E+01 -0.2696512E-03  0.1386129E+00 -0.3441428E-02 -0.4564584E-02
6061000. -0.1121589E-01 -0.1315098E+01 -0.7370727E-03  0.1257165E+00 -0.3417476E-02 -0.8946918E-02
6038500. -0.6338782E-02 -0.1443339E+01 -0.1155168E-02  0.1107390E+00 -0.3378609E-02 -0.1301020E-01
6016000. -0.1048120E-02 -0.1548913E+01 -0.1517239E-02  0.9405279E-01 -0.3325960E-02 -0.1675204E-01
5993500.  0.4572190E-02 -0.1629723E+01 -0.1817936E-02  0.7604831E-01 -0.3260665E-02 -0.2017185E-01
5971000.  0.1043176E-01 -0.1684198E+01 -0.2053311E-02  0.5712780E-01 -0.3183859E-02 -0.2327107E-01
5971000.  0.1043176E-01 -0.1550879E+01 -0.2053311E-02  0.4936663E-01 -0.3183859E-02 -0.2463667E-01
5937667.  0.1853707E-01 -0.1538938E+01 -0.2241631E-02  0.2289496E-01 -0.3047380E-02 -0.2737346E-01
5904333.  0.2645102E-01 -0.1478505E+01 -0.2296494E-02 -0.1515021E-02 -0.2899049E-02 -0.2917606E-01
5871000.  0.3393407E-01 -0.1375365E+01 -0.2230569E-02 -0.2318667E-01 -0.2743586E-02 -0.3011396E-01
5837667.  0.4078015E-01 -0.1236184E+01 -0.2059401E-02 -0.4169281E-01 -0.2585300E-02 -0.3027020E-01
5804333.  0.4681941E-01 -0.1068079E+01 -0.1800187E-02 -0.5682172E-01 -0.2428039E-02 -0.2973632E-01
5771000.  0.5191898E-01 -0.8782411E+00 -0.1470767E-02 -0.6854099E-01 -0.2275167E-02 -0.2861060E-01
5771000.  0.5191898E-01 -0.8782867E+00 -0.1470767E-02 -0.6854067E-01 -0.2275167E-02 -0.2861060E-01
5701000.  0.5933835E-01 -0.4593583E+00 -0.6192654E-03 -0.8448136E-01 -0.1994482E-02 -0.2223216E-01
5701000.  0.5933835E-01 -0.3977711E+00 -0.6192654E-03 -0.8080623E-01 -0.1994482E-02 -0.3895751E-01
5667333.  0.6090597E-01 -0.1955513E+00 -0.1867584E-03 -0.8253451E-01 -0.1798124E-02 -0.3536216E-01
5633667.  0.6140976E-01  0.4133313E-02  0.2495922E-03 -0.8231989E-01 -0.1620632E-02 -0.3183449E-01
5600000.  0.6087350E-01  0.1974839E+00  0.6804086E-03 -0.8049032E-01 -0.1461397E-02 -0.2846529E-01
5600000.  0.6087350E-01  0.1974887E+00  0.6804086E-03 -0.8049089E-01 -0.1461397E-02 -0.2846529E-01
5563518.  0.5915267E-01  0.4025218E+00  0.1132785E-02 -0.7724084E-01 -0.1308278E-02 -0.2505461E-01
5527037.  0.5627918E-01  0.5994971E+00  0.1562101E-02 -0.7247309E-01 -0.1173999E-02 -0.2188656E-01
5490556.  0.5230931E-01  0.7849157E+00  0.1960252E-02 -0.6639057E-01 -0.1057163E-02 -0.1896215E-01
5454074.  0.4731814E-01  0.9556953E+00  0.2320335E-02 -0.5921067E-01 -0.9563746E-03 -0.1628029E-01
5417593.  0.4139755E-01  0.1109192E+01  0.2636693E-02 -0.5115944E-01 -0.8702533E-03 -0.1383983E-01
5381111.  0.3465256E-01  0.1243267E+01  0.2905003E-02 -0.4246416E-01 -0.7974220E-03 -0.1163690E-01
5344630.  0.2719972E-01  0.1356260E+01  0.3122210E-02 -0.3334928E-01 -0.7365388E-03 -0.9666294E-02
5308148.  0.1916285E-01  0.1447026E+01  0.3286542E-02 -0.2402963E-01 -0.6862897E-03 -0.7920844E-02
5271667.  0.1067187E-01  0.1514880E+01  0.3397406E-02 -0.1470813E-01 -0.6454115E-03 -0.6392214E-02
5235185.  0.1858286E-02  0.1559620E+01  0.3455337E-02 -0.5570530E-02 -0.6126885E-03 -0.5070284E-02
5198704. -0.7145510E-02  0.1581475E+01  0.3461876E-02  0.3215560E-02 -0.5869707E-03 -0.3943811E-02
5162222. -0.1621059E-01  0.1581074E+01  0.3419462E-02  0.1150462E-01 -0.5671726E-03 -0.3000302E-02
5125741. -0.2521169E-01  0.1559407E+01  0.3331311E-02  0.1917261E-01 -0.5522858E-03 -0.2226265E-02
5089259. -0.3403112E-01  0.1517774E+01  0.3201270E-02  0.2611944E-01 -0.5413789E-03 -0.1607767E-02
5052778. -0.4255845E-01  0.1457748E+01  0.3033710E-02  0.3226735E-01 -0.5336036E-03 -0.1130088E-02
5016296. -0.5069384E-01  0.1381108E+01  0.2833363E-02  0.3756202E-01 -0.5281955E-03 -0.7784661E-03
4979815. -0.5834723E-01  0.1289809E+01  0.2605231E-02  0.4197017E-01 -0.5244751E-03 -0.5381008E-03
4943333. -0.6544096E-01  0.1185912E+01  0.2354423E-02  0.4547953E-01 -0.5218498E-03 -0.3935570E-03
4906852. -0.7190862E-01  0.1071561E+01  0.2086090E-02  0.4809589E-01 -0.5198100E-03 -0.3313369E-03
4870370. -0.7769687E-01  0.9489146E+00  0.1805273E-02  0.4984242E-01 -0.5179261E-03 -0.3365689E-03
4833889. -0.8276407E-01  0.8201175E+00  0.1516866E-02  0.5075718E-01 -0.5158533E-03 -0.3953099E-03
4797407. -0.8708129E-01  0.6872585E+00  0.1225478E-02  0.5089003E-01 -0.5133177E-03 -0.4961654E-03
4760926. -0.9063082E-01  0.5523472E+00  0.9354326E-03  0.5030169E-01 -0.5101159E-03 -0.6259467E-03
4724444. -0.9340655E-01  0.4172597E+00  0.6506501E-03  0.4906118E-01 -0.5061146E-03 -0.7736740E-03
4687963. -0.9541241E-01  0.2837502E+00  0.3746694E-03  0.4724298E-01 -0.5012407E-03 -0.9290574E-03
4651482. -0.9666211E-01  0.1533988E+00  0.1105670E-03  0.4492560E-01 -0.4954794E-03 -0.1082069E-02
4615000. -0.9717787E-01  0.2761217E-01 -0.1390347E-03  0.4218923E-01 -0.4888690E-03 -0.1224190E-02
4578518. -0.9698939E-01 -0.9238163E-01 -0.3719601E-03  0.3911448E-01 -0.4814968E-03 -0.1346885E-02
4542037. -0.9613294E-01 -0.2055463E+00 -0.5864935E-03  0.3578041E-01 -0.4734931E-03 -0.1443738E-02
4505556. -0.9465010E-01 -0.3110440E+00 -0.7813746E-03  0.3226273E-01 -0.4650260E-03 -0.1507628E-02
4469074. -0.9258664E-01 -0.4082273E+00 -0.9557649E-03  0.2863334E-01 -0.4563013E-03 -0.1532636E-02
4432593. -0.8999174E-01 -0.4966263E+00 -0.1109209E-02  0.2495901E-01 -0.4475600E-03 -0.1512449E-02
4396111. -0.8691645E-01 -0.5759591E+00 -0.1241635E-02  0.2130029E-01 -0.4390783E-03 -0.1441142E-02
4359630. -0.8341326E-01 -0.6461020E+00 -0.1353282E-02  0.1771134E-01 -0.4311604E-03 -0.1314664E-02
4323148. -0.7953458E-01 -0.7070913E+00 -0.1444696E-02  0.1423952E-01 -0.4241422E-03 -0.1125816E-02
4286667. -0.7533260E-01 -0.7591000E+00 -0.1516658E-02  0.1092403E-01 -0.4183947E-03 -0.8699860E-03
4250185. -0.7085773E-01 -0.8024263E+00 -0.1570163E-02  0.7797486E-02 -0.4143212E-03 -0.5397900E-03
4213704. -0.6615881E-01 -0.8374742E+00 -0.1606366E-02  0.4884452E-02 -0.4123685E-03 -0.1280576E-03
4177222. -0.6128160E-01 -0.8647375E+00 -0.1626544E-02  0.2202428E-02 -0.4130261E-03  0.3734731E-03
4140741. -0.5626938E-01 -0.8847817E+00 -0.1632050E-02 -0.2389574E-03 -0.4168370E-03  0.9750663E-03
4104259. -0.5116144E-01 -0.8982249E+00 -0.1624272E-02 -0.2437351E-02 -0.4244052E-03  0.1687916E-02
4067778. -0.4599402E-01 -0.9057148E+00 -0.1604593E-02 -0.4397000E-02 -0.4364083E-03  0.2526747E-02
4031296. -0.4079903E-01 -0.9079159E+00 -0.1574349E-02 -0.6130097E-02 -0.4536142E-03  0.3507976E-02
3994815. -0.3560516E-01 -0.9054819E+00 -0.1534787E-02 -0.7655563E-02 -0.4768937E-03  0.4652051E-02
3958333. -0.3043685E-01 -0.8990372E+00 -0.1487021E-02 -0.9000313E-02 -0.5072490E-03  0.5983493E-02
3921852. -0.2531570E-01 -0.8891498E+00 -0.1431993E-02 -0.1019883E-01 -0.5458312E-03  0.7531116E-02
3885370. -0.2025971E-01 -0.8763048E+00 -0.1370417E-02 -0.1129476E-01 -0.5939780E-03  0.9330160E-02
3848889. -0.1528494E-01 -0.8608764E+00 -0.1302735E-02 -0.1234215E-01 -0.6532427E-03  0.1142239E-01
3812407. -0.1040522E-01 -0.8430789E+00 -0.1229039E-02 -0.1340681E-01 -0.7254467E-03  0.1385804E-01
3775926. -0.5634238E-02 -0.8229279E+00 -0.1149011E-02 -0.1456905E-01 -0.8127186E-03  0.1669676E-01
3739444. -0.9857648E-03 -0.8001776E+00 -0.1061816E-02 -0.1592761E-01 -0.9175696E-03  0.2000998E-01
3702963.  0.3523569E-02 -0.7742429E+00 -0.9659988E-03 -0.1760386E-01 -0.1042946E-02  0.2388240E-01
3666482.  0.7872961E-02 -0.7440991E+00 -0.8593220E-03 -0.1974855E-01 -0.1192335E-02  0.2841504E-01
3630000.  0.1203416E-01 -0.7081488E+00 -0.7385811E-03 -0.2255007E-01 -0.1369854E-02  0.3372779E-01
3630000.  0.1203416E-01 -0.7081450E+00 -0.7385811E-03 -0.2255007E-01 -0.1369854E-02  0.3372779E-01
3592500.  0.1608038E-01 -0.6649889E+00 -0.5951035E-03 -0.2639369E-01 -0.1586709E-02  0.4012385E-01
3555000.  0.1983803E-01 -0.6093477E+00 -0.4252685E-03 -0.3156765E-01 -0.1844354E-02  0.4762072E-01
3517500.  0.2321893E-01 -0.5359540E+00 -0.2200562E-03 -0.3849414E-01 -0.2149880E-02  0.5643167E-01
3480000.  0.2609853E-01 -0.4376208E+00  0.3238950E-04 -0.4772052E-01 -0.2511737E-02  0.6680599E-01
3480000.  0.2609853E-01  0.5509688E+00  0.1872784E-02  0.4431910E-01 -0.2511737E-02 -0.1528926E-01
3409422.  0.2048523E-01  0.4629472E+00  0.1431339E-02  0.3558827E-01 -0.2258080E-02 -0.2858646E-01
3338844.  0.1582186E-01  0.3801605E+00  0.1079608E-02  0.2812234E-01 -0.1911537E-02 -0.3284198E-01
3268266.  0.1203126E-01  0.3057500E+00  0.8037229E-03  0.2188317E-01 -0.1549334E-02 -0.3193447E-01
3197688.  0.9011047E-02  0.2412145E+00  0.5905807E-03  0.1677583E-01 -0.1213581E-02 -0.2840015E-01
3127109.  0.6649097E-02  0.1868822E+00  0.4283206E-03  0.1267397E-01 -0.9238523E-03 -0.2382716E-01
3056531.  0.4834373E-02  0.1423034E+00  0.3065756E-03  0.9438153E-02 -0.6859860E-03 -0.1915210E-01
2985953.  0.3463572E-02  0.1065587E+00  0.2165280E-03  0.6928593E-02 -0.4980062E-03 -0.1487741E-01
2915375.  0.2445081E-02  0.7849639E-01  0.1508703E-03  0.5013985E-02 -0.3540330E-03 -0.1122793E-01
2844797.  0.1700546E-02  0.5689683E-01  0.1036780E-03  0.3576531E-02 -0.2467111E-03 -0.8260254E-02
2774219.  0.1164972E-02  0.4058207E-01  0.7024527E-04  0.2514245E-02 -0.1686341E-03 -0.5936895E-02
2703641.  0.7858638E-03  0.2848164E-01  0.4690534E-04  0.1741442E-02 -0.1130996E-03 -0.4174591E-02
2633062.  0.5218193E-03  0.1966562E-01  0.3085328E-04  0.1188015E-02 -0.7443537E-04 -0.2874342E-02
2562484.  0.3409137E-03  0.1335523E-01  0.1998166E-04  0.7979545E-03 -0.4806934E-04 -0.1938892E-02
2491906.  0.2190224E-03  0.8917333E-02  0.1273363E-04  0.5274298E-03 -0.3045199E-04 -0.1281574E-02
2421328.  0.1382890E-03  0.5851371E-02  0.7979478E-05  0.3428757E-03 -0.1891679E-04 -0.8300194E-03
2350750.  0.8575096E-04  0.3771163E-02  0.4913302E-05  0.2190868E-03 -0.1151672E-04 -0.5265976E-03
2280172.  0.5217934E-04  0.2385610E-02  0.2970202E-05  0.1374938E-03 -0.6866996E-05 -0.3271364E-03
2209594.  0.3112997E-04  0.1480114E-02  0.1761196E-05  0.8467889E-04 -0.4006898E-05 -0.1988736E-03
2139016.  0.1819043E-04  0.8998659E-03  0.1023262E-05  0.5113096E-04 -0.2285808E-05 -0.1182202E-03
2068438.  0.1039924E-04  0.5355603E-03  0.5818637E-06  0.3023783E-04 -0.1273453E-05 -0.6865444E-04
1997859.  0.5808989E-05  0.3116628E-03  0.3234035E-06  0.1749267E-04 -0.6919693E-06 -0.3890691E-04
1927281.  0.3166137E-05  0.1771125E-03  0.1754432E-06  0.9886108E-05 -0.3662136E-06 -0.2148901E-04
1856703.  0.1681090E-05  0.9814282E-04  0.9274490E-07  0.5450077E-05 -0.1884573E-06 -0.1155025E-04
1786125.  0.8679654E-06  0.5294061E-04  0.4768862E-07  0.2925848E-05 -0.9412770E-07 -0.6031333E-05
1715547.  0.4348905E-06  0.2774725E-04  0.2380240E-07  0.1526647E-05 -0.4553372E-07 -0.3053780E-05
1644969.  0.2109689E-06  0.1410016E-04  0.1150551E-07  0.7725309E-06 -0.2128236E-07 -0.1495875E-05
1574391.  0.9882221E-07  0.6930524E-05  0.5372175E-08  0.3781657E-06 -0.9585029E-08 -0.7070901E-06
1503812.  0.4454838E-07  0.3287009E-05  0.2416510E-08  0.1784997E-06 -0.4146719E-08 -0.3215757E-06
1433234.  0.1921665E-07  0.1503449E-05  0.1045861E-08  0.8077603E-07 -0.1717430E-08 -0.1402187E-06
1362656.  0.7770476E-08  0.6731405E-06  0.4404558E-09  0.3427289E-07 -0.6787125E-09 -0.5836193E-07
1292078.  0.2520015E-08  0.3346146E-06  0.2003735E-09  0.1143887E-07 -0.2556267E-09 -0.2306973E-07
1221500. -0.7985238E-09  0.3188197E-06  0.1631632E-09 -0.5014700E-08 -0.9158743E-10 -0.8814380E-08
1221500. -0.7985238E-09  0.2078617E-08  0.3948299E-11  0.4185468E-08 -0.9158743E-10 -0.8468456E-08
1183328. -0.7213962E-09 -0.2313932E-07 -0.1125437E-10  0.1256182E-08 -0.5207871E-10 -0.5000168E-08
1145156. -0.5604508E-09 -0.2842742E-07 -0.1434883E-10 -0.3000436E-10 -0.2897417E-10 -0.2890130E-08
1106984. -0.3974186E-09 -0.2518856E-07 -0.1254449E-10 -0.4784582E-09 -0.1575309E-10 -0.1633582E-08
1068812. -0.2636698E-09 -0.1931501E-07 -0.9374294E-11 -0.5398585E-09 -0.8358576E-11 -0.9018198E-09
1030641. -0.1656706E-09 -0.1353457E-07 -0.6366134E-11 -0.4515964E-09 -0.4321640E-11 -0.4855695E-09
 992469. -0.9920918E-10 -0.8867195E-08 -0.4028317E-11 -0.3283309E-09 -0.2173398E-11 -0.2545817E-09
 954297. -0.5681070E-10 -0.5492073E-08 -0.2403651E-11 -0.2179945E-09 -0.1061079E-11 -0.1297345E-09
 916125. -0.3116040E-10 -0.3233818E-08 -0.1360614E-11 -0.1349215E-09 -0.5017676E-12 -0.6411739E-10
 877953. -0.1638154E-10 -0.1816528E-08 -0.7334966E-12 -0.7838756E-10 -0.2293714E-12 -0.3061853E-10
 839781.  0.0000000E+00  0.0000000E+00  0.0000000E+00  0.0000000E+00  0.0000000E+00  0.0000000E+00
 801609.  0.0000000E+00  0.0000000E+00  0.0000000E+00  0.0000000E+00  0.0000000E+00  0.0000000E+00
 763438.  0.0000000E+00  0.0000000E+00  0.0000000E+00  0.0000000E+00  0.0000000E+00  0.0000000E+00
 725266.  0.0000000E+00  0.0000000E+00  0.0000000E+00  0.0000000E+00  0.0000000E+00  0.0000000E+00
 687094.  0.0000000E+00  0.0000000E+00  0.0000000E+00  0.0000000E+00  0.0000000E+00  0.0000000E+00
 648922.  0.0000000E+00  0.0000000E+00  0.0000000E+00  0.0000000E+00  0.0000000E+00  0.0000000E+00
 610750.  0.0000000E+00  0.0000000E+00  0.0000000E+00  0.0000000E+00  0.0000000E+00  0.0000000E+00
 572578.  0.0000000E+00  0.0000000E+00  0.0000000E+00  0.0000000E+00  0.0000000E+00  0.0000000E+00
 534406.  0.0000000E+00  0.0000000E+00  0.0000000E+00  0.0000000E+00  0.0000000E+00  0.0000000E+00
 496234.  0.0000000E+00  0.0000000E+00  0.0000000E+00  0.0000000E+00  0.0000000E+00  0.0000000E+00
 458062.  0.0000000E+00  0.0000000E+00  0.0000000E+00  0.0000000E+00  0.0000000E+00  0.0000000E+00
 419891.  0.0000000E+00  0.0000000E+00  0.0000000E+00  0.0000000E+00  0.0000000E+00  0.0000000E+00
 381719.  0.0000000E+00  0.0000000E+00  0.0000000E+00  0.0000000E+00  0.0000000E+00  0.0000000E+00
 343547.  0.0000000E+00  0.0000000E+00  0.0000000E+00  0.0000000E+00  0.0000000E+00  0.0000000E+00
 305375.  0.0000000E+00  0.0000000E+00  0.0000000E+00  0.0000000E+00  0.0000000E+00  0.0000000E+00
 267203.  0.0000000E+00  0.0000000E+00  0.0000000E+00  0.0000000E+00  0.0000000E+00  0.0000000E+00
 229031.  0.0000000E+00  0.0000000E+00  0.0000000E+00  0.0000000E+00  0.0000000E+00  0.0000000E+00
 190859.  0.0000000E+00  0.0000000E+00  0.0000000E+00  0.0000000E+00  0.0000000E+00  0.0000000E+00
 152688.  0.0000000E+00  0.0000000E+00  0.0000000E+00  0.0000000E+00  0.0000000E+00  0.0000000E+00
 114516.  0.0000000E+00  0.0000000E+00  0.0000000E+00  0.0000000E+00  0.0000000E+00  0.0000000E+00
  76344.  0.0000000E+00  0.0000000E+00  0.0000000E+00  0.0000000E+00  0.0000000E+00  0.0000000E+00
  38172.  0.0000000E+00  0.0000000E+00  0.0000000E+00  0.0000000E+00  0.0000000E+00  0.0000000E+00
      0.  0.0000000E+00  0.0000000E+00  0.0000000E+00  0.0000000E+00  0.0000000E+00  0.0000000E+00
