       5       13 S      329        203.20171         14.59239          8.84115        385.35019      185    7
6371000.  0.1068068E+00 -0.1322817E+00 -0.6746674E-03 -0.1074814E+00 -0.9104550E-03 -0.1886662E+00
6370000.  0.1068259E+00 -0.1116166E+00 -0.6577649E-03 -0.1078869E+00 -0.8808439E-03 -0.1886368E+00
6369000.  0.1068418E+00 -0.9093430E-01 -0.6408000E-03 -0.1082765E+00 -0.8512379E-03 -0.1886030E+00
6368000.  0.1068545E+00 -0.7023562E-01 -0.6237754E-03 -0.1086502E+00 -0.8216375E-03 -0.1885648E+00
6368000.  0.1068545E+00 -0.7023562E-01 -0.6237754E-03 -0.1086502E+00 -0.8216375E-03 -0.1885648E+00
6367000.  0.1068639E+00 -0.4952147E-01 -0.6066932E-03 -0.1090079E+00 -0.7920433E-03 -0.1885222E+00
6366000.  0.1068700E+00 -0.2879271E-01 -0.5895561E-03 -0.1093496E+00 -0.7624563E-03 -0.1884753E+00
6365000.  0.1068729E+00 -0.8050215E-02 -0.5723667E-03 -0.1096754E+00 -0.7328769E-03 -0.1884239E+00
6364000.  0.1068725E+00  0.1270513E-01 -0.5551274E-03 -0.1099850E+00 -0.7033060E-03 -0.1883681E+00
6363000.  0.1068689E+00  0.3347244E-01 -0.5378408E-03 -0.1102786E+00 -0.6737442E-03 -0.1883080E+00
6362000.  0.1068620E+00  0.5425085E-01 -0.5205093E-03 -0.1105561E+00 -0.6441922E-03 -0.1882434E+00
6361000.  0.1068519E+00  0.7503948E-01 -0.5031356E-03 -0.1108174E+00 -0.6146506E-03 -0.1881744E+00
6360000.  0.1068385E+00  0.9583742E-01 -0.4857221E-03 -0.1110625E+00 -0.5851202E-03 -0.1881011E+00
6359000.  0.1068218E+00  0.1166438E+00 -0.4682714E-03 -0.1112914E+00 -0.5556017E-03 -0.1880233E+00
6358000.  0.1068018E+00  0.1374578E+00 -0.4507861E-03 -0.1115040E+00 -0.5260957E-03 -0.1879412E+00
6357000.  0.1067786E+00  0.1582784E+00 -0.4332686E-03 -0.1117004E+00 -0.4966030E-03 -0.1878546E+00
6356000.  0.1067522E+00  0.1791048E+00 -0.4157216E-03 -0.1118805E+00 -0.4671241E-03 -0.1877637E+00
6356000.  0.1067522E+00  0.9143218E-01 -0.4157216E-03 -0.1101126E+00 -0.4671241E-03 -0.2109917E+00
6355000.  0.1067366E+00  0.1067317E+00 -0.3984304E-03 -0.1102103E+00 -0.4340124E-03 -0.2109173E+00
6354000.  0.1067187E+00  0.1220358E+00 -0.3811247E-03 -0.1102977E+00 -0.4009126E-03 -0.2108398E+00
6353000.  0.1066983E+00  0.1373439E+00 -0.3638061E-03 -0.1103747E+00 -0.3678252E-03 -0.2107592E+00
6352000.  0.1066755E+00  0.1526556E+00 -0.3464762E-03 -0.1104413E+00 -0.3347508E-03 -0.2106755E+00
6351000.  0.1066504E+00  0.1679704E+00 -0.3291366E-03 -0.1104975E+00 -0.3016896E-03 -0.2105887E+00
6350000.  0.1066228E+00  0.1832877E+00 -0.3117890E-03 -0.1105433E+00 -0.2686424E-03 -0.2104989E+00
6349000.  0.1065928E+00  0.1986071E+00 -0.2944352E-03 -0.1105787E+00 -0.2356095E-03 -0.2104060E+00
6348000.  0.1065605E+00  0.2139281E+00 -0.2770765E-03 -0.1106037E+00 -0.2025914E-03 -0.2103100E+00
6347000.  0.1065257E+00  0.2292502E+00 -0.2597147E-03 -0.1106182E+00 -0.1695886E-03 -0.2102110E+00
6346600.  0.1065111E+00  0.2353792E+00 -0.2527695E-03 -0.1106211E+00 -0.1563919E-03 -0.2101705E+00
6346600.  0.1065111E+00  0.9622937E-01 -0.2527695E-03 -0.1095014E+00 -0.1563919E-03 -0.2473093E+00
6318800.  0.1053906E+00  0.4179218E+00  0.2202318E-03 -0.1062722E+00  0.9171871E-03 -0.2444867E+00
6291000.  0.1028637E+00  0.7397183E+00  0.6658187E-03 -0.9696356E-01  0.1974847E-02 -0.2400092E+00
6291000.  0.1028637E+00  0.7503083E+00  0.6658187E-03 -0.9671352E-01  0.1974847E-02 -0.2400092E+00
6263000.  0.9885398E-01  0.1072529E+01  0.1058022E-02 -0.8077956E-01  0.3016376E-02 -0.2336691E+00
6235000.  0.9345843E-01  0.1379719E+01  0.1367642E-02 -0.5924539E-01  0.4026200E-02 -0.2255831E+00
6207000.  0.8675914E-01  0.1664655E+01  0.1571723E-02 -0.3290158E-01  0.4996692E-02 -0.2157763E+00
6179000.  0.7886889E-01  0.1920618E+01  0.1651242E-02 -0.2741124E-02  0.5920383E-02 -0.2042954E+00
6151000.  0.6992856E-01  0.2141586E+01  0.1591922E-02  0.3007446E-01  0.6790062E-02 -0.1912107E+00
6151000.  0.6992856E-01  0.1737634E+01  0.1591922E-02  0.1768875E-01  0.6790062E-02 -0.1950796E+00
6128500.  0.6362876E-01  0.1826215E+01  0.1489782E-02  0.4020752E-01  0.7466114E-02 -0.1876936E+00
6106000.  0.5705722E-01  0.1891469E+01  0.1307850E-02  0.6279131E-01  0.8115240E-02 -0.1798405E+00
6083500.  0.5029665E-01  0.1933287E+01  0.1046782E-02  0.8494149E-01  0.8735885E-02 -0.1715726E+00
6061000.  0.4342945E-01  0.1951926E+01  0.7089647E-03  0.1061778E+00  0.9326677E-02 -0.1629429E+00
6038500.  0.3653647E-01  0.1948015E+01  0.2984299E-03  0.1260498E+00  0.9886427E-02 -0.1540025E+00
6016000.  0.2969575E-01  0.1922508E+01 -0.1792623E-03  0.1441443E+00  0.1041413E-01 -0.1448016E+00
5993500.  0.2298144E-01  0.1876665E+01 -0.7171659E-03  0.1600905E+00  0.1090895E-01 -0.1353902E+00
5971000.  0.1646266E-01  0.1812049E+01 -0.1307116E-02  0.1735700E+00  0.1137023E-01 -0.1258162E+00
5971000.  0.1646266E-01  0.1629970E+01 -0.1307116E-02  0.1523596E+00  0.1137023E-01 -0.1279712E+00
5937667.  0.8325617E-02  0.1477148E+01 -0.2124957E-02  0.1594154E+00  0.1200635E-01 -0.1152403E+00
5904333.  0.1034492E-02  0.1307685E+01 -0.2966587E-02  0.1615025E+00  0.1257669E-01 -0.1028359E+00
5871000. -0.5340834E-02  0.1128211E+01 -0.3807016E-02  0.1590495E+00  0.1308317E-01 -0.9084672E-01
5837667. -0.1076407E-01  0.9446731E+00 -0.4623910E-02  0.1526042E+00  0.1352815E-01 -0.7934026E-01
5804333. -0.1522803E-01  0.7622710E+00 -0.5398007E-02  0.1427886E+00  0.1391433E-01 -0.6836693E-01
5771000. -0.1875025E-01  0.5854057E+00 -0.6113335E-02  0.1302582E+00  0.1424455E-01 -0.5796348E-01
5771000. -0.1875025E-01  0.5853586E+00 -0.6113335E-02  0.1302544E+00  0.1424455E-01 -0.5796348E-01
5701000. -0.2358935E-01  0.2989391E+00 -0.7408435E-02  0.1033874E+00  0.1477369E-01 -0.3869735E-01
5701000. -0.2358935E-01  0.1812710E+00 -0.7408435E-02  0.8544020E-01  0.1477369E-01 -0.3204836E-01
5667333. -0.2427083E-01  0.7870545E-01 -0.7822143E-02  0.7107668E-01  0.1491772E-01 -0.2251515E-01
5633667. -0.2444188E-01 -0.1177213E-01 -0.8159337E-02  0.5655059E-01  0.1501220E-01 -0.1329330E-01
5600000. -0.2416792E-01 -0.8966389E-01 -0.8420157E-02  0.4222366E-01  0.1505873E-01 -0.4364416E-02
5600000. -0.2416792E-01 -0.8971265E-01 -0.8420157E-02  0.4222482E-01  0.1505873E-01 -0.4364416E-02
5563518. -0.2340389E-01 -0.1749704E+00 -0.8619391E-02  0.2727960E-01  0.1505701E-01  0.4868187E-02
5527037. -0.2219078E-01 -0.2463856E+00 -0.8731956E-02  0.1200951E-01  0.1500410E-01  0.1351396E-01
5490556. -0.2061070E-01 -0.3030211E+00 -0.8756928E-02 -0.3260835E-02  0.1490337E-01  0.2157229E-01
5454074. -0.1875003E-01 -0.3443035E+00 -0.8695207E-02 -0.1821972E-01  0.1475816E-01  0.2904499E-01
5417593. -0.1669757E-01 -0.3700280E+00 -0.8549429E-02 -0.3257326E-01  0.1457184E-01  0.3593640E-01
5381111. -0.1454195E-01 -0.3803632E+00 -0.8323832E-02 -0.4605482E-01  0.1434770E-01  0.4225363E-01
5344630. -0.1237019E-01 -0.3757980E+00 -0.8024117E-02 -0.5842610E-01  0.1408902E-01  0.4800506E-01
5308148. -0.1026530E-01 -0.3571399E+00 -0.7657222E-02 -0.6948491E-01  0.1379899E-01  0.5320157E-01
5271667. -0.8305135E-02 -0.3254671E+00 -0.7231181E-02 -0.7906351E-01  0.1348077E-01  0.5785523E-01
5235185. -0.6560441E-02 -0.2821004E+00 -0.6754830E-02 -0.8703426E-01  0.1313742E-01  0.6198004E-01
5198704. -0.5093992E-02 -0.2285635E+00 -0.6237676E-02 -0.9330789E-01  0.1277193E-01  0.6559099E-01
5162222. -0.3959216E-02 -0.1665322E+00 -0.5689571E-02 -0.9783487E-01  0.1238719E-01  0.6870463E-01
5125741. -0.3199692E-02 -0.9781077E-01 -0.5120597E-02 -0.1006029E+00  0.1198602E-01  0.7133844E-01
5089259. -0.2848380E-02 -0.2426212E-01 -0.4540743E-02 -0.1016364E+00  0.1157108E-01  0.7351118E-01
5052778. -0.2927482E-02  0.5220528E-01 -0.3959823E-02 -0.1009931E+00  0.1114499E-01  0.7524237E-01
5016296. -0.3448301E-02  0.1297056E+00 -0.3387168E-02 -0.9876097E-01  0.1071018E-01  0.7655267E-01
4979815. -0.4411398E-02  0.2063894E+00 -0.2831590E-02 -0.9505526E-01  0.1026904E-01  0.7746337E-01
4943333. -0.5807070E-02  0.2804978E+00 -0.2301113E-02 -0.9001355E-01  0.9823762E-02  0.7799678E-01
4906852. -0.7615698E-02  0.3503778E+00 -0.1802972E-02 -0.8379337E-01  0.9376468E-02  0.7817565E-01
4870370. -0.9808790E-02  0.4145261E+00 -0.1343405E-02 -0.7656572E-01  0.8929098E-02  0.7802346E-01
4833889. -0.1234948E-01  0.4715995E+00 -0.9276907E-03 -0.6851185E-01  0.8483501E-02  0.7756433E-01
4797407. -0.1519399E-01  0.5204442E+00 -0.5600021E-03 -0.5981946E-01  0.8041343E-02  0.7682247E-01
4760926. -0.1829222E-01  0.5600995E+00 -0.2434722E-03 -0.5067810E-01  0.7604194E-02  0.7582293E-01
4724444. -0.2158945E-01  0.5898176E+00  0.1988003E-04 -0.4127403E-01  0.7173435E-02  0.7459070E-01
4687963. -0.2502698E-01  0.6090592E+00  0.2290611E-03 -0.3178943E-01  0.6750350E-02  0.7315113E-01
4651482. -0.2854387E-01  0.6175033E+00  0.3841151E-03 -0.2239649E-01  0.6336041E-02  0.7152975E-01
4615000. -0.3207797E-01  0.6150371E+00  0.4860355E-03 -0.1325578E-01  0.5931464E-02  0.6975196E-01
4578518. -0.3556688E-01  0.6017492E+00  0.5366902E-03 -0.4514125E-02  0.5537455E-02  0.6784350E-01
4542037. -0.3894925E-01  0.5779232E+00  0.5387465E-03  0.3697724E-02  0.5154698E-02  0.6582955E-01
4505556. -0.4216609E-01  0.5440185E+00  0.4955712E-03  0.1126696E-01  0.4783714E-02  0.6373554E-01
4469074. -0.4516144E-01  0.5006548E+00  0.4111200E-03  0.1809954E-01  0.4424881E-02  0.6158649E-01
4432593. -0.4788313E-01  0.4485974E+00  0.2898413E-03  0.2411991E-01  0.4078460E-02  0.5940779E-01
4396111. -0.5028399E-01  0.3887284E+00  0.1365468E-03  0.2927274E-01  0.3744530E-02  0.5722445E-01
4359630. -0.5232195E-01  0.3220378E+00 -0.4367232E-04  0.3352107E-01  0.3423068E-02  0.5506057E-01
4323148. -0.5396105E-01  0.2495843E+00 -0.2455877E-03  0.3684728E-01  0.3113871E-02  0.5294169E-01
4286667. -0.5517141E-01  0.1724918E+00 -0.4638972E-03  0.3925039E-01  0.2816629E-02  0.5089185E-01
4250185. -0.5592981E-01  0.9190805E-01 -0.6933657E-03  0.4074663E-01  0.2530858E-02  0.4893647E-01
4213704. -0.5621955E-01  0.9001773E-02 -0.9288685E-03  0.4136652E-01  0.2255962E-02  0.4710085E-01
4177222. -0.5603066E-01 -0.7507627E-01 -0.1165521E-02  0.4115422E-01  0.1991165E-02  0.4541054E-01
4140741. -0.5535969E-01 -0.1591943E+00 -0.1398698E-02  0.4016486E-01  0.1735574E-02  0.4389261E-01
4104259. -0.5420950E-01 -0.2422752E+00 -0.1624143E-02  0.3846307E-01  0.1488111E-02  0.4257427E-01
4067778. -0.5258904E-01 -0.3232929E+00 -0.1837969E-02  0.3612125E-01  0.1247560E-02  0.4148575E-01
4031296. -0.5051279E-01 -0.4013059E+00 -0.2036743E-02  0.3321667E-01  0.1012504E-02  0.4065803E-01
3994815. -0.4800058E-01 -0.4754480E+00 -0.2217460E-02  0.2983047E-01  0.7813651E-03  0.4012576E-01
3958333. -0.4507668E-01 -0.5449566E+00 -0.2377609E-02  0.2604470E-01  0.5523325E-03  0.3992689E-01
3921852. -0.4176973E-01 -0.6091596E+00 -0.2515129E-02  0.2194159E-01  0.3233921E-03  0.4010314E-01
3885370. -0.3811161E-01 -0.6674963E+00 -0.2628438E-02  0.1760060E-01  0.9224970E-04  0.4070228E-01
3848889. -0.3413747E-01 -0.7195065E+00 -0.2716389E-02  0.1309743E-01 -0.1436552E-03  0.4177843E-01
3812407. -0.2988438E-01 -0.7648357E+00 -0.2778260E-02  0.8502164E-02 -0.3872417E-03  0.4339415E-01
3775926. -0.2539162E-01 -0.8032233E+00 -0.2813706E-02  0.3878507E-02 -0.6417878E-03  0.4562165E-01
3739444. -0.2069920E-01 -0.8345085E+00 -0.2822729E-02 -0.7187364E-03 -0.9110461E-03  0.4854545E-01
3702963. -0.1584833E-01 -0.8586079E+00 -0.2805616E-02 -0.5243450E-02 -0.1199265E-02  0.5226469E-01
3666482. -0.1088006E-01 -0.8755136E+00 -0.2762888E-02 -0.9660330E-02 -0.1511332E-02  0.5689628E-01
3630000. -0.5835352E-02 -0.8852730E+00 -0.2695235E-02 -0.1394530E-01 -0.1852868E-02  0.6257922E-01
3630000. -0.5835352E-02 -0.8852676E+00 -0.2695235E-02 -0.1394509E-01 -0.1852868E-02  0.6257922E-01
3592500. -0.6058235E-03 -0.8904135E+00 -0.2600181E-02 -0.1834436E-01 -0.2241401E-02  0.6965962E-01
3555000.  0.4631766E-02 -0.8879896E+00 -0.2479380E-02 -0.2269511E-01 -0.2675720E-02  0.7817496E-01
3517500.  0.9832540E-02 -0.8778837E+00 -0.2333079E-02 -0.2701268E-01 -0.3164988E-02  0.8837625E-01
3480000.  0.1495089E-01 -0.8599569E+00 -0.2161390E-02 -0.3132826E-01 -0.3719990E-02  0.1005656E+00
3480000.  0.1495089E-01 -0.2284254E-01  0.2607575E-02  0.2255173E-01 -0.3719990E-02  0.5353627E-01
3409422.  0.1491747E-01  0.2685171E-01  0.2351860E-02  0.2345262E-01 -0.4110662E-02  0.1888233E-01
3338844.  0.1439992E-01  0.6465971E-01  0.2091218E-02  0.2347093E-01 -0.4176047E-02 -0.5554128E-02
3268266.  0.1352563E-01  0.9144178E-01  0.1834446E-02  0.2278267E-01 -0.4017706E-02 -0.2183016E-01
3197688.  0.1240996E-01  0.1084762E+00  0.1588423E-02  0.2155808E-01 -0.3715835E-02 -0.3174516E-01
3127109.  0.1115265E-01  0.1172712E+00  0.1358197E-02  0.1995499E-01 -0.3332119E-02 -0.3684097E-01
3056531.  0.9836281E-02  0.1194028E+00  0.1147176E-02  0.1811324E-01 -0.2912572E-02 -0.3841068E-01
2985953.  0.8526085E-02  0.1164044E+00  0.9573206E-03  0.1615147E-01 -0.2490169E-02 -0.3751502E-01
2915375.  0.7270932E-02  0.1096875E+00  0.7894066E-03  0.1416640E-01 -0.2087336E-02 -0.3500247E-01
2844797.  0.6104978E-02  0.1004912E+00  0.6432540E-03  0.1223360E-01 -0.1718165E-02 -0.3153349E-01
2774219.  0.5049721E-02  0.8985960E-01  0.5179580E-03  0.1040873E-01 -0.1390356E-02 -0.2760600E-01
2703641.  0.4116214E-02  0.7863456E-01  0.4120978E-03  0.8729668E-02 -0.1106873E-02 -0.2358080E-01
2633062.  0.3307258E-02  0.6746420E-01  0.3239178E-03  0.7219241E-02 -0.8673295E-03 -0.1970599E-01
2562484.  0.2619500E-02  0.5682066E-01  0.2514841E-03  0.5887941E-02 -0.6691146E-03 -0.1614002E-01
2491906.  0.2045205E-02  0.4702139E-01  0.1928004E-03  0.4736246E-02 -0.5082564E-03 -0.1297164E-01
2421328.  0.1573864E-02  0.3825562E-01  0.1459091E-03  0.3757331E-02 -0.3801059E-03 -0.1023770E-01
2350750.  0.1193469E-02  0.3060932E-01  0.1089586E-03  0.2939254E-02 -0.2798226E-03 -0.7938172E-02
2280172.  0.8915156E-03  0.2408980E-01  0.8024929E-04  0.2266725E-02 -0.2027131E-03 -0.6048302E-02
2209594.  0.6557523E-03  0.1864758E-01  0.5826228E-04  0.1722726E-02 -0.1444496E-03 -0.4528291E-02
2139016.  0.4747013E-03  0.1419528E-01  0.4167072E-04  0.1289729E-02 -0.1011933E-03 -0.3330715E-02
2068438.  0.3379895E-03  0.1062327E-01  0.2934040E-04  0.9506354E-03 -0.6964707E-04 -0.2405941E-02
1997859.  0.2365211E-03  0.7812060E-02  0.2032091E-04  0.6894188E-03 -0.4705762E-04 -0.1705883E-02
1927281.  0.1625380E-03  0.5641756E-02  0.1383174E-04  0.4915607E-03 -0.3118492E-04 -0.1186427E-02
1856703.  0.1095773E-03  0.3998504E-02  0.9243378E-05  0.3442715E-03 -0.2024845E-04 -0.8087108E-03
1786125.  0.7238424E-04  0.2778909E-02  0.6058066E-05  0.2365776E-03 -0.1286636E-04 -0.5397142E-03
1715547.  0.4677928E-04  0.1892467E-02  0.3889730E-05  0.1592776E-03 -0.7990220E-05 -0.3522253E-03
1644969.  0.2950894E-04  0.1262613E-02  0.2444937E-05  0.1048205E-03 -0.4842555E-05 -0.2244468E-03
1574391.  0.1808977E-04  0.8268594E-03  0.1505627E-05  0.6711201E-04 -0.2860131E-05 -0.1393869E-03
1503812.  0.1065313E-04  0.5366788E-03  0.9143160E-06  0.4126115E-04 -0.1644583E-05 -0.8414641E-04
1433234.  0.5788980E-05  0.3581038E-03  0.5625869E-06  0.2323418E-04 -0.9211525E-06 -0.4920103E-04
1362656.  0.2369181E-05  0.2751741E-03  0.3844057E-06  0.9281407E-05 -0.5049615E-06 -0.2773908E-04
1292078. -0.7056088E-06  0.3019685E-03  0.3586555E-06 -0.5245548E-05 -0.2740131E-06 -0.1515728E-04
1221500. -0.5007250E-05  0.5198115E-03  0.5329758E-06 -0.2889231E-04 -0.1461320E-06 -0.8888797E-05
1221500. -0.5007250E-05  0.4888812E-04  0.5150375E-07  0.2638503E-04 -0.1461320E-06 -0.6719636E-05
1183328. -0.4985993E-05 -0.4709572E-04 -0.6647834E-07  0.1383564E-04 -0.1092933E-06 -0.5561766E-05
1145156. -0.4532464E-05 -0.9810631E-04 -0.1229764E-06  0.5644707E-05 -0.7948385E-07 -0.4400917E-05
1106984. -0.3871231E-05 -0.1185315E-03 -0.1404572E-06  0.6357687E-06 -0.5631887E-07 -0.3356941E-05
1068812. -0.3150925E-05 -0.1194111E-03 -0.1350525E-06 -0.2133414E-05 -0.3892070E-07 -0.2480186E-05
1030641. -0.2462868E-05 -0.1089235E-03 -0.1178861E-06 -0.3396997E-05 -0.2624506E-07 -0.1779846E-05
 992469. -0.1856683E-05 -0.9287032E-04 -0.9623550E-07 -0.3708939E-05 -0.1726679E-07 -0.1242483E-05
 954297. -0.1353227E-05 -0.7514601E-04 -0.7452947E-07 -0.3471441E-05 -0.1107814E-07 -0.8442724E-06
 916125. -0.9546311E-06 -0.5816868E-04 -0.5517017E-07 -0.2963251E-05 -0.6925414E-08 -0.5584313E-06
 877953. -0.6519943E-06 -0.4326247E-04 -0.3919208E-07 -0.2366370E-05 -0.4213344E-08 -0.3593455E-06
 839781. -0.4309308E-06 -0.3098294E-04 -0.2676946E-07 -0.1789681E-05 -0.2490818E-08 -0.2247379E-06
 801609. -0.2753498E-06 -0.2138290E-04 -0.1758970E-07 -0.1289976E-05 -0.1428113E-08 -0.1364090E-06
 763438. -0.1698258E-06 -0.1421812E-04 -0.1111330E-07 -0.8887862E-06 -0.7923013E-09 -0.8020424E-07
 725266. -0.1008876E-06 -0.9098596E-05 -0.6742138E-08 -0.5859296E-06 -0.4241425E-09 -0.4557192E-07
 687094. -0.5757382E-07 -0.5593299E-05 -0.3919198E-08 -0.3694163E-06 -0.2183720E-09 -0.2495221E-07
 648922. -0.3145663E-07 -0.3294567E-05 -0.2176550E-08 -0.2223775E-06 -0.1077033E-09 -0.1311850E-07
 610750. -0.1638744E-07 -0.1853042E-05 -0.1150432E-08 -0.1274620E-06 -0.5064768E-10 -0.6594487E-08
 572578. -0.8098938E-08 -0.9909293E-06 -0.5759527E-09 -0.6929672E-07 -0.2257943E-10 -0.3153214E-08
 534406. -0.3773676E-08 -0.5010665E-06 -0.2714754E-09 -0.3555254E-07 -0.9477221E-11 -0.1425113E-08
 496234. -0.1645044E-08 -0.2379351E-06 -0.1195682E-09 -0.1709979E-07 -0.3713405E-11 -0.6040605E-09
 458062. -0.6644777E-09 -0.1051865E-06 -0.4874282E-10 -0.7645333E-08 -0.1343975E-11 -0.2378099E-09
 419891. -0.2456803E-09 -0.4281451E-07 -0.1817001E-10 -0.3143057E-08 -0.4433409E-12 -0.8589204E-10
 381719. -0.8183799E-10 -0.1581534E-07 -0.6096682E-11 -0.1171243E-08 -0.1310092E-12 -0.2801138E-10
 343547. -0.2405312E-10 -0.5201744E-08 -0.1803394E-11 -0.3881954E-09 -0.3390156E-13 -0.8077526E-11
 305375. -0.6063214E-11 -0.1484381E-08 -0.4571474E-12 -0.1115185E-09 -0.7449298E-14 -0.2001904E-11
 267203. -0.1259666E-11 -0.3543535E-09 -0.9543642E-13 -0.2677534E-10 -0.1331126E-14 -0.4097463E-12
 229031. -0.2034595E-12 -0.6708221E-10 -0.1547858E-13 -0.5093597E-11 -0.1815680E-15 -0.6533000E-13
 190859. -0.2333677E-13 -0.9268726E-11 -0.1781514E-14 -0.7066422E-12 -0.1713771E-16 -0.7411466E-14
 152688. -0.1633505E-14 -0.8133833E-12 -0.1250360E-15 -0.6220820E-13 -0.9497141E-18 -0.5138174E-15
 114516.  0.0000000E+00  0.0000000E+00  0.0000000E+00  0.0000000E+00  0.0000000E+00  0.0000000E+00
  76344.  0.0000000E+00  0.0000000E+00  0.0000000E+00  0.0000000E+00  0.0000000E+00  0.0000000E+00
  38172.  0.0000000E+00  0.0000000E+00  0.0000000E+00  0.0000000E+00  0.0000000E+00  0.0000000E+00
      0.  0.0000000E+00  0.0000000E+00  0.0000000E+00  0.0000000E+00  0.0000000E+00  0.0000000E+00
