       6       39 S      400        100.75010         10.05877          6.66060        249.03439      185    7
6371000. -0.2730192E-01  0.9188714E+00  0.1463943E-02  0.2876586E-01 -0.3311792E-03  0.6473220E-01
6370000. -0.2744433E-01  0.8956232E+00  0.1459215E-02  0.3147532E-01 -0.3413145E-03  0.6441221E-01
6369000. -0.2758305E-01  0.8718140E+00  0.1454063E-02  0.3416879E-01 -0.3513995E-03  0.6408976E-01
6368000. -0.2771798E-01  0.8474489E+00  0.1448489E-02  0.3684540E-01 -0.3614336E-03  0.6376486E-01
6368000. -0.2771798E-01  0.8474489E+00  0.1448489E-02  0.3684540E-01 -0.3614336E-03  0.6376486E-01
6367000. -0.2784905E-01  0.8225331E+00  0.1442497E-02  0.3950425E-01 -0.3714166E-03  0.6343753E-01
6366000. -0.2797616E-01  0.7970719E+00  0.1436089E-02  0.4214447E-01 -0.3813480E-03  0.6310780E-01
6365000. -0.2809924E-01  0.7710713E+00  0.1429268E-02  0.4476518E-01 -0.3912274E-03  0.6277568E-01
6364000. -0.2821819E-01  0.7445368E+00  0.1422037E-02  0.4736551E-01 -0.4010545E-03  0.6244120E-01
6363000. -0.2833294E-01  0.7174747E+00  0.1414400E-02  0.4994459E-01 -0.4108290E-03  0.6210439E-01
6362000. -0.2844340E-01  0.6898912E+00  0.1406360E-02  0.5250160E-01 -0.4205504E-03  0.6176526E-01
6361000. -0.2854948E-01  0.6617928E+00  0.1397920E-02  0.5503567E-01 -0.4302184E-03  0.6142384E-01
6360000. -0.2865112E-01  0.6331862E+00  0.1389084E-02  0.5754598E-01 -0.4398326E-03  0.6108015E-01
6359000. -0.2874823E-01  0.6040781E+00  0.1379856E-02  0.6003169E-01 -0.4493927E-03  0.6073423E-01
6358000. -0.2884073E-01  0.5744758E+00  0.1370240E-02  0.6249198E-01 -0.4588983E-03  0.6038608E-01
6357000. -0.2892854E-01  0.5443865E+00  0.1360240E-02  0.6492605E-01 -0.4683491E-03  0.6003574E-01
6356000. -0.2901160E-01  0.5138175E+00  0.1349860E-02  0.6733310E-01 -0.4777448E-03  0.5968324E-01
6356000. -0.2901160E-01  0.5251319E+00  0.1349860E-02  0.5270578E-01 -0.4777448E-03  0.6599583E-01
6355000. -0.2909231E-01  0.5032051E+00  0.1341480E-02  0.5407320E-01 -0.4880718E-03  0.6559113E-01
6354000. -0.2916955E-01  0.4810105E+00  0.1332886E-02  0.5542610E-01 -0.4983353E-03  0.6518581E-01
6353000. -0.2924329E-01  0.4585519E+00  0.1324081E-02  0.5676420E-01 -0.5085351E-03  0.6477989E-01
6352000. -0.2931349E-01  0.4358332E+00  0.1315067E-02  0.5808723E-01 -0.5186711E-03  0.6437337E-01
6351000. -0.2938010E-01  0.4128584E+00  0.1305847E-02  0.5939491E-01 -0.5287433E-03  0.6396626E-01
6350000. -0.2944308E-01  0.3896316E+00  0.1296423E-02  0.6068700E-01 -0.5387515E-03  0.6355859E-01
6349000. -0.2950240E-01  0.3661570E+00  0.1286797E-02  0.6196321E-01 -0.5486957E-03  0.6315035E-01
6348000. -0.2955801E-01  0.3424386E+00  0.1276972E-02  0.6322330E-01 -0.5585758E-03  0.6274156E-01
6347000. -0.2960989E-01  0.3184807E+00  0.1266950E-02  0.6446701E-01 -0.5683916E-03  0.6233224E-01
6346600. -0.2962958E-01  0.3088315E+00  0.1262887E-02  0.6495985E-01 -0.5723000E-03  0.6216836E-01
6346600. -0.2962958E-01  0.5726070E+00  0.1262887E-02  0.5393135E-01 -0.5723000E-03  0.7249976E-01
6318800. -0.3093783E-01  0.9404888E-02  0.9881756E-03  0.7046684E-01 -0.8646214E-03  0.6155927E-01
6291000. -0.2960562E-01 -0.6262825E+00  0.6622691E-03  0.7717794E-01 -0.1110112E-02  0.5101945E-01
6291000. -0.2960562E-01 -0.6269948E+00  0.6622691E-03  0.7871440E-01 -0.1110112E-02  0.5101945E-01
6263000. -0.2539295E-01 -0.1283294E+01  0.3207982E-03  0.7480270E-01 -0.1311557E-02  0.4069326E-01
6235000. -0.1844586E-01 -0.1857793E+01  0.2042371E-04  0.6025092E-01 -0.1468149E-02  0.3060804E-01
6207000. -0.9295226E-02 -0.2274550E+01 -0.1962382E-03  0.3716536E-01 -0.1580994E-02  0.2079622E-01
6179000.  0.1228635E-02 -0.2474835E+01 -0.2984917E-03  0.8806525E-02 -0.1651482E-02  0.1135361E-01
6151000.  0.1209096E-01 -0.2425529E+01 -0.2717662E-03 -0.2082809E-01 -0.1681560E-02  0.2437710E-02
6151000.  0.1209096E-01 -0.1993050E+01 -0.2717662E-03 -0.1986124E-01 -0.1681560E-02  0.1768772E-02
6128500.  0.1877627E-01 -0.1774266E+01 -0.1688650E-03 -0.3797859E-01 -0.1681724E-02 -0.1587929E-02
6106000.  0.2450092E-01 -0.1452142E+01 -0.7315301E-05 -0.5287682E-01 -0.1670964E-02 -0.4418479E-02
6083500.  0.2893694E-01 -0.1048619E+01  0.1995997E-03 -0.6352463E-01 -0.1651126E-02 -0.6729937E-02
6061000.  0.3184344E-01 -0.5907816E+00  0.4355451E-03 -0.6923260E-01 -0.1624026E-02 -0.8533577E-02
6038500.  0.3308139E-01 -0.1088616E+00  0.6824054E-03 -0.6968495E-01 -0.1591435E-02 -0.9841659E-02
6016000.  0.3262089E-01  0.3659211E+00  0.9216190E-03 -0.6494275E-01 -0.1555082E-02 -0.1066553E-01
5993500.  0.3054093E-01  0.8034610E+00  0.1135474E-02 -0.5542056E-01 -0.1516661E-02 -0.1101395E-01
5971000.  0.2702194E-01  0.1176725E+01  0.1308284E-02 -0.4184129E-01 -0.1477844E-02 -0.1088895E-01
5971000.  0.2702194E-01  0.1132029E+01  0.1308284E-02 -0.4025433E-01 -0.1477844E-02 -0.1442635E-01
5937667.  0.2008073E-01  0.1488672E+01  0.1464620E-02 -0.1911714E-01 -0.1399626E-02 -0.1540131E-01
5904333.  0.1179464E-01  0.1645096E+01  0.1506988E-02  0.2804150E-02 -0.1317258E-02 -0.1604461E-01
5871000.  0.3204452E-02  0.1608071E+01  0.1438713E-02  0.2278134E-01 -0.1232023E-02 -0.1652012E-01
5837667. -0.4742156E-02  0.1404999E+01  0.1275474E-02  0.3884674E-01 -0.1144506E-02 -0.1692891E-01
5804333. -0.1127926E-01  0.1076755E+01  0.1041060E-02  0.4986529E-01 -0.1054906E-02 -0.1731985E-01
5771000. -0.1587387E-01  0.6705993E+00  0.7631407E-03  0.5547881E-01 -0.9632798E-03 -0.1770414E-01
5771000. -0.1587387E-01  0.6706707E+00  0.7631407E-03  0.5547760E-01 -0.9632798E-03 -0.1770414E-01
5701000. -0.1812655E-01 -0.2653808E+00  0.1420440E-03  0.5424302E-01 -0.7602510E-03 -0.1924811E-01
5701000. -0.1812655E-01 -0.2064551E+00  0.1420440E-03  0.4717283E-01 -0.7602510E-03 -0.1413889E-01
5667333. -0.1609421E-01 -0.5536518E+00 -0.9136053E-04  0.4082517E-01 -0.6848440E-03 -0.1434588E-01
5633667. -0.1238550E-01 -0.8384165E+00 -0.2865997E-03  0.3287293E-01 -0.6092426E-03 -0.1420723E-01
5600000. -0.7362834E-02 -0.1049641E+01 -0.4374001E-03  0.2413337E-01 -0.5353591E-03 -0.1368976E-01
5600000. -0.7362834E-02 -0.1049664E+01 -0.4374001E-03  0.2413415E-01 -0.5353591E-03 -0.1368976E-01
5563518. -0.8554709E-03 -0.1208739E+01 -0.5487034E-03  0.1467430E-01 -0.4593737E-03 -0.1282039E-01
5527037.  0.6310115E-02 -0.1279084E+01 -0.6053095E-03  0.5134935E-02 -0.3888207E-03 -0.1180151E-01
5490556.  0.1362245E-01 -0.1260449E+01 -0.6084915E-03 -0.3893780E-02 -0.3244169E-03 -0.1067981E-01
5454074.  0.2058521E-01 -0.1158248E+01 -0.5626528E-03 -0.1191211E-01 -0.2666313E-03 -0.9495693E-02
5417593.  0.2674668E-01 -0.9826844E+00 -0.4747446E-03 -0.1853434E-01 -0.2157191E-03 -0.8285265E-02
5381111.  0.3172539E-01 -0.7476363E+00 -0.3535557E-03 -0.2350302E-01 -0.1717354E-03 -0.7080333E-02
5344630.  0.3522638E-01 -0.4694526E+00 -0.2089897E-03 -0.2668974E-01 -0.1345681E-03 -0.5909163E-02
5308148.  0.3705275E-01 -0.1656622E+00 -0.5131451E-04 -0.2808872E-01 -0.1039508E-03 -0.4796050E-02
5271667.  0.3710834E-01  0.1461559E+00  0.1094686E-03 -0.2780168E-01 -0.7949130E-04 -0.3761710E-02
5235185.  0.3539524E-01  0.4494719E+00  0.2642192E-03 -0.2601779E-01 -0.6068925E-04 -0.2822176E-02
5198704.  0.3200534E-01  0.7295987E+00  0.4050593E-03 -0.2299095E-01 -0.4696601E-04 -0.1989526E-02
5162222.  0.2710730E-01  0.9743931E+00  0.5257080E-03 -0.1901536E-01 -0.3768676E-04 -0.1270763E-02
5125741.  0.2093168E-01  0.1174603E+01  0.6216164E-03 -0.1440307E-01 -0.3218780E-04 -0.6694114E-03
5089259.  0.1375244E-01  0.1324104E+01  0.6900319E-03 -0.9462195E-02 -0.2979799E-04 -0.1843004E-03
5052778.  0.5870532E-02  0.1419842E+01  0.7299064E-03 -0.4480266E-02 -0.2986270E-04  0.1888867E-03
5016296. -0.2404869E-02  0.1461663E+01  0.7417483E-03  0.2904022E-03 -0.3176120E-04  0.4576440E-03
4979815. -0.1077032E-01  0.1451966E+01  0.7273869E-03  0.4641139E-02 -0.3492243E-04  0.6317516E-03
4943333. -0.1894334E-01  0.1395281E+01  0.6897045E-03  0.8413340E-02 -0.3883723E-04  0.7228333E-03
4906852. -0.2667148E-01  0.1297792E+01  0.6323493E-03  0.1149900E-01 -0.4306501E-04  0.7432275E-03
4870370. -0.3374198E-01  0.1166800E+01  0.5594387E-03  0.1384006E-01 -0.4723896E-04  0.7062436E-03
4833889. -0.3998518E-01  0.1010247E+01  0.4752976E-03  0.1542346E-01 -0.5106844E-04  0.6249893E-03
4797407. -0.4527827E-01  0.8362423E+00  0.3842035E-03  0.1627485E-01 -0.5433378E-04  0.5111232E-03
4760926. -0.4954384E-01  0.6526737E+00  0.2902019E-03  0.1645168E-01 -0.5688243E-04  0.3765505E-03
4724444. -0.5274856E-01  0.4668408E+00  0.1969268E-03  0.1603523E-01 -0.5862538E-04  0.2311830E-03
4687963. -0.5489838E-01  0.2852457E+00  0.1075095E-03  0.1512211E-01 -0.5952564E-04  0.8357290E-04
4651482. -0.5603385E-01  0.1133748E+00  0.2449295E-04  0.1381740E-01 -0.5959228E-04 -0.5894220E-04
4615000. -0.5622377E-01 -0.4438183E-01 -0.5018826E-04  0.1222763E-01 -0.5887054E-04 -0.1909668E-03
4578518. -0.5555882E-01 -0.1847544E+00 -0.1151970E-03  0.1045567E-01 -0.5743382E-04 -0.3081436E-03
4542037. -0.5414530E-01 -0.3055772E+00 -0.1697640E-03  0.8596016E-02 -0.5537404E-04 -0.4082935E-03
4505556. -0.5209884E-01 -0.4057171E+00 -0.2136321E-03  0.6731505E-02 -0.5279397E-04 -0.4897064E-03
4469074. -0.4953885E-01 -0.4849542E+00 -0.2469803E-03  0.4931776E-02 -0.4980210E-04 -0.5521191E-03
4432593. -0.4658389E-01 -0.5438432E+00 -0.2703430E-03  0.3252064E-02 -0.4650700E-04 -0.5957029E-03
4396111. -0.4334718E-01 -0.5835786E+00 -0.2845321E-03  0.1733145E-02 -0.4301441E-04 -0.6213975E-03
4359630. -0.3993398E-01 -0.6058311E+00 -0.2905516E-03  0.4021751E-03 -0.3942013E-04 -0.6315208E-03
4323148. -0.3643859E-01 -0.6126078E+00 -0.2895264E-03 -0.7258602E-03 -0.3581003E-04 -0.6272084E-03
4286667. -0.3294355E-01 -0.6061182E+00 -0.2826341E-03 -0.1647267E-02 -0.3225952E-04 -0.6111322E-03
4250185. -0.2951811E-01 -0.5886466E+00 -0.2710478E-03 -0.2366687E-02 -0.2883058E-04 -0.5850007E-03
4213704. -0.2621882E-01 -0.5624614E+00 -0.2558934E-03 -0.2896073E-02 -0.2557526E-04 -0.5508857E-03
4177222. -0.2308914E-01 -0.5297237E+00 -0.2382122E-03 -0.3252172E-02 -0.2253333E-04 -0.5106980E-03
4140741. -0.2016094E-01 -0.4924369E+00 -0.2189406E-03 -0.3455360E-02 -0.1973566E-04 -0.4658512E-03
4104259. -0.1745487E-01 -0.4523926E+00 -0.1988903E-03 -0.3527699E-02 -0.1720436E-04 -0.4178026E-03
4067778. -0.1498227E-01 -0.4111543E+00 -0.1787475E-03 -0.3491570E-02 -0.1495595E-04 -0.3671644E-03
4031296. -0.1274596E-01 -0.3700417E+00 -0.1590687E-03 -0.3368987E-02 -0.1300336E-04 -0.3145025E-03
3994815. -0.1074212E-01 -0.3301376E+00 -0.1402906E-03 -0.3180488E-02 -0.1135844E-04 -0.2596326E-03
3958333. -0.8961189E-02 -0.2922937E+00 -0.1227348E-03 -0.2944803E-02 -0.1003568E-04 -0.2018036E-03
3921852. -0.7389514E-02 -0.2571554E+00 -0.1066243E-03 -0.2678425E-02 -0.9055515E-05 -0.1396764E-03
3885370. -0.6010133E-02 -0.2251780E+00 -0.9209190E-04 -0.2395663E-02 -0.8448820E-05 -0.7087284E-04
3848889. -0.4804099E-02 -0.1966582E+00 -0.7919581E-04 -0.2108962E-02 -0.8263131E-05  0.8052943E-05
3812407. -0.3751057E-02 -0.1717458E+00 -0.6792638E-04 -0.1829097E-02 -0.8569740E-05  0.1020388E-03
3775926. -0.2830270E-02 -0.1504682E+00 -0.5821621E-04 -0.1566125E-02 -0.9473369E-05  0.2179089E-03
3739444. -0.2021091E-02 -0.1327297E+00 -0.4993851E-04 -0.1330557E-02 -0.1112480E-04  0.3650281E-03
3702963. -0.1303880E-02 -0.1183019E+00 -0.4290198E-04 -0.1135119E-02 -0.1373746E-04  0.5561053E-03
3666482. -0.6607199E-03 -0.1067796E+00 -0.3682922E-04 -0.9974859E-03 -0.1760959E-04  0.8082102E-03
3630000. -0.7671651E-04 -0.9749334E-01 -0.3131794E-04 -0.9444882E-03 -0.2315292E-04  0.1144108E-02
3630000. -0.7671651E-04 -0.9749278E-01 -0.3131794E-04 -0.9444769E-03 -0.2315292E-04  0.1144108E-02
3592500.  0.4730815E-03 -0.8937084E-01 -0.2558804E-04 -0.1031059E-02 -0.3117775E-04  0.1604585E-02
3555000.  0.9736142E-03 -0.8031418E-01 -0.1875819E-04 -0.1334370E-02 -0.4234326E-04  0.2218775E-02
3517500.  0.1410065E-02 -0.6685977E-01 -0.9212262E-05 -0.1980522E-02 -0.5769547E-04  0.3036122E-02
3480000.  0.1740876E-02 -0.4317655E-01  0.5627586E-05 -0.3176800E-02 -0.7859477E-04  0.4113481E-02
3480000.  0.1740876E-02  0.8618468E-01  0.5933714E-04  0.3077439E-02 -0.7859477E-04 -0.1362596E-02
3409422.  0.9908932E-03  0.5174398E-01  0.3295441E-04  0.1789658E-02 -0.5813230E-04 -0.2030087E-02
3338844.  0.5475283E-03  0.3004021E-01  0.1781599E-04  0.1010634E-02 -0.3729072E-04 -0.1658763E-02
3268266.  0.2938811E-03  0.1688847E-01  0.9377677E-05  0.5545588E-03 -0.2193995E-04 -0.1117698E-02
3197688.  0.1532793E-03  0.9203669E-02  0.4805987E-05  0.2958072E-03 -0.1212720E-04 -0.6780722E-03
3127109.  0.7769782E-04  0.4865210E-02  0.2397831E-05  0.1534126E-03 -0.6375332E-05 -0.3829871E-03
3056531.  0.3827786E-04  0.2495660E-02  0.1164408E-05  0.7736067E-04 -0.3209693E-05 -0.2046610E-03
2985953.  0.1832378E-04  0.1242422E-02  0.5501428E-06  0.3792418E-04 -0.1553818E-05 -0.1043766E-03
2915375.  0.8520466E-05  0.6002368E-03  0.2527634E-06  0.1806822E-04 -0.7250298E-06 -0.5105820E-04
2844797.  0.3846640E-05  0.2813413E-03  0.1128634E-06  0.8362232E-05 -0.3265266E-06 -0.2402703E-04
2774219.  0.1684987E-05  0.1278832E-03  0.4894080E-07  0.3757327E-05 -0.1420261E-06 -0.1089517E-04
2703641.  0.7156054E-06  0.5633802E-04  0.2059168E-07  0.1637821E-05 -0.5967056E-07 -0.4764634E-05
2633062.  0.2943819E-06  0.2403594E-04  0.8398047E-08  0.6919896E-06 -0.2420877E-07 -0.2009937E-05
2562484.  0.1171816E-06  0.9922049E-05  0.3316278E-08  0.2831045E-06 -0.9478946E-08 -0.8177283E-06
2491906.  0.4508021E-07  0.3958615E-05  0.1266340E-08  0.1120196E-06 -0.3578801E-08 -0.3206649E-06
2421328.  0.1673761E-07  0.1524543E-05  0.4669345E-09  0.4281171E-07 -0.1301412E-08 -0.1210932E-06
2350750.  0.5988359E-08  0.5659322E-06  0.1659873E-09  0.1577981E-07 -0.4551929E-09 -0.4398472E-07
2280172.  0.2060979E-08  0.2021657E-06  0.5678490E-10  0.5599878E-08 -0.1528897E-09 -0.1534507E-07
2209594.  0.6809970E-09  0.6936938E-07  0.1865818E-10  0.1909733E-08 -0.4922131E-10 -0.5133042E-08
2139016.  0.2155645E-09  0.2281629E-07  0.5875229E-11  0.6245479E-09 -0.1515640E-10 -0.1643068E-08
2068438.  0.6520993E-10  0.7176759E-08  0.1768609E-11  0.1954036E-09 -0.4453069E-11 -0.5021340E-09
1997859.  0.1880038E-10  0.2153160E-08  0.5075642E-12  0.5833358E-10 -0.1244955E-11 -0.1461277E-09
1927281.  0.5150276E-11  0.6143699E-09  0.1384478E-12  0.1656740E-10 -0.3301882E-12 -0.4037692E-10
1856703.  0.1336069E-11  0.1661648E-09  0.3576915E-13  0.4461747E-11 -0.8278689E-13 -0.1055802E-10
1786125.  0.3271337E-12  0.4241752E-10  0.8714876E-14  0.1135775E-11 -0.1953496E-13 -0.2604362E-11
1715547.  0.0000000E+00  0.0000000E+00  0.0000000E+00  0.0000000E+00  0.0000000E+00  0.0000000E+00
1644969.  0.0000000E+00  0.0000000E+00  0.0000000E+00  0.0000000E+00  0.0000000E+00  0.0000000E+00
1574391.  0.0000000E+00  0.0000000E+00  0.0000000E+00  0.0000000E+00  0.0000000E+00  0.0000000E+00
1503812.  0.0000000E+00  0.0000000E+00  0.0000000E+00  0.0000000E+00  0.0000000E+00  0.0000000E+00
1433234.  0.0000000E+00  0.0000000E+00  0.0000000E+00  0.0000000E+00  0.0000000E+00  0.0000000E+00
1362656.  0.0000000E+00  0.0000000E+00  0.0000000E+00  0.0000000E+00  0.0000000E+00  0.0000000E+00
1292078.  0.0000000E+00  0.0000000E+00  0.0000000E+00  0.0000000E+00  0.0000000E+00  0.0000000E+00
1221500.  0.0000000E+00  0.0000000E+00  0.0000000E+00  0.0000000E+00  0.0000000E+00  0.0000000E+00
1221500.  0.0000000E+00  0.0000000E+00  0.0000000E+00  0.0000000E+00  0.0000000E+00  0.0000000E+00
1183328.  0.0000000E+00  0.0000000E+00  0.0000000E+00  0.0000000E+00  0.0000000E+00  0.0000000E+00
1145156.  0.0000000E+00  0.0000000E+00  0.0000000E+00  0.0000000E+00  0.0000000E+00  0.0000000E+00
1106984.  0.0000000E+00  0.0000000E+00  0.0000000E+00  0.0000000E+00  0.0000000E+00  0.0000000E+00
1068812.  0.0000000E+00  0.0000000E+00  0.0000000E+00  0.0000000E+00  0.0000000E+00  0.0000000E+00
1030641.  0.0000000E+00  0.0000000E+00  0.0000000E+00  0.0000000E+00  0.0000000E+00  0.0000000E+00
 992469.  0.0000000E+00  0.0000000E+00  0.0000000E+00  0.0000000E+00  0.0000000E+00  0.0000000E+00
 954297.  0.0000000E+00  0.0000000E+00  0.0000000E+00  0.0000000E+00  0.0000000E+00  0.0000000E+00
 916125.  0.0000000E+00  0.0000000E+00  0.0000000E+00  0.0000000E+00  0.0000000E+00  0.0000000E+00
 877953.  0.0000000E+00  0.0000000E+00  0.0000000E+00  0.0000000E+00  0.0000000E+00  0.0000000E+00
 839781.  0.0000000E+00  0.0000000E+00  0.0000000E+00  0.0000000E+00  0.0000000E+00  0.0000000E+00
 801609.  0.0000000E+00  0.0000000E+00  0.0000000E+00  0.0000000E+00  0.0000000E+00  0.0000000E+00
 763438.  0.0000000E+00  0.0000000E+00  0.0000000E+00  0.0000000E+00  0.0000000E+00  0.0000000E+00
 725266.  0.0000000E+00  0.0000000E+00  0.0000000E+00  0.0000000E+00  0.0000000E+00  0.0000000E+00
 687094.  0.0000000E+00  0.0000000E+00  0.0000000E+00  0.0000000E+00  0.0000000E+00  0.0000000E+00
 648922.  0.0000000E+00  0.0000000E+00  0.0000000E+00  0.0000000E+00  0.0000000E+00  0.0000000E+00
 610750.  0.0000000E+00  0.0000000E+00  0.0000000E+00  0.0000000E+00  0.0000000E+00  0.0000000E+00
 572578.  0.0000000E+00  0.0000000E+00  0.0000000E+00  0.0000000E+00  0.0000000E+00  0.0000000E+00
 534406.  0.0000000E+00  0.0000000E+00  0.0000000E+00  0.0000000E+00  0.0000000E+00  0.0000000E+00
 496234.  0.0000000E+00  0.0000000E+00  0.0000000E+00  0.0000000E+00  0.0000000E+00  0.0000000E+00
 458062.  0.0000000E+00  0.0000000E+00  0.0000000E+00  0.0000000E+00  0.0000000E+00  0.0000000E+00
 419891.  0.0000000E+00  0.0000000E+00  0.0000000E+00  0.0000000E+00  0.0000000E+00  0.0000000E+00
 381719.  0.0000000E+00  0.0000000E+00  0.0000000E+00  0.0000000E+00  0.0000000E+00  0.0000000E+00
 343547.  0.0000000E+00  0.0000000E+00  0.0000000E+00  0.0000000E+00  0.0000000E+00  0.0000000E+00
 305375.  0.0000000E+00  0.0000000E+00  0.0000000E+00  0.0000000E+00  0.0000000E+00  0.0000000E+00
 267203.  0.0000000E+00  0.0000000E+00  0.0000000E+00  0.0000000E+00  0.0000000E+00  0.0000000E+00
 229031.  0.0000000E+00  0.0000000E+00  0.0000000E+00  0.0000000E+00  0.0000000E+00  0.0000000E+00
 190859.  0.0000000E+00  0.0000000E+00  0.0000000E+00  0.0000000E+00  0.0000000E+00  0.0000000E+00
 152688.  0.0000000E+00  0.0000000E+00  0.0000000E+00  0.0000000E+00  0.0000000E+00  0.0000000E+00
 114516.  0.0000000E+00  0.0000000E+00  0.0000000E+00  0.0000000E+00  0.0000000E+00  0.0000000E+00
  76344.  0.0000000E+00  0.0000000E+00  0.0000000E+00  0.0000000E+00  0.0000000E+00  0.0000000E+00
  38172.  0.0000000E+00  0.0000000E+00  0.0000000E+00  0.0000000E+00  0.0000000E+00  0.0000000E+00
      0.  0.0000000E+00  0.0000000E+00  0.0000000E+00  0.0000000E+00  0.0000000E+00  0.0000000E+00
