       1       22 S      118        236.38831          7.52626          5.82147        155.62810      185    7
6371000.  0.1300675E+00  0.7216603E+00  0.4140524E-02 -0.1259269E+00 -0.8479749E-02 -0.5024255E-01
6370000.  0.1299525E+00  0.7430187E+00  0.4160213E-02 -0.1249389E+00 -0.8471888E-02 -0.4991292E-01
6369000.  0.1298342E+00  0.7643151E+00  0.4179745E-02 -0.1239396E+00 -0.8464080E-02 -0.4958037E-01
6368000.  0.1297126E+00  0.7855485E+00  0.4199119E-02 -0.1229292E+00 -0.8456324E-02 -0.4924491E-01
6368000.  0.1297126E+00  0.7855485E+00  0.4199119E-02 -0.1229292E+00 -0.8456324E-02 -0.4924491E-01
6367000.  0.1295876E+00  0.8067179E+00  0.4218334E-02 -0.1219076E+00 -0.8448621E-02 -0.4890653E-01
6366000.  0.1294593E+00  0.8278223E+00  0.4237388E-02 -0.1208750E+00 -0.8440972E-02 -0.4856521E-01
6365000.  0.1293277E+00  0.8488607E+00  0.4256279E-02 -0.1198313E+00 -0.8433376E-02 -0.4822096E-01
6364000.  0.1291928E+00  0.8698320E+00  0.4275005E-02 -0.1187766E+00 -0.8425835E-02 -0.4787376E-01
6363000.  0.1290547E+00  0.8907353E+00  0.4293565E-02 -0.1177110E+00 -0.8418348E-02 -0.4752361E-01
6362000.  0.1289132E+00  0.9115697E+00  0.4311957E-02 -0.1166346E+00 -0.8410916E-02 -0.4717049E-01
6361000.  0.1287685E+00  0.9323339E+00  0.4330179E-02 -0.1155473E+00 -0.8403540E-02 -0.4681442E-01
6360000.  0.1286206E+00  0.9530272E+00  0.4348229E-02 -0.1144492E+00 -0.8396219E-02 -0.4645536E-01
6359000.  0.1284693E+00  0.9736486E+00  0.4366106E-02 -0.1133405E+00 -0.8388957E-02 -0.4609333E-01
6358000.  0.1283149E+00  0.9941970E+00  0.4383809E-02 -0.1122210E+00 -0.8381750E-02 -0.4572831E-01
6357000.  0.1281572E+00  0.1014671E+01  0.4401335E-02 -0.1110910E+00 -0.8374602E-02 -0.4536030E-01
6356000.  0.1279964E+00  0.1035071E+01  0.4418682E-02 -0.1099504E+00 -0.8367511E-02 -0.4498929E-01
6356000.  0.1279964E+00  0.8492692E+00  0.4418682E-02 -0.1154679E+00 -0.8367511E-02 -0.7283981E-01
6355000.  0.1278619E+00  0.8648692E+00  0.4436765E-02 -0.1149439E+00 -0.8356099E-02 -0.7256918E-01
6354000.  0.1277249E+00  0.8804360E+00  0.4454765E-02 -0.1144139E+00 -0.8344729E-02 -0.7229722E-01
6353000.  0.1275855E+00  0.8959693E+00  0.4472682E-02 -0.1138782E+00 -0.8333404E-02 -0.7202395E-01
6352000.  0.1274436E+00  0.9114684E+00  0.4490514E-02 -0.1133366E+00 -0.8322120E-02 -0.7174936E-01
6351000.  0.1272993E+00  0.9269330E+00  0.4508261E-02 -0.1127893E+00 -0.8310880E-02 -0.7147345E-01
6350000.  0.1271526E+00  0.9423624E+00  0.4525921E-02 -0.1122361E+00 -0.8299683E-02 -0.7119621E-01
6349000.  0.1270035E+00  0.9577563E+00  0.4543494E-02 -0.1116772E+00 -0.8288530E-02 -0.7091764E-01
6348000.  0.1268520E+00  0.9731140E+00  0.4560979E-02 -0.1111126E+00 -0.8277420E-02 -0.7063773E-01
6347000.  0.1266980E+00  0.9884352E+00  0.4578374E-02 -0.1105422E+00 -0.8266355E-02 -0.7035649E-01
6346600.  0.1266358E+00  0.9945533E+00  0.4585307E-02 -0.1103125E+00 -0.8261941E-02 -0.7024362E-01
6346600.  0.1266358E+00  0.1002530E+01  0.4585307E-02 -0.1142781E+00 -0.8261941E-02 -0.1143997E+00
6318800.  0.1214870E+00  0.1355813E+01  0.5069596E-02 -0.1072140E+00 -0.7776275E-02 -0.1081953E+00
6291000.  0.1148224E+00  0.1696144E+01  0.5516858E-02 -0.9732574E-01 -0.7317820E-02 -0.1019194E+00
6291000.  0.1148224E+00  0.1743752E+01  0.5516858E-02 -0.9679886E-01 -0.7317820E-02 -0.1019194E+00
6263000.  0.1064292E+00  0.2071248E+01  0.5911864E-02 -0.8248419E-01 -0.6885181E-02 -0.9492431E-01
6235000.  0.9666204E-01  0.2367777E+01  0.6237916E-02 -0.6546520E-01 -0.6483824E-02 -0.8767493E-01
6207000.  0.8567297E-01  0.2626116E+01  0.6483767E-02 -0.4604165E-01 -0.6114982E-02 -0.8011892E-01
6179000.  0.7364481E-01  0.2839565E+01  0.6639610E-02 -0.2456900E-01 -0.5780116E-02 -0.7220554E-01
6151000.  0.6078834E-01  0.3002096E+01  0.6697314E-02 -0.1452952E-02 -0.5480901E-02 -0.6388703E-01
6151000.  0.6078834E-01  0.2685491E+01  0.6697314E-02 -0.8182023E-02 -0.5480901E-02 -0.6725018E-01
6128500.  0.5118477E-01  0.2749157E+01  0.6704286E-02  0.4235541E-02 -0.5249158E-02 -0.6399355E-01
6106000.  0.4140060E-01  0.2787781E+01  0.6667479E-02  0.1658680E-01 -0.5028854E-02 -0.6077318E-01
6083500.  0.3152399E-01  0.2801551E+01  0.6587368E-02  0.2873728E-01 -0.4819857E-02 -0.5759034E-01
6061000.  0.2164207E-01  0.2790873E+01  0.6464887E-02  0.4056184E-01 -0.4622034E-02 -0.5444494E-01
6038500.  0.1184012E-01  0.2756382E+01  0.6301391E-02  0.5194661E-01 -0.4435257E-02 -0.5133393E-01
6016000.  0.2200803E-02  0.2698921E+01  0.6098616E-02  0.6278942E-01 -0.4259414E-02 -0.4825212E-01
5993500. -0.7196494E-02  0.2619498E+01  0.5858641E-02  0.7299977E-01 -0.4094413E-02 -0.4519232E-01
5971000. -0.1627626E-01  0.2519299E+01  0.5583839E-02  0.8250047E-01 -0.3940193E-02 -0.4214507E-01
5971000. -0.1627626E-01  0.2376592E+01  0.5583839E-02  0.7598124E-01 -0.3940193E-02 -0.4001436E-01
5937667. -0.2820123E-01  0.2178849E+01  0.5169211E-02  0.8208431E-01 -0.3736783E-02 -0.3781322E-01
5904333. -0.3905233E-01  0.1967176E+01  0.4729150E-02  0.8574762E-01 -0.3543801E-02 -0.3601919E-01
5871000. -0.4877401E-01  0.1748281E+01  0.4275660E-02  0.8727525E-01 -0.3359239E-02 -0.3458938E-01
5837667. -0.5734419E-01  0.1527889E+01  0.3819072E-02  0.8698490E-01 -0.3181304E-02 -0.3347835E-01
5804333. -0.6476817E-01  0.1310774E+01  0.3368053E-02  0.8519349E-01 -0.3008440E-02 -0.3264149E-01
5771000. -0.7107317E-01  0.1100808E+01  0.2929678E-02  0.8220629E-01 -0.2839340E-02 -0.3203417E-01
5771000. -0.7107317E-01  0.1100906E+01  0.2929678E-02  0.8220627E-01 -0.2839340E-02 -0.3203417E-01
5701000. -0.8099310E-01  0.7088017E+00  0.2071737E-02  0.7351321E-01 -0.2472119E-02 -0.3490555E-01
5701000. -0.8099310E-01  0.6472279E+00  0.2071737E-02  0.7758235E-01 -0.2472119E-02 -0.1207651E-01
5667333. -0.8393691E-01  0.4696445E+00  0.1677994E-02  0.7145289E-01 -0.2402023E-02 -0.1439528E-01
5633667. -0.8598755E-01  0.3092202E+00  0.1316273E-02  0.6549175E-01 -0.2320602E-02 -0.1636235E-01
5600000. -0.8723514E-01  0.1656255E+00  0.9852918E-03  0.5983608E-01 -0.2229738E-02 -0.1796501E-01
5600000. -0.8723514E-01  0.1656478E+00  0.9852918E-03  0.5983413E-01 -0.2229738E-02 -0.1796501E-01
5563518. -0.8779903E-01  0.3374313E-01  0.6622699E-03  0.5304747E-01 -0.2123015E-02 -0.1922041E-01
5527037. -0.8764894E-01 -0.8379417E-01  0.3770620E-03  0.4663287E-01 -0.2010551E-02 -0.1998692E-01
5490556. -0.8686592E-01 -0.1874152E+00  0.1274789E-03  0.4060680E-01 -0.1894887E-02 -0.2035175E-01
5454074. -0.8552806E-01 -0.2776770E+00 -0.8874401E-04  0.3498030E-01 -0.1778096E-02 -0.2039072E-01
5417593. -0.8371016E-01 -0.3552112E+00 -0.2739049E-03  0.2976015E-01 -0.1661866E-02 -0.2016679E-01
5381111. -0.8148301E-01 -0.4207251E+00 -0.4303446E-03  0.2494697E-01 -0.1547535E-02 -0.1973470E-01
5344630. -0.7891343E-01 -0.4749700E+00 -0.5603795E-03  0.2053811E-01 -0.1436166E-02 -0.1914083E-01
5308148. -0.7606353E-01 -0.5187396E+00 -0.6663112E-03  0.1652577E-01 -0.1328561E-02 -0.1842446E-01
5271667. -0.7299116E-01 -0.5528397E+00 -0.7503785E-03  0.1290041E-01 -0.1225334E-02 -0.1761805E-01
5235185. -0.6974916E-01 -0.5780920E+00 -0.8147646E-03  0.9648560E-02 -0.1126912E-02 -0.1674929E-01
5198704. -0.6638604E-01 -0.5953131E+00 -0.8615616E-03  0.6754713E-02 -0.1033591E-02 -0.1584067E-01
5162222. -0.6294528E-01 -0.6053104E+00 -0.8927718E-03  0.4201153E-02 -0.9455372E-03 -0.1491175E-01
5125741. -0.5946617E-01 -0.6088682E+00 -0.9102891E-03  0.1969060E-02 -0.8628274E-03 -0.1397721E-01
5089259. -0.5598321E-01 -0.6067467E+00 -0.9158974E-03  0.3814286E-04 -0.7854508E-03 -0.1305016E-01
5052778. -0.5252701E-01 -0.5996726E+00 -0.9112617E-03 -0.1612446E-02 -0.7133395E-03 -0.1214034E-01
5016296. -0.4912376E-01 -0.5883343E+00 -0.8979260E-03 -0.3003958E-02 -0.6463672E-03 -0.1125579E-01
4979815. -0.4579616E-01 -0.5733813E+00 -0.8773137E-03 -0.4157688E-02 -0.5843740E-03 -0.1040269E-01
4943333. -0.4256300E-01 -0.5554173E+00 -0.8507248E-03 -0.5094706E-02 -0.5271647E-03 -0.9585015E-02
4906852. -0.3944005E-01 -0.5350050E+00 -0.8193413E-03 -0.5835999E-02 -0.4745275E-03 -0.8806761E-02
4870370. -0.3643968E-01 -0.5126573E+00 -0.7842239E-03 -0.6401816E-02 -0.4262283E-03 -0.8069606E-02
4833889. -0.3357177E-01 -0.4888419E+00 -0.7463247E-03 -0.6811114E-02 -0.3820311E-03 -0.7374668E-02
4797407. -0.3084334E-01 -0.4639827E+00 -0.7064834E-03 -0.7082847E-02 -0.3416883E-03 -0.6723048E-02
4760926. -0.2825939E-01 -0.4384580E+00 -0.6654389E-03 -0.7234479E-02 -0.3049547E-03 -0.6114302E-02
4724444. -0.2582264E-01 -0.4125998E+00 -0.6238301E-03 -0.7282230E-02 -0.2715843E-03 -0.5547944E-02
4687963. -0.2353426E-01 -0.3867029E+00 -0.5822093E-03 -0.7241517E-02 -0.2413384E-03 -0.5023105E-02
4651482. -0.2139367E-01 -0.3610195E+00 -0.5410410E-03 -0.7126427E-02 -0.2139822E-03 -0.4538427E-02
4615000. -0.1939896E-01 -0.3357645E+00 -0.5007123E-03 -0.6949931E-02 -0.1892888E-03 -0.4092512E-02
4578518. -0.1754719E-01 -0.3111190E+00 -0.4615418E-03 -0.6723750E-02 -0.1670420E-03 -0.3683662E-02
4542037. -0.1583449E-01 -0.2872320E+00 -0.4237841E-03 -0.6458492E-02 -0.1470344E-03 -0.3310337E-02
4505556. -0.1425611E-01 -0.2642211E+00 -0.3876343E-03 -0.6163696E-02 -0.1290673E-03 -0.2970674E-02
4469074. -0.1280672E-01 -0.2421766E+00 -0.3532359E-03 -0.5847715E-02 -0.1129524E-03 -0.2662918E-02
4432593. -0.1148066E-01 -0.2211661E+00 -0.3206905E-03 -0.5517980E-02 -0.9851318E-04 -0.2385250E-02
4396111. -0.1027181E-01 -0.2012326E+00 -0.2900563E-03 -0.5180867E-02 -0.8558174E-04 -0.2135904E-02
4359630. -0.9173981E-02 -0.1824016E+00 -0.2613608E-03 -0.4841923E-02 -0.7400069E-04 -0.1913441E-02
4323148. -0.8180782E-02 -0.1646786E+00 -0.2345998E-03 -0.4505683E-02 -0.6362046E-04 -0.1716139E-02
4286667. -0.7285933E-02 -0.1480571E+00 -0.2097473E-03 -0.4176139E-02 -0.5430120E-04 -0.1542754E-02
4250185. -0.6483136E-02 -0.1325142E+00 -0.1867548E-03 -0.3856307E-02 -0.4590931E-04 -0.1391938E-02
4213704. -0.5766343E-02 -0.1180188E+00 -0.1655602E-03 -0.3548686E-02 -0.3831920E-04 -0.1262634E-02
4177222. -0.5129636E-02 -0.1045281E+00 -0.1460874E-03 -0.3255011E-02 -0.3140984E-04 -0.1153960E-02
4140741. -0.4567431E-02 -0.9199413E-01 -0.1282536E-03 -0.2976552E-02 -0.2506566E-04 -0.1065206E-02
4104259. -0.4074375E-02 -0.8036155E-01 -0.1119687E-03 -0.2713939E-02 -0.1917352E-04 -0.9959611E-03
4067778. -0.3645499E-02 -0.6957222E-01 -0.9714226E-04 -0.2467235E-02 -0.1362287E-04 -0.9459700E-03
4031296. -0.3276124E-02 -0.5956495E-01 -0.8368357E-04 -0.2235966E-02 -0.8303004E-05 -0.9153407E-03
3994815. -0.2961966E-02 -0.5027930E-01 -0.7150778E-04 -0.2019036E-02 -0.3102459E-05 -0.9044281E-03
3958333. -0.2699049E-02 -0.4165594E-01 -0.6053686E-04 -0.1814670E-02  0.2093734E-05 -0.9139192E-03
3921852. -0.2483750E-02 -0.3364114E-01 -0.5070643E-04 -0.1620283E-02  0.7405042E-05 -0.9448909E-03
3885370. -0.2312710E-02 -0.2618855E-01 -0.4196854E-04 -0.1432304E-02  0.1295863E-04 -0.9987589E-03
3848889. -0.2182822E-02 -0.1926535E-01 -0.3429992E-04 -0.1245976E-02  0.1889033E-04 -0.1077344E-02
3812407. -0.2091099E-02 -0.1285641E-01 -0.2770820E-04 -0.1054866E-02  0.2534814E-04 -0.1182860E-02
3775926. -0.2034583E-02 -0.6974230E-02 -0.2224444E-04 -0.8504397E-03  0.3249319E-04 -0.1317907E-02
3739444. -0.2010132E-02 -0.1668738E-02 -0.1801555E-04 -0.6213356E-03  0.4050329E-04 -0.1485438E-02
3702963. -0.2014177E-02  0.2955914E-02 -0.1520441E-04 -0.3523769E-03  0.4957296E-04 -0.1688609E-02
3666482. -0.2042349E-02  0.6720741E-02 -0.1409451E-04 -0.2322199E-04  0.5991586E-04 -0.1930678E-02
3630000. -0.2088971E-02  0.9341157E-02 -0.1510502E-04  0.3934811E-03  0.7176374E-04 -0.2214601E-02
3630000. -0.2088971E-02  0.9341151E-02 -0.1510502E-04  0.3935168E-03  0.7176374E-04 -0.2214601E-02
3592500. -0.2148254E-02  0.1048582E-01 -0.1894483E-04  0.9375309E-03  0.8576860E-04 -0.2551723E-02
3555000. -0.2207917E-02  0.9329421E-02 -0.2650941E-04  0.1669617E-02  0.1018933E-03 -0.2934842E-02
3517500. -0.2251580E-02  0.4844640E-02 -0.3911228E-04  0.2663858E-02  0.1204041E-03 -0.3361762E-02
3480000. -0.2255547E-02 -0.4453634E-02 -0.5858028E-04  0.4022091E-02  0.1415401E-03 -0.3825039E-02
3480000. -0.2255547E-02 -0.7381687E-01 -0.1164330E-03 -0.3914269E-02  0.1415401E-03  0.3269984E-02
3409422. -0.1559908E-02 -0.5280263E-01 -0.7976777E-04 -0.2764968E-02  0.1074427E-03  0.2849736E-02
3338844. -0.1065445E-02 -0.3726808E-01 -0.5401555E-04 -0.1929571E-02  0.7882784E-04  0.2310076E-02
3268266. -0.7186296E-03 -0.2595658E-01 -0.3614644E-04 -0.1330260E-02  0.5621201E-04  0.1781257E-02
3197688. -0.4785782E-03 -0.1783999E-01 -0.2389811E-04 -0.9058590E-03  0.3910044E-04  0.1322052E-02
3127109. -0.3146144E-03 -0.1209898E-01 -0.1560584E-04 -0.6091869E-03  0.2659232E-04  0.9510375E-03
3056531. -0.2041124E-03 -0.8095687E-02 -0.1006231E-04 -0.4044904E-03  0.1771062E-04  0.6659614E-03
2985953. -0.1306417E-03 -0.5343380E-02 -0.6403669E-05 -0.2650960E-03  0.1156251E-04  0.4552062E-03
2915375. -0.8246146E-04 -0.3477891E-02 -0.4020648E-05 -0.1714283E-03  0.7404252E-05  0.3042716E-03
2844797. -0.5130830E-04 -0.2231542E-02 -0.2489392E-05 -0.1093382E-03  0.4652259E-05  0.1991196E-03
2774219. -0.3145410E-04 -0.1410933E-02 -0.1519116E-05 -0.6874994E-04  0.2868423E-05  0.1276655E-03
2703641. -0.1898801E-04 -0.8786467E-03 -0.9131359E-06 -0.4259484E-04  0.1735320E-05  0.8022322E-04
2633062. -0.1128035E-04 -0.5386309E-03 -0.5403109E-06 -0.2598787E-04  0.1029817E-05  0.4941223E-04
2562484. -0.6590446E-05 -0.3248459E-03 -0.3144951E-06 -0.1560416E-04  0.5992654E-06  0.2982866E-04
2491906. -0.3783754E-05 -0.1926062E-03 -0.1799298E-06 -0.9214030E-05  0.3417616E-06  0.1764277E-04
2421328. -0.2132954E-05 -0.1121855E-03 -0.1010970E-06 -0.5346287E-05  0.1908910E-06  0.1021954E-04
2350750. -0.1179472E-05 -0.6413642E-04 -0.5573255E-07 -0.3045564E-05  0.1043432E-06  0.5793735E-05
2280172. -0.6391381E-06 -0.3595508E-04 -0.3011360E-07 -0.1701660E-05  0.5576491E-07  0.3212306E-05
2209594. -0.3390085E-06 -0.1974438E-04 -0.1592946E-07 -0.9315353E-06  0.2910837E-07  0.1740236E-05
2139016. -0.1757882E-06 -0.1060825E-04 -0.8238975E-08 -0.4990331E-06  0.1482223E-07  0.9201686E-06
2068438. -0.8898720E-07 -0.5569201E-05 -0.4160740E-08 -0.2612695E-06  0.7352884E-08  0.4743059E-06
1997859. -0.4390849E-07 -0.2852689E-05 -0.2048391E-08 -0.1334859E-06  0.3547974E-08  0.2379937E-06
1927281. -0.2108210E-07 -0.1423411E-05 -0.9814261E-09 -0.6644557E-07  0.1662419E-08  0.1160648E-06
1856703. -0.9830711E-08 -0.6906022E-06 -0.4567335E-09 -0.3216497E-07  0.7548969E-09  0.5491220E-07
1786125. -0.4442497E-08 -0.3251336E-06 -0.2060113E-09 -0.1511117E-07  0.3314888E-09  0.2515215E-07
1715547. -0.1940841E-08 -0.1481957E-06 -0.8984388E-10 -0.6874004E-08  0.1404124E-09  0.1112765E-07
1644969. -0.8174986E-09 -0.6522668E-07 -0.3778054E-10 -0.3019880E-08  0.5721048E-10  0.4742386E-08
1574391. -0.3309555E-09 -0.2764130E-07 -0.1527169E-10 -0.1277478E-08  0.2235059E-10  0.1941057E-08
1503812. -0.1283115E-09 -0.1124122E-07 -0.5913418E-11 -0.5185597E-09  0.8341679E-11  0.7603457E-09
1433234. -0.4741635E-10 -0.4373998E-08 -0.2186088E-11 -0.2010639E-09  0.2961927E-11  0.2839096E-09
1362656. -0.1650957E-10 -0.1633797E-08 -0.7730004E-12 -0.7357842E-10  0.9959894E-12  0.1005692E-09
1292078. -0.4966387E-11 -0.6317720E-09 -0.2784530E-12 -0.2311686E-10  0.3158755E-12  0.3360043E-10
1221500.  0.4117788E-12 -0.4508680E-09 -0.1726205E-12  0.3046808E-11  0.9410671E-13  0.1063485E-10
1221500.  0.4117788E-12  0.1531122E-11 -0.1240346E-14 -0.2154191E-11  0.9410671E-13  0.1045646E-10
1183328.  0.3472173E-12  0.1629273E-10  0.5664464E-14 -0.4262017E-12  0.4781126E-13  0.5496740E-11
1145156.  0.2444227E-12  0.1671317E-10  0.6097340E-14  0.1625473E-12  0.2371942E-13  0.2823996E-11
1106984.  0.1552480E-12  0.1278777E-10  0.4633215E-14  0.2806359E-12  0.1147489E-13  0.1415415E-11
1068812.  0.0000000E+00  0.0000000E+00  0.0000000E+00  0.0000000E+00  0.0000000E+00  0.0000000E+00
1030641.  0.0000000E+00  0.0000000E+00  0.0000000E+00  0.0000000E+00  0.0000000E+00  0.0000000E+00
 992469.  0.0000000E+00  0.0000000E+00  0.0000000E+00  0.0000000E+00  0.0000000E+00  0.0000000E+00
 954297.  0.0000000E+00  0.0000000E+00  0.0000000E+00  0.0000000E+00  0.0000000E+00  0.0000000E+00
 916125.  0.0000000E+00  0.0000000E+00  0.0000000E+00  0.0000000E+00  0.0000000E+00  0.0000000E+00
 877953.  0.0000000E+00  0.0000000E+00  0.0000000E+00  0.0000000E+00  0.0000000E+00  0.0000000E+00
 839781.  0.0000000E+00  0.0000000E+00  0.0000000E+00  0.0000000E+00  0.0000000E+00  0.0000000E+00
 801609.  0.0000000E+00  0.0000000E+00  0.0000000E+00  0.0000000E+00  0.0000000E+00  0.0000000E+00
 763438.  0.0000000E+00  0.0000000E+00  0.0000000E+00  0.0000000E+00  0.0000000E+00  0.0000000E+00
 725266.  0.0000000E+00  0.0000000E+00  0.0000000E+00  0.0000000E+00  0.0000000E+00  0.0000000E+00
 687094.  0.0000000E+00  0.0000000E+00  0.0000000E+00  0.0000000E+00  0.0000000E+00  0.0000000E+00
 648922.  0.0000000E+00  0.0000000E+00  0.0000000E+00  0.0000000E+00  0.0000000E+00  0.0000000E+00
 610750.  0.0000000E+00  0.0000000E+00  0.0000000E+00  0.0000000E+00  0.0000000E+00  0.0000000E+00
 572578.  0.0000000E+00  0.0000000E+00  0.0000000E+00  0.0000000E+00  0.0000000E+00  0.0000000E+00
 534406.  0.0000000E+00  0.0000000E+00  0.0000000E+00  0.0000000E+00  0.0000000E+00  0.0000000E+00
 496234.  0.0000000E+00  0.0000000E+00  0.0000000E+00  0.0000000E+00  0.0000000E+00  0.0000000E+00
 458062.  0.0000000E+00  0.0000000E+00  0.0000000E+00  0.0000000E+00  0.0000000E+00  0.0000000E+00
 419891.  0.0000000E+00  0.0000000E+00  0.0000000E+00  0.0000000E+00  0.0000000E+00  0.0000000E+00
 381719.  0.0000000E+00  0.0000000E+00  0.0000000E+00  0.0000000E+00  0.0000000E+00  0.0000000E+00
 343547.  0.0000000E+00  0.0000000E+00  0.0000000E+00  0.0000000E+00  0.0000000E+00  0.0000000E+00
 305375.  0.0000000E+00  0.0000000E+00  0.0000000E+00  0.0000000E+00  0.0000000E+00  0.0000000E+00
 267203.  0.0000000E+00  0.0000000E+00  0.0000000E+00  0.0000000E+00  0.0000000E+00  0.0000000E+00
 229031.  0.0000000E+00  0.0000000E+00  0.0000000E+00  0.0000000E+00  0.0000000E+00  0.0000000E+00
 190859.  0.0000000E+00  0.0000000E+00  0.0000000E+00  0.0000000E+00  0.0000000E+00  0.0000000E+00
 152688.  0.0000000E+00  0.0000000E+00  0.0000000E+00  0.0000000E+00  0.0000000E+00  0.0000000E+00
 114516.  0.0000000E+00  0.0000000E+00  0.0000000E+00  0.0000000E+00  0.0000000E+00  0.0000000E+00
  76344.  0.0000000E+00  0.0000000E+00  0.0000000E+00  0.0000000E+00  0.0000000E+00  0.0000000E+00
  38172.  0.0000000E+00  0.0000000E+00  0.0000000E+00  0.0000000E+00  0.0000000E+00  0.0000000E+00
      0.  0.0000000E+00  0.0000000E+00  0.0000000E+00  0.0000000E+00  0.0000000E+00  0.0000000E+00
