       4       43 S      312        107.50830          8.55966          8.64079        426.37381      185    7
6371000. -0.3995644E-04 -0.4279061E-02 -0.5797373E-05  0.3415910E-04  0.3880049E-05 -0.9537364E-04
6370000. -0.3928251E-04 -0.4307763E-02 -0.5802088E-05  0.2590524E-04  0.3894958E-05 -0.9460418E-04
6369000. -0.3860424E-04 -0.4334386E-02 -0.5805505E-05  0.1763568E-04  0.3909748E-05 -0.9384426E-04
6368000. -0.3792196E-04 -0.4358924E-02 -0.5807623E-05  0.9352680E-05  0.3924418E-05 -0.9309396E-04
6368000. -0.3792196E-04 -0.4358924E-02 -0.5807623E-05  0.9352680E-05  0.3924418E-05 -0.9309396E-04
6367000. -0.3723599E-04 -0.4381372E-02 -0.5808440E-05  0.1058487E-05  0.3938972E-05 -0.9235337E-04
6366000. -0.3654666E-04 -0.4401724E-02 -0.5807955E-05 -0.7244643E-05  0.3953411E-05 -0.9162255E-04
6365000. -0.3585430E-04 -0.4419975E-02 -0.5806166E-05 -0.1555445E-04  0.3967735E-05 -0.9090158E-04
6364000. -0.3515924E-04 -0.4436124E-02 -0.5803072E-05 -0.2386868E-04  0.3981947E-05 -0.9019055E-04
6363000. -0.3446181E-04 -0.4450165E-02 -0.5798673E-05 -0.3218507E-04  0.3996049E-05 -0.8948954E-04
6362000. -0.3376234E-04 -0.4462098E-02 -0.5792968E-05 -0.4050136E-04  0.4010040E-05 -0.8879863E-04
6361000. -0.3306117E-04 -0.4471919E-02 -0.5785959E-05 -0.4881526E-04  0.4023925E-05 -0.8811789E-04
6360000. -0.3235862E-04 -0.4479629E-02 -0.5777644E-05 -0.5712454E-04  0.4037703E-05 -0.8744741E-04
6359000. -0.3165502E-04 -0.4485227E-02 -0.5768026E-05 -0.6542692E-04  0.4051377E-05 -0.8678727E-04
6358000. -0.3095072E-04 -0.4488712E-02 -0.5757106E-05 -0.7372015E-04  0.4064948E-05 -0.8613756E-04
6357000. -0.3024603E-04 -0.4490085E-02 -0.5744885E-05 -0.8200195E-04  0.4078418E-05 -0.8549834E-04
6356000. -0.2954129E-04 -0.4489350E-02 -0.5731364E-05 -0.9027008E-04  0.4091788E-05 -0.8486972E-04
6356000. -0.2954129E-04 -0.3875430E-02 -0.5731364E-05 -0.4502599E-04  0.4091788E-05 -0.7844187E-04
6355000. -0.2893277E-04 -0.3878088E-02 -0.5723959E-05 -0.4932637E-04  0.4104019E-05 -0.7740212E-04
6354000. -0.2832393E-04 -0.3879657E-02 -0.5715880E-05 -0.5362308E-04  0.4116087E-05 -0.7637063E-04
6353000. -0.2771492E-04 -0.3880137E-02 -0.5707126E-05 -0.5791542E-04  0.4127994E-05 -0.7534745E-04
6352000. -0.2710592E-04 -0.3879529E-02 -0.5697699E-05 -0.6220267E-04  0.4139741E-05 -0.7433257E-04
6351000. -0.2649710E-04 -0.3877834E-02 -0.5687599E-05 -0.6648415E-04  0.4151329E-05 -0.7332602E-04
6350000. -0.2588864E-04 -0.3875051E-02 -0.5676829E-05 -0.7075914E-04  0.4162760E-05 -0.7232784E-04
6349000. -0.2528069E-04 -0.3871183E-02 -0.5665387E-05 -0.7502695E-04  0.4174035E-05 -0.7133803E-04
6348000. -0.2467344E-04 -0.3866229E-02 -0.5653277E-05 -0.7928687E-04  0.4185155E-05 -0.7035662E-04
6347000. -0.2406705E-04 -0.3860193E-02 -0.5640497E-05 -0.8353822E-04  0.4196122E-05 -0.6938363E-04
6346600. -0.2382478E-04 -0.3857475E-02 -0.5635200E-05 -0.8523619E-04  0.4200466E-05 -0.6899680E-04
6346600. -0.2382478E-04 -0.4376794E-02 -0.5635200E-05 -0.5161474E-04  0.4200466E-05 -0.6068945E-04
6318800. -0.5207444E-05 -0.4076756E-02 -0.5282234E-05 -0.1094301E-03  0.4399921E-05 -0.3153560E-04
6291000.  0.1108160E-04 -0.3316574E-02 -0.4690484E-05 -0.1601926E-03  0.4482087E-05 -0.6789490E-05
6291000.  0.1108160E-04 -0.3423276E-02 -0.4690484E-05 -0.1650250E-03  0.4482087E-05 -0.6789490E-05
6263000.  0.2358471E-04 -0.2202475E-02 -0.3865347E-05 -0.2078709E-03  0.4466486E-05  0.1333967E-04
6235000.  0.2997431E-04 -0.6646317E-03 -0.2889080E-05 -0.2332023E-03  0.4369163E-05  0.3050976E-04
6207000.  0.2919160E-04  0.1032824E-02 -0.1845163E-05 -0.2383819E-03  0.4201740E-05  0.4533444E-04
6179000.  0.2092544E-04  0.2709980E-02 -0.8242208E-06 -0.2228311E-03  0.3973375E-05  0.5831557E-04
6151000.  0.5671295E-05  0.4182915E-02  0.8533569E-07 -0.1881352E-03  0.3691315E-05  0.6981855E-04
6151000.  0.5671295E-05  0.3385574E-02  0.8533569E-07 -0.1661222E-03  0.3691315E-05  0.6950478E-04
6128500. -0.7611869E-05  0.4100724E-02  0.6143527E-06 -0.1325513E-03  0.3442335E-05  0.7128432E-04
6106000. -0.2301653E-04  0.4581784E-02  0.1016403E-05 -0.9458614E-04  0.3189257E-05  0.7183931E-04
6083500. -0.3966896E-04  0.4804616E-02  0.1279911E-05 -0.5447165E-04  0.2936270E-05  0.7124485E-04
6061000. -0.5663691E-04  0.4760259E-02  0.1401278E-05 -0.1445919E-04  0.2687311E-05  0.6956848E-04
6038500. -0.7298325E-04  0.4454829E-02  0.1384687E-05  0.2331467E-04  0.2446096E-05  0.6686772E-04
6016000. -0.8781773E-04  0.3908523E-02  0.1241502E-05  0.5693735E-04  0.2216160E-05  0.6318848E-04
5993500. -0.1003439E-03  0.3153959E-02  0.9893125E-06  0.8480797E-04  0.2000893E-05  0.5856376E-04
5971000. -0.1098994E-03  0.2233990E-02  0.6507141E-06  0.1057011E-03  0.1803608E-05  0.5300542E-04
5971000. -0.1098994E-03  0.2070224E-02  0.6507141E-06  0.1070511E-03  0.1803608E-05  0.6739218E-04
5937667. -0.1168256E-03  0.5653062E-03  0.4810413E-07  0.1206290E-03  0.1474859E-05  0.5816876E-04
5904333. -0.1158232E-03 -0.9357390E-03 -0.5855302E-06  0.1193186E-03  0.1195527E-05  0.4859583E-04
5871000. -0.1072756E-03 -0.2299433E-02 -0.1179632E-05  0.1060825E-03  0.9660256E-06  0.3920191E-04
5837667. -0.9217471E-04 -0.3427529E-02 -0.1680894E-05  0.8442959E-04  0.7842973E-06  0.3038927E-04
5804333. -0.7192791E-04 -0.4259168E-02 -0.2054595E-05  0.5788191E-04  0.6465604E-06  0.2241470E-04
5771000. -0.4816953E-04 -0.4768473E-02 -0.2283582E-05  0.2959584E-04  0.5480851E-06  0.1538840E-04
5771000. -0.4816953E-04 -0.4768752E-02 -0.2283582E-05  0.2959653E-04  0.5480851E-06  0.1538840E-04
5701000.  0.6762381E-05 -0.4992899E-02 -0.2267247E-05 -0.3251816E-04  0.4696776E-06 -0.1422257E-05
5701000.  0.6762381E-05 -0.4349560E-02 -0.2267247E-05 -0.2782781E-04  0.4696776E-06 -0.3328329E-05
5667333.  0.2893766E-04 -0.4020286E-02 -0.2089499E-05 -0.3894930E-04  0.4828289E-06 -0.1649556E-05
5633667.  0.4905175E-04 -0.3576009E-02 -0.1860841E-05 -0.4709999E-04  0.4870212E-06  0.8109733E-07
5600000.  0.6659634E-04 -0.3053583E-02 -0.1596693E-05 -0.5242381E-04  0.4817733E-06  0.1925326E-05
5600000.  0.6659634E-04 -0.3053691E-02 -0.1596693E-05 -0.5242260E-04  0.4817733E-06  0.1925326E-05
5563518.  0.8247192E-04 -0.2481969E-02 -0.1287713E-05 -0.5518133E-04  0.4656252E-06  0.3591909E-05
5527037.  0.9493761E-04 -0.1866927E-02 -0.9682924E-06 -0.5608236E-04  0.4417880E-06  0.4651772E-05
5490556.  0.1038153E-03 -0.1232619E-02 -0.6487876E-06 -0.5523719E-04  0.4131181E-06  0.5307654E-05
5454074.  0.1090594E-03 -0.6012261E-03 -0.3386538E-06 -0.5284541E-04  0.3815072E-06  0.5697037E-05
5417593.  0.1107436E-03  0.7772804E-05 -0.4603736E-07 -0.4916902E-04  0.3482119E-06  0.5908078E-05
5381111.  0.1090439E-03  0.5783348E-03  0.2225616E-06 -0.4450541E-04  0.3140750E-06  0.5998168E-05
5344630.  0.1042176E-03  0.1098090E-02  0.4623687E-06 -0.3916727E-04  0.2796812E-06  0.6002786E-05
5308148.  0.9658156E-04  0.1558590E-02  0.6704182E-06 -0.3346111E-04  0.2454503E-06  0.5943715E-05
5271667.  0.8649071E-04  0.1955098E-02  0.8454303E-06 -0.2767574E-04  0.2117100E-06  0.5833434E-05
5235185.  0.7431579E-04  0.2286480E-02  0.9877140E-06 -0.2206835E-04  0.1787258E-06  0.5680391E-05
5198704.  0.6042606E-04  0.2554759E-02  0.1098931E-05 -0.1685969E-04  0.1467288E-06  0.5489847E-05
5162222.  0.4516944E-04  0.2764772E-02  0.1181906E-05 -0.1222992E-04  0.1159165E-06  0.5267013E-05
5125741.  0.2886096E-04  0.2923663E-02  0.1240372E-05 -0.8319924E-05  0.8646567E-07  0.5015234E-05
5089259.  0.1176731E-04  0.3040500E-02  0.1278765E-05 -0.5233123E-05  0.5852898E-07  0.4738465E-05
5052778. -0.5899371E-05  0.3125840E-02  0.1302016E-05 -0.3041371E-05  0.3224263E-07  0.4439474E-05
5016296. -0.2399280E-04  0.3191422E-02  0.1315396E-05 -0.1791013E-05  0.7726983E-08  0.4119869E-05
4979815. -0.4243473E-04  0.3249917E-02  0.1324383E-05 -0.1511271E-05 -0.1489817E-07  0.3779143E-05
4943333. -0.6122380E-04  0.3314804E-02  0.1334597E-05 -0.2222496E-05 -0.3550602E-07  0.3414143E-05
4906852. -0.8043609E-04  0.3400372E-02  0.1351771E-05 -0.3946202E-05 -0.5393402E-07  0.3016112E-05
4870370. -0.1002342E-03  0.3521848E-02  0.1381786E-05 -0.6714267E-05 -0.6995857E-07  0.2571821E-05
4833889. -0.1208689E-03  0.3695651E-02  0.1430757E-05 -0.1057849E-04 -0.8325738E-07  0.2059435E-05
4797407. -0.1426922E-03  0.3939949E-02  0.1505193E-05 -0.1562573E-04 -0.9334447E-07  0.1443093E-05
4760926. -0.1661637E-03  0.4275246E-02  0.1612213E-05 -0.2198564E-04 -0.9949515E-07  0.6750604E-06
4724444. -0.1918723E-03  0.4725343E-02  0.1759845E-05 -0.2984691E-04 -0.1006496E-06 -0.3161803E-06
4687963. -0.2205522E-03  0.5318519E-02  0.1957400E-05 -0.3947532E-04 -0.9525661E-07 -0.1631399E-05
4651482. -0.2531187E-03  0.6089151E-02  0.2215984E-05 -0.5123251E-04 -0.8108231E-07 -0.3410966E-05
4615000. -0.2907061E-03  0.7079753E-02  0.2549118E-05 -0.6560301E-04 -0.5492969E-07 -0.5853514E-05
4578518. -0.3347196E-03  0.8343521E-02  0.2973500E-05 -0.8322368E-04 -0.1225927E-07 -0.9234383E-05
4542037. -0.3869069E-03  0.9947762E-02  0.3510006E-05 -0.1049266E-03  0.5335486E-07 -0.1394364E-04
4505556. -0.4494548E-03  0.1197841E-01  0.4184986E-05 -0.1317938E-03  0.1509818E-06 -0.2052158E-04
4469074. -0.5251095E-03  0.1454568E-01  0.5031863E-05 -0.1652209E-03  0.2933791E-06 -0.2972825E-04
4432593. -0.6173278E-03  0.1779127E-01  0.6093081E-05 -0.2070045E-03  0.4984573E-06 -0.4262311E-04
4396111. -0.7305017E-03  0.2189853E-01  0.7422893E-05 -0.2594571E-03  0.7913612E-06 -0.6069444E-04
4359630. -0.8702081E-03  0.2710449E-01  0.9090456E-05 -0.3255418E-03  0.1207403E-05 -0.8604553E-04
4323148. -0.1043590E-02  0.3371711E-01  0.1118433E-04 -0.4090521E-03  0.1796205E-05 -0.1216075E-03
4286667. -0.1259785E-02  0.4213605E-01  0.1381754E-04 -0.5148452E-03  0.2627426E-05 -0.1715374E-03
4250185. -0.1530576E-02  0.5288181E-01  0.1713477E-04 -0.6490899E-03  0.3799133E-05 -0.2416658E-03
4213704. -0.1871121E-02  0.6663079E-01  0.2132029E-04 -0.8196103E-03  0.5449137E-05 -0.3402285E-03
4177222. -0.2301050E-02  0.8426443E-01  0.2660917E-04 -0.1036246E-02  0.7771784E-05 -0.4788688E-03
4140741. -0.2845717E-02  0.1069274E+00  0.3329906E-04 -0.1311272E-02  0.1104072E-04 -0.6740011E-03
4104259. -0.3538030E-02  0.1361084E+00  0.4176651E-04 -0.1659783E-02  0.1564239E-04 -0.9488934E-03
4067778. -0.4420542E-02  0.1737304E+00  0.5248219E-04 -0.2099896E-02  0.2212176E-04 -0.1336338E-02
4031296. -0.5548452E-02  0.2222769E+00  0.6603068E-04 -0.2652846E-02  0.3124911E-04 -0.1882835E-02
3994815. -0.6992969E-02  0.2849208E+00  0.8312375E-04 -0.3342096E-02  0.4411169E-04 -0.2653945E-02
3958333. -0.8845991E-02  0.3656919E+00  0.1046118E-03 -0.4191516E-02  0.6224636E-04 -0.3742295E-02
3921852. -0.1122509E-01  0.4696159E+00  0.1314705E-03 -0.5220637E-02  0.8782111E-04 -0.5278398E-02
3885370. -0.1428005E-01  0.6028523E+00  0.1647583E-03 -0.6436092E-02  0.1238970E-03 -0.7445734E-02
3848889. -0.1819890E-01  0.7726819E+00  0.2054946E-03 -0.7814832E-02  0.1747807E-03 -0.1050100E-01
3812407. -0.2321449E-01  0.9872848E+00  0.2544172E-03 -0.9273652E-02  0.2465279E-03 -0.1480194E-01
3775926. -0.2960689E-01  0.1254937E+01  0.3114895E-03 -0.1061536E-01  0.3476072E-03 -0.2084281E-01
3739444. -0.3770069E-01  0.1582289E+01  0.3750155E-03 -0.1143501E-01  0.4898268E-03 -0.2930061E-01
3702963. -0.4784489E-01  0.1970654E+01  0.4400090E-03 -0.1095554E-01  0.6895024E-03 -0.4108702E-01
3666482. -0.6036581E-01  0.2408989E+01  0.4953422E-03 -0.7746539E-02  0.9689966E-03 -0.5740725E-01
3630000. -0.7546182E-01  0.2860636E+01  0.5187349E-03  0.7602132E-03  0.1358525E-02 -0.7980130E-01
3630000. -0.7546182E-01  0.2860621E+01  0.5187349E-03  0.7616730E-03  0.1358525E-02 -0.7980130E-01
3592500. -0.9355031E-01  0.3261980E+01  0.4666876E-03  0.1925398E-01  0.1915533E-02 -0.1110102E+00
3555000. -0.1133510E+00  0.3396739E+01  0.2548896E-03  0.5691265E-01  0.2685810E-02 -0.1526401E+00
3517500. -0.1322664E+00  0.2872596E+01 -0.2699613E-03  0.1289198E+00  0.3736763E-02 -0.2066274E+00
3480000. -0.1444481E+00  0.9417835E+00 -0.1381177E-02  0.2619193E+00  0.5143526E-02 -0.2733681E+00
3480000. -0.1444481E+00 -0.8945086E+01 -0.4056084E-02 -0.2569522E+00  0.5143526E-02  0.1810060E+00
3409422. -0.7175425E-01 -0.4620148E+01 -0.1984915E-02 -0.1303508E+00  0.3214015E-02  0.1554819E+00
3338844. -0.3468684E-01 -0.2318531E+01 -0.9466537E-03 -0.6437412E-01  0.1793629E-02  0.1011708E+00
3268266. -0.1631818E-01 -0.1130855E+01 -0.4399249E-03 -0.3095051E-01  0.9285168E-03  0.5776203E-01
3197688. -0.7469840E-02 -0.5361634E+00 -0.1991484E-03 -0.1448565E-01  0.4538776E-03  0.3035333E-01
3127109. -0.3326298E-02 -0.2470923E+00 -0.8778182E-04 -0.6597996E-02  0.2114956E-03  0.1499628E-01
3056531. -0.1440310E-02 -0.1106648E+00 -0.3765713E-04 -0.2923731E-02  0.9446125E-04  0.7043332E-02
2985953. -0.6061223E-03 -0.4814856E-01 -0.1571185E-04 -0.1259771E-02  0.4056812E-04  0.3164378E-02
2915375. -0.2477365E-03 -0.2034035E-01 -0.6371250E-05 -0.5274761E-03  0.1678406E-04  0.1364856E-02
2844797. -0.9826687E-04 -0.8337785E-02 -0.2508826E-05 -0.2144601E-03  0.6695850E-05  0.5663373E-03
2774219. -0.3779362E-04 -0.3313726E-02 -0.9583969E-06 -0.8459496E-04  0.2576652E-05  0.2263200E-03
2703641. -0.1407909E-04 -0.1275707E-02 -0.3547943E-06 -0.3234158E-04  0.9562887E-06  0.8713647E-04
2633062. -0.5074126E-05 -0.4752051E-03 -0.1271247E-06 -0.1197012E-04  0.3421212E-06  0.3231820E-04
2562484. -0.1766931E-05 -0.1710754E-03 -0.4402806E-07 -0.4283661E-05  0.1178928E-06  0.1154116E-04
2491906. -0.5936170E-06 -0.5943789E-04 -0.1471688E-07 -0.1480080E-05  0.3908686E-07  0.3964852E-05
2421328. -0.1920931E-06 -0.1989921E-04 -0.4739869E-08 -0.4929670E-06  0.1245155E-07  0.1308806E-05
2350750. -0.5976511E-07 -0.6408445E-05 -0.1468185E-08 -0.1579965E-06  0.3805126E-08  0.4145411E-06
2280172. -0.1784184E-07 -0.1981412E-05 -0.4364899E-09 -0.4863194E-07  0.1113428E-08  0.1257651E-06
2209594. -0.5099380E-08 -0.5869057E-06 -0.1242702E-09 -0.1434483E-07  0.3113017E-09  0.3647430E-07
2139016. -0.1391889E-08 -0.1661477E-06 -0.3379668E-10 -0.4045008E-08  0.8296287E-10  0.1008923E-07
2068438. -0.3618314E-09 -0.4483272E-07 -0.8755722E-11 -0.1087499E-08  0.2101805E-10  0.2654898E-08
1997859. -0.8930882E-10 -0.1149634E-07 -0.2154082E-11 -0.2779263E-09  0.5046177E-11  0.6626600E-09
1927281. -0.2087139E-10 -0.2790592E-08 -0.5012657E-12 -0.6733680E-10  0.1143508E-11  0.1564817E-09
1856703.  0.0000000E+00  0.0000000E+00  0.0000000E+00  0.0000000E+00  0.0000000E+00  0.0000000E+00
1786125.  0.0000000E+00  0.0000000E+00  0.0000000E+00  0.0000000E+00  0.0000000E+00  0.0000000E+00
1715547.  0.0000000E+00  0.0000000E+00  0.0000000E+00  0.0000000E+00  0.0000000E+00  0.0000000E+00
1644969.  0.0000000E+00  0.0000000E+00  0.0000000E+00  0.0000000E+00  0.0000000E+00  0.0000000E+00
1574391.  0.0000000E+00  0.0000000E+00  0.0000000E+00  0.0000000E+00  0.0000000E+00  0.0000000E+00
1503812.  0.0000000E+00  0.0000000E+00  0.0000000E+00  0.0000000E+00  0.0000000E+00  0.0000000E+00
1433234.  0.0000000E+00  0.0000000E+00  0.0000000E+00  0.0000000E+00  0.0000000E+00  0.0000000E+00
1362656.  0.0000000E+00  0.0000000E+00  0.0000000E+00  0.0000000E+00  0.0000000E+00  0.0000000E+00
1292078.  0.0000000E+00  0.0000000E+00  0.0000000E+00  0.0000000E+00  0.0000000E+00  0.0000000E+00
1221500.  0.0000000E+00  0.0000000E+00  0.0000000E+00  0.0000000E+00  0.0000000E+00  0.0000000E+00
1221500.  0.0000000E+00  0.0000000E+00  0.0000000E+00  0.0000000E+00  0.0000000E+00  0.0000000E+00
1183328.  0.0000000E+00  0.0000000E+00  0.0000000E+00  0.0000000E+00  0.0000000E+00  0.0000000E+00
1145156.  0.0000000E+00  0.0000000E+00  0.0000000E+00  0.0000000E+00  0.0000000E+00  0.0000000E+00
1106984.  0.0000000E+00  0.0000000E+00  0.0000000E+00  0.0000000E+00  0.0000000E+00  0.0000000E+00
1068812.  0.0000000E+00  0.0000000E+00  0.0000000E+00  0.0000000E+00  0.0000000E+00  0.0000000E+00
1030641.  0.0000000E+00  0.0000000E+00  0.0000000E+00  0.0000000E+00  0.0000000E+00  0.0000000E+00
 992469.  0.0000000E+00  0.0000000E+00  0.0000000E+00  0.0000000E+00  0.0000000E+00  0.0000000E+00
 954297.  0.0000000E+00  0.0000000E+00  0.0000000E+00  0.0000000E+00  0.0000000E+00  0.0000000E+00
 916125.  0.0000000E+00  0.0000000E+00  0.0000000E+00  0.0000000E+00  0.0000000E+00  0.0000000E+00
 877953.  0.0000000E+00  0.0000000E+00  0.0000000E+00  0.0000000E+00  0.0000000E+00  0.0000000E+00
 839781.  0.0000000E+00  0.0000000E+00  0.0000000E+00  0.0000000E+00  0.0000000E+00  0.0000000E+00
 801609.  0.0000000E+00  0.0000000E+00  0.0000000E+00  0.0000000E+00  0.0000000E+00  0.0000000E+00
 763438.  0.0000000E+00  0.0000000E+00  0.0000000E+00  0.0000000E+00  0.0000000E+00  0.0000000E+00
 725266.  0.0000000E+00  0.0000000E+00  0.0000000E+00  0.0000000E+00  0.0000000E+00  0.0000000E+00
 687094.  0.0000000E+00  0.0000000E+00  0.0000000E+00  0.0000000E+00  0.0000000E+00  0.0000000E+00
 648922.  0.0000000E+00  0.0000000E+00  0.0000000E+00  0.0000000E+00  0.0000000E+00  0.0000000E+00
 610750.  0.0000000E+00  0.0000000E+00  0.0000000E+00  0.0000000E+00  0.0000000E+00  0.0000000E+00
 572578.  0.0000000E+00  0.0000000E+00  0.0000000E+00  0.0000000E+00  0.0000000E+00  0.0000000E+00
 534406.  0.0000000E+00  0.0000000E+00  0.0000000E+00  0.0000000E+00  0.0000000E+00  0.0000000E+00
 496234.  0.0000000E+00  0.0000000E+00  0.0000000E+00  0.0000000E+00  0.0000000E+00  0.0000000E+00
 458062.  0.0000000E+00  0.0000000E+00  0.0000000E+00  0.0000000E+00  0.0000000E+00  0.0000000E+00
 419891.  0.0000000E+00  0.0000000E+00  0.0000000E+00  0.0000000E+00  0.0000000E+00  0.0000000E+00
 381719.  0.0000000E+00  0.0000000E+00  0.0000000E+00  0.0000000E+00  0.0000000E+00  0.0000000E+00
 343547.  0.0000000E+00  0.0000000E+00  0.0000000E+00  0.0000000E+00  0.0000000E+00  0.0000000E+00
 305375.  0.0000000E+00  0.0000000E+00  0.0000000E+00  0.0000000E+00  0.0000000E+00  0.0000000E+00
 267203.  0.0000000E+00  0.0000000E+00  0.0000000E+00  0.0000000E+00  0.0000000E+00  0.0000000E+00
 229031.  0.0000000E+00  0.0000000E+00  0.0000000E+00  0.0000000E+00  0.0000000E+00  0.0000000E+00
 190859.  0.0000000E+00  0.0000000E+00  0.0000000E+00  0.0000000E+00  0.0000000E+00  0.0000000E+00
 152688.  0.0000000E+00  0.0000000E+00  0.0000000E+00  0.0000000E+00  0.0000000E+00  0.0000000E+00
 114516.  0.0000000E+00  0.0000000E+00  0.0000000E+00  0.0000000E+00  0.0000000E+00  0.0000000E+00
  76344.  0.0000000E+00  0.0000000E+00  0.0000000E+00  0.0000000E+00  0.0000000E+00  0.0000000E+00
  38172.  0.0000000E+00  0.0000000E+00  0.0000000E+00  0.0000000E+00  0.0000000E+00  0.0000000E+00
      0.  0.0000000E+00  0.0000000E+00  0.0000000E+00  0.0000000E+00  0.0000000E+00  0.0000000E+00
