       5       33 S      349        121.26600          9.85380          6.31474        239.72501      185    7
6371000. -0.1414457E-01  0.1171584E+01  0.2631583E-02  0.1677615E-01 -0.9921013E-03  0.6040479E-01
6370000. -0.1432779E-01  0.1162918E+01  0.2628689E-02  0.2009130E-01 -0.1001556E-02  0.6006280E-01
6369000. -0.1450961E-01  0.1153759E+01  0.2625276E-02  0.2340039E-01 -0.1010956E-02  0.5972059E-01
6368000. -0.1468995E-01  0.1144109E+01  0.2621344E-02  0.2670268E-01 -0.1020303E-02  0.5937817E-01
6368000. -0.1468995E-01  0.1144109E+01  0.2621344E-02  0.2670268E-01 -0.1020303E-02  0.5937817E-01
6367000. -0.1486874E-01  0.1133970E+01  0.2616894E-02  0.2999741E-01 -0.1029596E-02  0.5903557E-01
6366000. -0.1504591E-01  0.1123342E+01  0.2611927E-02  0.3328385E-01 -0.1038836E-02  0.5869279E-01
6365000. -0.1522136E-01  0.1112228E+01  0.2606446E-02  0.3656125E-01 -0.1048021E-02  0.5834988E-01
6364000. -0.1539503E-01  0.1100629E+01  0.2600450E-02  0.3982887E-01 -0.1057153E-02  0.5800683E-01
6363000. -0.1556685E-01  0.1088547E+01  0.2593943E-02  0.4308597E-01 -0.1066231E-02  0.5766369E-01
6362000. -0.1573673E-01  0.1075984E+01  0.2586925E-02  0.4633180E-01 -0.1075255E-02  0.5732045E-01
6361000. -0.1590460E-01  0.1062943E+01  0.2579399E-02  0.4956564E-01 -0.1084225E-02  0.5697716E-01
6360000. -0.1607038E-01  0.1049424E+01  0.2571366E-02  0.5278676E-01 -0.1093142E-02  0.5663382E-01
6359000. -0.1623401E-01  0.1035431E+01  0.2562829E-02  0.5599442E-01 -0.1102004E-02  0.5629046E-01
6358000. -0.1639540E-01  0.1020967E+01  0.2553789E-02  0.5918791E-01 -0.1110812E-02  0.5594709E-01
6357000. -0.1655449E-01  0.1006033E+01  0.2544249E-02  0.6236649E-01 -0.1119567E-02  0.5560375E-01
6356000. -0.1671120E-01  0.9906328E+00  0.2534212E-02  0.6552947E-01 -0.1128268E-02  0.5526044E-01
6356000. -0.1671120E-01  0.8988466E+00  0.2534212E-02  0.4720026E-01 -0.1128268E-02  0.5889660E-01
6355000. -0.1685145E-01  0.8881496E+00  0.2526662E-02  0.4899357E-01 -0.1137478E-02  0.5845981E-01
6354000. -0.1698999E-01  0.8771929E+00  0.2518832E-02  0.5077899E-01 -0.1146619E-02  0.5802362E-01
6353000. -0.1712680E-01  0.8659777E+00  0.2510722E-02  0.5255625E-01 -0.1155693E-02  0.5758802E-01
6352000. -0.1726183E-01  0.8545056E+00  0.2502334E-02  0.5432514E-01 -0.1164698E-02  0.5715303E-01
6351000. -0.1739504E-01  0.8427779E+00  0.2493669E-02  0.5608538E-01 -0.1173634E-02  0.5671867E-01
6350000. -0.1752638E-01  0.8307961E+00  0.2484728E-02  0.5783674E-01 -0.1182503E-02  0.5628494E-01
6349000. -0.1765583E-01  0.8185618E+00  0.2475513E-02  0.5957898E-01 -0.1191303E-02  0.5585185E-01
6348000. -0.1778334E-01  0.8060765E+00  0.2466025E-02  0.6131184E-01 -0.1200036E-02  0.5541941E-01
6347000. -0.1790886E-01  0.7933417E+00  0.2456266E-02  0.6303509E-01 -0.1208701E-02  0.5498763E-01
6346600. -0.1795851E-01  0.7881783E+00  0.2452287E-02  0.6372164E-01 -0.1212148E-02  0.5481511E-01
6346600. -0.1795851E-01  0.1010885E+01  0.2452287E-02  0.4967724E-01 -0.1212148E-02  0.6107698E-01
6318800. -0.2170834E-01  0.6873942E+00  0.2175883E-02  0.7610124E-01 -0.1451681E-02  0.4884862E-01
6291000. -0.2379811E-01  0.2547389E+00  0.1797512E-02  0.9610481E-01 -0.1639578E-02  0.3739459E-01
6291000. -0.2379811E-01  0.2730794E+00  0.1797512E-02  0.9851939E-01 -0.1639578E-02  0.3739459E-01
6263000. -0.2385675E-01 -0.2565642E+00  0.1332672E-02  0.1114565E+00 -0.1780266E-02  0.2673246E-01
6235000. -0.2148852E-01 -0.8231404E+00  0.8321158E-03  0.1146702E+00 -0.1875416E-02  0.1666068E-01
6207000. -0.1664208E-01 -0.1375616E+01  0.3392840E-03  0.1079866E+00 -0.1927497E-02  0.7126974E-02
6179000. -0.9494007E-02 -0.1862069E+01 -0.1035721E-03  0.9211873E-01 -0.1938814E-02 -0.1890988E-02
6151000. -0.4423761E-03 -0.2234428E+01 -0.4591989E-03  0.6861250E-01 -0.1911652E-02 -0.1037768E-01
6151000. -0.4423761E-03 -0.1843816E+01 -0.4591989E-03  0.6030053E-01 -0.1911652E-02 -0.1035320E-01
6128500.  0.6322585E-02 -0.1973799E+01 -0.6386680E-03  0.4105403E-01 -0.1869284E-02 -0.1354285E-01
6106000.  0.1340003E-01 -0.2020021E+01 -0.7478189E-03  0.2065588E-01 -0.1816683E-02 -0.1614861E-01
6083500.  0.2048854E-01 -0.1980013E+01 -0.7844597E-03  0.1652640E-03 -0.1755902E-02 -0.1817726E-01
6061000.  0.2728543E-01 -0.1855498E+01 -0.7500798E-03 -0.1940029E-01 -0.1688961E-02 -0.1963892E-01
6038500.  0.3350124E-01 -0.1652205E+01 -0.6496201E-03 -0.3711107E-01 -0.1617841E-02 -0.2054561E-01
6016000.  0.3887324E-01 -0.1379454E+01 -0.4910894E-03 -0.5216524E-01 -0.1544480E-02 -0.2091055E-01
5993500.  0.4317717E-01 -0.1049614E+01 -0.2850561E-03 -0.6391965E-01 -0.1470766E-02 -0.2074782E-01
5971000.  0.4623691E-01 -0.6774645E+00 -0.4404589E-04 -0.7191166E-01 -0.1398540E-02 -0.2006915E-01
5971000.  0.4623691E-01 -0.6176664E+00 -0.4404589E-04 -0.6942956E-01 -0.1398540E-02 -0.2612196E-01
5937667.  0.4799500E-01 -0.5443187E-01  0.3307404E-03 -0.7254054E-01 -0.1265358E-02 -0.2466228E-01
5904333.  0.4684645E-01  0.4861389E+00  0.7024929E-03 -0.6847989E-01 -0.1141564E-02 -0.2257533E-01
5871000.  0.4301588E-01  0.9651636E+00  0.1037375E-02 -0.5872223E-01 -0.1029795E-02 -0.2010425E-01
5837667.  0.3690442E-01  0.1354192E+01  0.1309981E-02 -0.4496266E-01 -0.9315076E-03 -0.1745140E-01
5804333.  0.2903336E-01  0.1635652E+01  0.1503866E-02 -0.2890340E-01 -0.8472301E-03 -0.1476911E-01
5771000.  0.1998940E-01  0.1802214E+01  0.1611143E-02 -0.1209749E-01 -0.7768353E-03 -0.1215771E-01
5771000.  0.1998940E-01  0.1802328E+01  0.1611143E-02 -0.1209776E-01 -0.7768353E-03 -0.1215771E-01
5701000. -0.5532845E-03  0.1853473E+01  0.1545314E-02  0.2390342E-01 -0.6803136E-03 -0.5210077E-02
5701000. -0.5532845E-03  0.1621409E+01  0.1545314E-02  0.1938974E-01 -0.6803136E-03 -0.5054126E-02
5667333. -0.8804427E-02  0.1491399E+01  0.1419928E-02  0.2775242E-01 -0.6526368E-03 -0.5435729E-02
5633667. -0.1622498E-01  0.1309437E+01  0.1255412E-02  0.3418544E-01 -0.6226956E-03 -0.5914343E-02
5600000. -0.2257721E-01  0.1089306E+01  0.1062067E-02  0.3867035E-01 -0.5899546E-03 -0.6493274E-02
5600000. -0.2257721E-01  0.1089348E+01  0.1062067E-02  0.3867092E-01 -0.5899546E-03 -0.6493274E-02
5563518. -0.2811138E-01  0.8382258E+00  0.8303620E-03  0.4197838E-01 -0.5510844E-03 -0.7042115E-02
5527037. -0.3212675E-01  0.5609484E+00  0.5845299E-03  0.4360549E-01 -0.5097084E-03 -0.7378986E-02
5490556. -0.3450887E-01  0.2697977E+00  0.3341347E-03  0.4358442E-01 -0.4668837E-03 -0.7555433E-02
5454074. -0.3521292E-01 -0.2323264E-01  0.8832574E-04  0.4202525E-01 -0.4234153E-03 -0.7608488E-02
5417593. -0.3426071E-01 -0.3069253E+00 -0.1445463E-03  0.3910149E-01 -0.3799354E-03 -0.7563373E-02
5381111. -0.3173482E-01 -0.5713224E+00 -0.3572927E-03  0.3503357E-01 -0.3369498E-03 -0.7437969E-02
5344630. -0.2777085E-01 -0.8079897E+00 -0.5440594E-03  0.3007291E-01 -0.2948826E-03 -0.7244736E-02
5308148. -0.2254723E-01 -0.1010291E+01 -0.7005018E-03  0.2448515E-01 -0.2540927E-03 -0.6992801E-02
5271667. -0.1627566E-01 -0.1173433E+01 -0.8237862E-03  0.1853673E-01 -0.2148976E-03 -0.6689176E-02
5235185. -0.9189155E-02 -0.1294538E+01 -0.9125887E-03  0.1248126E-01 -0.1775730E-03 -0.6340140E-02
5198704. -0.1532742E-02 -0.1372525E+01 -0.9669677E-03  0.6550447E-02 -0.1423638E-03 -0.5951719E-02
5162222.  0.6448067E-02 -0.1407995E+01 -0.9882308E-03  0.9450716E-03 -0.1094756E-03 -0.5530220E-02
5125741.  0.1451464E-01 -0.1403010E+01 -0.9787333E-03 -0.4168915E-02 -0.7908062E-04 -0.5082357E-02
5089259.  0.2244468E-01 -0.1360869E+01 -0.9416707E-03 -0.8664394E-02 -0.5130842E-04 -0.4615056E-02
5052778.  0.3003681E-01 -0.1285839E+01 -0.8808595E-03 -0.1245260E-01 -0.2625068E-04 -0.4135778E-02
5016296.  0.3711706E-01 -0.1182878E+01 -0.8005086E-03 -0.1548290E-01 -0.3953447E-05 -0.3651844E-02
4979815.  0.4354041E-01 -0.1057391E+01 -0.7050246E-03 -0.1773903E-01  0.1557601E-04 -0.3170519E-02
4943333.  0.4919417E-01 -0.9149489E+00 -0.5988062E-03 -0.1923599E-01  0.3237541E-04 -0.2699222E-02
4906852.  0.5399689E-01 -0.7611021E+00 -0.4861010E-03 -0.2001436E-01  0.4651807E-04 -0.2243690E-02
4870370.  0.5789885E-01 -0.6011467E+00 -0.3708499E-03 -0.2013592E-01  0.5811285E-04 -0.1810236E-02
4833889.  0.6087913E-01 -0.4399949E+00 -0.2566036E-03 -0.1967832E-01  0.6730180E-04 -0.1404109E-02
4797407.  0.6294388E-01 -0.2820303E+00 -0.1464270E-03 -0.1872853E-01  0.7425044E-04 -0.1028221E-02
4760926.  0.6412239E-01 -0.1310448E+00 -0.4287982E-04 -0.1737959E-01  0.7914254E-04 -0.6863791E-03
4724444.  0.6446392E-01  0.9845703E-02  0.5202823E-04 -0.1572568E-01  0.8217937E-04 -0.3803519E-03
4687963.  0.6403363E-01  0.1381857E+00  0.1368087E-03 -0.1385792E-01  0.8356867E-04 -0.1110963E-03
4651482.  0.6290878E-01  0.2522030E+00  0.2104877E-03 -0.1186186E-01  0.8352286E-04  0.1209544E-03
4615000.  0.6117486E-01  0.3507627E+00  0.2725582E-03 -0.9814805E-02  0.8225285E-04  0.3166294E-03
4578518.  0.5892228E-01  0.4333132E+00  0.3229252E-03 -0.7784649E-02  0.7996447E-04  0.4769399E-03
4542037.  0.5624307E-01  0.4998307E+00  0.3618534E-03 -0.5828543E-02  0.7685358E-04  0.6043308E-03
4505556.  0.5322795E-01  0.5507476E+00  0.3899046E-03 -0.3992276E-02  0.7310269E-04  0.7008821E-03
4469074.  0.4996401E-01  0.5868685E+00  0.4078710E-03 -0.2310961E-02  0.6888042E-04  0.7694050E-03
4432593.  0.4653313E-01  0.6092912E+00  0.4167143E-03 -0.8091942E-03  0.6433993E-04  0.8124745E-03
4396111.  0.4300988E-01  0.6193342E+00  0.4175103E-03  0.4980876E-03  0.5961933E-04  0.8328576E-03
4359630.  0.3946119E-01  0.6184598E+00  0.4113945E-03  0.1604457E-02  0.5483797E-04  0.8341922E-03
4323148.  0.3594500E-01  0.6082084E+00  0.3995186E-03  0.2510542E-02  0.5009880E-04  0.8185099E-03
4286667.  0.3251072E-01  0.5901462E+00  0.3830119E-03  0.3223587E-02  0.4549040E-04  0.7890165E-03
4250185.  0.2919847E-01  0.5658054E+00  0.3629483E-03  0.3754985E-02  0.4108559E-04  0.7476627E-03
4213704.  0.2604013E-01  0.5366564E+00  0.3403265E-03  0.4120014E-02  0.3694673E-04  0.6965104E-03
4177222.  0.2305909E-01  0.5040658E+00  0.3160494E-03  0.4336018E-02  0.3312447E-04  0.6372443E-03
4140741.  0.2027159E-01  0.4692862E+00  0.2909174E-03  0.4422019E-02  0.2966255E-04  0.5708607E-03
4104259.  0.1768675E-01  0.4334298E+00  0.2656182E-03  0.4397415E-02  0.2659875E-04  0.4982033E-03
4067778.  0.1530801E-01  0.3974708E+00  0.2407317E-03  0.4281242E-02  0.2396948E-04  0.4190603E-03
4031296.  0.1313341E-01  0.3622379E+00  0.2167275E-03  0.4091991E-02  0.2181286E-04  0.3329426E-03
3994815.  0.1115684E-01  0.3284234E+00  0.1939754E-03  0.3846922E-02  0.2017277E-04  0.2383282E-03
3958333.  0.9368435E-02  0.2965835E+00  0.1727473E-03  0.3562066E-02  0.1910436E-04  0.1327832E-03
3921852.  0.7755674E-02  0.2671534E+00  0.1532295E-03  0.3252083E-02  0.1867946E-04  0.1288030E-04
3885370.  0.6303710E-02  0.2404505E+00  0.1355255E-03  0.2930556E-02  0.1899376E-04 -0.1263640E-03
3848889.  0.4996347E-02  0.2166876E+00  0.1196648E-03  0.2610579E-02  0.2017613E-04 -0.2915952E-03
3812407.  0.3816330E-02  0.1959679E+00  0.1056006E-03  0.2305218E-02  0.2239964E-04 -0.4916713E-03
3775926.  0.2746257E-02  0.1782868E+00  0.9320959E-04  0.2028866E-02  0.2589529E-04 -0.7381336E-03
3739444.  0.1768989E-02  0.1635091E+00  0.8227716E-04  0.1798944E-02  0.3096995E-04 -0.1045962E-02
3702963.  0.8687220E-03  0.1513338E+00  0.7247568E-04  0.1638410E-02  0.3802752E-04 -0.1434374E-02
3666482.  0.3193243E-04  0.1412231E+00  0.6332081E-04  0.1579505E-02  0.4759680E-04 -0.1927814E-02
3630000. -0.7508780E-03  0.1322862E+00  0.5410428E-04  0.1669341E-02  0.6036437E-04 -0.2557047E-02
3630000. -0.7508780E-03  0.1322854E+00  0.5410428E-04  0.1669338E-02  0.6036437E-04 -0.2557047E-02
3592500. -0.1503465E-02  0.1232067E+00  0.4345803E-04  0.1996303E-02  0.7774207E-04 -0.3380507E-02
3555000. -0.2195730E-02  0.1112543E+00  0.2990829E-04  0.2679746E-02  0.1005974E-03 -0.4427145E-02
3517500. -0.2799642E-02  0.9233657E-01  0.1086680E-04  0.3898988E-02  0.1304071E-03 -0.5753398E-02
3480000. -0.3256557E-02  0.5996032E-01 -0.1757367E-04  0.5929760E-02  0.1689948E-03 -0.7419967E-02
3480000. -0.3256557E-02 -0.1379002E+00 -0.1286631E-03 -0.5724155E-02  0.1689948E-03  0.2823822E-02
3409422. -0.2012006E-02 -0.8969576E-01 -0.7773096E-04 -0.3613560E-02  0.1298721E-03  0.3831925E-02
3338844. -0.1213045E-02 -0.5672815E-01 -0.4593642E-04 -0.2226667E-02  0.8952263E-04  0.3324991E-02
3268266. -0.7139944E-03 -0.3492754E-01 -0.2655709E-04 -0.1339949E-02  0.5749700E-04  0.2445801E-02
3197688. -0.4103896E-03 -0.2095293E-01 -0.1501932E-04 -0.7877033E-03  0.3503042E-04  0.1638761E-02
3127109. -0.2303663E-03 -0.1225370E-01 -0.8308079E-05 -0.4524112E-03  0.2044289E-04  0.1029689E-02
3056531. -0.1262836E-03 -0.6988436E-02 -0.4493972E-05 -0.2538638E-03  0.1149224E-04  0.6155641E-03
2985953. -0.6759207E-04 -0.3887134E-02 -0.2376205E-05 -0.1391540E-03  0.6244910E-05  0.3529413E-03
2915375. -0.3531266E-04 -0.2108583E-02 -0.1227627E-05 -0.7448986E-04  0.3287153E-05  0.1950084E-03
2844797. -0.1799963E-04 -0.1115241E-02 -0.6193555E-06 -0.3892543E-04  0.1678116E-05  0.1041288E-03
2774219. -0.8946590E-05 -0.5749177E-03 -0.3049468E-06 -0.1984645E-04  0.8313915E-06  0.5382653E-04
2703641. -0.4333348E-05 -0.2887238E-03 -0.1464174E-06 -0.9866687E-05  0.3998085E-06  0.2696079E-04
2633062. -0.2043699E-05 -0.1411619E-03 -0.6849681E-07 -0.4779381E-05  0.1865897E-06  0.1308994E-04
2562484. -0.9376791E-06 -0.6714015E-04 -0.3119218E-07 -0.2253816E-05  0.8447535E-07  0.6160310E-05
2491906. -0.4181018E-06 -0.3103670E-04 -0.1381151E-07 -0.1033657E-05  0.3707455E-07  0.2809047E-05
2421328. -0.1809643E-06 -0.1392959E-04 -0.5939215E-08 -0.4605301E-06  0.1575902E-07  0.1240278E-05
2350750. -0.7593049E-07 -0.6062421E-05 -0.2476968E-08 -0.1990740E-06  0.6480396E-08  0.5297651E-06
2280172. -0.3083982E-07 -0.2555071E-05 -0.1000366E-08 -0.8337376E-07  0.2574621E-08  0.2186502E-06
2209594. -0.1210500E-07 -0.1041209E-05 -0.3905851E-09 -0.3377633E-07  0.9867134E-09  0.8707888E-07
2139016. -0.4583280E-08 -0.4095395E-06 -0.1471564E-09 -0.1321273E-07  0.3641352E-09  0.3340899E-07
2068438. -0.1670532E-08 -0.1551778E-06 -0.5338839E-10 -0.4980904E-08  0.1291370E-09  0.1232486E-07
1997859. -0.5847863E-09 -0.5651745E-07 -0.1860826E-10 -0.1805470E-08  0.4390930E-10  0.4362419E-08
1927281. -0.1961110E-09 -0.1973785E-07 -0.6215063E-11 -0.6277303E-09  0.1427815E-10  0.1477909E-08
1856703. -0.6282225E-10 -0.6591396E-08 -0.1983366E-11 -0.2087575E-09  0.4427175E-11  0.4778921E-09
1786125. -0.1916143E-10 -0.2098287E-08 -0.6027907E-12 -0.6619716E-10  0.1304647E-11  0.1470299E-09
1715547. -0.5544518E-11 -0.6345092E-09 -0.1738390E-12 -0.1994497E-10  0.3640451E-12  0.4288694E-10
1644969. -0.1515805E-11 -0.1815342E-09 -0.4737386E-13 -0.5687284E-11  0.9577873E-13  0.1181237E-10
1574391. -0.3898878E-12 -0.4889197E-10 -0.1213672E-13 -0.1528639E-11  0.2363306E-13  0.3059640E-11
1503812.  0.0000000E+00  0.0000000E+00  0.0000000E+00  0.0000000E+00  0.0000000E+00  0.0000000E+00
1433234.  0.0000000E+00  0.0000000E+00  0.0000000E+00  0.0000000E+00  0.0000000E+00  0.0000000E+00
1362656.  0.0000000E+00  0.0000000E+00  0.0000000E+00  0.0000000E+00  0.0000000E+00  0.0000000E+00
1292078.  0.0000000E+00  0.0000000E+00  0.0000000E+00  0.0000000E+00  0.0000000E+00  0.0000000E+00
1221500.  0.0000000E+00  0.0000000E+00  0.0000000E+00  0.0000000E+00  0.0000000E+00  0.0000000E+00
1221500.  0.0000000E+00  0.0000000E+00  0.0000000E+00  0.0000000E+00  0.0000000E+00  0.0000000E+00
1183328.  0.0000000E+00  0.0000000E+00  0.0000000E+00  0.0000000E+00  0.0000000E+00  0.0000000E+00
1145156.  0.0000000E+00  0.0000000E+00  0.0000000E+00  0.0000000E+00  0.0000000E+00  0.0000000E+00
1106984.  0.0000000E+00  0.0000000E+00  0.0000000E+00  0.0000000E+00  0.0000000E+00  0.0000000E+00
1068812.  0.0000000E+00  0.0000000E+00  0.0000000E+00  0.0000000E+00  0.0000000E+00  0.0000000E+00
1030641.  0.0000000E+00  0.0000000E+00  0.0000000E+00  0.0000000E+00  0.0000000E+00  0.0000000E+00
 992469.  0.0000000E+00  0.0000000E+00  0.0000000E+00  0.0000000E+00  0.0000000E+00  0.0000000E+00
 954297.  0.0000000E+00  0.0000000E+00  0.0000000E+00  0.0000000E+00  0.0000000E+00  0.0000000E+00
 916125.  0.0000000E+00  0.0000000E+00  0.0000000E+00  0.0000000E+00  0.0000000E+00  0.0000000E+00
 877953.  0.0000000E+00  0.0000000E+00  0.0000000E+00  0.0000000E+00  0.0000000E+00  0.0000000E+00
 839781.  0.0000000E+00  0.0000000E+00  0.0000000E+00  0.0000000E+00  0.0000000E+00  0.0000000E+00
 801609.  0.0000000E+00  0.0000000E+00  0.0000000E+00  0.0000000E+00  0.0000000E+00  0.0000000E+00
 763438.  0.0000000E+00  0.0000000E+00  0.0000000E+00  0.0000000E+00  0.0000000E+00  0.0000000E+00
 725266.  0.0000000E+00  0.0000000E+00  0.0000000E+00  0.0000000E+00  0.0000000E+00  0.0000000E+00
 687094.  0.0000000E+00  0.0000000E+00  0.0000000E+00  0.0000000E+00  0.0000000E+00  0.0000000E+00
 648922.  0.0000000E+00  0.0000000E+00  0.0000000E+00  0.0000000E+00  0.0000000E+00  0.0000000E+00
 610750.  0.0000000E+00  0.0000000E+00  0.0000000E+00  0.0000000E+00  0.0000000E+00  0.0000000E+00
 572578.  0.0000000E+00  0.0000000E+00  0.0000000E+00  0.0000000E+00  0.0000000E+00  0.0000000E+00
 534406.  0.0000000E+00  0.0000000E+00  0.0000000E+00  0.0000000E+00  0.0000000E+00  0.0000000E+00
 496234.  0.0000000E+00  0.0000000E+00  0.0000000E+00  0.0000000E+00  0.0000000E+00  0.0000000E+00
 458062.  0.0000000E+00  0.0000000E+00  0.0000000E+00  0.0000000E+00  0.0000000E+00  0.0000000E+00
 419891.  0.0000000E+00  0.0000000E+00  0.0000000E+00  0.0000000E+00  0.0000000E+00  0.0000000E+00
 381719.  0.0000000E+00  0.0000000E+00  0.0000000E+00  0.0000000E+00  0.0000000E+00  0.0000000E+00
 343547.  0.0000000E+00  0.0000000E+00  0.0000000E+00  0.0000000E+00  0.0000000E+00  0.0000000E+00
 305375.  0.0000000E+00  0.0000000E+00  0.0000000E+00  0.0000000E+00  0.0000000E+00  0.0000000E+00
 267203.  0.0000000E+00  0.0000000E+00  0.0000000E+00  0.0000000E+00  0.0000000E+00  0.0000000E+00
 229031.  0.0000000E+00  0.0000000E+00  0.0000000E+00  0.0000000E+00  0.0000000E+00  0.0000000E+00
 190859.  0.0000000E+00  0.0000000E+00  0.0000000E+00  0.0000000E+00  0.0000000E+00  0.0000000E+00
 152688.  0.0000000E+00  0.0000000E+00  0.0000000E+00  0.0000000E+00  0.0000000E+00  0.0000000E+00
 114516.  0.0000000E+00  0.0000000E+00  0.0000000E+00  0.0000000E+00  0.0000000E+00  0.0000000E+00
  76344.  0.0000000E+00  0.0000000E+00  0.0000000E+00  0.0000000E+00  0.0000000E+00  0.0000000E+00
  38172.  0.0000000E+00  0.0000000E+00  0.0000000E+00  0.0000000E+00  0.0000000E+00  0.0000000E+00
      0.  0.0000000E+00  0.0000000E+00  0.0000000E+00  0.0000000E+00  0.0000000E+00  0.0000000E+00
