       9       20 S      492        126.41890         15.44620         14.75257         89.01009      185    7
6371000. -0.2996035E-08  0.2192200E-06  0.1313711E-08  0.4309745E-08 -0.2095329E-09  0.1005001E-07
6370000. -0.3030322E-08  0.2176443E-06  0.1312891E-08  0.6133546E-08 -0.2111039E-09  0.9966613E-08
6369000. -0.3064353E-08  0.2159691E-06  0.1311786E-08  0.7955976E-08 -0.2126617E-09  0.9882889E-08
6368000. -0.3098114E-08  0.2141945E-06  0.1310394E-08  0.9776621E-08 -0.2142063E-09  0.9798844E-08
6368000. -0.3098114E-08  0.2141945E-06  0.1310394E-08  0.9776621E-08 -0.2142063E-09  0.9798844E-08
6367000. -0.3131588E-08  0.2123206E-06  0.1308717E-08  0.1159506E-07 -0.2157377E-09  0.9714483E-08
6366000. -0.3164761E-08  0.2103478E-06  0.1306754E-08  0.1341089E-07 -0.2172559E-09  0.9629814E-08
6365000. -0.3197616E-08  0.2082760E-06  0.1304507E-08  0.1522369E-07 -0.2187607E-09  0.9544840E-08
6364000. -0.3230138E-08  0.2061058E-06  0.1301975E-08  0.1703304E-07 -0.2202522E-09  0.9459569E-08
6363000. -0.3262312E-08  0.2038372E-06  0.1299160E-08  0.1883853E-07 -0.2217303E-09  0.9374004E-08
6362000. -0.3294122E-08  0.2014707E-06  0.1296061E-08  0.2063975E-07 -0.2231949E-09  0.9288152E-08
6361000. -0.3325553E-08  0.1990064E-06  0.1292681E-08  0.2243629E-07 -0.2246460E-09  0.9202019E-08
6360000. -0.3356590E-08  0.1964449E-06  0.1289019E-08  0.2422774E-07 -0.2260836E-09  0.9115609E-08
6359000. -0.3387217E-08  0.1937864E-06  0.1285075E-08  0.2601368E-07 -0.2275076E-09  0.9028929E-08
6358000. -0.3417419E-08  0.1910314E-06  0.1280853E-08  0.2779371E-07 -0.2289180E-09  0.8941985E-08
6357000. -0.3447181E-08  0.1881803E-06  0.1276351E-08  0.2956743E-07 -0.2303147E-09  0.8854782E-08
6356000. -0.3476488E-08  0.1852335E-06  0.1271571E-08  0.3133442E-07 -0.2316977E-09  0.8767326E-08
6356000. -0.3476488E-08  0.1683456E-06  0.1271571E-08  0.2079991E-07 -0.2316977E-09  0.9523769E-08
6355000. -0.3502754E-08  0.1663305E-06  0.1268218E-08  0.2192388E-07 -0.2331843E-09  0.9418569E-08
6354000. -0.3528699E-08  0.1642564E-06  0.1264689E-08  0.2304458E-07 -0.2346544E-09  0.9313197E-08
6353000. -0.3554315E-08  0.1621237E-06  0.1260984E-08  0.2416185E-07 -0.2361079E-09  0.9207659E-08
6352000. -0.3579591E-08  0.1599325E-06  0.1257104E-08  0.2527551E-07 -0.2375448E-09  0.9101956E-08
6351000. -0.3604518E-08  0.1576830E-06  0.1253050E-08  0.2638541E-07 -0.2389652E-09  0.8996094E-08
6350000. -0.3629088E-08  0.1553756E-06  0.1248821E-08  0.2749137E-07 -0.2403689E-09  0.8890078E-08
6349000. -0.3653291E-08  0.1530105E-06  0.1244420E-08  0.2859323E-07 -0.2417560E-09  0.8783911E-08
6348000. -0.3677118E-08  0.1505879E-06  0.1239845E-08  0.2969083E-07 -0.2431264E-09  0.8677599E-08
6347000. -0.3700561E-08  0.1481081E-06  0.1235099E-08  0.3078400E-07 -0.2444801E-09  0.8571145E-08
6346600. -0.3709828E-08  0.1471002E-06  0.1233153E-08  0.3122000E-07 -0.2450169E-09  0.8528525E-08
6346600. -0.3709828E-08  0.1896339E-06  0.1233153E-08  0.2268986E-07 -0.2450169E-09  0.9822088E-08
6318800. -0.4404923E-08  0.1234240E-06  0.1087599E-08  0.4352366E-07 -0.2811100E-09  0.6713934E-08
6291000. -0.4742631E-08  0.2685407E-07  0.8589444E-09  0.6050205E-07 -0.3035790E-09  0.3584618E-08
6291000. -0.4742631E-08  0.2991158E-07  0.8589444E-09  0.6240541E-07 -0.3035790E-09  0.3584618E-08
6263000. -0.4607643E-08 -0.9448107E-07  0.5556618E-09  0.7453837E-07 -0.3125076E-09  0.4850282E-09
6235000. -0.3893507E-08 -0.2315319E-06  0.2138464E-09  0.7981125E-07 -0.3079303E-09 -0.2554456E-08
6207000. -0.2573658E-08 -0.3677789E-06 -0.1351356E-09  0.7778293E-07 -0.2902064E-09 -0.5490058E-08
6179000. -0.6828255E-09 -0.4890088E-06 -0.4594795E-09  0.6869635E-07 -0.2598958E-09 -0.8273769E-08
6151000.  0.1682611E-08 -0.5816121E-06 -0.7299194E-09  0.5345487E-07 -0.2177831E-09 -0.1085127E-07
6151000.  0.1682611E-08 -0.4943579E-06 -0.7299194E-09  0.4667053E-07 -0.2177831E-09 -0.1094436E-07
6128500.  0.3491936E-08 -0.5266143E-06 -0.8709708E-09  0.3292200E-07 -0.1770003E-09 -0.1211680E-07
6106000.  0.5374838E-08 -0.5357313E-06 -0.9609101E-09  0.1786163E-07 -0.1324488E-09 -0.1307729E-07
6083500.  0.7247187E-08 -0.5205495E-06 -0.9965676E-09  0.2321298E-08 -0.8488969E-10 -0.1381923E-07
6061000.  0.9022970E-08 -0.4811653E-06 -0.9777200E-09 -0.1286925E-07 -0.3510088E-10 -0.1433984E-07
6038500.  0.1061872E-07 -0.4189125E-06 -0.9070082E-09 -0.2692507E-07  0.1613610E-10 -0.1463970E-07
6016000.  0.1195773E-07 -0.3362753E-06 -0.7897076E-09 -0.3914493E-07  0.6804754E-10 -0.1472272E-07
5993500.  0.1297392E-07 -0.2367449E-06 -0.6333735E-09 -0.4894380E-07  0.1198794E-09 -0.1459600E-07
5971000.  0.1361503E-07 -0.1246345E-06 -0.4473832E-09 -0.5587848E-07  0.1709068E-09 -0.1426893E-07
5971000.  0.1361503E-07 -0.1200685E-06 -0.4473832E-09 -0.5137553E-07  0.1709068E-09 -0.1605126E-07
5937667.  0.1381720E-07  0.4274833E-07 -0.1684333E-09 -0.5421864E-07  0.2531774E-09 -0.1533777E-07
5904333.  0.1318034E-07  0.1983913E-06  0.1097286E-09 -0.5120681E-07  0.3308593E-09 -0.1431234E-07
5871000.  0.1177534E-07  0.3345623E-06  0.3589539E-09 -0.4336051E-07  0.4025648E-09 -0.1306937E-07
5837667.  0.9729925E-08  0.4419039E-06  0.5572994E-09 -0.3198996E-07  0.4673887E-09 -0.1169522E-07
5804333.  0.7212125E-08  0.5143850E-06  0.6900313E-09 -0.1851456E-07  0.5248454E-09 -0.1026360E-07
5771000.  0.4412938E-08  0.5493191E-06  0.7497834E-09 -0.4313749E-08  0.5747920E-09 -0.8833493E-08
5771000.  0.4412938E-08  0.5493421E-06  0.7497834E-09 -0.4313740E-08  0.5747920E-09 -0.8833493E-08
5701000. -0.1665442E-08  0.5302001E-06  0.6357342E-09  0.2450995E-07  0.6538734E-09 -0.5533170E-08
5701000. -0.1665442E-08  0.4523156E-06  0.6357342E-09  0.1991488E-07  0.6538734E-09 -0.5063742E-08
5667333. -0.3917618E-08  0.3963236E-06  0.5072041E-09  0.2839057E-07  0.6789140E-09 -0.4426080E-08
5633667. -0.5819949E-08  0.3208651E-06  0.3395208E-09  0.3469412E-07  0.7007768E-09 -0.3859674E-08
5600000. -0.7284774E-08  0.2317202E-06  0.1446370E-09  0.3867279E-07  0.7198059E-09 -0.3350214E-08
5600000. -0.7284774E-08  0.2317230E-06  0.1446370E-09  0.3867424E-07  0.7198059E-09 -0.3350214E-08
5563518. -0.8316574E-08  0.1270365E-06 -0.8529968E-10  0.4119984E-07  0.7374709E-09 -0.2818598E-08
5527037. -0.8727874E-08  0.1619190E-07 -0.3221686E-09  0.4109623E-07  0.7520755E-09 -0.2281652E-08
5490556. -0.8503934E-08 -0.9365617E-07 -0.5510600E-09  0.3844010E-07  0.7635908E-09 -0.1739477E-08
5454074. -0.7670449E-08 -0.1955942E-06 -0.7579681E-09  0.3346744E-07  0.7719854E-09 -0.1191442E-08
5417593. -0.6291094E-08 -0.2833600E-06 -0.9306236E-09  0.2655017E-07  0.7772227E-09 -0.6367119E-09
5381111. -0.4462476E-08 -0.3517249E-06 -0.1059223E-08  0.1816458E-07  0.7792638E-09 -0.7515297E-10
5344630. -0.2307734E-08 -0.3967516E-06 -0.1136890E-08  0.8856906E-08  0.7780721E-09  0.4921710E-09
5308148.  0.3189616E-10 -0.4160044E-06 -0.1159997E-08 -0.7954511E-09  0.7736207E-09  0.1062769E-08
5271667.  0.2405483E-08 -0.4086247E-06 -0.1128222E-08 -0.1021879E-07  0.7659023E-09  0.1632464E-08
5235185.  0.4661993E-08 -0.3753387E-06 -0.1044429E-08 -0.1887875E-07  0.7549373E-09  0.2195542E-08
5198704.  0.6658624E-08 -0.3183593E-06 -0.9143718E-09 -0.2630786E-07  0.7407844E-09  0.2744749E-08
5162222.  0.8269312E-08 -0.2412035E-06 -0.7462145E-09 -0.3213057E-07  0.7235453E-09  0.3271849E-08
5125741.  0.9391139E-08 -0.1484629E-06 -0.5499883E-09 -0.3607812E-07  0.7033737E-09  0.3767656E-08
5089259.  0.9949967E-08 -0.4549430E-07 -0.3369106E-09 -0.3799898E-07  0.6804739E-09  0.4222968E-08
5052778.  0.9903733E-08  0.6187902E-07 -0.1187498E-09 -0.3785979E-07  0.6551056E-09  0.4628607E-08
5016296.  0.9244222E-08  0.1677223E-06  0.9288788E-10 -0.3574085E-07  0.6275762E-09  0.4976239E-08
4979815.  0.7996858E-08  0.2662877E-06  0.2871330E-09 -0.3182528E-07  0.5982406E-09  0.5258620E-08
4943333.  0.6218554E-08  0.3523340E-06  0.4544431E-09 -0.2638263E-07  0.5674883E-09  0.5469966E-08
4906852.  0.3994380E-08  0.4213651E-06  0.5870039E-09 -0.1975044E-07  0.5357396E-09  0.5606491E-08
4870370.  0.1432244E-08  0.4698528E-06  0.6790895E-09 -0.1231095E-07  0.5034275E-09  0.5666284E-08
4833889. -0.1342570E-08  0.4953678E-06  0.7272281E-09 -0.4469927E-08  0.4709935E-09  0.5649599E-08
4797407. -0.4194567E-08  0.4966795E-06  0.7302892E-09  0.3367091E-08  0.4388680E-09  0.5558789E-08
4760926. -0.6984361E-08  0.4737646E-06  0.6894147E-09  0.1081430E-07  0.4074656E-09  0.5398257E-08
4724444. -0.9576113E-08  0.4277665E-06  0.6078482E-09  0.1752534E-07  0.3771669E-09  0.5174139E-08
4687963. -0.1184338E-07  0.3609065E-06  0.4906784E-09  0.2320681E-07  0.3483164E-09  0.4894108E-08
4651482. -0.1367539E-07  0.2763286E-06  0.3444841E-09  0.2763077E-07  0.3212084E-09  0.4567077E-08
4615000. -0.1498153E-07  0.1779204E-06  0.1769434E-09  0.3064120E-07  0.2960840E-09  0.4202690E-08
4578518. -0.1569504E-07  0.7011116E-07 -0.3576869E-11  0.3215687E-07  0.2731289E-09  0.3811131E-08
4542037. -0.1577558E-07 -0.4235487E-07 -0.1884577E-09  0.3217079E-07  0.2524704E-09  0.3402377E-08
4505556. -0.1521032E-07 -0.1546526E-06 -0.3692527E-09  0.3074564E-07  0.2341782E-09  0.2986218E-08
4469074. -0.1401375E-07 -0.2620878E-06 -0.5380554E-09  0.2800594E-07  0.2182682E-09  0.2571597E-08
4432593. -0.1222649E-07 -0.3602890E-06 -0.6878133E-09  0.2412854E-07  0.2047088E-09  0.2166553E-08
4396111. -0.9912632E-08 -0.4454023E-06 -0.8126245E-09  0.1933030E-07  0.1934249E-09  0.1777709E-08
4359630. -0.7156792E-08 -0.5142126E-06 -0.9079009E-09  0.1385626E-07  0.1843094E-09  0.1409958E-08
4323148. -0.4059576E-08 -0.5642664E-06 -0.9705159E-09  0.7965616E-08  0.1772303E-09  0.1066786E-08
4286667. -0.7336377E-09 -0.5939286E-06 -0.9988325E-09  0.1920274E-08  0.1720422E-09  0.7496319E-09
4250185.  0.2701783E-08 -0.6024134E-06 -0.9926936E-09 -0.4028158E-08  0.1685960E-09  0.4581357E-09
4213704.  0.6124997E-08 -0.5897746E-06 -0.9533320E-09 -0.9647286E-08  0.1667505E-09  0.1900393E-09
4177222.  0.9417288E-08 -0.5568570E-06 -0.8832283E-09 -0.1473372E-07  0.1663826E-09 -0.5880070E-10
4140741.  0.1246653E-07 -0.5052300E-06 -0.7859389E-09 -0.1911836E-07  0.1673983E-09 -0.2943910E-09
4104259.  0.1517174E-07 -0.4370764E-06 -0.6658670E-09 -0.2267187E-07  0.1697431E-09 -0.5244146E-09
4067778.  0.1744562E-07 -0.3550860E-06 -0.5280509E-09 -0.2530588E-07  0.1734118E-09 -0.7585624E-09
4031296.  0.1921768E-07 -0.2623143E-06 -0.3779013E-09 -0.2697387E-07  0.1784593E-09 -0.1007960E-08
3994815.  0.2043544E-07 -0.1620623E-06 -0.2209962E-09 -0.2766891E-07  0.1850093E-09 -0.1285763E-08
3958333.  0.2106585E-07 -0.5772429E-07 -0.6282980E-10 -0.2742056E-07  0.1932672E-09 -0.1607036E-08
3921852.  0.2109519E-07  0.4731860E-07  0.9134862E-10 -0.2629007E-07  0.2035285E-09 -0.1988631E-08
3885370.  0.2052877E-07  0.1498342E-06  0.2367348E-09 -0.2436457E-07  0.2161941E-09 -0.2450114E-08
3848889.  0.1938983E-07  0.2468173E-06  0.3690662E-09 -0.2175079E-07  0.2317829E-09 -0.3013765E-08
3812407.  0.1771783E-07  0.3355900E-06  0.4847463E-09 -0.1856808E-07  0.2509533E-09 -0.3705561E-08
3775926.  0.1556668E-07  0.4138390E-06  0.5808691E-09 -0.1494200E-07  0.2745222E-09 -0.4555720E-08
3739444.  0.1300214E-07  0.4796710E-06  0.6552590E-09 -0.1099694E-07  0.3034975E-09 -0.5600122E-08
3702963.  0.1009991E-07  0.5316052E-06  0.7064277E-09 -0.6850726E-08  0.3391092E-09 -0.6881803E-08
3666482.  0.6942717E-08  0.5685760E-06  0.7335325E-09 -0.2608087E-08  0.3828610E-09 -0.8452817E-08
3630000.  0.3618318E-08  0.5898891E-06  0.7362796E-09  0.1644100E-08  0.4365879E-09 -0.1037721E-07
3630000.  0.3618318E-08  0.5898857E-06  0.7362796E-09  0.1644026E-08  0.4365879E-09 -0.1037721E-07
3592500.  0.1174946E-09  0.5967835E-06  0.7136971E-09  0.6028318E-08  0.5045289E-09 -0.1278524E-07
3555000. -0.3372769E-08  0.5862209E-06  0.6653585E-09  0.1039093E-07  0.5881106E-09 -0.1571072E-07
3517500. -0.6748467E-08  0.5577963E-06  0.5914447E-09  0.1471880E-07  0.6907422E-09 -0.1928215E-07
3480000. -0.9903426E-08  0.5111530E-06  0.4921198E-09  0.1903161E-07  0.8166855E-09 -0.2366208E-07
3480000. -0.9903426E-08  0.7346286E-07 -0.6419842E-09 -0.1694413E-07  0.8166855E-09  0.7490017E-08
3409422. -0.1049168E-07  0.3636213E-07 -0.4435551E-09 -0.1877116E-07  0.5847383E-09  0.3269560E-07
3338844. -0.1079378E-07  0.2217382E-07 -0.2277196E-09 -0.2015992E-07  0.1224705E-09  0.4971027E-07
3268266. -0.1107510E-07  0.3295808E-07  0.3269896E-11 -0.2159572E-07 -0.4998319E-09  0.6216207E-07
3197688. -0.1162594E-07  0.7143058E-07  0.2530876E-09 -0.2366793E-07 -0.1250257E-08  0.7338284E-07
3127109. -0.1277879E-07  0.1428495E-06  0.5327255E-09 -0.2712002E-07 -0.2133219E-08  0.8664450E-07
3056531. -0.1494957E-07  0.2575136E-06  0.8627172E-09 -0.3295756E-07 -0.3190567E-08  0.1055115E-06
2985953. -0.1871263E-07  0.4344995E-06  0.1277065E-08 -0.4264791E-07 -0.4507665E-08  0.1343788E-06
2915375. -0.2492886E-07  0.7077637E-06  0.1830103E-08 -0.5847116E-07 -0.6226809E-08  0.1793047E-06
2844797. -0.3496349E-07  0.1136710E-05  0.2608594E-08 -0.8413555E-07 -0.8572465E-08  0.2493449E-06
2774219. -0.5106282E-07  0.1825177E-05  0.3753033E-08 -0.1258731E-06 -0.1189559E-07  0.3587475E-06
2703641. -0.7701983E-07  0.2956326E-05  0.5495505E-08 -0.1944281E-06 -0.1674990E-07  0.5306613E-06
2633062. -0.1193782E-06  0.4858183E-05  0.8228010E-08 -0.3087392E-06 -0.2402276E-07  0.8035489E-06
2562484. -0.1896533E-06  0.8128992E-05  0.1262748E-07 -0.5028992E-06 -0.3516102E-07  0.1242474E-05
2491906. -0.3085357E-06  0.1388266E-04  0.1989036E-07 -0.8396527E-06 -0.5256780E-07  0.1959427E-05
2421328. -0.5140014E-06  0.2423903E-04  0.3218078E-07 -0.1437093E-05 -0.8030656E-07  0.3150414E-05
2350750. -0.8773444E-06  0.4332683E-04  0.5350794E-07 -0.2522787E-05 -0.1253746E-06  0.5164497E-05
2280172. -0.1535630E-05  0.7938592E-04  0.9148575E-07 -0.4546332E-05 -0.2000448E-06  0.8634484E-05
2209594. -0.2759070E-05  0.1492892E-03  0.1609536E-06 -0.8419515E-05 -0.3262508E-06  0.1472871E-04
2139016. -0.5094658E-05  0.2885376E-03  0.2916304E-06 -0.1604321E-04 -0.5439464E-06  0.2564500E-04
2068438. -0.9681147E-05  0.5739991E-03  0.5447639E-06 -0.3149754E-04 -0.9273405E-06  0.4559666E-04
1997859. -0.1896079E-04  0.1177268E-02  0.1050465E-05 -0.6381555E-04 -0.1617020E-05  0.8281654E-04
1927281. -0.3833813E-04  0.2493920E-02  0.2094089E-05 -0.1336592E-03 -0.2884566E-05  0.1536901E-03
1856703. -0.8018294E-04  0.5468025E-02  0.4323252E-05 -0.2899751E-03 -0.5264999E-05  0.2914165E-03
1786125. -0.1738378E-03  0.1243714E-01  0.9261990E-05 -0.6531120E-03 -0.9831827E-05  0.5643165E-03
1715547. -0.3916294E-03  0.2942262E-01  0.2063888E-04 -0.1531038E-02 -0.1877448E-04  0.1114633E-02
1644969. -0.9193431E-03  0.7260919E-01  0.4796425E-04 -0.3746379E-02 -0.3661277E-04  0.2239654E-02
1574391. -0.2255909E-02  0.1875437E+00  0.1166096E-03 -0.9600583E-02 -0.7271366E-04  0.4553333E-02
1503812. -0.5807409E-02  0.5089540E+00  0.2976337E-03 -0.2586372E-01 -0.1462344E-03  0.9263895E-02
1433234. -0.1574902E-01  0.1457505E+01  0.8008091E-03 -0.7356434E-01 -0.2943019E-03  0.1840905E-01
1362656. -0.4520940E-01  0.4426914E+01  0.2282165E-02 -0.2220327E+00 -0.5771825E-03  0.3354618E-01
1292078. -0.1381463E+00  0.1434516E+02  0.6927045E-02 -0.7152879E+00 -0.1026812E-02  0.4380248E-01
1221500. -0.4523078E+00  0.4993601E+02  0.2254055E-01 -0.2476509E+01 -0.1218424E-02 -0.4674451E-01
1221500. -0.4523078E+00  0.9330514E+01  0.5142007E-02  0.2385929E+01 -0.1218424E-02  0.1491970E+00
1183328. -0.4468917E+00 -0.8573384E+01 -0.4289209E-02  0.9154305E+00 -0.1523657E-02 -0.1740875E-01
1145156. -0.3726234E+00 -0.1482819E+02 -0.7260777E-02  0.1677262E+00 -0.1247375E-02 -0.6250201E-01
1106984. -0.2810580E+00 -0.1507330E+02 -0.7129692E-02 -0.1603694E+00 -0.8655371E-03 -0.6078828E-01
1068812. -0.1971286E+00 -0.1270007E+02 -0.5786474E-02 -0.2618589E+00 -0.5445758E-03 -0.4559943E-01
1030641. -0.1302617E+00 -0.9600116E+01 -0.4206579E-02 -0.2541017E+00 -0.3191914E-03 -0.3008460E-01
 992469. -0.8163407E-01 -0.6710241E+01 -0.2823839E-02 -0.2040522E+00 -0.1765251E-03 -0.1823379E-01
 954297. -0.4867821E-01 -0.4398003E+01 -0.1775073E-02 -0.1464866E+00 -0.9270655E-04 -0.1034591E-01
 916125. -0.2765327E-01 -0.2721530E+01 -0.1051983E-02 -0.9680733E-01 -0.4637218E-04 -0.5546622E-02
 877953. -0.1496434E-01 -0.1595119E+01 -0.5895829E-03 -0.5968276E-01 -0.2211159E-04 -0.2821684E-02
 839781. -0.7705041E-02 -0.8863639E+00 -0.3127334E-03 -0.3453825E-01 -0.1004494E-04 -0.1364186E-02
 801609. -0.3767320E-02 -0.4666941E+00 -0.1568841E-03 -0.1880752E-01 -0.4340041E-05 -0.6266118E-03
 763438. -0.1744319E-02 -0.2324385E+00 -0.7428868E-04 -0.9637997E-02 -0.1778608E-05 -0.2729918E-03
 725266. -0.7620288E-03 -0.1092009E+00 -0.3310432E-04 -0.4640616E-02 -0.6888087E-06 -0.1124690E-03
 687094. -0.3127009E-03 -0.4821195E-01 -0.1382647E-04 -0.2093222E-02 -0.2509144E-06 -0.4364799E-04
 648922. -0.1198714E-03 -0.1990640E-01 -0.5384683E-05 -0.8807472E-03 -0.8547265E-07 -0.1587190E-04
 610750. -0.4264129E-04 -0.7640359E-02 -0.1942842E-05 -0.3437464E-03 -0.2703592E-07 -0.5373077E-05
 572578. -0.1396179E-04 -0.2705624E-02 -0.6443099E-06 -0.1235548E-03 -0.7872333E-08 -0.1679789E-05
 534406. -0.4166064E-05 -0.8758603E-03 -0.1944800E-06 -0.4053216E-04 -0.2087883E-08 -0.4801652E-06
 496234. -0.1119050E-05 -0.2562262E-03 -0.5278317E-07 -0.1199900E-04 -0.4978298E-09 -0.1239571E-06
 458062. -0.2664702E-06 -0.6676855E-04 -0.1268634E-07 -0.3160080E-05 -0.1049921E-09 -0.2845923E-07
 419891. -0.5516923E-07 -0.1521734E-04 -0.2648533E-08 -0.7270544E-06 -0.1918629E-10 -0.5698424E-08
 381719. -0.9684043E-08 -0.2962087E-05 -0.4683764E-09 -0.1427146E-06 -0.2958132E-11 -0.9702869E-09
 343547. -0.1394314E-08 -0.4772629E-06 -0.6788179E-10 -0.2316579E-07 -0.3715336E-12 -0.1359054E-09
 305375. -0.1574799E-09 -0.6100163E-07 -0.7709252E-11 -0.2979277E-08 -0.3627074E-13 -0.1491127E-10
 267203.  0.0000000E+00  0.0000000E+00  0.0000000E+00  0.0000000E+00  0.0000000E+00  0.0000000E+00
 229031.  0.0000000E+00  0.0000000E+00  0.0000000E+00  0.0000000E+00  0.0000000E+00  0.0000000E+00
 190859.  0.0000000E+00  0.0000000E+00  0.0000000E+00  0.0000000E+00  0.0000000E+00  0.0000000E+00
 152688.  0.0000000E+00  0.0000000E+00  0.0000000E+00  0.0000000E+00  0.0000000E+00  0.0000000E+00
 114516.  0.0000000E+00  0.0000000E+00  0.0000000E+00  0.0000000E+00  0.0000000E+00  0.0000000E+00
  76344.  0.0000000E+00  0.0000000E+00  0.0000000E+00  0.0000000E+00  0.0000000E+00  0.0000000E+00
  38172.  0.0000000E+00  0.0000000E+00  0.0000000E+00  0.0000000E+00  0.0000000E+00  0.0000000E+00
      0.  0.0000000E+00  0.0000000E+00  0.0000000E+00  0.0000000E+00  0.0000000E+00  0.0000000E+00
