      13       18 S      596        106.74820         20.27006         12.18303        490.44669      185    7
6371000.  0.4534079E-01  0.1056439E-02  0.2730113E-03 -0.4506778E-01 -0.2190060E-03 -0.8134101E-01
6370000.  0.4533821E-01  0.3183714E-01  0.2800427E-03 -0.4452246E-01 -0.2062377E-03 -0.8135141E-01
6369000.  0.4533080E-01  0.6260326E-01  0.2869866E-03 -0.4395200E-01 -0.1934684E-03 -0.8135412E-01
6368000.  0.4531856E-01  0.9335077E-01  0.2938389E-03 -0.4335657E-01 -0.1806992E-03 -0.8134910E-01
6368000.  0.4531856E-01  0.9335077E-01  0.2938389E-03 -0.4335657E-01 -0.1806992E-03 -0.8134910E-01
6367000.  0.4530149E-01  0.1240756E+00  0.3005959E-03 -0.4273636E-01 -0.1679314E-03 -0.8133637E-01
6366000.  0.4527961E-01  0.1547738E+00  0.3072536E-03 -0.4209155E-01 -0.1551663E-03 -0.8131592E-01
6365000.  0.4525291E-01  0.1854412E+00  0.3138081E-03 -0.4142236E-01 -0.1424050E-03 -0.8128776E-01
6364000.  0.4522140E-01  0.2160740E+00  0.3202557E-03 -0.4072899E-01 -0.1296486E-03 -0.8125187E-01
6363000.  0.4518508E-01  0.2466680E+00  0.3265926E-03 -0.4001166E-01 -0.1168986E-03 -0.8120827E-01
6362000.  0.4514396E-01  0.2772193E+00  0.3328150E-03 -0.3927059E-01 -0.1041559E-03 -0.8115696E-01
6361000.  0.4509806E-01  0.3077240E+00  0.3389193E-03 -0.3850603E-01 -0.9142198E-04 -0.8109793E-01
6360000.  0.4504737E-01  0.3381780E+00  0.3449017E-03 -0.3771823E-01 -0.7869788E-04 -0.8103119E-01
6359000.  0.4499190E-01  0.3685774E+00  0.3507587E-03 -0.3690743E-01 -0.6598487E-04 -0.8095674E-01
6358000.  0.4493166E-01  0.3989182E+00  0.3564866E-03 -0.3607391E-01 -0.5328414E-04 -0.8087459E-01
6357000.  0.4486667E-01  0.4291966E+00  0.3620819E-03 -0.3521793E-01 -0.4059692E-04 -0.8078475E-01
6356000.  0.4479693E-01  0.4594086E+00  0.3675411E-03 -0.3433977E-01 -0.2792440E-04 -0.8068720E-01
6356000.  0.4479693E-01  0.3028667E+00  0.3675411E-03 -0.3838090E-01 -0.2792440E-04 -0.9043449E-01
6355000.  0.4474765E-01  0.3249925E+00  0.3735199E-03 -0.3779835E-01 -0.1373464E-04 -0.9037048E-01
6354000.  0.4469491E-01  0.3470805E+00  0.3794061E-03 -0.3720083E-01  0.4446167E-06 -0.9030063E-01
6353000.  0.4463870E-01  0.3691283E+00  0.3851973E-03 -0.3658847E-01  0.1461245E-04 -0.9022493E-01
6352000.  0.4457904E-01  0.3911340E+00  0.3908913E-03 -0.3596140E-01  0.2876794E-04 -0.9014339E-01
6351000.  0.4451592E-01  0.4130952E+00  0.3964857E-03 -0.3531977E-01  0.4291018E-04 -0.9005602E-01
6350000.  0.4444936E-01  0.4350100E+00  0.4019782E-03 -0.3466370E-01  0.5703825E-04 -0.8996283E-01
6349000.  0.4437936E-01  0.4568762E+00  0.4073666E-03 -0.3399334E-01  0.7115123E-04 -0.8986381E-01
6348000.  0.4430594E-01  0.4786916E+00  0.4126487E-03 -0.3330885E-01  0.8524821E-04 -0.8975897E-01
6347000.  0.4422909E-01  0.5004541E+00  0.4178223E-03 -0.3261036E-01  0.9932828E-04 -0.8964831E-01
6346600.  0.4419740E-01  0.5091439E+00  0.4198608E-03 -0.3232709E-01  0.1049554E-03 -0.8960243E-01
6346600.  0.4419740E-01  0.3241659E+00  0.4198608E-03 -0.3610153E-01  0.1049554E-03 -0.1050134E+00
6318800.  0.4182662E-01  0.7573295E+00  0.5389449E-03 -0.1720133E-01  0.5565192E-03 -0.1013798E+00
6291000.  0.3765164E-01  0.1146981E+01  0.5608765E-03  0.7923630E-02  0.9847063E-03 -0.9431649E-01
6291000.  0.3765164E-01  0.1163114E+01  0.5608765E-03  0.9445334E-02  0.9847063E-03 -0.9431649E-01
6263000.  0.3178977E-01  0.1491210E+01  0.4556458E-03  0.3855092E-01  0.1377087E-02 -0.8370616E-01
6235000.  0.2467161E-01  0.1732599E+01  0.2242951E-03  0.6610591E-01  0.1716002E-02 -0.7005093E-01
6207000.  0.1670144E-01  0.1878100E+01 -0.1168734E-03  0.8785326E-01  0.1989023E-02 -0.5380593E-01
6179000.  0.8305506E-02  0.1926890E+01 -0.5340697E-03  0.1001854E+00  0.2185985E-02 -0.3554194E-01
6151000. -0.1037331E-03  0.1885891E+01 -0.9800278E-03  0.1006517E+00  0.2299443E-02 -0.1592280E-01
6151000. -0.1037331E-03  0.1493342E+01 -0.9800278E-03  0.8839394E-01  0.2299443E-02 -0.1591706E-01
6128500. -0.5198252E-02  0.1387572E+01 -0.1278428E-02  0.7955002E-01  0.2332448E-02 -0.2763300E-02
6106000. -0.9880087E-02  0.1261122E+01 -0.1534909E-02  0.6477425E-01  0.2319030E-02  0.1033131E-01
6083500. -0.1409180E-01  0.1122741E+01 -0.1730038E-02  0.4499312E-01  0.2259830E-02  0.2312514E-01
6061000. -0.1780565E-01  0.9804126E+00 -0.1848318E-02  0.2149224E-01  0.2156316E-02  0.3538909E-01
6038500. -0.2102004E-01  0.8408798E+00 -0.1879274E-02 -0.4186474E-02  0.2010743E-02  0.4690973E-01
6016000. -0.2375438E-01  0.7092637E+00 -0.1818160E-02 -0.3036392E-01  0.1826086E-02  0.5749248E-01
5993500. -0.2604303E-01  0.5888703E+00 -0.1666215E-02 -0.5534806E-01  0.1605967E-02  0.6696489E-01
5971000. -0.2792871E-01  0.4811445E+00 -0.1430499E-02 -0.7755575E-01  0.1354580E-02  0.7517760E-01
5971000. -0.2792871E-01  0.4205025E+00 -0.1430499E-02 -0.6589690E-01  0.1354580E-02  0.7883371E-01
5937667. -0.2971658E-01  0.2683657E+00 -0.1028403E-02 -0.8621886E-01  0.9148643E-03  0.8873419E-01
5904333. -0.3078727E-01  0.1450069E+00 -0.5457501E-03 -0.9657976E-01  0.4315574E-03  0.9548213E-01
5871000. -0.3126846E-01  0.4140743E-01 -0.3512040E-04 -0.9703780E-01 -0.7876992E-04  0.9907819E-01
5837667. -0.3123811E-01 -0.5208213E-01  0.4545006E-03 -0.8883567E-01 -0.5998788E-03  0.9962916E-01
5804333. -0.3072639E-01 -0.1438067E+00  0.8829162E-03 -0.7402400E-01 -0.1116327E-02  0.9732974E-01
5771000. -0.2972618E-01 -0.2395275E+00  0.1221861E-02 -0.5506372E-01 -0.1613843E-02  0.9244712E-01
5771000. -0.2972618E-01 -0.2395064E+00  0.1221861E-02 -0.5506081E-01 -0.1613843E-02  0.9244712E-01
5701000. -0.2569873E-01 -0.5017484E+00  0.1613781E-02 -0.1561247E-01 -0.2533121E-02  0.7336555E-01
5701000. -0.2569873E-01 -0.3844366E+00  0.1613781E-02 -0.5964697E-02 -0.2533121E-02  0.8060910E-01
5667333. -0.2331517E-01 -0.5183563E+00  0.1601650E-02  0.9986239E-02 -0.2929444E-02  0.6914786E-01
5633667. -0.2022072E-01 -0.6521363E+00  0.1514983E-02  0.2212753E-01 -0.3261694E-02  0.5642097E-01
5600000. -0.1643812E-01 -0.7773451E+00  0.1375335E-02  0.3000179E-01 -0.3524124E-02  0.4277787E-01
5600000. -0.1643812E-01 -0.7773298E+00  0.1375335E-02  0.3000226E-01 -0.3524124E-02  0.4277787E-01
5563518. -0.1163290E-01 -0.8974683E+00  0.1189420E-02  0.3417975E-01 -0.3725116E-02  0.2733705E-01
5527037. -0.6209115E-02 -0.9919204E+00  0.9922779E-03  0.3398128E-01 -0.3836577E-02  0.1156989E-01
5490556. -0.3382839E-03 -0.1052373E+01  0.8075825E-03  0.2995835E-01 -0.3857681E-02 -0.4164573E-02
5454074.  0.5765940E-02 -0.1072542E+01  0.6547413E-03  0.2303254E-01 -0.3789586E-02 -0.1953126E-01
5417593.  0.1186085E-01 -0.1048833E+01  0.5471078E-03  0.1438006E-01 -0.3635290E-02 -0.3422507E-01
5381111.  0.1769261E-01 -0.9807619E+00  0.4908773E-03  0.5296700E-02 -0.3399422E-02 -0.4797925E-01
5344630.  0.2301325E-01 -0.8710920E+00  0.4848191E-03 -0.2938875E-02 -0.3088047E-02 -0.6056599E-01
5308148.  0.2760014E-01 -0.7256345E+00  0.5207390E-03 -0.9194364E-02 -0.2708379E-02 -0.7180156E-01
5271667.  0.3127111E-01 -0.5528157E+00  0.5846344E-03 -0.1258933E-01 -0.2268603E-02 -0.8154445E-01
5235185.  0.3389859E-01 -0.3629791E+00  0.6583802E-03 -0.1257228E-01 -0.1777541E-02 -0.8969653E-01
5198704.  0.3541747E-01 -0.1675825E+00  0.7217331E-03 -0.8961431E-02 -0.1244516E-02 -0.9619955E-01
5162222.  0.3582939E-01  0.2175950E-01  0.7544941E-03 -0.1948877E-02 -0.6790170E-03 -0.1010333E+00
5125741.  0.3520076E-01  0.1941496E+00  0.7385653E-03  0.7929475E-02 -0.9060777E-04 -0.1042119E+00
5089259.  0.3365620E-01  0.3402782E+00  0.6597587E-03  0.1985657E-01  0.5113793E-03 -0.1057796E+00
5052778.  0.3136762E-01  0.4530721E+00  0.5091851E-03  0.3281610E-01  0.1117877E-02 -0.1058068E+00
5016296.  0.2853955E-01  0.5282053E+00  0.2840940E-03  0.4569281E-01  0.1720352E-02 -0.1043859E+00
4979815.  0.2539313E-01  0.5643189E+00 -0.1181321E-04  0.5737274E-01  0.2310787E-02 -0.1016269E+00
4943333.  0.2214835E-01  0.5630335E+00 -0.3687315E-03  0.6684349E-01  0.2881903E-02 -0.9765418E-01
4906852.  0.1900831E-01  0.5286972E+00 -0.7715165E-03  0.7327794E-01  0.3427097E-02 -0.9260186E-01
4870370.  0.1614408E-01  0.4679303E+00 -0.1201025E-02  0.7610065E-01  0.3940621E-02 -0.8661135E-01
4833889.  0.1368407E-01  0.3890196E+00 -0.1635593E-02  0.7502765E-01  0.4417490E-02 -0.7982847E-01
4797407.  0.1170594E-01  0.3011702E+00 -0.2052863E-02  0.7008479E-01  0.4853612E-02 -0.7239955E-01
4760926.  0.1023406E-01  0.2137486E+00 -0.2431442E-02  0.6159455E-01  0.5245684E-02 -0.6447136E-01
4724444.  0.9240358E-02  0.1355128E+00 -0.2752596E-02  0.5014105E-01  0.5591280E-02 -0.5618675E-01
4687963.  0.8650132E-02  0.7393790E-01 -0.3001529E-02  0.3651856E-01  0.5888741E-02 -0.4768490E-01
4651482.  0.8350830E-02  0.3466175E-01 -0.3168451E-02  0.2165985E-01  0.6137216E-02 -0.3909826E-01
4615000.  0.8203877E-02  0.2109231E-01 -0.3249126E-02  0.6560997E-02  0.6336584E-02 -0.3055157E-01
4578518.  0.8058091E-02  0.3421343E-01 -0.3245014E-02 -0.7795758E-02  0.6487407E-02 -0.2216141E-01
4542037.  0.7763640E-02  0.7258271E-01 -0.3162982E-02 -0.2051586E-01  0.6590888E-02 -0.1403432E-01
4505556.  0.7185519E-02  0.1325092E+00 -0.3014617E-02 -0.3085624E-01  0.6648816E-02 -0.6265715E-02
4469074.  0.6215418E-02  0.2084220E+00 -0.2815201E-02 -0.3827272E-01  0.6663490E-02  0.1060606E-02
4432593.  0.4781313E-02  0.2933350E+00 -0.2582502E-02 -0.4245065E-01  0.6637653E-02  0.7872377E-02
4396111.  0.2853672E-02  0.3794509E+00 -0.2335374E-02 -0.4331842E-01  0.6574427E-02  0.1411074E-01
4359630.  0.4486726E-03  0.4587690E+00 -0.2092423E-02 -0.4104010E-01  0.6477237E-02  0.1972900E-01
4323148. -0.2372848E-02  0.5237083E+00 -0.1870666E-02 -0.3599213E-01  0.6349730E-02  0.2469388E-01
4286667. -0.5508903E-02  0.5676677E+00 -0.1684468E-02 -0.2872670E-01  0.6195723E-02  0.2898403E-01
4250185. -0.8824065E-02  0.5855244E+00 -0.1544622E-02 -0.1992149E-01  0.6019100E-02  0.3259062E-01
4213704. -0.1215830E-01  0.5739795E+00 -0.1457825E-02 -0.1032738E-01  0.5823785E-02  0.3551571E-01
4177222. -0.1533885E-01  0.5317793E+00 -0.1426394E-02 -0.7091347E-03  0.5613638E-02  0.3777194E-01
4140741. -0.1819145E-01  0.4597858E+00 -0.1448357E-02  0.8206649E-02  0.5392443E-02  0.3938086E-01
4104259. -0.2055301E-01  0.3608831E+00 -0.1517815E-02  0.1578263E-01  0.5163814E-02  0.4037166E-01
4067778. -0.2228196E-01  0.2397710E+00 -0.1625563E-02  0.2150840E-01  0.4931204E-02  0.4078000E-01
4031296. -0.2326825E-01  0.1026012E+00 -0.1759920E-02  0.2503035E-01  0.4697823E-02  0.4064574E-01
3994815. -0.2344011E-01 -0.4342100E-01 -0.1907655E-02  0.2616666E-01  0.4466668E-02  0.4001191E-01
3958333. -0.2276886E-01 -0.1905623E+00 -0.2055014E-02  0.2491108E-01  0.4240461E-02  0.3892272E-01
3921852. -0.2127057E-01 -0.3310198E+00 -0.2188678E-02  0.2142412E-01  0.4021696E-02  0.3742167E-01
3885370. -0.1900474E-01 -0.4574675E+00 -0.2296692E-02  0.1601337E-01  0.3812600E-02  0.3555046E-01
3848889. -0.1607067E-01 -0.5634722E+00 -0.2369208E-02  0.9106234E-02  0.3615192E-02  0.3334730E-01
3812407. -0.1260065E-01 -0.6438934E+00 -0.2399098E-02  0.1215159E-02  0.3431265E-02  0.3084531E-01
3775926. -0.8752435E-02 -0.6951514E+00 -0.2382320E-02 -0.7097790E-02  0.3262458E-02  0.2807176E-01
3739444. -0.4698837E-02 -0.7154398E+00 -0.2318101E-02 -0.1526023E-01  0.3110257E-02  0.2504645E-01
3702963. -0.6182360E-03 -0.7047777E+00 -0.2208896E-02 -0.2272277E-01  0.2976073E-02  0.2178130E-01
3666482.  0.3316630E-02 -0.6649851E+00 -0.2060159E-02 -0.2899151E-01  0.2861265E-02  0.1827894E-01
3630000.  0.6948289E-02 -0.5995487E+00 -0.1879951E-02 -0.3365174E-01  0.2767202E-02  0.1453205E-01
3630000.  0.6948289E-02 -0.5995432E+00 -0.1879951E-02 -0.3365154E-01  0.2767202E-02  0.1453205E-01
3592500.  0.1022485E-01 -0.5105353E+00 -0.1672238E-02 -0.3658596E-01  0.2693665E-02  0.1040657E-01
3555000.  0.1292629E-01 -0.4052454E+00 -0.1453515E-02 -0.3735477E-01  0.2645295E-02  0.5975034E-02
3517500.  0.1497763E-01 -0.2909279E+00 -0.1237083E-02 -0.3578871E-01  0.2624000E-02  0.1199619E-02
3480000.  0.1634914E-01 -0.1756367E+00 -0.1036909E-02 -0.3182946E-01  0.2631947E-02 -0.3971094E-02
3480000.  0.1634914E-01  0.5528393E-01 -0.1732391E-03  0.3025167E-01  0.2631947E-02 -0.5539876E-01
3409422.  0.1486030E-01  0.2053133E+00 -0.5027846E-03  0.2871443E-01  0.3315818E-02 -0.6501099E-01
3338844.  0.1199791E-01  0.3021896E+00 -0.7992467E-03  0.2442512E-01  0.4014730E-02 -0.5903327E-01
3268266.  0.8366724E-02  0.3447105E+00 -0.1037299E-02  0.1833615E-01  0.4586612E-02 -0.4298121E-01
3197688.  0.4535532E-02  0.3399903E+00 -0.1202516E-02  0.1143429E-01  0.4948799E-02 -0.2196340E-01
3127109.  0.9644403E-03  0.2999553E+00 -0.1290893E-02  0.4594575E-02  0.5070597E-02 -0.1920443E-03
3056531. -0.2030144E-02  0.2381722E+00 -0.1307062E-02 -0.1509254E-02  0.4961730E-02  0.1927075E-01
2985953. -0.4279545E-02  0.1673791E+00 -0.1261808E-02 -0.6441961E-02  0.4659195E-02  0.3455548E-01
2915375. -0.5743916E-02  0.9792034E-01 -0.1169434E-02 -0.1000009E-01  0.4214613E-02  0.4486011E-01
2844797. -0.6481133E-02  0.3703730E-01 -0.1045365E-02 -0.1217674E-01  0.3683581E-02  0.5022641E-01
2774219. -0.6611635E-02 -0.1117690E-01 -0.9042490E-03 -0.1310975E-01  0.3117777E-02  0.5127549E-01
2703641. -0.6285619E-02 -0.4534464E-01 -0.7586639E-03 -0.1302607E-01  0.2559990E-02  0.4895089E-01
2633062. -0.5656527E-02 -0.6613532E-01 -0.6184130E-03 -0.1219168E-01  0.2041788E-02  0.4430186E-01
2562484. -0.4862460E-02 -0.7553332E-01 -0.4903343E-03 -0.1087112E-01  0.1583319E-02  0.3832323E-01
2491906. -0.4015393E-02 -0.7616469E-01 -0.3784757E-03 -0.9298918E-02  0.1194485E-02  0.3185382E-01
2421328. -0.3197187E-02 -0.7076589E-01 -0.2845325E-03 -0.7663970E-02  0.8770064E-03  0.2552870E-01
2350750. -0.2460559E-02 -0.6181528E-01 -0.2083901E-03 -0.6103857E-02  0.6267442E-03  0.1977297E-01
2280172. -0.1833213E-02 -0.5132805E-01 -0.1486885E-03 -0.4706664E-02  0.4359199E-03  0.1482356E-01
2209594. -0.1323496E-02 -0.4077940E-01 -0.1033349E-03 -0.3518066E-02  0.2950048E-03  0.1076649E-01
2139016. -0.9263464E-03 -0.3112504E-01 -0.6992217E-04 -0.2550767E-02  0.1941563E-03  0.7579485E-02
2068438. -0.6286455E-03 -0.2287952E-01 -0.4603931E-04 -0.1794430E-02  0.1241897E-03  0.5172344E-02
1997859. -0.4135347E-03 -0.1622140E-01 -0.2947467E-04 -0.1224697E-02  0.7713581E-04  0.3420655E-02
1927281. -0.2635477E-03 -0.1110063E-01 -0.1832984E-04 -0.8105926E-03  0.4647373E-04  0.2191158E-02
1856703. -0.1625852E-03 -0.7333006E-02 -0.1105967E-04 -0.5199258E-03  0.2712579E-04  0.1358363E-02
1786125. -0.9698117E-04 -0.4674507E-02 -0.6465264E-05 -0.3228606E-03  0.1531520E-04  0.8140448E-03
1715547. -0.5585461E-04 -0.2873186E-02 -0.3655688E-05 -0.1938497E-03  0.8349417E-05  0.4709276E-03
1644969. -0.3100555E-04 -0.1700741E-02 -0.1995465E-05 -0.1123576E-03  0.4386123E-05  0.2625289E-03
1574391. -0.1655498E-04 -0.9679149E-03 -0.1049093E-05 -0.6274817E-04  0.2214846E-05  0.1407383E-03
1503812. -0.8482060E-05 -0.5284239E-03 -0.5297448E-06 -0.3369170E-04  0.1072009E-05  0.7237535E-04
1433234. -0.4161180E-05 -0.2757843E-03 -0.2559487E-06 -0.1736036E-04  0.4956066E-06  0.3560545E-04
1362656. -0.1956514E-05 -0.1364249E-03 -0.1173915E-06 -0.8599213E-05  0.2177943E-06  0.1671070E-04
1292078. -0.9027279E-06 -0.6145673E-04 -0.4946166E-07 -0.4207588E-05  0.9012766E-07  0.7473306E-05
1221500. -0.4806054E-06 -0.1757509E-04 -0.1466876E-07 -0.2430296E-05  0.3415722E-07  0.3194090E-05
1221500. -0.4806054E-06  0.3260748E-04  0.1781921E-07  0.2599642E-05  0.3415722E-07  0.3402290E-05
1183328. -0.6139057E-06  0.1281870E-04  0.4783191E-08  0.1774097E-05  0.1861397E-07  0.1918806E-05
1145156. -0.6451731E-06 -0.1491974E-05 -0.3707420E-08  0.1082975E-05  0.9924819E-08  0.1060948E-05
1106984. -0.6062023E-06 -0.1071926E-04 -0.8478333E-08  0.5340264E-06  0.5166167E-08  0.5740657E-06
1068812. -0.5254756E-06 -0.1557236E-04 -0.1040225E-07  0.1326974E-06  0.2618192E-08  0.3032982E-06
1030641. -0.4264390E-06 -0.1700389E-04 -0.1035077E-07 -0.1276358E-06  0.1287591E-08  0.1560369E-06
 992469. -0.3264499E-06 -0.1606402E-04 -0.9115311E-08 -0.2667234E-06  0.6118904E-09  0.7789814E-07
 954297. -0.2366813E-06 -0.1374616E-04 -0.7339685E-08 -0.3131209E-06  0.2794981E-09  0.3757806E-07
 916125. -0.1628259E-06 -0.1087035E-04 -0.5485615E-08 -0.2980150E-06  0.1218519E-09  0.1741843E-07
 877953. -0.1063464E-06 -0.8023422E-05 -0.3834294E-08 -0.2496963E-06  0.5021332E-10  0.7702210E-08
 839781. -0.6591003E-07 -0.5555274E-05 -0.2515582E-08 -0.1900061E-06  0.1927675E-10  0.3216540E-08
 801609. -0.3871089E-07 -0.3616057E-05 -0.1551128E-08 -0.1332042E-06  0.6729719E-11  0.1249667E-08
 763438. -0.2150133E-07 -0.2213573E-05 -0.8986153E-09 -0.8661546E-07  0.2037269E-11  0.4406494E-09
 725266. -0.1126135E-07 -0.1272921E-05 -0.4883149E-09 -0.5238180E-07  0.4696508E-12  0.1343270E-09
 687094. -0.5541307E-08 -0.6860581E-06 -0.2482103E-09 -0.2946593E-07  0.3408195E-13  0.3091721E-10
 648922. -0.2549912E-08 -0.3453557E-06 -0.1175500E-09 -0.1538900E-07 -0.4448570E-13  0.2069068E-11
 610750. -0.1091058E-08 -0.1616133E-06 -0.5160049E-10 -0.7435397E-08 -0.3577678E-13 -0.3085999E-11
 572578. -0.4310448E-09 -0.6987867E-07 -0.2085612E-10 -0.3306071E-08 -0.1824804E-13 -0.2433807E-11
 534406. -0.1558742E-09 -0.2770129E-07 -0.7697114E-11 -0.1343175E-08 -0.7442117E-14 -0.1223543E-11
 496234. -0.5104021E-10 -0.9969585E-08 -0.2566617E-11 -0.4939737E-09 -0.2561632E-14 -0.4892688E-12
 458062. -0.1492965E-10 -0.3217039E-08 -0.7630260E-12 -0.1624675E-09 -0.7536667E-15 -0.1637458E-12
 419891. -0.3834532E-11 -0.9160168E-09 -0.1988225E-12 -0.4704476E-10 -0.1886212E-15 -0.4626588E-13
 381719. -0.8456176E-12 -0.2253974E-09 -0.4440973E-13 -0.1174822E-10 -0.3952449E-16 -0.1094245E-13
 343547. -0.1554633E-12 -0.4662357E-10 -0.8256984E-14 -0.2461734E-11 -0.6750249E-17 -0.2118709E-14
 305375. -0.2289053E-13 -0.7808014E-11 -0.1227789E-14 -0.4169204E-12 -0.9032872E-18 -0.3240824E-15
 267203. -0.2551441E-14 -0.1004071E-11 -0.1380209E-15 -0.5413444E-13 -0.8935891E-19 -0.3712966E-16
 229031. -0.1982500E-15 -0.9173341E-13 -0.1080046E-16 -0.4985549E-14 -0.6004754E-20 -0.2892842E-17
 190859.  0.0000000E+00  0.0000000E+00  0.0000000E+00  0.0000000E+00  0.0000000E+00  0.0000000E+00
 152688.  0.0000000E+00  0.0000000E+00  0.0000000E+00  0.0000000E+00  0.0000000E+00  0.0000000E+00
 114516.  0.0000000E+00  0.0000000E+00  0.0000000E+00  0.0000000E+00  0.0000000E+00  0.0000000E+00
  76344.  0.0000000E+00  0.0000000E+00  0.0000000E+00  0.0000000E+00  0.0000000E+00  0.0000000E+00
  38172.  0.0000000E+00  0.0000000E+00  0.0000000E+00  0.0000000E+00  0.0000000E+00  0.0000000E+00
      0.  0.0000000E+00  0.0000000E+00  0.0000000E+00  0.0000000E+00  0.0000000E+00  0.0000000E+00
