       7       17 S      418        151.33530         15.11504          6.01410        243.07950      185    7
6371000. -0.6839897E-02 -0.5551360E+00 -0.4659604E-02  0.2180293E-02  0.8931819E-03 -0.3178830E-02
6370000. -0.6752589E-02 -0.5573098E+00 -0.4659594E-02 -0.2307743E-02  0.8936645E-03 -0.2969304E-02
6369000. -0.6664954E-02 -0.5593067E+00 -0.4658879E-02 -0.6797402E-02  0.8941141E-03 -0.2760280E-02
6368000. -0.6577019E-02 -0.5611265E+00 -0.4657460E-02 -0.1128797E-01  0.8945310E-03 -0.2551770E-02
6368000. -0.6577019E-02 -0.5611265E+00 -0.4657460E-02 -0.1128797E-01  0.8945310E-03 -0.2551770E-02
6367000. -0.6488813E-02 -0.5627690E+00 -0.4655336E-02 -0.1577874E-01  0.8949152E-03 -0.2343782E-02
6366000. -0.6400363E-02 -0.5642340E+00 -0.4652507E-02 -0.2026900E-01  0.8952668E-03 -0.2136326E-02
6365000. -0.6311696E-02 -0.5655214E+00 -0.4648973E-02 -0.2475804E-01  0.8955859E-03 -0.1929413E-02
6364000. -0.6222842E-02 -0.5666310E+00 -0.4644735E-02 -0.2924514E-01  0.8958725E-03 -0.1723052E-02
6363000. -0.6133828E-02 -0.5675630E+00 -0.4639793E-02 -0.3372959E-01  0.8961268E-03 -0.1517253E-02
6362000. -0.6044681E-02 -0.5683171E+00 -0.4634147E-02 -0.3821069E-01  0.8963489E-03 -0.1312025E-02
6361000. -0.5955429E-02 -0.5688935E+00 -0.4627797E-02 -0.4268771E-01  0.8965387E-03 -0.1107380E-02
6360000. -0.5866101E-02 -0.5692921E+00 -0.4620746E-02 -0.4715996E-01  0.8966965E-03 -0.9033256E-03
6359000. -0.5776725E-02 -0.5695131E+00 -0.4612993E-02 -0.5162672E-01  0.8968223E-03 -0.6998727E-03
6358000. -0.5687328E-02 -0.5695564E+00 -0.4604539E-02 -0.5608727E-01  0.8969163E-03 -0.4970310E-03
6357000. -0.5597938E-02 -0.5694224E+00 -0.4595386E-02 -0.6054092E-01  0.8969784E-03 -0.2948103E-03
6356000. -0.5508583E-02 -0.5691110E+00 -0.4585535E-02 -0.6498696E-01  0.8970088E-03 -0.9322051E-04
6356000. -0.5508583E-02 -0.4935465E+00 -0.4585535E-02 -0.3885908E-01  0.8970088E-03  0.1105383E-02
6355000. -0.5431109E-02 -0.4936097E+00 -0.4579214E-02 -0.4168503E-01  0.8968153E-03  0.1359970E-02
6354000. -0.5353633E-02 -0.4935640E+00 -0.4572449E-02 -0.4450787E-01  0.8965819E-03  0.1614092E-02
6353000. -0.5276173E-02 -0.4934097E+00 -0.4565242E-02 -0.4732732E-01  0.8963087E-03  0.1867742E-02
6352000. -0.5198746E-02 -0.4931466E+00 -0.4557592E-02 -0.5014309E-01  0.8959956E-03  0.2120912E-02
6351000. -0.5121369E-02 -0.4927750E+00 -0.4549501E-02 -0.5295487E-01  0.8956429E-03  0.2373595E-02
6350000. -0.5044059E-02 -0.4922948E+00 -0.4540969E-02 -0.5576240E-01  0.8952505E-03  0.2625783E-02
6349000. -0.4966833E-02 -0.4917063E+00 -0.4531996E-02 -0.5856535E-01  0.8948186E-03  0.2877469E-02
6348000. -0.4889707E-02 -0.4910095E+00 -0.4522584E-02 -0.6136347E-01  0.8943473E-03  0.3128647E-02
6347000. -0.4812699E-02 -0.4902044E+00 -0.4512733E-02 -0.6415644E-01  0.8938365E-03  0.3379307E-02
6346600. -0.4781933E-02 -0.4898522E+00 -0.4508670E-02 -0.6527213E-01  0.8936212E-03  0.3479426E-02
6346600. -0.4781933E-02 -0.5600576E+00 -0.4508670E-02 -0.4397881E-01  0.8936212E-03  0.5146816E-02
6318800. -0.2408530E-02 -0.5171614E+00 -0.4195450E-02 -0.9894797E-01  0.8549216E-03  0.1253187E-01
6291000. -0.3589045E-03 -0.4123671E+00 -0.3653058E-02 -0.1484889E+00  0.7848245E-03  0.1952586E-01
6291000. -0.3589045E-03 -0.4267023E+00 -0.3653058E-02 -0.1537228E+00  0.7848245E-03  0.1952586E-01
6263000.  0.1164202E-02 -0.2574279E+00 -0.2878923E-02 -0.1967802E+00  0.6847074E-03  0.2595142E-01
6235000.  0.1834349E-02 -0.4088027E-01 -0.1940931E-02 -0.2278923E+00  0.5574831E-03  0.3185359E-01
6207000.  0.1477380E-02  0.2070569E+00 -0.8962198E-03 -0.2450880E+00  0.4055512E-03  0.3718837E-01
6179000. -0.4059813E-05  0.4675002E+00  0.1913426E-03 -0.2472927E+00  0.2314920E-03  0.4191681E-01
6151000. -0.2619928E-02  0.7197803E+00  0.1255270E-02 -0.2343961E+00  0.3805415E-04  0.4600037E-01
6151000. -0.2619928E-02  0.6120863E+00  0.1255270E-02 -0.2053486E+00  0.3805415E-04  0.4614532E-01
6128500. -0.5043580E-02  0.7570792E+00  0.1948574E-02 -0.1862114E+00 -0.1284377E-03  0.4806008E-01
6106000. -0.7939377E-02  0.8784490E+00  0.2563546E-02 -0.1611493E+00 -0.3008312E-03  0.4948649E-01
6083500. -0.1121359E-01  0.9705406E+00  0.3081075E-02 -0.1312171E+00 -0.4773939E-03  0.5042105E-01
6061000. -0.1475452E-01  0.1028851E+01  0.3486036E-02 -0.9760903E-01 -0.6563907E-03  0.5086567E-01
6038500. -0.1843681E-01  0.1050181E+01  0.3767701E-02 -0.6161321E-01 -0.8361018E-03  0.5082715E-01
6016000. -0.2212626E-01  0.1032731E+01  0.3919983E-02 -0.2456049E-01 -0.1014840E-02  0.5031725E-01
5993500. -0.2568486E-01  0.9761288E+00  0.3941496E-02  0.1222482E-01 -0.1190970E-02  0.4935293E-01
5971000. -0.2897577E-01  0.8814341E+00  0.3835453E-02  0.4747019E-01 -0.1362921E-02  0.4795490E-01
5971000. -0.2897577E-01  0.8393159E+00  0.3835453E-02  0.4609741E-01 -0.1362921E-02  0.5174807E-01
5937667. -0.3286857E-01  0.6396621E+00  0.3483238E-02  0.8692630E-01 -0.1625611E-02  0.4851777E-01
5904333. -0.3558949E-01  0.3942086E+00  0.2943908E-02  0.1174290E+00 -0.1869199E-02  0.4447436E-01
5871000. -0.3694488E-01  0.1207063E+00  0.2273661E-02  0.1369431E+00 -0.2089905E-02  0.3980473E-01
5837667. -0.3683483E-01 -0.1630601E+00  0.1529810E-02  0.1456582E+00 -0.2284953E-02  0.3469758E-01
5804333. -0.3524988E-01 -0.4404380E+00  0.7668372E-03  0.1444328E+00 -0.2452538E-02  0.2933435E-01
5771000. -0.3226294E-01 -0.6967585E+00  0.3346259E-04  0.1346068E+00 -0.2591762E-02  0.2388453E-01
5771000. -0.3226294E-01 -0.6967641E+00  0.3346259E-04  0.1346036E+00 -0.2591762E-02  0.2388453E-01
5701000. -0.2178331E-01 -0.1185120E+01 -0.1270176E-02  0.9788268E-01 -0.2781647E-02  0.1065980E-01
5701000. -0.2178331E-01 -0.9976833E+00 -0.1270176E-02  0.8215573E-01 -0.2781647E-02  0.1679973E-01
5667333. -0.1615226E-01 -0.1126176E+01 -0.1648292E-02  0.6062621E-01 -0.2859780E-02  0.1282523E-01
5633667. -0.9959082E-02 -0.1210193E+01 -0.1908600E-02  0.3777871E-01 -0.2917832E-02  0.9213435E-02
5600000. -0.3441229E-02 -0.1249028E+01 -0.2047304E-02  0.1478185E-01 -0.2957908E-02  0.6030007E-02
5600000. -0.3441229E-02 -0.1249050E+01 -0.2047304E-02  0.1478249E-01 -0.2957908E-02  0.6030007E-02
5563518.  0.3759745E-02 -0.1257594E+01 -0.2062357E-02 -0.9490170E-02 -0.2983534E-02  0.2965759E-02
5527037.  0.1086453E-01 -0.1215669E+01 -0.1940105E-02 -0.3298930E-01 -0.2992409E-02  0.1818304E-03
5490556.  0.1758894E-01 -0.1125237E+01 -0.1688067E-02 -0.5465472E-01 -0.2986171E-02 -0.2312019E-02
5454074.  0.2366588E-01 -0.9902817E+00 -0.1319460E-02 -0.7355861E-01 -0.2966487E-02 -0.4514925E-02
5417593.  0.2885584E-01 -0.8165833E+00 -0.8523912E-03 -0.8893687E-01 -0.2935007E-02 -0.6434280E-02
5381111.  0.3295740E-01 -0.6114051E+00 -0.3087567E-03 -0.1002172E+00 -0.2893314E-02 -0.8084184E-02
5344630.  0.3581377E-01 -0.3831752E+00  0.2867881E-03 -0.1070288E+00 -0.2842902E-02 -0.9484005E-02
5308148.  0.3731909E-01 -0.1410636E+00  0.9081245E-03 -0.1092096E+00 -0.2785132E-02 -0.1065729E-01
5271667.  0.3742108E-01  0.1053659E+00  0.1528718E-02 -0.1067981E+00 -0.2721233E-02 -0.1163044E-01
5235185.  0.3612237E-01  0.3465943E+00  0.2122873E-02 -0.1000221E+00 -0.2652266E-02 -0.1243101E-01
5198704.  0.3347930E-01  0.5734704E+00  0.2666627E-02 -0.8927849E-01 -0.2579144E-02 -0.1308694E-01
5162222.  0.2959834E-01  0.7776024E+00  0.3138769E-02 -0.7510553E-01 -0.2502614E-02 -0.1362474E-01
5125741.  0.2463165E-01  0.9516082E+00  0.3521459E-02 -0.5815548E-01 -0.2423285E-02 -0.1406977E-01
5089259.  0.1876953E-01  0.1089400E+01  0.3800877E-02 -0.3915907E-01 -0.2341616E-02 -0.1444418E-01
5052778.  0.1223371E-01  0.1186335E+01  0.3967507E-02 -0.1889563E-01 -0.2257962E-02 -0.1476737E-01
5016296.  0.5267280E-02  0.1239361E+01  0.4016368E-02  0.1844110E-02 -0.2172562E-02 -0.1505513E-01
4979815. -0.1873099E-02  0.1247059E+01  0.3946965E-02  0.2228485E-01 -0.2085588E-02 -0.1531965E-01
4943333. -0.8928093E-02  0.1209639E+01  0.3763115E-02  0.4169979E-01 -0.1997143E-02 -0.1556954E-01
4906852. -0.1564336E-01  0.1128889E+01  0.3472626E-02  0.5943118E-01 -0.1907298E-02 -0.1581001E-01
4870370. -0.2177975E-01  0.1008034E+01  0.3086784E-02  0.7491490E-01 -0.1816095E-02 -0.1604286E-01
4833889. -0.2711961E-01  0.8515875E+00  0.2619850E-02  0.8769160E-01 -0.1723585E-02 -0.1626712E-01
4797407. -0.3147499E-01  0.6651410E+00  0.2088330E-02  0.9742159E-01 -0.1629819E-02 -0.1648018E-01
4760926. -0.3469199E-01  0.4551495E+00  0.1510384E-02  0.1038866E+00 -0.1534879E-02 -0.1667681E-01
4724444. -0.3665590E-01  0.2286485E+00  0.9050033E-03  0.1069922E+00 -0.1438872E-02 -0.1685116E-01
4687963. -0.3729317E-01 -0.6952311E-02  0.2914427E-03  0.1067632E+00 -0.1341948E-02 -0.1699677E-01
4651482. -0.3657318E-01 -0.2441742E+00 -0.3115586E-03  0.1033353E+00 -0.1244289E-02 -0.1710697E-01
4615000. -0.3450769E-01 -0.4756930E+00 -0.8863285E-03  0.9694383E-01 -0.1146112E-02 -0.1717598E-01
4578518. -0.3114952E-01 -0.6945543E+00 -0.1416760E-02  0.8790914E-01 -0.1047669E-02 -0.1719878E-01
4542037. -0.2658984E-01 -0.8943925E+00 -0.1888793E-02  0.7662106E-01 -0.9492389E-03 -0.1717244E-01
4505556. -0.2095387E-01 -0.1069616E+01 -0.2290779E-02  0.6352025E-01 -0.8511040E-03 -0.1709553E-01
4469074. -0.1439629E-01 -0.1215529E+01 -0.2613692E-02  0.4908032E-01 -0.7535497E-03 -0.1696909E-01
4432593. -0.7096391E-02 -0.1328430E+01 -0.2851247E-02  0.3379161E-01 -0.6568562E-03 -0.1679664E-01
4396111.  0.7491872E-03 -0.1405702E+01 -0.2999995E-02  0.1814102E-01 -0.5612648E-03 -0.1658458E-01
4359630.  0.8931094E-02 -0.1445816E+01 -0.3059218E-02  0.2599748E-02 -0.4669817E-03 -0.1634240E-01
4323148.  0.1723524E-01 -0.1448335E+01 -0.3030816E-02 -0.1239418E-01 -0.3741398E-03 -0.1608270E-01
4286667.  0.2544719E-01 -0.1413880E+01 -0.2919083E-02 -0.2644424E-01 -0.2828011E-03 -0.1582112E-01
4250185.  0.3335977E-01 -0.1344039E+01 -0.2730425E-02 -0.3920846E-01 -0.1929176E-03 -0.1557715E-01
4213704.  0.4077665E-01 -0.1241295E+01 -0.2473056E-02 -0.5040300E-01 -0.1043295E-03 -0.1537360E-01
4177222.  0.4751874E-01 -0.1108881E+01 -0.2156608E-02 -0.5980951E-01 -0.1672665E-04 -0.1523695E-01
4140741.  0.5342663E-01 -0.9506822E+00 -0.1791807E-02 -0.6727448E-01  0.7035588E-04 -0.1519814E-01
4104259.  0.5836527E-01 -0.7710538E+00 -0.1390032E-02 -0.7271113E-01  0.1575799E-03 -0.1529181E-01
4067778.  0.6222505E-01 -0.5747105E+00 -0.9630162E-03 -0.7609507E-01  0.2458138E-03 -0.1555886E-01
4031296.  0.6492442E-01 -0.3665439E+00 -0.5224189E-03 -0.7746100E-01  0.3361824E-03 -0.1604469E-01
3994815.  0.6640974E-01 -0.1515162E+00 -0.7959342E-04 -0.7689611E-01  0.4300817E-03 -0.1680244E-01
3958333.  0.6665578E-01  0.6551500E-01  0.3547882E-03 -0.7453300E-01  0.5292456E-03 -0.1789340E-01
3921852.  0.6566457E-01  0.2798740E+00  0.7708765E-03 -0.7054181E-01  0.6357724E-03 -0.1938781E-01
3885370.  0.6346398E-01  0.4872164E+00  0.1159928E-02 -0.6512076E-01  0.7522104E-03 -0.2136901E-01
3848889.  0.6010585E-01  0.6835739E+00  0.1514350E-02 -0.5848784E-01  0.8816126E-03 -0.2393481E-01
3812407.  0.5566312E-01  0.8654630E+00  0.1827873E-02 -0.5087101E-01  0.1027659E-02 -0.2720218E-01
3775926.  0.5022770E-01  0.1029891E+01  0.2095507E-02 -0.4250076E-01  0.1194745E-02 -0.3131063E-01
3739444.  0.4390652E-01  0.1174422E+01  0.2313595E-02 -0.3359978E-01  0.1388165E-02 -0.3642898E-01
3702963.  0.3681957E-01  0.1297142E+01  0.2479694E-02 -0.2437745E-01  0.1614259E-02 -0.4276213E-01
3666482.  0.2909578E-01  0.1396672E+01  0.2592518E-02 -0.1502107E-01  0.1880679E-02 -0.5056009E-01
3630000.  0.2087050E-01  0.1472113E+01  0.2651772E-02 -0.5690438E-02  0.2196672E-02 -0.6013092E-01
3630000.  0.2087050E-01  0.1472104E+01  0.2651772E-02 -0.5690727E-02  0.2196672E-02 -0.6013092E-01
3592500.  0.1202733E-01  0.1528327E+01  0.2656848E-02  0.3962529E-02  0.2584836E-02 -0.7216191E-01
3555000.  0.2931216E-02  0.1557936E+01  0.2605244E-02  0.1355716E-01  0.3051393E-02 -0.8685954E-01
3517500. -0.6259272E-02  0.1560303E+01  0.2497460E-02  0.2304770E-01  0.3613791E-02 -0.1048424E+00
3480000. -0.1538229E-01  0.1534929E+01  0.2334133E-02  0.3243428E-01  0.4293563E-02 -0.1268863E+00
3480000. -0.1538229E-01  0.1143146E+00 -0.2589070E-02 -0.2337541E-01  0.4293563E-02 -0.7849995E-01
3409422. -0.1609415E-01  0.1794745E-01 -0.2315434E-02 -0.2571975E-01  0.4824171E-02 -0.2110489E-01
3338844. -0.1586461E-01 -0.5556726E-01 -0.2025404E-02 -0.2639175E-01  0.4835261E-02  0.1619402E-01
3268266. -0.1494527E-01 -0.1068607E+00 -0.1735575E-02 -0.2574315E-01  0.4521125E-02  0.3836751E-01
3197688. -0.1357046E-01 -0.1382940E+00 -0.1458600E-02 -0.2412909E-01  0.4025706E-02  0.4954302E-01
3127109. -0.1194227E-01 -0.1532027E+00 -0.1203309E-02 -0.2187925E-01  0.3451618E-02  0.5306414E-01
3056531. -0.1022348E-01 -0.1552707E+00 -0.9751274E-03 -0.1927868E-01  0.2868473E-02  0.5156382E-01
2985953. -0.8536173E-02 -0.1480943E+00 -0.7766063E-03 -0.1655816E-01  0.2320233E-02  0.4704931E-01
2915375. -0.6964481E-02 -0.1348930E+00 -0.6080554E-03 -0.1389252E-01  0.1831687E-02  0.4099271E-01
2844797. -0.5559744E-02 -0.1183509E+00 -0.4681429E-03 -0.1140419E-01  0.1413846E-02  0.3442395E-01
2774219. -0.4346825E-02 -0.1005629E+00 -0.3544425E-03 -0.9169568E-02  0.1068348E-02  0.2802000E-01
2703641. -0.3330590E-02 -0.8305068E-01 -0.2638990E-03 -0.7227217E-02  0.7909038E-03  0.2218643E-01
2633062. -0.2501937E-02 -0.6682544E-01 -0.1931981E-03 -0.5586686E-02  0.5738987E-03  0.1712901E-01
2562484. -0.1843025E-02 -0.5247579E-01 -0.1390444E-03 -0.4236785E-02  0.4082671E-03  0.1291427E-01
2491906. -0.1331373E-02 -0.4026029E-01 -0.9834578E-04 -0.3152579E-02  0.2847433E-03  0.9517388E-02
2421328. -0.9430405E-03 -0.3019984E-01 -0.6833430E-04 -0.2301573E-02  0.1946663E-03  0.6859875E-02
2350750. -0.6548031E-03 -0.2215699E-01 -0.4662199E-04 -0.1648298E-02  0.1304118E-03  0.4836907E-02
2280172. -0.4455228E-03 -0.1590201E-01 -0.3121455E-04 -0.1157604E-02  0.8557153E-04  0.3336292E-02
2209594. -0.2968788E-03 -0.1116316E-01 -0.2049457E-04 -0.7968950E-03  0.5496217E-04  0.2250612E-02
2139016. -0.1936206E-03 -0.7662801E-02 -0.1318529E-04 -0.5374087E-03  0.3452992E-04  0.1484181E-02
2068438. -0.1234923E-03 -0.5140948E-02 -0.8304472E-05 -0.3547802E-03  0.2120002E-04  0.9562056E-03
1997859. -0.7695368E-04 -0.3368698E-02 -0.5115025E-05 -0.2290809E-03  0.1270655E-04  0.6013681E-03
1927281. -0.4679988E-04 -0.2154164E-02 -0.3077409E-05 -0.1445294E-03  0.7425905E-05  0.3688315E-03
1856703. -0.2774117E-04 -0.1342890E-02 -0.1806072E-05 -0.8899055E-04  0.4225641E-05  0.2203403E-03
1786125. -0.1600367E-04 -0.8151043E-03 -0.1032371E-05 -0.5340105E-04  0.2337572E-05  0.1280346E-03
1715547. -0.8969329E-05 -0.4810555E-03 -0.5737950E-06 -0.3117826E-04  0.1254818E-05  0.7224565E-04
1644969. -0.4872641E-05 -0.2756767E-03 -0.3095712E-06 -0.1767300E-04  0.6523238E-06  0.3950894E-04
1574391. -0.2556565E-05 -0.1533475E-03 -0.1619673E-06 -0.9690289E-05  0.3277143E-06  0.2088951E-04
1503812. -0.1283504E-05 -0.8325727E-04 -0.8247591E-07 -0.5088417E-05  0.1588390E-06  0.1064271E-04
1433234. -0.5926927E-06 -0.4573621E-04 -0.4203750E-07 -0.2447908E-05  0.7436327E-07  0.5194824E-05
1362656. -0.1905992E-06 -0.3006241E-04 -0.2467640E-07 -0.7758719E-06  0.3405393E-07  0.2400619E-05
1292078.  0.1485062E-06 -0.3528344E-04 -0.2462259E-07  0.8535188E-06  0.1595530E-07  0.1040687E-05
1221500.  0.7296938E-06 -0.7964642E-04 -0.4910481E-07  0.4061632E-05  0.7844028E-08  0.5579115E-06
1221500.  0.7296938E-06 -0.1133399E-04 -0.8239323E-08 -0.3848851E-05  0.7844028E-08  0.2418053E-06
1183328.  0.7234669E-06  0.1071984E-04  0.7768592E-08 -0.1685956E-05  0.6153832E-08  0.2997986E-06
1145156.  0.6266259E-06  0.1998350E-04  0.1383248E-07 -0.4632048E-06  0.4426350E-08  0.2683554E-06
1106984.  0.4987185E-06  0.2181901E-04  0.1451362E-07  0.1580072E-06  0.2992388E-08  0.2086655E-06
1068812.  0.3727720E-06  0.1980202E-04  0.1266097E-07  0.4150592E-06  0.1924857E-08  0.1489297E-06
1030641.  0.2645571E-06  0.1618840E-04  0.9943054E-08  0.4682831E-06  0.1185876E-08  0.9987691E-07
 992469.  0.1793038E-06  0.1229479E-04  0.7247602E-08  0.4208966E-06  0.7021580E-09  0.6366572E-07
 954297.  0.1164005E-06  0.8801454E-05  0.4973856E-08  0.3352357E-06  0.4002177E-09  0.3880651E-07
 916125.  0.7247157E-07  0.5982807E-05  0.3236984E-08  0.2456525E-06  0.2196792E-09  0.2268807E-07
 877953.  0.4327824E-07  0.3875920E-05  0.2004753E-08  0.1684086E-06  0.1160567E-09  0.1273731E-07
 839781.  0.2476938E-07  0.2396695E-05  0.1183108E-08  0.1088897E-06  0.5893518E-10  0.6865873E-08
 801609.  0.1356537E-07  0.1414598E-05  0.6652085E-09  0.6665406E-07  0.2871034E-10  0.3549609E-08
 763438.  0.7093351E-08  0.7961002E-06  0.3558757E-09  0.3867125E-07  0.1338170E-10  0.1756657E-08
 725266.  0.3530853E-08  0.4263058E-06  0.1807341E-09  0.2125264E-07  0.5947363E-11  0.8298280E-09
 687094.  0.1666917E-08  0.2165808E-06  0.8685351E-10  0.1104205E-07  0.2510100E-11  0.3728767E-09
 648922.  0.7429727E-09  0.1039876E-06  0.3932912E-10  0.5406443E-08  0.1000970E-11  0.1586443E-09
 610750.  0.3109103E-09  0.4695381E-07  0.1669236E-10  0.2483584E-08  0.3748721E-12  0.6355783E-10
 572578.  0.1213232E-09  0.1981622E-07  0.6596783E-11  0.1064249E-08  0.1308782E-12  0.2381454E-10
 534406.  0.4377980E-10  0.7757399E-08  0.2407711E-11  0.4222892E-09  0.4221397E-13  0.8275510E-11
 496234.  0.1445919E-10  0.2790127E-08  0.8033617E-12  0.1537227E-09  0.1244043E-13  0.2639488E-11
 458062.  0.4314729E-11  0.9110634E-09  0.2419345E-12  0.5073471E-10  0.3303706E-14  0.7627888E-12
 419891.  0.1144496E-11  0.2660054E-09  0.6470147E-13  0.1495438E-10  0.7769063E-15  0.1964793E-12
 381719.  0.2641939E-12  0.6808622E-10  0.1504486E-13  0.3859992E-11  0.1581674E-15  0.4416073E-13
 343547.  0.5161574E-13  0.1488481E-10  0.2958332E-14  0.8501240E-12  0.2706062E-16  0.8422210E-14
 305375.  0.8217970E-14  0.2682646E-11  0.4736742E-15  0.1542104E-12  0.3736951E-17  0.1312282E-14
 267203.  0.1011391E-14  0.3792293E-12  0.5856816E-16  0.2191585E-13  0.3937643E-18  0.1580653E-15
 229031.  0.0000000E+00  0.0000000E+00  0.0000000E+00  0.0000000E+00  0.0000000E+00  0.0000000E+00
 190859.  0.0000000E+00  0.0000000E+00  0.0000000E+00  0.0000000E+00  0.0000000E+00  0.0000000E+00
 152688.  0.0000000E+00  0.0000000E+00  0.0000000E+00  0.0000000E+00  0.0000000E+00  0.0000000E+00
 114516.  0.0000000E+00  0.0000000E+00  0.0000000E+00  0.0000000E+00  0.0000000E+00  0.0000000E+00
  76344.  0.0000000E+00  0.0000000E+00  0.0000000E+00  0.0000000E+00  0.0000000E+00  0.0000000E+00
  38172.  0.0000000E+00  0.0000000E+00  0.0000000E+00  0.0000000E+00  0.0000000E+00  0.0000000E+00
      0.  0.0000000E+00  0.0000000E+00  0.0000000E+00  0.0000000E+00  0.0000000E+00  0.0000000E+00
