       0       21 S       20        336.28079          5.53665          3.92364        232.60190      185    7
6371000.  0.2392505E+00 -0.1619250E+01 -0.7873093E-02 -0.2471236E+00 -0.9408767E-02 -0.2441775E+00
6370000.  0.2395028E+00 -0.1596176E+01 -0.7834267E-02 -0.2475958E+00 -0.9370546E-02 -0.2428331E+00
6369000.  0.2397515E+00 -0.1573061E+01 -0.7795367E-02 -0.2480601E+00 -0.9332536E-02 -0.2414889E+00
6368000.  0.2399966E+00 -0.1549905E+01 -0.7756395E-02 -0.2485165E+00 -0.9294737E-02 -0.2401450E+00
6368000.  0.2399966E+00 -0.1549905E+01 -0.7756395E-02 -0.2485165E+00 -0.9294737E-02 -0.2401450E+00
6367000.  0.2402381E+00 -0.1526711E+01 -0.7717353E-02 -0.2489651E+00 -0.9257149E-02 -0.2388013E+00
6366000.  0.2404759E+00 -0.1503478E+01 -0.7678240E-02 -0.2494057E+00 -0.9219772E-02 -0.2374579E+00
6365000.  0.2407100E+00 -0.1480206E+01 -0.7639059E-02 -0.2498384E+00 -0.9182606E-02 -0.2361147E+00
6364000.  0.2409406E+00 -0.1456896E+01 -0.7599811E-02 -0.2502632E+00 -0.9145650E-02 -0.2347717E+00
6363000.  0.2411674E+00 -0.1433549E+01 -0.7560496E-02 -0.2506800E+00 -0.9108906E-02 -0.2334290E+00
6362000.  0.2413906E+00 -0.1410166E+01 -0.7521118E-02 -0.2510889E+00 -0.9072372E-02 -0.2320864E+00
6361000.  0.2416101E+00 -0.1386746E+01 -0.7481675E-02 -0.2514898E+00 -0.9036048E-02 -0.2307441E+00
6360000.  0.2418259E+00 -0.1363291E+01 -0.7442169E-02 -0.2518827E+00 -0.8999936E-02 -0.2294019E+00
6359000.  0.2420381E+00 -0.1339800E+01 -0.7402603E-02 -0.2522676E+00 -0.8964034E-02 -0.2280599E+00
6358000.  0.2422465E+00 -0.1316275E+01 -0.7362978E-02 -0.2526445E+00 -0.8928343E-02 -0.2267180E+00
6357000.  0.2424513E+00 -0.1292717E+01 -0.7323293E-02 -0.2530134E+00 -0.8892862E-02 -0.2253762E+00
6356000.  0.2426523E+00 -0.1269125E+01 -0.7283552E-02 -0.2533742E+00 -0.8857592E-02 -0.2240346E+00
6356000.  0.2426523E+00 -0.1166550E+01 -0.7283552E-02 -0.2522451E+00 -0.8857592E-02 -0.2768330E+00
6355000.  0.2428340E+00 -0.1148575E+01 -0.7243972E-02 -0.2520724E+00 -0.8814254E-02 -0.2753868E+00
6354000.  0.2430129E+00 -0.1130598E+01 -0.7204420E-02 -0.2518964E+00 -0.8771142E-02 -0.2739430E+00
6353000.  0.2431889E+00 -0.1112621E+01 -0.7164896E-02 -0.2517169E+00 -0.8728256E-02 -0.2725015E+00
6352000.  0.2433621E+00 -0.1094642E+01 -0.7125400E-02 -0.2515341E+00 -0.8685597E-02 -0.2710623E+00
6351000.  0.2435326E+00 -0.1076663E+01 -0.7085934E-02 -0.2513479E+00 -0.8643164E-02 -0.2696253E+00
6350000.  0.2437001E+00 -0.1058684E+01 -0.7046497E-02 -0.2511582E+00 -0.8600956E-02 -0.2681905E+00
6349000.  0.2438649E+00 -0.1040705E+01 -0.7007090E-02 -0.2509652E+00 -0.8558973E-02 -0.2667580E+00
6348000.  0.2440268E+00 -0.1022726E+01 -0.6967714E-02 -0.2507689E+00 -0.8517215E-02 -0.2653277E+00
6347000.  0.2441860E+00 -0.1004747E+01 -0.6928368E-02 -0.2505691E+00 -0.8475681E-02 -0.2638996E+00
6346600.  0.2442488E+00 -0.9975559E+00 -0.6912639E-02 -0.2504882E+00 -0.8459129E-02 -0.2633289E+00
6346600.  0.2442488E+00 -0.1309077E+01 -0.6912639E-02 -0.2510206E+00 -0.8459129E-02 -0.3484949E+00
6318800.  0.2490469E+00 -0.8917055E+00 -0.5850162E-02 -0.2358879E+00 -0.7023914E-02 -0.3098340E+00
6291000.  0.2520461E+00 -0.4849380E+00 -0.4854750E-02 -0.2202639E+00 -0.5751085E-02 -0.2739987E+00
6291000.  0.2520461E+00 -0.5170684E+00 -0.4854750E-02 -0.2185850E+00 -0.5751085E-02 -0.2739987E+00
6263000.  0.2534212E+00 -0.1110593E+00 -0.3929344E-02 -0.2023929E+00 -0.4620967E-02 -0.2406443E+00
6235000.  0.2530449E+00  0.2794833E+00 -0.3077113E-02 -0.1852718E+00 -0.3632989E-02 -0.2092526E+00
6207000.  0.2509916E+00  0.6515338E+00 -0.2302307E-02 -0.1671474E+00 -0.2779328E-02 -0.1794607E+00
6179000.  0.2473497E+00  0.1001931E+01 -0.1609476E-02 -0.1479584E+00 -0.2053735E-02 -0.1509153E+00
6151000.  0.2422214E+00  0.1327364E+01 -0.1003408E-02 -0.1276573E+00 -0.1451483E-02 -0.1232749E+00
6151000.  0.2422214E+00  0.9910870E+00 -0.1003408E-02 -0.1431245E+00 -0.1451483E-02 -0.1366760E+00
6128500.  0.2383766E+00  0.1183247E+01 -0.5227881E-03 -0.1290392E+00 -0.9974355E-03 -0.1206131E+00
6106000.  0.2338852E+00  0.1357263E+01 -0.9207038E-04 -0.1148689E+00 -0.5985157E-03 -0.1054384E+00
6083500.  0.2288118E+00  0.1512824E+01  0.2884885E-03 -0.1006371E+00 -0.2517820E-03 -0.9104172E-01
6061000.  0.2232219E+00  0.1649656E+01  0.6187062E-03 -0.8636267E-01  0.4532945E-04 -0.7731915E-01
6038500.  0.2171823E+00  0.1767532E+01  0.8984549E-03 -0.7205742E-01  0.2950084E-03 -0.6416167E-01
6016000.  0.2107602E+00  0.1866230E+01  0.1127638E-02 -0.5772713E-01  0.4990560E-03 -0.5145986E-01
5993500.  0.2040237E+00  0.1945535E+01  0.1306169E-02 -0.4337265E-01  0.6588952E-03 -0.3910762E-01
5971000.  0.1970416E+00  0.2005255E+01  0.1433954E-02 -0.2898653E-01  0.7755599E-03 -0.2699050E-01
5971000.  0.1970416E+00  0.1823194E+01  0.1433954E-02 -0.4878626E-01  0.7755599E-03 -0.5278492E-01
5937667.  0.1873964E+00  0.1859161E+01  0.1657282E-02 -0.3677953E-01  0.1019015E-02 -0.4051524E-01
5904333.  0.1776323E+00  0.1869086E+01  0.1820862E-02 -0.2594455E-01  0.1201858E-02 -0.2958877E-01
5871000.  0.1678775E+00  0.1856248E+01  0.1930786E-02 -0.1626542E-01  0.1330733E-02 -0.1986423E-01
5837667.  0.1582426E+00  0.1823733E+01  0.1993001E-02 -0.7697778E-02  0.1411568E-02 -0.1120116E-01
5804333.  0.1488228E+00  0.1774399E+01  0.2013158E-02 -0.1756079E-03  0.1449543E-02 -0.3456907E-02
5771000.  0.1396996E+00  0.1710828E+01  0.1996526E-02  0.6379216E-02  0.1449106E-02  0.3505253E-02
5771000.  0.1396996E+00  0.1710884E+01  0.1996526E-02  0.6374047E-02  0.1449106E-02  0.3505253E-02
5701000.  0.1213587E+00  0.1611067E+01  0.1794883E-02  0.3023718E-01  0.1295123E-02  0.2455248E-01
5701000.  0.1213587E+00  0.1361087E+01  0.1794883E-02 -0.4398466E-02  0.1295123E-02 -0.9654178E-02
5667333.  0.1142711E+00  0.1320150E+01  0.1810341E-02 -0.1610526E-02  0.1331427E-02 -0.4266236E-02
5633667.  0.1074152E+00  0.1273847E+01  0.1813508E-02  0.2639480E-03  0.1342046E-02  0.7870902E-04
5600000.  0.1008133E+00  0.1224256E+01  0.1809052E-02  0.1283680E-02  0.1332321E-02  0.3442341E-02
5600000.  0.1008133E+00  0.1224278E+01  0.1809052E-02  0.1289156E-02  0.1332321E-02  0.3442341E-02
5563518.  0.9391918E-01  0.1182840E+01  0.1792016E-02  0.4553575E-02  0.1304388E-02  0.6190737E-02
5527037.  0.8727539E-01  0.1137100E+01  0.1758065E-02  0.7209823E-02  0.1262714E-02  0.8262014E-02
5490556.  0.8090325E-01  0.1088125E+01  0.1710470E-02  0.9331048E-02  0.1210848E-02  0.9768363E-02
5454074.  0.7481837E-01  0.1036854E+01  0.1652097E-02  0.1098383E-01  0.1151734E-02  0.1080775E-01
5417593.  0.6903182E-01  0.9841071E+00  0.1585460E-02  0.1222802E-01  0.1087808E-02  0.1146259E-01
5381111.  0.6354965E-01  0.9305987E+00  0.1512732E-02  0.1311932E-01  0.1021057E-02  0.1180474E-01
5344630.  0.5837469E-01  0.8769459E+00  0.1435793E-02  0.1370737E-01  0.9530956E-03  0.1189536E-01
5308148.  0.5350596E-01  0.8236735E+00  0.1356242E-02  0.1403789E-01  0.8852072E-03  0.1178659E-01
5271667.  0.4894025E-01  0.7712216E+00  0.1275442E-02  0.1415063E-01  0.8184086E-03  0.1152208E-01
5235185.  0.4467151E-01  0.7199553E+00  0.1194531E-02  0.1408176E-01  0.7534785E-03  0.1113896E-01
5198704.  0.4069232E-01  0.6701778E+00  0.1114458E-02  0.1386344E-01  0.6910090E-03  0.1066797E-01
5162222.  0.3699321E-01  0.6221262E+00  0.1035993E-02  0.1352404E-01  0.6314227E-03  0.1013525E-01
5125741.  0.3356393E-01  0.5759885E+00  0.9597602E-03  0.1308843E-01  0.5750149E-03  0.9561580E-02
5089259.  0.3039295E-01  0.5319017E+00  0.8862423E-03  0.1257842E-01  0.5219645E-03  0.8964662E-02
5052778.  0.2746837E-01  0.4899653E+00  0.8158137E-03  0.1201301E-01  0.4723662E-03  0.8358401E-02
5016296.  0.2477754E-01  0.4502380E+00  0.7487400E-03  0.1140843E-01  0.4262374E-03  0.7754081E-02
4979815.  0.2230786E-01  0.4127519E+00  0.6852083E-03  0.1077870E-01  0.3835429E-03  0.7160595E-02
4943333.  0.2004634E-01  0.3775074E+00  0.6253246E-03  0.1013552E-01  0.3441989E-03  0.6584446E-02
4906852.  0.1798030E-01  0.3444881E+00  0.5691391E-03  0.9489062E-02  0.3080918E-03  0.6031094E-02
4870370.  0.1609701E-01  0.3136532E+00  0.5166431E-03  0.8847565E-02  0.2750787E-03  0.5503973E-02
4833889.  0.1438420E-01  0.2849492E+00  0.4677917E-03  0.8217602E-02  0.2450037E-03  0.5005524E-02
4797407.  0.1282977E-01  0.2583092E+00  0.4224996E-03  0.7604812E-02  0.2176955E-03  0.4537508E-02
4760926.  0.1142219E-01  0.2336575E+00  0.3806577E-03  0.7013501E-02  0.1929793E-03  0.4100522E-02
4724444.  0.1015024E-01  0.2109075E+00  0.3421317E-03  0.6446803E-02  0.1706755E-03  0.3694697E-02
4687963.  0.9003357E-02  0.1899709E+00  0.3067749E-03  0.5907215E-02  0.1506075E-03  0.3319679E-02
4651482.  0.7971394E-02  0.1707530E+00  0.2744263E-03  0.5396349E-02  0.1326007E-03  0.2974642E-02
4615000.  0.7044756E-02  0.1531573E+00  0.2449174E-03  0.4915215E-02  0.1164857E-03  0.2658536E-02
4578518.  0.6214461E-02  0.1370873E+00  0.2180772E-03  0.4464267E-02  0.1021011E-03  0.2370050E-02
4542037.  0.5472068E-02  0.1224467E+00  0.1937334E-03  0.4043522E-02  0.8929292E-04  0.2107819E-02
4505556.  0.4809645E-02  0.1091395E+00  0.1717131E-03  0.3652627E-02  0.7791485E-04  0.1870278E-02
4469074.  0.4219810E-02  0.9707184E-01  0.1518467E-03  0.3290887E-02  0.6782974E-04  0.1655856E-02
4432593.  0.3695759E-02  0.8615363E-01  0.1339707E-03  0.2957426E-02  0.5891033E-04  0.1462950E-02
4396111.  0.3231133E-02  0.7629647E-01  0.1179254E-03  0.2651127E-02  0.5103756E-04  0.1289960E-02
4359630.  0.2820125E-02  0.6741683E-01  0.1035595E-03  0.2370782E-02  0.4410203E-04  0.1135413E-02
4323148.  0.2457348E-02  0.5943373E-01  0.9072752E-04  0.2115011E-02  0.3800222E-04  0.9977613E-03
4286667.  0.2137907E-02  0.5227158E-01  0.7929330E-04  0.1882468E-02  0.3264566E-04  0.8756430E-03
4250185.  0.1857293E-02  0.4585769E-01  0.6912739E-04  0.1671670E-02  0.2794704E-04  0.7676925E-03
4213704.  0.1611433E-02  0.4012462E-01  0.6010996E-04  0.1481189E-02  0.2382910E-04  0.6726730E-03
4177222.  0.1396599E-02  0.3500833E-01  0.5212839E-04  0.1309543E-02  0.2022090E-04  0.5894295E-03
4140741.  0.1209443E-02  0.3044976E-01  0.4507935E-04  0.1155321E-02  0.1705831E-04  0.5168952E-03
4104259.  0.1046923E-02  0.2639338E-01  0.3886673E-04  0.1017104E-02  0.1428263E-04  0.4541130E-03
4067778.  0.9063181E-03  0.2278816E-01  0.3340320E-04  0.8935133E-03  0.1184073E-04  0.4001992E-03
4031296.  0.7851765E-03  0.1958672E-01  0.2860858E-04  0.7832013E-03  0.9683965E-05  0.3543817E-03
3994815.  0.6813174E-03  0.1674593E-01  0.2441087E-04  0.6848530E-03  0.7768094E-05  0.3159713E-03
3958333.  0.5927853E-03  0.1422623E-01  0.2074507E-04  0.5971678E-03  0.6052377E-05  0.2843647E-03
3921852.  0.5178496E-03  0.1199219E-01  0.1755401E-04  0.5188502E-03  0.4499430E-05  0.2590565E-03
3885370.  0.4549633E-03  0.1001212E-01  0.1478766E-04  0.4485821E-03  0.3074394E-05  0.2396090E-03
3848889.  0.4027557E-03  0.8258732E-02  0.1240390E-04  0.3850116E-03  0.1744842E-05  0.2256650E-03
3812407.  0.3599939E-03  0.6709011E-02  0.1036838E-04  0.3266746E-03  0.4800656E-06  0.2169281E-03
3775926.  0.3255676E-03  0.5345227E-02  0.8655768E-05  0.2719629E-03 -0.7489730E-06  0.2131581E-03
3739444.  0.2984474E-03  0.4155507E-02  0.7250347E-05  0.2190347E-03 -0.1970186E-05  0.2141505E-03
3702963.  0.2776544E-03  0.3135427E-02  0.6148031E-05  0.1657090E-03 -0.3210216E-05  0.2197091E-03
3666482.  0.2622081E-03  0.2289732E-02  0.5358429E-05  0.1093156E-03 -0.4494648E-05  0.2296184E-03
3630000.  0.2510680E-03  0.1635235E-02  0.4908320E-05  0.4649911E-04 -0.5847632E-05  0.2435802E-03
3630000.  0.2510680E-03  0.1635220E-02  0.4908320E-05  0.4649384E-04 -0.5847632E-05  0.2435802E-03
3592500.  0.2428712E-03  0.1191912E-02  0.4844274E-05 -0.2711676E-04 -0.7332962E-05  0.2617020E-03
3555000.  0.2364768E-03  0.1035152E-02  0.5262042E-05 -0.1183791E-03 -0.8934483E-05  0.2829036E-03
3517500.  0.2299441E-03  0.1257732E-02  0.6288201E-05 -0.2354001E-03 -0.1066705E-04  0.3059788E-03
3480000.  0.2206592E-03  0.1998065E-02  0.8104971E-05 -0.3891330E-03 -0.1253647E-04  0.3290067E-03
3480000.  0.2206592E-03  0.7510083E-02  0.1113943E-04  0.3834123E-03 -0.1253647E-04 -0.3650963E-03
3409422.  0.1505984E-03  0.5261062E-02  0.7571554E-05  0.2671900E-03 -0.8988985E-05 -0.2777946E-03
3338844.  0.1017516E-03  0.3648294E-02  0.5096462E-05  0.1843994E-03 -0.6324603E-05 -0.2058383E-03
3268266.  0.6804202E-04  0.2503918E-02  0.3396184E-05  0.1260056E-03 -0.4372197E-05 -0.1490605E-03
3197688.  0.4501975E-04  0.1700477E-02  0.2239832E-05  0.8523074E-04 -0.2972242E-05 -0.1057445E-03
3127109.  0.2946291E-04  0.1142425E-02  0.1461461E-05  0.5704891E-04 -0.1988042E-05 -0.7360349E-04
3056531.  0.1906526E-04  0.7590405E-03  0.9430732E-06  0.3777491E-04 -0.1308787E-05 -0.5032094E-04
2985953.  0.1219345E-04  0.4985739E-03  0.6015940E-06  0.2473429E-04 -0.8481505E-06 -0.3381462E-04
2915375.  0.7704331E-05  0.3236328E-03  0.3791940E-06  0.1600862E-04 -0.5410431E-06 -0.2234288E-04
2844797.  0.4806791E-05  0.2075126E-03  0.2360483E-06  0.1023690E-04 -0.3396916E-06 -0.1451881E-04
2774219.  0.2959749E-05  0.1313697E-03  0.1450385E-06  0.6464350E-05 -0.2098562E-06 -0.9278597E-05
2703641.  0.1797544E-05  0.8206767E-04  0.8791206E-07  0.4028861E-05 -0.1275226E-06 -0.5830821E-05
2633062.  0.1076086E-05  0.5056103E-04  0.5253041E-07  0.2476709E-05 -0.7618691E-07 -0.3602036E-05
2562484.  0.6345406E-06  0.3070086E-04  0.3092200E-07  0.1500798E-05 -0.4472687E-07 -0.2186607E-05
2491906.  0.3682817E-06  0.1835957E-04  0.1791755E-07  0.8957874E-06 -0.2578503E-07 -0.1303688E-05
2421328.  0.2102059E-06  0.1080467E-04  0.1021119E-07  0.5262318E-06 -0.1458661E-07 -0.7629305E-06
2350750.  0.1178837E-06  0.6252062E-05  0.5718183E-08  0.3039915E-06 -0.8090238E-08 -0.4379102E-06
2280172.  0.6488858E-07  0.3553737E-05  0.3143275E-08  0.1725210E-06 -0.4395145E-08 -0.2463236E-06
2209594.  0.3501923E-07  0.1982184E-05  0.1694202E-08  0.9608629E-07 -0.2336273E-08 -0.1356517E-06
2139016.  0.1850707E-07  0.1083673E-05  0.8942788E-09  0.5245848E-07 -0.1213641E-08 -0.7305753E-07
2068438.  0.9564793E-08  0.5799558E-06  0.4616554E-09  0.2803813E-07 -0.6153020E-09 -0.3843119E-07
1997859.  0.4826886E-08  0.3034000E-06  0.2327257E-09  0.1465014E-07 -0.3039899E-09 -0.1971835E-07
1927281.  0.2374660E-08  0.1549118E-06  0.1143766E-09  0.7471688E-08 -0.1461087E-09 -0.9852629E-08
1856703.  0.1136786E-08  0.7706018E-07  0.5469925E-10  0.3712972E-08 -0.6818640E-10 -0.4785974E-08
1786125.  0.5284928E-09  0.3726988E-07  0.2540048E-10  0.1794486E-08 -0.3082574E-10 -0.2256056E-08
1715547.  0.2381738E-09  0.1747680E-07  0.1142089E-10  0.8420872E-09 -0.1345158E-10 -0.1030975E-08
1644969.  0.0000000E+00  0.0000000E+00  0.0000000E+00  0.0000000E+00  0.0000000E+00  0.0000000E+00
1574391.  0.0000000E+00  0.0000000E+00  0.0000000E+00  0.0000000E+00  0.0000000E+00  0.0000000E+00
1503812.  0.0000000E+00  0.0000000E+00  0.0000000E+00  0.0000000E+00  0.0000000E+00  0.0000000E+00
1433234.  0.0000000E+00  0.0000000E+00  0.0000000E+00  0.0000000E+00  0.0000000E+00  0.0000000E+00
1362656.  0.0000000E+00  0.0000000E+00  0.0000000E+00  0.0000000E+00  0.0000000E+00  0.0000000E+00
1292078.  0.0000000E+00  0.0000000E+00  0.0000000E+00  0.0000000E+00  0.0000000E+00  0.0000000E+00
1221500.  0.0000000E+00  0.0000000E+00  0.0000000E+00  0.0000000E+00  0.0000000E+00  0.0000000E+00
1221500.  0.0000000E+00  0.0000000E+00  0.0000000E+00  0.0000000E+00  0.0000000E+00  0.0000000E+00
1183328.  0.0000000E+00  0.0000000E+00  0.0000000E+00  0.0000000E+00  0.0000000E+00  0.0000000E+00
1145156.  0.0000000E+00  0.0000000E+00  0.0000000E+00  0.0000000E+00  0.0000000E+00  0.0000000E+00
1106984.  0.0000000E+00  0.0000000E+00  0.0000000E+00  0.0000000E+00  0.0000000E+00  0.0000000E+00
1068812.  0.0000000E+00  0.0000000E+00  0.0000000E+00  0.0000000E+00  0.0000000E+00  0.0000000E+00
1030641.  0.0000000E+00  0.0000000E+00  0.0000000E+00  0.0000000E+00  0.0000000E+00  0.0000000E+00
 992469.  0.0000000E+00  0.0000000E+00  0.0000000E+00  0.0000000E+00  0.0000000E+00  0.0000000E+00
 954297.  0.0000000E+00  0.0000000E+00  0.0000000E+00  0.0000000E+00  0.0000000E+00  0.0000000E+00
 916125.  0.0000000E+00  0.0000000E+00  0.0000000E+00  0.0000000E+00  0.0000000E+00  0.0000000E+00
 877953.  0.0000000E+00  0.0000000E+00  0.0000000E+00  0.0000000E+00  0.0000000E+00  0.0000000E+00
 839781.  0.0000000E+00  0.0000000E+00  0.0000000E+00  0.0000000E+00  0.0000000E+00  0.0000000E+00
 801609.  0.0000000E+00  0.0000000E+00  0.0000000E+00  0.0000000E+00  0.0000000E+00  0.0000000E+00
 763438.  0.0000000E+00  0.0000000E+00  0.0000000E+00  0.0000000E+00  0.0000000E+00  0.0000000E+00
 725266.  0.0000000E+00  0.0000000E+00  0.0000000E+00  0.0000000E+00  0.0000000E+00  0.0000000E+00
 687094.  0.0000000E+00  0.0000000E+00  0.0000000E+00  0.0000000E+00  0.0000000E+00  0.0000000E+00
 648922.  0.0000000E+00  0.0000000E+00  0.0000000E+00  0.0000000E+00  0.0000000E+00  0.0000000E+00
 610750.  0.0000000E+00  0.0000000E+00  0.0000000E+00  0.0000000E+00  0.0000000E+00  0.0000000E+00
 572578.  0.0000000E+00  0.0000000E+00  0.0000000E+00  0.0000000E+00  0.0000000E+00  0.0000000E+00
 534406.  0.0000000E+00  0.0000000E+00  0.0000000E+00  0.0000000E+00  0.0000000E+00  0.0000000E+00
 496234.  0.0000000E+00  0.0000000E+00  0.0000000E+00  0.0000000E+00  0.0000000E+00  0.0000000E+00
 458062.  0.0000000E+00  0.0000000E+00  0.0000000E+00  0.0000000E+00  0.0000000E+00  0.0000000E+00
 419891.  0.0000000E+00  0.0000000E+00  0.0000000E+00  0.0000000E+00  0.0000000E+00  0.0000000E+00
 381719.  0.0000000E+00  0.0000000E+00  0.0000000E+00  0.0000000E+00  0.0000000E+00  0.0000000E+00
 343547.  0.0000000E+00  0.0000000E+00  0.0000000E+00  0.0000000E+00  0.0000000E+00  0.0000000E+00
 305375.  0.0000000E+00  0.0000000E+00  0.0000000E+00  0.0000000E+00  0.0000000E+00  0.0000000E+00
 267203.  0.0000000E+00  0.0000000E+00  0.0000000E+00  0.0000000E+00  0.0000000E+00  0.0000000E+00
 229031.  0.0000000E+00  0.0000000E+00  0.0000000E+00  0.0000000E+00  0.0000000E+00  0.0000000E+00
 190859.  0.0000000E+00  0.0000000E+00  0.0000000E+00  0.0000000E+00  0.0000000E+00  0.0000000E+00
 152688.  0.0000000E+00  0.0000000E+00  0.0000000E+00  0.0000000E+00  0.0000000E+00  0.0000000E+00
 114516.  0.0000000E+00  0.0000000E+00  0.0000000E+00  0.0000000E+00  0.0000000E+00  0.0000000E+00
  76344.  0.0000000E+00  0.0000000E+00  0.0000000E+00  0.0000000E+00  0.0000000E+00  0.0000000E+00
  38172.  0.0000000E+00  0.0000000E+00  0.0000000E+00  0.0000000E+00  0.0000000E+00  0.0000000E+00
      0.  0.0000000E+00  0.0000000E+00  0.0000000E+00  0.0000000E+00  0.0000000E+00  0.0000000E+00
