      17        4 S      656        145.89951         60.97068         24.93749         85.54250      185    7
6371000.  0.2804265E-02 -0.6477040E-03  0.1980419E-03 -0.2606223E-02 -0.4558550E-05 -0.5265395E-02
6370000.  0.2804289E-02  0.3442042E-03  0.1984331E-03 -0.2378951E-02 -0.3731989E-05 -0.5266593E-02
6369000.  0.2804157E-02  0.1335907E-02  0.1987886E-03 -0.2150821E-02 -0.2905263E-05 -0.5267504E-02
6368000.  0.2803869E-02  0.2327347E-02  0.1991083E-03 -0.1921876E-02 -0.2078417E-05 -0.5268126E-02
6368000.  0.2803869E-02  0.2327347E-02  0.1991083E-03 -0.1921876E-02 -0.2078417E-05 -0.5268126E-02
6367000.  0.2803426E-02  0.3318469E-02  0.1993919E-03 -0.1692155E-02 -0.1251495E-05 -0.5268459E-02
6366000.  0.2802828E-02  0.4309216E-02  0.1996394E-03 -0.1461700E-02 -0.4245442E-06 -0.5268504E-02
6365000.  0.2802073E-02  0.5299530E-02  0.1998507E-03 -0.1230553E-02  0.4023914E-06 -0.5268260E-02
6364000.  0.2801164E-02  0.6289357E-02  0.2000257E-03 -0.9987545E-03  0.1229266E-05 -0.5267728E-02
6363000.  0.2800099E-02  0.7278640E-02  0.2001642E-03 -0.7663470E-03  0.2056034E-05 -0.5266907E-02
6362000.  0.2798879E-02  0.8267323E-02  0.2002662E-03 -0.5333720E-03  0.2882651E-05 -0.5265797E-02
6361000.  0.2797504E-02  0.9255349E-02  0.2003316E-03 -0.2998715E-03  0.3709071E-05 -0.5264397E-02
6360000.  0.2795974E-02  0.1024266E-01  0.2003603E-03 -0.6588760E-04  0.4535249E-05 -0.5262709E-02
6359000.  0.2794289E-02  0.1122921E-01  0.2003523E-03  0.1685375E-03  0.5361139E-05 -0.5260732E-02
6358000.  0.2792449E-02  0.1221493E-01  0.2003074E-03  0.4033614E-03  0.6186696E-05 -0.5258467E-02
6357000.  0.2790454E-02  0.1319977E-01  0.2002257E-03  0.6385418E-03  0.7011874E-05 -0.5255912E-02
6356000.  0.2788305E-02  0.1418368E-01  0.2001070E-03  0.8740360E-03  0.7836629E-05 -0.5253069E-02
6356000.  0.2788305E-02  0.9114595E-02  0.2001070E-03 -0.5008299E-03  0.7836629E-05 -0.5859772E-02
6355000.  0.2786818E-02  0.9831056E-02  0.2001731E-03 -0.3426688E-03  0.8756250E-05 -0.5857994E-02
6354000.  0.2785219E-02  0.1054701E-01  0.2002145E-03 -0.1841862E-03  0.9675573E-05 -0.5855984E-02
6353000.  0.2783507E-02  0.1126244E-01  0.2002309E-03 -0.2540112E-04  0.1059456E-04 -0.5853740E-02
6352000.  0.2781683E-02  0.1197730E-01  0.2002225E-03  0.1336671E-03  0.1151318E-04 -0.5851265E-02
6351000.  0.2779747E-02  0.1269156E-01  0.2001890E-03  0.2929992E-03  0.1243139E-04 -0.5848557E-02
6350000.  0.2777699E-02  0.1340521E-01  0.2001305E-03  0.4525759E-03  0.1334916E-04 -0.5845617E-02
6349000.  0.2775539E-02  0.1411821E-01  0.2000469E-03  0.6123776E-03  0.1426645E-04 -0.5842444E-02
6348000.  0.2773267E-02  0.1483052E-01  0.1999382E-03  0.7723850E-03  0.1518322E-04 -0.5839038E-02
6347000.  0.2770883E-02  0.1554213E-01  0.1998044E-03  0.9325786E-03  0.1609945E-04 -0.5835401E-02
6346600.  0.2769899E-02  0.1582657E-01  0.1997439E-03  0.9967039E-03  0.1646577E-04 -0.5833881E-02
6346600.  0.2769899E-02  0.9462142E-02  0.1997439E-03 -0.1652304E-03  0.1646577E-04 -0.6799704E-02
6318800.  0.2697509E-02  0.2367901E-01  0.1927830E-03  0.3362724E-02  0.4589021E-04 -0.6661831E-02
6291000.  0.2563823E-02  0.3750299E-01  0.1705254E-03  0.6802678E-02  0.7438594E-04 -0.6374243E-02
6291000.  0.2563823E-02  0.3802507E-01  0.1705254E-03  0.7132843E-02  0.7438594E-04 -0.6374243E-02
6263000.  0.2367005E-02  0.5138919E-01  0.1319120E-03  0.1035270E-01  0.1014774E-03 -0.5929579E-02
6235000.  0.2113683E-02  0.6368867E-01  0.8046414E-04  0.1293434E-01  0.1262946E-03 -0.5340754E-02
6207000.  0.1809171E-02  0.7463954E-01  0.1946509E-04  0.1466907E-01  0.1482257E-03 -0.4618281E-02
6179000.  0.1459959E-02  0.8399138E-01 -0.4701420E-04  0.1540942E-01  0.1667131E-03 -0.3776204E-02
6151000.  0.1073561E-02  0.9152891E-01 -0.1144102E-03  0.1508014E-01  0.1812680E-03 -0.2831914E-02
6151000.  0.1073561E-02  0.7341351E-01 -0.1144102E-03  0.1309483E-01  0.1812680E-03 -0.2891309E-02
6128500.  0.8100949E-03  0.7563402E-01 -0.1589400E-03  0.1203827E-01  0.1903266E-03 -0.2233288E-02
6106000.  0.5404486E-03  0.7691833E-01 -0.1988732E-03  0.1050118E-01  0.1970093E-03 -0.1547223E-02
6083500.  0.2678692E-03  0.7730158E-01 -0.2326238E-03  0.8549468E-02  0.2012323E-03 -0.8417745E-03
6061000. -0.4534209E-05  0.7682626E-01 -0.2588679E-03  0.6264916E-02  0.2029424E-03 -0.1256765E-03
6038500. -0.2738140E-03  0.7554106E-01 -0.2765929E-03  0.3741464E-02  0.2021176E-03  0.5923850E-03
6016000. -0.5372011E-03  0.7349800E-01 -0.2851332E-03  0.1080882E-02  0.1987661E-03  0.1303859E-02
5993500. -0.7921142E-03  0.7075135E-01 -0.2841899E-03 -0.1611652E-02  0.1929257E-03  0.2000439E-02
5971000. -0.1036168E-02  0.6735745E-01 -0.2738350E-03 -0.4231921E-02  0.1846634E-03  0.2674133E-02
5971000. -0.1036168E-02  0.6081617E-01 -0.2738350E-03 -0.3676095E-02  0.1846634E-03  0.2809776E-02
5937667. -0.1335537E-02  0.5352270E-01 -0.2461600E-03 -0.6797803E-02  0.1675480E-03  0.3717793E-02
5904333. -0.1595411E-02  0.4575212E-01 -0.2039329E-03 -0.9216146E-02  0.1459303E-03  0.4528159E-02
5871000. -0.1813815E-02  0.3770359E-01 -0.1511172E-03 -0.1083649E-01  0.1203580E-03  0.5227903E-02
5837667. -0.1989750E-02  0.2954305E-01 -0.9197332E-04 -0.1163714E-01  0.9143518E-04  0.5807619E-02
5804333. -0.2123007E-02  0.2140903E-01 -0.3070718E-04 -0.1165812E-01  0.5980648E-04  0.6261141E-02
5771000. -0.2214030E-02  0.1341782E-01  0.2881070E-04 -0.1098751E-01  0.2614343E-04  0.6585378E-02
5771000. -0.2214030E-02  0.1341825E-01  0.2881070E-04 -0.1098708E-01  0.2614343E-04  0.6585378E-02
5701000. -0.2273513E-02 -0.2656535E-02  0.1388480E-03 -0.8642497E-02 -0.4752965E-04  0.6730309E-02
5701000. -0.2273513E-02 -0.1825500E-02  0.1388480E-03 -0.6264433E-02 -0.4752965E-04  0.7371131E-02
5667333. -0.2244982E-02 -0.8940594E-02  0.1673785E-03 -0.4515714E-02 -0.8626260E-04  0.7266920E-02
5633667. -0.2179455E-02 -0.1581137E-01  0.1864821E-03 -0.2714819E-02 -0.1241114E-03  0.7037884E-02
5600000. -0.2078479E-02 -0.2233989E-01  0.1961573E-03 -0.9627277E-03 -0.1604355E-03  0.6690716E-02
5600000. -0.2078479E-02 -0.2233966E-01  0.1961573E-03 -0.9628985E-03 -0.1604355E-03  0.6690716E-02
5563518. -0.1931020E-02 -0.2908711E-01  0.1967495E-03  0.7372688E-03 -0.1973736E-03  0.6189610E-02
5527037. -0.1746346E-02 -0.3532073E-01  0.1880184E-03  0.2278451E-02 -0.2310914E-03  0.5568194E-02
5490556. -0.1527712E-02 -0.4093093E-01  0.1711185E-03  0.3578052E-02 -0.2609358E-03  0.4838928E-02
5454074. -0.1278978E-02 -0.4581530E-01  0.1476263E-03  0.4571774E-02 -0.2863295E-03  0.4015931E-02
5417593. -0.1004587E-02 -0.4988025E-01  0.1194285E-03  0.5216529E-02 -0.3067786E-03  0.3114820E-02
5381111. -0.7094538E-03 -0.5304480E-01  0.8859036E-04  0.5492307E-02 -0.3218840E-03  0.2152181E-02
5344630. -0.3989489E-03 -0.5524252E-01  0.5722839E-04  0.5402210E-02 -0.3313421E-03  0.1145473E-02
5308148. -0.7873968E-04 -0.5642461E-01  0.2737372E-04  0.4971485E-02 -0.3349521E-03  0.1125011E-03
5271667.  0.2452449E-03 -0.5656096E-01  0.8585020E-06  0.4245075E-02 -0.3326150E-03 -0.9286727E-03
5235185.  0.5669988E-03 -0.5564277E-01 -0.2079425E-04  0.3284307E-02 -0.3243348E-03 -0.1960257E-02
5198704.  0.8804938E-03 -0.5368348E-01 -0.3644745E-04  0.2162813E-02 -0.3102172E-03 -0.2964794E-02
5162222.  0.1179877E-02 -0.5071894E-01 -0.4541121E-04  0.9616312E-03 -0.2904643E-03 -0.3925638E-02
5125741.  0.1459533E-02 -0.4680729E-01 -0.4746839E-04 -0.2355201E-03 -0.2653731E-03 -0.4827018E-02
5089259.  0.1714270E-02 -0.4202794E-01 -0.4287702E-04 -0.1347420E-02 -0.2353248E-03 -0.5654414E-02
5052778.  0.1939382E-02 -0.3648015E-01 -0.3234269E-04 -0.2299739E-02 -0.2007833E-03 -0.6394616E-02
5016296.  0.2130805E-02 -0.3027988E-01 -0.1696546E-04 -0.3029380E-02 -0.1622799E-03 -0.7036029E-02
4979815.  0.2285160E-02 -0.2355789E-01  0.1831723E-05 -0.3487645E-02 -0.1204119E-03 -0.7568675E-02
4943333.  0.2399868E-02 -0.1645484E-01  0.2239674E-04 -0.3642871E-02 -0.7582383E-04 -0.7984463E-02
4906852.  0.2473162E-02 -0.9119047E-02  0.4294631E-04 -0.3481825E-02 -0.2920626E-04 -0.8277067E-02
4870370.  0.2504144E-02 -0.1700709E-02  0.6167780E-04 -0.3010180E-02  0.1872471E-04 -0.8442190E-02
4833889.  0.2492768E-02  0.5650614E-02  0.7687198E-04 -0.2251964E-02  0.6722876E-04 -0.8477448E-02
4797407.  0.2439832E-02  0.1279163E-01  0.8699784E-04 -0.1247905E-02  0.1155626E-03 -0.8382347E-02
4760926.  0.2346934E-02  0.1958757E-01  0.9079890E-04 -0.5317621E-04  0.1629804E-03 -0.8158384E-02
4724444.  0.2216399E-02  0.2591718E-01  0.8736884E-04  0.1265925E-02  0.2087555E-03 -0.7808842E-02
4687963.  0.2051217E-02  0.3167401E-01  0.7620481E-04  0.2635415E-02  0.2521800E-03 -0.7338807E-02
4651482.  0.1854925E-02  0.3677023E-01  0.5723926E-04  0.3977825E-02  0.2925838E-03 -0.6755007E-02
4615000.  0.1631505E-02  0.4113741E-01  0.3084803E-04  0.5216211E-02  0.3293392E-03 -0.6065679E-02
4578518.  0.1385285E-02  0.4472721E-01 -0.2162009E-05  0.6278069E-02  0.3618681E-03 -0.5280500E-02
4542037.  0.1120812E-02  0.4751216E-01 -0.4059029E-04  0.7099166E-02  0.3896513E-03 -0.4410374E-02
4505556.  0.8427193E-03  0.4948479E-01 -0.8290214E-04  0.7626839E-02  0.4122372E-03 -0.3467247E-02
4469074.  0.5556260E-03  0.5065642E-01 -0.1273008E-03  0.7822476E-02  0.4292445E-03 -0.2463939E-02
4432593.  0.2640619E-03  0.5105506E-01 -0.1718100E-03  0.7663480E-02  0.4403663E-03 -0.1414062E-02
4396111. -0.2767857E-04  0.5072347E-01 -0.2143771E-03  0.7144298E-02  0.4453766E-03 -0.3316288E-03
4359630. -0.3155505E-03  0.4971660E-01 -0.2529631E-03  0.6276716E-02  0.4441298E-03  0.7689121E-03
4323148. -0.5958809E-03  0.4809787E-01 -0.2856483E-03  0.5089059E-02  0.4365636E-03  0.1873104E-02
4286667. -0.8653483E-03  0.4593698E-01 -0.3107167E-03  0.3625057E-02  0.4226992E-03  0.2966417E-02
4250185. -0.1121069E-02  0.4330620E-01 -0.3267435E-03  0.1941335E-02  0.4026388E-03  0.4034700E-02
4213704. -0.1360547E-02  0.4027824E-01 -0.3326581E-03  0.1050802E-03  0.3765667E-03  0.5064100E-02
4177222. -0.1581724E-02  0.3692276E-01 -0.3277970E-03 -0.1809520E-02  0.3447422E-03  0.6041466E-02
4140741. -0.1782899E-02  0.3330512E-01 -0.3119345E-03 -0.3724375E-02  0.3075010E-03  0.6954296E-02
4104259. -0.1962756E-02  0.2948373E-01 -0.2852925E-03 -0.5561484E-02  0.2652442E-03  0.7791063E-02
4067778. -0.2120266E-02  0.2550964E-01 -0.2485342E-03 -0.7246042E-02  0.2184404E-03  0.8541211E-02
4031296. -0.2254690E-02  0.2142504E-01 -0.2027292E-03 -0.8710247E-02  0.1676104E-03  0.9195370E-02
3994815. -0.2365488E-02  0.1726401E-01 -0.1493140E-03 -0.9895827E-02  0.1133307E-03  0.9745369E-02
3958333. -0.2452305E-02  0.1305192E-01 -0.9001877E-04 -0.1075691E-01  0.5621471E-04  0.1018443E-01
3921852. -0.2514901E-02  0.8807366E-02 -0.2680349E-04 -0.1126151E-01 -0.3082755E-05  0.1050708E-01
3885370. -0.2553131E-02  0.4542388E-02  0.3823910E-04 -0.1139308E-01 -0.6388633E-04  0.1070935E-01
3848889. -0.2566899E-02  0.2651348E-03  0.1029598E-03 -0.1115091E-01 -0.1254955E-03  0.1078872E-01
3812407. -0.2556152E-02 -0.4019292E-02  0.1652571E-03 -0.1054973E-01 -0.1872061E-03  0.1074416E-01
3775926. -0.2520864E-02 -0.8306041E-02  0.2231494E-03 -0.9618978E-02 -0.2483056E-03  0.1057607E-01
3739444. -0.2461034E-02 -0.1258932E-01  0.2748685E-03 -0.8401191E-02 -0.3080947E-03  0.1028632E-01
3702963. -0.2376711E-02 -0.1685969E-01  0.3189168E-03 -0.6949935E-02 -0.3658823E-03  0.9878197E-02
3666482. -0.2268004E-02 -0.2110340E-01  0.3541328E-03 -0.5327135E-02 -0.4210045E-03  0.9356262E-02
3630000. -0.2135115E-02 -0.2530036E-01  0.3797260E-03 -0.3600214E-02 -0.4728275E-03  0.8726401E-02
3630000. -0.2135115E-02 -0.2530036E-01  0.3797260E-03 -0.3600125E-02 -0.4728275E-03  0.8726401E-02
3592500. -0.1973069E-02 -0.2975301E-01  0.3956821E-03 -0.1818329E-02 -0.5220221E-03  0.7971368E-02
3555000. -0.1784998E-02 -0.3413494E-01  0.4011659E-03 -0.5396122E-04 -0.5664638E-03  0.7112740E-02
3517500. -0.1571470E-02 -0.3839378E-01  0.3964923E-03  0.1621385E-02 -0.6055678E-03  0.6159259E-02
3480000. -0.1333386E-02 -0.4246761E-01  0.3823845E-03  0.3141143E-02 -0.6388045E-03  0.5120829E-02
3480000. -0.1333386E-02 -0.7278213E-01  0.1272758E-03 -0.2676423E-02 -0.6388045E-03  0.9315114E-02
3409422. -0.4601560E-03 -0.8312390E-01  0.1486957E-03 -0.1139549E-02 -0.7088743E-03  0.3173498E-02
3338844.  0.4693830E-03 -0.8296689E-01  0.1517549E-03  0.6049079E-03 -0.7070748E-03 -0.3520070E-02
3268266.  0.1341778E-02 -0.7301850E-01  0.1352867E-03  0.2351314E-02 -0.6319394E-03 -0.9930031E-02
3197688.  0.2057302E-02 -0.5500218E-01  0.1003971E-03  0.3898737E-02 -0.4909660E-03 -0.1528855E-01
3127109.  0.2539559E-02 -0.3135093E-01  0.5029418E-04  0.5071502E-02 -0.2994014E-03 -0.1897545E-01
3056531.  0.2741496E-02 -0.4878084E-02 -0.1008204E-04  0.5735336E-02 -0.7828228E-04 -0.2057438E-01
2985953.  0.2647840E-02  0.2154792E-01 -0.7458978E-04  0.5808534E-02  0.1480323E-03 -0.1990310E-01
2915375.  0.2274059E-02  0.4528695E-01 -0.1365003E-03  0.5267408E-02  0.3544842E-03 -0.1701664E-01
2844797.  0.1662524E-02  0.6415514E-01 -0.1891462E-03  0.4146276E-02  0.5178571E-03 -0.1218736E-01
2774219.  0.8765088E-03  0.7658220E-01 -0.2265405E-03  0.2532463E-02  0.6189801E-03 -0.5865389E-02
2703641. -0.7139658E-05  0.8169632E-01 -0.2439172E-03  0.5572856E-03  0.6444134E-03  0.1374462E-02
2633062. -0.9058942E-03  0.7933809E-01 -0.2381531E-03 -0.1616208E-02  0.5874951E-03  0.8893574E-02
2562484. -0.1739163E-02  0.7001044E-01 -0.2080437E-03 -0.3807131E-02  0.4487082E-03  0.1605128E-01
2491906. -0.2435194E-02  0.5477924E-01 -0.1544190E-03 -0.5831404E-02  0.2353663E-03  0.2226376E-01
2421328. -0.2936528E-02  0.3513599E-01 -0.8010064E-04 -0.7515884E-02 -0.3929548E-04  0.2705328E-01
2350750. -0.3203856E-02  0.1283900E-01  0.1029174E-04 -0.8710979E-02 -0.3575193E-03  0.3008626E-01
2280172. -0.3218061E-02 -0.1025282E-01  0.1106597E-03 -0.9300772E-02 -0.6987685E-03  0.3119745E-01
2209594. -0.2980434E-02 -0.3233873E-01  0.2138423E-03 -0.9210316E-02 -0.1041660E-02  0.3039972E-01
2139016. -0.2511232E-02 -0.5181693E-01  0.3120950E-03 -0.8409522E-02 -0.1365929E-02  0.2788056E-01
2068438. -0.1846812E-02 -0.6739932E-01  0.3975914E-03 -0.6913492E-02 -0.1654290E-02  0.2398708E-01
1997859. -0.1035665E-02 -0.7819106E-01  0.4629108E-03 -0.4779424E-02 -0.1894088E-02  0.1920287E-01
1927281. -0.1338204E-03 -0.8373801E-01  0.5014708E-03 -0.2100702E-02 -0.2078643E-02  0.1412074E-01
1856703.  0.8001986E-03 -0.8403582E-01  0.5078845E-03  0.1002490E-02 -0.2208332E-02  0.9415601E-02
1786125.  0.1710222E-02 -0.7951053E-01  0.4781937E-03  0.4394253E-02 -0.2291362E-02  0.5824247E-02
1715547.  0.2546971E-02 -0.7097063E-01  0.4099728E-03  0.7936063E-02 -0.2344401E-02  0.4137907E-02
1644969.  0.3271957E-02 -0.5954379E-01  0.3022774E-03  0.1150177E-01 -0.2393238E-02  0.5216601E-02
1574391.  0.3860627E-02 -0.4660713E-01  0.1554170E-03  0.1499387E-01 -0.2473770E-02  0.1003671E-01
1503812.  0.4304774E-02 -0.3372470E-01 -0.2946430E-04  0.1836222E-01 -0.2633784E-02  0.1978985E-01
1433234.  0.4614352E-02 -0.2261122E-01 -0.2510234E-03  0.2162667E-01 -0.2936219E-02  0.3606022E-01
1362656.  0.4819186E-02 -0.1514500E-01 -0.5086688E-03  0.2490767E-01 -0.3465090E-02  0.6113214E-01
1292078.  0.4971241E-02 -0.1347356E-01 -0.8038961E-03  0.2847141E-01 -0.4335865E-02  0.9851312E-01
1221500.  0.5148883E-02 -0.2027930E-01 -0.1142282E-02  0.3280485E-01 -0.5713574E-02  0.1538394E+00
1221500.  0.5148883E-02  0.6272103E+01  0.7373776E-01  0.3577403E+00 -0.5713574E-02  0.1516089E+00
1183328. -0.3243579E-01  0.6043051E+01  0.6509195E-01  0.2492859E+01 -0.6483400E-02  0.1061128E+00
1145156. -0.6450046E-01  0.4438255E+01  0.4471185E-01  0.4206961E+01 -0.6994248E-02  0.6517933E-01
1106984. -0.8322937E-01  0.1644813E+01  0.1623386E-01  0.5147928E+01 -0.7273801E-02  0.2892684E-01
1068812. -0.8269624E-01 -0.1900585E+01 -0.1501209E-01  0.5111941E+01 -0.7350476E-02 -0.2523082E-02
1030641. -0.6019025E-01 -0.5575740E+01 -0.4302610E-01  0.4083065E+01 -0.7253345E-02 -0.2908008E-01
 992469. -0.1703492E-01 -0.8674788E+01 -0.6229342E-01  0.2235664E+01 -0.7011831E-02 -0.5072015E-01
 954297.  0.4126459E-01 -0.1052922E+02 -0.6883566E-01 -0.9946035E-01 -0.6655237E-02 -0.6751617E-01
 916125.  0.1056167E+00 -0.1062909E+02 -0.6097300E-01 -0.2498457E+01 -0.6212060E-02 -0.7966551E-01
 877953.  0.1646041E+00 -0.8721602E+01 -0.3964616E-01 -0.4524353E+01 -0.5709215E-02 -0.8750096E-01
 839781.  0.2062236E+00 -0.4869670E+01 -0.8248955E-02 -0.5807995E+01 -0.5171231E-02 -0.9148041E-01
 801609.  0.2198269E+00  0.5406575E+00  0.2798894E-01 -0.6114987E+01 -0.4619591E-02 -0.9216016E-01
 763438.  0.1979446E+00  0.6846546E+01  0.6294513E-01 -0.5386159E+01 -0.4072239E-02 -0.9016035E-01
 725266.  0.1376797E+00  0.1320289E+02  0.9069807E-01 -0.3745149E+01 -0.3543301E-02 -0.8611308E-01
 687094.  0.4143866E-01  0.1870786E+02  0.1065544E+00 -0.1472303E+01 -0.3043245E-02 -0.8061573E-01
 648922. -0.8314907E-01  0.2254272E+02  0.1078421E+00  0.1049020E+01 -0.2579125E-02 -0.7419768E-01
 610750. -0.2241251E+00  0.2410066E+02  0.9431996E-01  0.3403365E+01 -0.2155124E-02 -0.6728610E-01
 572578. -0.3667850E+00  0.2308461E+02  0.6814524E-01  0.5217484E+01 -0.1773191E-02 -0.6019919E-01
 534406. -0.4957118E+00  0.1955759E+02  0.3342051E-01  0.6224417E+01 -0.1433692E-02 -0.5314811E-01
 496234. -0.5969450E+00  0.1393716E+02 -0.4583297E-02  0.6305968E+01 -0.1135997E-02 -0.4626044E-01
 458062. -0.6599488E+00  0.6934350E+01 -0.4037502E-01  0.5506568E+01 -0.8788768E-03 -0.3961207E-01
 419891. -0.6790683E+00 -0.5531952E+00 -0.6918285E-01  0.4017083E+01 -0.6607732E-03 -0.3324493E-01
 381719. -0.6542494E+00 -0.7578163E+01 -0.8771885E-01  0.2132428E+01 -0.4798404E-03 -0.2721103E-01
 343547. -0.5909042E+00 -0.1328599E+02 -0.9462686E-01  0.1925497E+00 -0.3339156E-03 -0.2157140E-01
 305375. -0.4989578E+00 -0.1704391E+02 -0.9055974E-01 -0.1482730E+01 -0.2203698E-03 -0.1641967E-01
 267203. -0.3912209E+00 -0.1853311E+02 -0.7787928E-01 -0.2651216E+01 -0.1359727E-03 -0.1185907E-01
 229031. -0.2813534E+00 -0.1779111E+02 -0.6005847E-01 -0.3189041E+01 -0.7686394E-04 -0.7995387E-02
 190859. -0.1817467E+00 -0.1519673E+02 -0.4091297E-01 -0.3106016E+01 -0.3859464E-04 -0.4913377E-02
 152688. -0.1016608E+00 -0.1140163E+02 -0.2382007E-01 -0.2534857E+01 -0.1635216E-04 -0.2646390E-02
 114516. -0.4590062E-01 -0.7217713E+01 -0.1107466E-01 -0.1696232E+01 -0.5313655E-05 -0.1162087E-02
  76344. -0.1426913E-01 -0.3481214E+01 -0.3512395E-02 -0.8476911E+00 -0.1069856E-05 -0.3543894E-03
  38172. -0.1835463E-02 -0.9131756E+00 -0.4571041E-03 -0.2268286E+00 -0.6763666E-07 -0.4501895E-04
      0.  0.0000000E+00  0.0000000E+00  0.0000000E+00  0.0000000E+00  0.0000000E+00  0.0000000E+00
