      11       21 S      549        112.38900         16.56629          7.72000        279.21649      185    7
6371000. -0.3473120E-01 -0.3500632E+00 -0.2078383E-02  0.3265282E-01  0.5000018E-03  0.5449488E-01
6370000. -0.3467457E-01 -0.3714955E+00 -0.2083219E-02  0.2896029E-01  0.4914373E-03  0.5463330E-01
6369000. -0.3461459E-01 -0.3927141E+00 -0.2087473E-02  0.2525125E-01  0.4828515E-03  0.5476675E-01
6368000. -0.3455130E-01 -0.4137161E+00 -0.2091145E-02  0.2152679E-01  0.4742451E-03  0.5489524E-01
6368000. -0.3455130E-01 -0.4137161E+00 -0.2091145E-02  0.2152679E-01  0.4742451E-03  0.5489524E-01
6367000. -0.3448473E-01 -0.4344988E+00 -0.2094230E-02  0.1778798E-01  0.4656189E-03  0.5501873E-01
6366000. -0.3441491E-01 -0.4550596E+00 -0.2096728E-02  0.1403589E-01  0.4569737E-03  0.5513724E-01
6365000. -0.3434189E-01 -0.4753959E+00 -0.2098636E-02  0.1027161E-01  0.4483103E-03  0.5525073E-01
6364000. -0.3426569E-01 -0.4955051E+00 -0.2099952E-02  0.6496229E-02  0.4396295E-03  0.5535920E-01
6363000. -0.3418635E-01 -0.5153848E+00 -0.2100675E-02  0.2710842E-02  0.4309321E-03  0.5546264E-01
6362000. -0.3410391E-01 -0.5350326E+00 -0.2100802E-02 -0.1083456E-02  0.4222188E-03  0.5556103E-01
6361000. -0.3401840E-01 -0.5544463E+00 -0.2100334E-02 -0.4885563E-02  0.4134905E-03  0.5565437E-01
6360000. -0.3392987E-01 -0.5736236E+00 -0.2099268E-02 -0.8694378E-02  0.4047480E-03  0.5574264E-01
6359000. -0.3383834E-01 -0.5925624E+00 -0.2097605E-02 -0.1250879E-01  0.3959919E-03  0.5582583E-01
6358000. -0.3374386E-01 -0.6112606E+00 -0.2095341E-02 -0.1632770E-01  0.3872232E-03  0.5590395E-01
6357000. -0.3364647E-01 -0.6297162E+00 -0.2092479E-02 -0.2014999E-01  0.3784427E-03  0.5597696E-01
6356000. -0.3354619E-01 -0.6479273E+00 -0.2089016E-02 -0.2397454E-01  0.3696511E-03  0.5604488E-01
6356000. -0.3354619E-01 -0.5015222E+00 -0.2089016E-02 -0.1971736E-02  0.3696511E-03  0.6334414E-01
6355000. -0.3346640E-01 -0.5151988E+00 -0.2088513E-02 -0.4431473E-02  0.3596988E-03  0.6346688E-01
6354000. -0.3338447E-01 -0.5287262E+00 -0.2087625E-02 -0.6895464E-02  0.3497276E-03  0.6358588E-01
6353000. -0.3330043E-01 -0.5421032E+00 -0.2086348E-02 -0.9363241E-02  0.3397380E-03  0.6370114E-01
6352000. -0.3321430E-01 -0.5553288E+00 -0.2084685E-02 -0.1183433E-01  0.3297306E-03  0.6381264E-01
6351000. -0.3312610E-01 -0.5684018E+00 -0.2082633E-02 -0.1430827E-01  0.3197060E-03  0.6392039E-01
6350000. -0.3303587E-01 -0.5813213E+00 -0.2080193E-02 -0.1678458E-01  0.3096647E-03  0.6402436E-01
6349000. -0.3294363E-01 -0.5940862E+00 -0.2077364E-02 -0.1926279E-01  0.2996075E-03  0.6412456E-01
6348000. -0.3284938E-01 -0.6066955E+00 -0.2074146E-02 -0.2174243E-01  0.2895348E-03  0.6422098E-01
6347000. -0.3275318E-01 -0.6191483E+00 -0.2070538E-02 -0.2422301E-01  0.2794473E-03  0.6431361E-01
6346600. -0.3271415E-01 -0.6240853E+00 -0.2068986E-02 -0.2521541E-01  0.2754082E-03  0.6434961E-01
6346600. -0.3271415E-01 -0.5523556E+00 -0.2068986E-02 -0.7030355E-02  0.2754082E-03  0.7575655E-01
6318800. -0.2979691E-01 -0.7695044E+00 -0.1926363E-02 -0.5821742E-01 -0.6160956E-04  0.7834508E-01
6291000. -0.2613656E-01 -0.8922242E+00 -0.1566162E-02 -0.1058116E+00 -0.4050414E-03  0.7868716E-01
6291000. -0.2613656E-01 -0.9090225E+00 -0.1566162E-02 -0.1102339E+00 -0.4050414E-03  0.7868716E-01
6263000. -0.2205601E-01 -0.9323110E+00 -0.9888484E-03 -0.1503769E+00 -0.7469984E-03  0.7654027E-01
6235000. -0.1806597E-01 -0.8711518E+00 -0.2661876E-03 -0.1756867E+00 -0.1074482E-02  0.7211906E-01
6207000. -0.1448683E-01 -0.7501084E+00  0.5288663E-03 -0.1829487E+00 -0.1377791E-02  0.6556891E-01
6179000. -0.1151438E-01 -0.6006683E+00  0.1313663E-02 -0.1710103E+00 -0.1648004E-02  0.5709723E-01
6151000. -0.9198508E-02 -0.4569981E+00  0.2005328E-02 -0.1409248E+00 -0.1877223E-02  0.4695906E-01
6151000. -0.9198508E-02 -0.2909044E+00  0.2005328E-02 -0.1224894E+00 -0.1877223E-02  0.4746798E-01
6128500. -0.8341545E-02 -0.1994868E+00  0.2384141E-02 -0.9104235E-01 -0.2031318E-02  0.3969315E-01
6106000. -0.7748098E-02 -0.1430186E+00  0.2642662E-02 -0.5474279E-01 -0.2156924E-02  0.3135644E-01
6083500. -0.7282448E-02 -0.1278745E+00  0.2767856E-02 -0.1594192E-01 -0.2252294E-02  0.2259332E-01
6061000. -0.6792756E-02 -0.1567715E+00  0.2755196E-02  0.2291945E-01 -0.2316168E-02  0.1354343E-01
6038500. -0.6124226E-02 -0.2286739E+00  0.2608697E-02  0.5947190E-01 -0.2347783E-02  0.4347927E-02
6016000. -0.5132165E-02 -0.3389407E+00  0.2340391E-02  0.9156811E-01 -0.2346873E-02 -0.4852498E-02
5993500. -0.3694054E-02 -0.4797453E+00  0.1969307E-02  0.1174113E+00 -0.2313665E-02 -0.1391985E-01
5971000. -0.1719755E-02 -0.6406898E+00  0.1520049E-02  0.1356574E+00 -0.2248866E-02 -0.2272138E-01
5971000. -0.1719755E-02 -0.5555590E+00  0.1520049E-02  0.1210933E+00 -0.2248866E-02 -0.2249625E-01
5937667.  0.1701762E-02 -0.7508886E+00  0.8602641E-03  0.1284302E+00 -0.2099382E-02 -0.3445740E-01
5904333.  0.6094189E-02 -0.9214806E+00  0.2023826E-03  0.1207696E+00 -0.1890532E-02 -0.4514044E-01
5871000.  0.1125276E-01 -0.1039878E+01 -0.3826970E-03  0.1012171E+00 -0.1629675E-02 -0.5430805E-01
5837667.  0.1685099E-01 -0.1087192E+01 -0.8428970E-03  0.7372849E-01 -0.1325163E-02 -0.6181022E-01
5804333.  0.2248898E-01 -0.1054311E+01 -0.1147665E-02  0.4248359E-01 -0.9859070E-03 -0.6758159E-01
5771000.  0.2774409E-01 -0.9417306E+00 -0.1287733E-02  0.1137686E-01 -0.6209792E-03 -0.7163592E-01
5771000.  0.2774409E-01 -0.9417765E+00 -0.1287733E-02  0.1137544E-01 -0.6209792E-03 -0.7163592E-01
5701000.  0.3601321E-01 -0.5139263E+00 -0.1109299E-02 -0.4066304E-01  0.1834912E-03 -0.7374160E-01
5701000.  0.3601321E-01 -0.4548804E+00 -0.1109299E-02 -0.4083507E-01  0.1834912E-03 -0.8389243E-01
5667333.  0.3771555E-01 -0.1853747E+00 -0.8581881E-03 -0.5307047E-01  0.6225338E-03 -0.8208494E-01
5633667.  0.3794838E-01  0.9793667E-01 -0.5604666E-03 -0.5848473E-01  0.1049207E-02 -0.7924856E-01
5600000.  0.3669063E-01  0.3756179E+00 -0.2515595E-03 -0.5739895E-01  0.1458631E-02 -0.7558674E-01
5600000.  0.3669063E-01  0.3756123E+00 -0.2515595E-03 -0.5739969E-01  0.1458631E-02 -0.7558674E-01
5563518.  0.3372548E-01  0.6550270E+00  0.5915328E-04 -0.5004291E-01  0.1878362E-02 -0.7089953E-01
5527037.  0.2926531E-01  0.8946189E+00  0.3102084E-03 -0.3675957E-01  0.2269451E-02 -0.6561095E-01
5490556.  0.2358950E-01  0.1077096E+01  0.4714349E-03 -0.1893100E-01  0.2628877E-02 -0.5986331E-01
5454074.  0.1706373E-01  0.1189748E+01  0.5216068E-03  0.1723399E-02  0.2954410E-02 -0.5379221E-01
5417593.  0.1011167E-01  0.1225338E+01  0.4499276E-03  0.2330661E-01  0.3244550E-02 -0.4752394E-01
5381111.  0.3180763E-02  0.1182572E+01  0.2565589E-03  0.4391541E-01  0.3498510E-02 -0.4117075E-01
5344630. -0.3290334E-02  0.1066036E+01 -0.4777202E-04  0.6179230E-01  0.3716080E-02 -0.3483099E-01
5308148. -0.8905694E-02  0.8856883E+00 -0.4430614E-03  0.7546537E-01  0.3897591E-02 -0.2858710E-01
5271667. -0.1333909E-01  0.6559681E+00 -0.9018973E-03  0.8384661E-01  0.4043784E-02 -0.2250729E-01
5235185. -0.1635746E-01  0.3945682E+00 -0.1391964E-02  0.8630290E-01  0.4155769E-02 -0.1664544E-01
5198704. -0.1783477E-01  0.1210715E+00 -0.1878638E-02  0.8268087E-01  0.4234912E-02 -0.1104378E-01
5162222. -0.1775907E-01 -0.1445930E+00 -0.2327828E-02  0.7329580E-01  0.4282803E-02 -0.5733923E-02
5125741. -0.1623008E-01 -0.3835588E+00 -0.2708436E-02  0.5888583E-01  0.4301182E-02 -0.7395019E-03
5089259. -0.1344909E-01 -0.5793854E+00 -0.2994670E-02  0.4053465E-01  0.4291906E-02  0.3922259E-02
5052778. -0.9702250E-02 -0.7191201E+00 -0.3167674E-02  0.1957780E-01  0.4256922E-02  0.8238325E-02
5016296. -0.5337468E-02 -0.7941273E+00 -0.3216719E-02 -0.2510405E-02  0.4198235E-02  0.1219907E-01
4979815. -0.7390336E-03 -0.8005366E+00 -0.3139646E-02 -0.2422497E-01  0.4117907E-02  0.1579643E-01
4943333.  0.3701116E-02 -0.7393681E+00 -0.2942726E-02 -0.4414289E-01  0.4018034E-02  0.1902411E-01
4906852.  0.7609945E-02 -0.6163113E+00 -0.2639939E-02 -0.6101443E-01  0.3900753E-02  0.2187641E-01
4870370.  0.1065955E-01 -0.4411664E+00 -0.2251699E-02 -0.7384456E-01  0.3768222E-02  0.2434886E-01
4833889.  0.1258776E-01 -0.2270738E+00 -0.1803298E-02 -0.8194401E-01  0.3622632E-02  0.2643823E-01
4797407.  0.1321510E-01  0.1048861E-01 -0.1322964E-02 -0.8496384E-01  0.3466174E-02  0.2814370E-01
4760926.  0.1245477E-01  0.2547755E+00 -0.8399896E-03 -0.8289804E-01  0.3301051E-02  0.2946640E-01
4724444.  0.1031664E-01  0.4889511E+00 -0.3827015E-03 -0.7606645E-01  0.3129435E-02  0.3041110E-01
4687963.  0.6904910E-02  0.6971257E+00  0.2320194E-04 -0.6507751E-01  0.2953478E-02  0.3098623E-01
4651482.  0.2409384E-02  0.8653926E+00  0.3562380E-03 -0.5077159E-01  0.2775256E-02  0.3120452E-01
4615000. -0.2908198E-02  0.9826127E+00  0.6002390E-03 -0.3415500E-01  0.2596761E-02  0.3108322E-01
4578518. -0.8731443E-02  0.1041017E+01  0.7450880E-03 -0.1632817E-01  0.2419882E-02  0.3064414E-01
4542037. -0.1471007E-01  0.1036596E+01  0.7870686E-03  0.1588837E-02  0.2246371E-02  0.2991332E-01
4505556. -0.2048226E-01  0.9692073E+00  0.7287670E-03  0.1852781E-01  0.2077809E-02  0.2892065E-01
4469074. -0.2569618E-01  0.8424571E+00  0.5785808E-03  0.3353357E-01  0.1915599E-02  0.2769902E-01
4432593. -0.3003026E-01  0.6633735E+00  0.3499459E-03  0.4581356E-01  0.1760959E-02  0.2628380E-01
4396111. -0.3321218E-01  0.4418561E+00  0.6024952E-04  0.5477791E-01  0.1614887E-02  0.2471134E-01
4359630. -0.3503264E-01  0.1900459E+00 -0.2703445E-03  0.6005900E-01  0.1478188E-02  0.2301741E-01
4323148. -0.3535665E-01 -0.7849147E-01 -0.6202636E-03  0.6152064E-01  0.1351447E-02  0.2123744E-01
4286667. -0.3412903E-01 -0.3495211E+00 -0.9677643E-03  0.5924992E-01  0.1235072E-02  0.1940325E-01
4250185. -0.3137592E-01 -0.6090001E+00 -0.1292235E-02  0.5353744E-01  0.1129283E-02  0.1754364E-01
4213704. -0.2720187E-01 -0.8437783E+00 -0.1575205E-02  0.4484777E-01  0.1034159E-02  0.1568217E-01
4177222. -0.2178204E-01 -0.1042312E+01 -0.1801302E-02  0.3378001E-01  0.9496547E-03  0.1383614E-01
4140741. -0.1535240E-01 -0.1195162E+01 -0.1958848E-02  0.2102690E-01  0.8756515E-03  0.1201622E-01
4104259. -0.8195244E-02 -0.1295427E+01 -0.2040303E-02  0.7327524E-02  0.8119859E-03  0.1022459E-01
4067778. -0.6253116E-03 -0.1338948E+01 -0.2042385E-02 -0.6573574E-02  0.7585124E-03  0.8455117E-02
4031296.  0.7027782E-02 -0.1324416E+01 -0.1965988E-02 -0.1996981E-01  0.7151426E-03  0.6691572E-02
3994815.  0.1443407E-01 -0.1253281E+01 -0.1815871E-02 -0.3222451E-01  0.6819164E-03  0.4907213E-02
3958333.  0.2128015E-01 -0.1129543E+01 -0.1600150E-02 -0.4280181E-01  0.6590564E-03  0.3063144E-02
3921852.  0.2728130E-01 -0.9594362E+00 -0.1329698E-02 -0.5128396E-01  0.6470475E-03  0.1107513E-02
3885370.  0.3219458E-01 -0.7509885E+00 -0.1017381E-02 -0.5738526E-01  0.6467136E-03 -0.1027302E-02
3848889.  0.3582653E-01 -0.5135828E+00 -0.6773450E-03 -0.6095402E-01  0.6593157E-03 -0.3426706E-02
3812407.  0.3804037E-01 -0.2573943E+00 -0.3241943E-03 -0.6196957E-01  0.6866664E-03 -0.6198342E-02
3775926.  0.3875852E-01  0.7062704E-02  0.2766129E-04 -0.6053072E-01  0.7312649E-03 -0.9476115E-02
3739444.  0.3796340E-01  0.2694739E+00  0.3647212E-03 -0.5683982E-01  0.7964742E-03 -0.1342778E-01
3702963.  0.3569499E-01  0.5201077E+00  0.6748555E-03 -0.5118283E-01  0.8867288E-03 -0.1826371E-01
3666482.  0.3204627E-01  0.7502340E+00  0.9477837E-03 -0.4390600E-01  0.1007823E-02 -0.2424888E-01
3630000.  0.2715657E-01  0.9523852E+00  0.1175321E-02 -0.3539215E-01  0.1167268E-02 -0.3172056E-01
3630000.  0.2715657E-01  0.9523797E+00  0.1175321E-02 -0.3539226E-01  0.1167268E-02 -0.3172056E-01
3592500.  0.2101577E-01  0.1127826E+01  0.1355344E-02 -0.2563558E-01  0.1381271E-02 -0.4136396E-01
3555000.  0.1395991E-01  0.1262475E+01  0.1475805E-02 -0.1521517E-01  0.1659162E-02 -0.5353787E-01
3517500.  0.6242348E-02  0.1352086E+01  0.1533867E-02 -0.4491313E-02  0.2017944E-02 -0.6899179E-01
3480000. -0.1863149E-02  0.1393968E+01  0.1528726E-02  0.6209665E-02  0.2479685E-02 -0.8870923E-01
3480000. -0.1863149E-02  0.2802211E+00 -0.1245432E-02 -0.1108699E-02  0.2479685E-02 -0.8284853E-01
3409422. -0.4501342E-02  0.1955345E+00 -0.1203920E-02 -0.6147155E-02  0.3101536E-02 -0.3245615E-01
3338844. -0.6205465E-02  0.1134203E+00 -0.1114729E-02 -0.9705286E-02  0.3259147E-02  0.1575956E-02
3268266. -0.7056654E-02  0.4263511E-01 -0.9942617E-03 -0.1181358E-01  0.3114139E-02  0.2272737E-01
3197688. -0.7208969E-02 -0.1232071E-01 -0.8576838E-03 -0.1265279E-01  0.2791624E-02  0.3410994E-01
3127109. -0.6846326E-02 -0.5038801E-01 -0.7176404E-03 -0.1248642E-01  0.2384359E-02  0.3844615E-01
3056531. -0.6150200E-02 -0.7289321E-01 -0.5836754E-03 -0.1160372E-01  0.1957295E-02  0.3803096E-01
2985953. -0.5278812E-02 -0.8254989E-01 -0.4621781E-03 -0.1027819E-01  0.1552416E-02  0.3471119E-01
2915375. -0.4356612E-02 -0.8262024E-01 -0.3567227E-03 -0.8742038E-02  0.1193714E-02  0.2989351E-01
2844797. -0.3471789E-02 -0.7630837E-01 -0.2685987E-03 -0.7174445E-02  0.8918753E-03  0.2458201E-01
2774219. -0.2679165E-02 -0.6638944E-01 -0.1974157E-03 -0.5699934E-02  0.6484280E-03  0.1943644E-01
2703641. -0.2006100E-02 -0.5503060E-01 -0.1416842E-03 -0.4393789E-02  0.4591846E-03  0.1484096E-01
2633062. -0.1459501E-02 -0.4376012E-01 -0.9931043E-04 -0.3291358E-02  0.3169019E-03  0.1097404E-01
2562484. -0.1032640E-02 -0.3353059E-01 -0.6798387E-04 -0.2398508E-02  0.2132039E-03  0.7872672E-02
2491906. -0.7109149E-03 -0.2482832E-01 -0.4544470E-04 -0.1701452E-02  0.1398317E-03  0.5485582E-02
2421328. -0.4763348E-03 -0.1780012E-01 -0.2965475E-04 -0.1175325E-02  0.8938703E-04  0.3714919E-02
2350750. -0.3106170E-03 -0.1237050E-01 -0.1888181E-04 -0.7906633E-03  0.5567223E-04  0.2445793E-02
2280172. -0.1970835E-03 -0.8339387E-02 -0.1172393E-04 -0.5179073E-03  0.3376429E-04  0.1565375E-02
2209594. -0.1216156E-03 -0.5454785E-02 -0.7093508E-05 -0.3302010E-03  0.1992583E-04  0.9736748E-03
2139016. -0.7293862E-04 -0.3461646E-02 -0.4178494E-05 -0.2047960E-03  0.1143206E-04  0.5882617E-03
2068438. -0.4247976E-04 -0.2130501E-02 -0.2393823E-05 -0.1234659E-03  0.6369625E-05  0.3449475E-03
1997859. -0.2399923E-04 -0.1270822E-02 -0.1332110E-05 -0.7228184E-04  0.3442149E-05  0.1961217E-03
1927281. -0.1313574E-04 -0.7339930E-03 -0.7190429E-06 -0.4104493E-04  0.1801522E-05  0.1079848E-03
1856703. -0.6954943E-05 -0.4099952E-03 -0.3758581E-06 -0.2257476E-04  0.9115927E-06  0.5749387E-04
1786125. -0.3555875E-05 -0.2211565E-03 -0.1899045E-06 -0.1200609E-04  0.4451081E-06  0.2954950E-04
1715547. -0.1751956E-05 -0.1149946E-03 -0.9254602E-07 -0.6162508E-05  0.2092473E-06  0.1463086E-04
1644969. -0.8298468E-06 -0.5751570E-04 -0.4339313E-07 -0.3045972E-05  0.9446407E-07  0.6962425E-05
1574391. -0.3768893E-06 -0.2759954E-04 -0.1951948E-07 -0.1446174E-05  0.4083140E-07  0.3175759E-05
1503812. -0.1636889E-06 -0.1266132E-04 -0.8391972E-08 -0.6579448E-06  0.1683859E-07  0.1384198E-05
1433234. -0.6799814E-07 -0.5509013E-05 -0.3422729E-08 -0.2870615E-06  0.6594613E-08  0.5747285E-06
1362656. -0.2772298E-07 -0.2180597E-05 -0.1278489E-08 -0.1236451E-06  0.2431331E-08  0.2269308E-06
1292078. -0.1375602E-07 -0.4786655E-06 -0.3000127E-09 -0.6635081E-07  0.8206839E-09  0.8541292E-07
1221500. -0.1700050E-07  0.1226251E-05  0.4825148E-09 -0.9118288E-07  0.2345473E-09  0.2796837E-07
1221500. -0.1700050E-07  0.5015955E-06  0.2350398E-09  0.8989571E-07  0.2345473E-09  0.3533306E-07
1183328. -0.1741848E-07 -0.2598211E-06 -0.1271059E-09  0.3633354E-07  0.9061772E-10  0.1524252E-07
1145156. -0.1482059E-07 -0.5499757E-06 -0.2508882E-09  0.8246631E-08  0.3039475E-10  0.6089742E-08
1106984. -0.1132788E-07 -0.5871423E-06 -0.2560331E-09 -0.4644698E-08  0.7401212E-11  0.2157418E-08
1068812. -0.8014794E-08 -0.5072614E-06 -0.2120111E-09 -0.9048205E-08 -0.1079738E-12  0.6008798E-09
1030641. -0.5322798E-08 -0.3893642E-06 -0.1560238E-09 -0.9178854E-08 -0.1781452E-11  0.6055372E-10
 992469. -0.3341091E-08 -0.2746806E-06 -0.1054834E-09 -0.7536276E-08 -0.1606306E-11 -0.8153569E-10
 954297. -0.1988778E-08 -0.1808275E-06 -0.6649522E-10 -0.5478309E-08 -0.1064097E-11 -0.8847127E-10
 916125. -0.1123982E-08 -0.1119082E-06 -0.3936318E-10 -0.3642593E-08 -0.6078652E-12 -0.6232155E-10
 877953. -0.6030040E-09 -0.6532501E-07 -0.2195031E-10 -0.2247602E-08 -0.3144080E-12 -0.3678455E-10
 839781. -0.3067071E-09 -0.3600352E-07 -0.1153917E-10 -0.1295505E-08 -0.1502004E-12 -0.1942624E-10
 801609. -0.1475842E-09 -0.1872393E-07 -0.5713876E-11 -0.6993589E-09 -0.6684440E-13 -0.9411929E-11
 763438. -0.6698659E-10 -0.9171505E-08 -0.2659563E-11 -0.3536260E-09 -0.2779501E-13 -0.4227430E-11
 725266. -0.2856896E-10 -0.4218844E-08 -0.1159880E-11 -0.1672015E-09 -0.1079542E-13 -0.1766446E-11
 687094. -0.1139498E-10 -0.1815235E-08 -0.4719408E-12 -0.7369455E-10 -0.3906007E-14 -0.6866933E-12
 648922. -0.4226067E-11 -0.7268507E-09 -0.1781857E-12 -0.3014233E-10 -0.1310408E-14 -0.2475251E-12
 610750. -0.1447142E-11 -0.2691312E-09 -0.6200558E-13 -0.1137340E-10 -0.4050368E-15 -0.8230751E-13
 572578. -0.4536524E-12 -0.9142499E-10 -0.1972129E-13 -0.3929130E-11 -0.1143743E-15 -0.2506150E-13
 534406. -0.1288330E-12 -0.2821721E-10 -0.5674290E-14 -0.1231037E-11 -0.2919168E-16 -0.6919051E-14
 496234. -0.3271991E-13 -0.7817172E-11 -0.1458162E-14 -0.3456527E-12 -0.6644702E-17 -0.1710459E-14
 458062. -0.7312560E-14 -0.1914569E-11 -0.3293491E-15 -0.8567841E-13 -0.1326319E-17 -0.3726822E-15
 419891. -0.1409076E-14 -0.4066340E-12 -0.6406747E-16 -0.1839274E-13 -0.2272142E-18 -0.7012143E-16
 381719. -0.2279814E-15 -0.7303922E-13 -0.1045380E-16 -0.3335192E-14 -0.3248947E-19 -0.1109642E-16
 343547. -0.2991195E-16 -0.1073470E-13 -0.1381868E-17 -0.4943057E-15 -0.3737263E-20 -0.1426209E-17
 305375. -0.3036414E-17 -0.1234263E-14 -0.1411640E-18 -0.5723607E-16 -0.3293477E-21 -0.1409349E-18
 267203.  0.0000000E+00  0.0000000E+00  0.0000000E+00  0.0000000E+00  0.0000000E+00  0.0000000E+00
 229031.  0.0000000E+00  0.0000000E+00  0.0000000E+00  0.0000000E+00  0.0000000E+00  0.0000000E+00
 190859.  0.0000000E+00  0.0000000E+00  0.0000000E+00  0.0000000E+00  0.0000000E+00  0.0000000E+00
 152688.  0.0000000E+00  0.0000000E+00  0.0000000E+00  0.0000000E+00  0.0000000E+00  0.0000000E+00
 114516.  0.0000000E+00  0.0000000E+00  0.0000000E+00  0.0000000E+00  0.0000000E+00  0.0000000E+00
  76344.  0.0000000E+00  0.0000000E+00  0.0000000E+00  0.0000000E+00  0.0000000E+00  0.0000000E+00
  38172.  0.0000000E+00  0.0000000E+00  0.0000000E+00  0.0000000E+00  0.0000000E+00  0.0000000E+00
      0.  0.0000000E+00  0.0000000E+00  0.0000000E+00  0.0000000E+00  0.0000000E+00  0.0000000E+00
