       5        5 S      321        370.10281         19.66538         12.68080        502.54919      185    7
6371000.  0.1603318E+00  0.3242412E-03  0.1071625E-01 -0.1496155E+00 -0.4205630E-02 -0.2771145E+00
6370000.  0.1603310E+00  0.9462587E-02  0.1073960E-01 -0.1478770E+00 -0.4162129E-02 -0.2771806E+00
6369000.  0.1603288E+00  0.1859799E-01  0.1076268E-01 -0.1461308E+00 -0.4118617E-02 -0.2772446E+00
6368000.  0.1603252E+00  0.2773035E-01  0.1078548E-01 -0.1443771E+00 -0.4075096E-02 -0.2773063E+00
6368000.  0.1603252E+00  0.2773035E-01  0.1078548E-01 -0.1443771E+00 -0.4075096E-02 -0.2773063E+00
6367000.  0.1603201E+00  0.3685955E-01  0.1080800E-01 -0.1426159E+00 -0.4031564E-02 -0.2773657E+00
6366000.  0.1603136E+00  0.4598551E-01  0.1083024E-01 -0.1408473E+00 -0.3988024E-02 -0.2774228E+00
6365000.  0.1603057E+00  0.5510811E-01  0.1085221E-01 -0.1390712E+00 -0.3944475E-02 -0.2774777E+00
6364000.  0.1602963E+00  0.6422725E-01  0.1087390E-01 -0.1372877E+00 -0.3900918E-02 -0.2775303E+00
6363000.  0.1602855E+00  0.7334282E-01  0.1089531E-01 -0.1354969E+00 -0.3857352E-02 -0.2775806E+00
6362000.  0.1602733E+00  0.8245474E-01  0.1091644E-01 -0.1336988E+00 -0.3813779E-02 -0.2776287E+00
6361000.  0.1602596E+00  0.9156288E-01  0.1093728E-01 -0.1318935E+00 -0.3770198E-02 -0.2776745E+00
6360000.  0.1602445E+00  0.1006672E+00  0.1095784E-01 -0.1300810E+00 -0.3726611E-02 -0.2777180E+00
6359000.  0.1602280E+00  0.1097675E+00  0.1097812E-01 -0.1282613E+00 -0.3683017E-02 -0.2777592E+00
6358000.  0.1602101E+00  0.1188637E+00  0.1099811E-01 -0.1264345E+00 -0.3639416E-02 -0.2777982E+00
6357000.  0.1601907E+00  0.1279557E+00  0.1101781E-01 -0.1246007E+00 -0.3595810E-02 -0.2778348E+00
6356000.  0.1601699E+00  0.1370435E+00  0.1103722E-01 -0.1227599E+00 -0.3552198E-02 -0.2778693E+00
6356000.  0.1601699E+00  0.9035259E-01  0.1103722E-01 -0.1333537E+00 -0.3552198E-02 -0.3127204E+00
6355000.  0.1601552E+00  0.9701394E-01  0.1105805E-01 -0.1321312E+00 -0.3503108E-02 -0.3127748E+00
6354000.  0.1601395E+00  0.1036729E+00  0.1107870E-01 -0.1309040E+00 -0.3454011E-02 -0.3128276E+00
6353000.  0.1601227E+00  0.1103295E+00  0.1109915E-01 -0.1296722E+00 -0.3404905E-02 -0.3128786E+00
6352000.  0.1601048E+00  0.1169836E+00  0.1111941E-01 -0.1284356E+00 -0.3355791E-02 -0.3129279E+00
6351000.  0.1600859E+00  0.1236352E+00  0.1113947E-01 -0.1271945E+00 -0.3306670E-02 -0.3129755E+00
6350000.  0.1600660E+00  0.1302841E+00  0.1115933E-01 -0.1259487E+00 -0.3257541E-02 -0.3130213E+00
6349000.  0.1600450E+00  0.1369305E+00  0.1117901E-01 -0.1246983E+00 -0.3208406E-02 -0.3130655E+00
6348000.  0.1600230E+00  0.1435741E+00  0.1119848E-01 -0.1234433E+00 -0.3159263E-02 -0.3131078E+00
6347000.  0.1600000E+00  0.1502150E+00  0.1121776E-01 -0.1221838E+00 -0.3110114E-02 -0.3131485E+00
6346600.  0.1599904E+00  0.1528706E+00  0.1122541E-01 -0.1216787E+00 -0.3090453E-02 -0.3131643E+00
6346600.  0.1599904E+00  0.9736986E-01  0.1122541E-01 -0.1306637E+00 -0.3090453E-02 -0.3689506E+00
6318800.  0.1592678E+00  0.2339098E+00  0.1173470E-01 -0.1023316E+00 -0.1477762E-02 -0.3700449E+00
6291000.  0.1579493E+00  0.3703414E+00  0.1211488E-01 -0.7153485E-01  0.1374108E-03 -0.3700838E+00
6291000.  0.1579493E+00  0.3770528E+00  0.1211488E-01 -0.6827547E-01  0.1374108E-03 -0.3700838E+00
6263000.  0.1559869E+00  0.5157447E+00  0.1233936E-01 -0.3352993E-01  0.1761805E-02 -0.3689423E+00
6235000.  0.1534186E+00  0.6526224E+00  0.1240679E-01  0.3135103E-02  0.3378669E-02 -0.3666530E+00
6207000.  0.1502542E+00  0.7869191E+00  0.1230956E-01  0.4133185E-01  0.4982911E-02 -0.3631954E+00
6179000.  0.1465066E+00  0.9178914E+00  0.1204184E-01  0.8065033E-01  0.6569358E-02 -0.3585532E+00
6151000.  0.1421921E+00  0.1044810E+01  0.1159965E-01  0.1206595E+00  0.8132784E-02 -0.3527178E+00
6151000.  0.1421921E+00  0.8461636E+00  0.1159965E-01  0.8872437E-01  0.8132784E-02 -0.3605846E+00
6128500.  0.1390909E+00  0.9092717E+00  0.1124012E-01  0.1148465E+00  0.9402546E-02 -0.3584108E+00
6106000.  0.1357756E+00  0.9673904E+00  0.1078878E-01  0.1406937E+00  0.1066374E-01 -0.3557349E+00
6083500.  0.1322640E+00  0.1020485E+01  0.1024688E-01  0.1661066E+00  0.1191462E-01 -0.3525692E+00
6061000.  0.1285737E+00  0.1068542E+01  0.9616222E-02  0.1909295E+00  0.1315347E-01 -0.3489295E+00
6038500.  0.1247227E+00  0.1111579E+01  0.8899162E-02  0.2150159E+00  0.1437865E-01 -0.3448287E+00
6016000.  0.1207284E+00  0.1149627E+01  0.8098541E-02  0.2382271E+00  0.1558856E-01 -0.3402804E+00
5993500.  0.1166085E+00  0.1182736E+01  0.7217691E-02  0.2604297E+00  0.1678163E-01 -0.3353008E+00
5971000.  0.1123803E+00  0.1210989E+01  0.6260390E-02  0.2815029E+00  0.1795638E-01 -0.3299029E+00
5971000.  0.1123803E+00  0.1094236E+01  0.6260390E-02  0.2380166E+00  0.1795638E-01 -0.3446145E+00
5937667.  0.1066401E+00  0.1098552E+01  0.4978263E-02  0.2515940E+00  0.1974444E-01 -0.3388103E+00
5904333.  0.1008988E+00  0.1094786E+01  0.3632753E-02  0.2622595E+00  0.2150089E-01 -0.3325217E+00
5871000.  0.9519643E-01  0.1083916E+01  0.2238710E-02  0.2701934E+00  0.2322326E-01 -0.3258147E+00
5837667.  0.8956748E-01  0.1066856E+01  0.8098757E-03  0.2755933E+00  0.2490958E-01 -0.3187501E+00
5804333.  0.8404194E-01  0.1044452E+01 -0.6410826E-03  0.2786687E+00  0.2655818E-01 -0.3113822E+00
5771000.  0.7864610E-01  0.1017469E+01 -0.2102460E-02  0.2796287E+00  0.2816749E-01 -0.3037638E+00
5771000.  0.7864610E-01  0.1017471E+01 -0.2102460E-02  0.2796167E+00  0.2816749E-01 -0.3037638E+00
5701000.  0.6743603E-01  0.1019325E+01 -0.5305708E-02  0.3020573E+00  0.3138974E-01 -0.2824610E+00
5701000.  0.6743603E-01  0.8275098E+00 -0.5305708E-02  0.2209515E+00  0.3138974E-01 -0.3014688E+00
5667333.  0.6308221E-01  0.8198612E+00 -0.6468161E-02  0.2188433E+00  0.3295985E-01 -0.2927288E+00
5633667.  0.5877505E-01  0.8099504E+00 -0.7617002E-02  0.2158319E+00  0.3448306E-01 -0.2837449E+00
5600000.  0.5452554E-01  0.7980396E+00 -0.8747829E-02  0.2120315E+00  0.3595828E-01 -0.2745475E+00
5600000.  0.5452554E-01  0.7980286E+00 -0.8747829E-02  0.2120451E+00  0.3595828E-01 -0.2745475E+00
5563518.  0.4998948E-01  0.7857469E+00 -0.9969112E-02  0.2143353E+00  0.3750132E-01 -0.2643451E+00
5527037.  0.4553275E-01  0.7704002E+00 -0.1120047E-01  0.2155736E+00  0.3898519E-01 -0.2538997E+00
5490556.  0.4117212E-01  0.7522169E+00 -0.1243590E-01  0.2157624E+00  0.4040863E-01 -0.2432419E+00
5454074.  0.3692305E-01  0.7314351E+00 -0.1366947E-01  0.2149100E+00  0.4177053E-01 -0.2324008E+00
5417593.  0.3279997E-01  0.7082924E+00 -0.1489517E-01  0.2130297E+00  0.4306987E-01 -0.2214066E+00
5381111.  0.2881549E-01  0.6830218E+00 -0.1610724E-01  0.2101450E+00  0.4430592E-01 -0.2102864E+00
5344630.  0.2498133E-01  0.6558670E+00 -0.1729996E-01  0.2062836E+00  0.4547796E-01 -0.1990680E+00
5308148.  0.2130739E-01  0.6270651E+00 -0.1846788E-01  0.2014820E+00  0.4658558E-01 -0.1877768E+00
5271667.  0.1780262E-01  0.5968513E+00 -0.1960568E-01  0.1957784E+00  0.4762836E-01 -0.1764389E+00
5235185.  0.1447426E-01  0.5654556E+00 -0.2070837E-01  0.1892183E+00  0.4860618E-01 -0.1650780E+00
5198704.  0.1132860E-01  0.5331094E+00 -0.2177114E-01  0.1818522E+00  0.4951890E-01 -0.1537182E+00
5162222.  0.8370251E-02  0.5000363E+00 -0.2278958E-01  0.1737342E+00  0.5036665E-01 -0.1423814E+00
5125741.  0.5602934E-02  0.4664502E+00 -0.2375948E-01  0.1649225E+00  0.5114959E-01 -0.1310900E+00
5089259.  0.3028820E-02  0.4325640E+00 -0.2467712E-01  0.1554780E+00  0.5186807E-01 -0.1198641E+00
5052778.  0.6491879E-03  0.3985789E+00 -0.2553899E-01  0.1454654E+00  0.5252248E-01 -0.1087242E+00
5016296. -0.1536086E-02  0.3646897E+00 -0.2634208E-01  0.1349505E+00  0.5311342E-01 -0.9768881E-01
4979815. -0.3527974E-02  0.3310833E+00 -0.2708367E-01  0.1240020E+00  0.5364149E-01 -0.8677661E-01
4943333. -0.5328703E-02  0.2979332E+00 -0.2776150E-01  0.1126885E+00  0.5410748E-01 -0.7600423E-01
4906852. -0.6941267E-02  0.2654040E+00 -0.2837365E-01  0.1010819E+00  0.5451221E-01 -0.6538869E-01
4870370. -0.8369741E-02  0.2336458E+00 -0.2891870E-01  0.8925236E-01  0.5485666E-01 -0.5494495E-01
4833889. -0.9618892E-02  0.2028069E+00 -0.2939552E-01  0.7727053E-01  0.5514182E-01 -0.4468811E-01
4797407. -0.1069442E-01  0.1730131E+00 -0.2980347E-01  0.6520724E-01  0.5536883E-01 -0.3463155E-01
4760926. -0.1160260E-01  0.1443831E+00 -0.3014228E-01  0.5313261E-01  0.5553884E-01 -0.2478869E-01
4724444. -0.1235045E-01  0.1170230E+00 -0.3041207E-01  0.4111395E-01  0.5565314E-01 -0.1517106E-01
4687963. -0.1294546E-01  0.9102228E-01 -0.3061336E-01  0.2921898E-01  0.5571304E-01 -0.5790444E-02
4651482. -0.1339568E-01  0.6646279E-01 -0.3074705E-01  0.1751211E-01  0.5571993E-01  0.3343096E-02
4615000. -0.1370956E-01  0.4340819E-01 -0.3081440E-01  0.6055559E-02  0.5567524E-01  0.1222027E-01
4578518. -0.1389587E-01  0.2191078E-01 -0.3081700E-01 -0.5090476E-02  0.5558048E-01  0.2083223E-01
4542037. -0.1396363E-01  0.2013774E-02 -0.3075681E-01 -0.1586857E-01  0.5543718E-01  0.2917081E-01
4505556. -0.1392210E-01 -0.1626007E-01 -0.3063607E-01 -0.2622497E-01  0.5524695E-01  0.3722936E-01
4469074. -0.1378062E-01 -0.3289561E-01 -0.3045737E-01 -0.3610919E-01  0.5501137E-01  0.4500193E-01
4432593. -0.1354857E-01 -0.4789520E-01 -0.3022353E-01 -0.4547346E-01  0.5473212E-01  0.5248294E-01
4396111. -0.1323528E-01 -0.6127280E-01 -0.2993766E-01 -0.5427467E-01  0.5441087E-01  0.5966845E-01
4359630. -0.1284999E-01 -0.7304917E-01 -0.2960311E-01 -0.6247252E-01  0.5404935E-01  0.6655433E-01
4323148. -0.1240175E-01 -0.8326291E-01 -0.2922343E-01 -0.7003116E-01  0.5364925E-01  0.7313860E-01
4286667. -0.1189939E-01 -0.9196733E-01 -0.2880237E-01 -0.7691830E-01  0.5321232E-01  0.7941891E-01
4250185. -0.1135136E-01 -0.9922145E-01 -0.2834387E-01 -0.8310578E-01  0.5274029E-01  0.8539484E-01
4213704. -0.1076578E-01 -0.1050980E+00 -0.2785200E-01 -0.8856907E-01  0.5223493E-01  0.9106607E-01
4177222. -0.1015028E-01 -0.1096798E+00 -0.2733096E-01 -0.9328761E-01  0.5169795E-01  0.9643382E-01
4140741. -0.9512049E-02 -0.1130623E+00 -0.2678509E-01 -0.9724460E-01  0.5113111E-01  0.1014997E+00
4104259. -0.8857613E-02 -0.1153503E+00 -0.2621876E-01 -0.1004272E+00  0.5053611E-01  0.1062668E+00
4067778. -0.8192964E-02 -0.1166561E+00 -0.2563646E-01 -0.1028254E+00  0.4991467E-01  0.1107386E+00
4031296. -0.7523329E-02 -0.1171058E+00 -0.2504268E-01 -0.1044332E+00  0.4926844E-01  0.1149200E+00
3994815. -0.6853283E-02 -0.1168297E+00 -0.2444197E-01 -0.1052475E+00  0.4859911E-01  0.1188168E+00
3958333. -0.6186524E-02 -0.1159750E+00 -0.2383886E-01 -0.1052682E+00  0.4790824E-01  0.1224359E+00
3921852. -0.5525997E-02 -0.1146844E+00 -0.2323791E-01 -0.1044977E+00  0.4719744E-01  0.1257851E+00
3885370. -0.4873709E-02 -0.1131187E+00 -0.2264361E-01 -0.1029406E+00  0.4646820E-01  0.1288737E+00
3848889. -0.4230785E-02 -0.1114485E+00 -0.2206049E-01 -0.1006045E+00  0.4572201E-01  0.1317118E+00
3812407. -0.3597290E-02 -0.1098488E+00 -0.2149293E-01 -0.9749750E-01  0.4496024E-01  0.1343111E+00
3775926. -0.2972346E-02 -0.1084987E+00 -0.2094536E-01 -0.9362970E-01  0.4418426E-01  0.1366843E+00
3739444. -0.2353940E-02 -0.1075924E+00 -0.2042208E-01 -0.8901194E-01  0.4339529E-01  0.1388459E+00
3702963. -0.1738989E-02 -0.1073314E+00 -0.1992737E-01 -0.8365578E-01  0.4259453E-01  0.1408116E+00
3666482. -0.1123195E-02 -0.1079225E+00 -0.1946542E-01 -0.7757244E-01  0.4178303E-01  0.1425990E+00
3630000. -0.5010345E-03 -0.1095866E+00 -0.1904036E-01 -0.7077237E-01  0.4096173E-01  0.1442273E+00
3630000. -0.5010345E-03 -0.1095830E+00 -0.1904036E-01 -0.7077195E-01  0.4096173E-01  0.1442273E+00
3592500.  0.1460394E-03 -0.1105326E+00 -0.1864557E-01 -0.6325384E-01  0.4010819E-01  0.1457820E+00
3555000.  0.8031980E-03 -0.1130518E+00 -0.1829709E-01 -0.5503995E-01  0.3924571E-01  0.1472658E+00
3517500.  0.1480438E-02 -0.1174012E+00 -0.1799901E-01 -0.4612809E-01  0.3837465E-01  0.1487071E+00
3480000.  0.2189350E-02 -0.1238621E+00 -0.1775545E-01 -0.3651388E-01  0.3749514E-01  0.1501372E+00
3480000.  0.2189350E-02  0.2310423E+00 -0.4839917E-02  0.1296042E-01  0.3749514E-01  0.1432504E+00
3409422. -0.2634088E-03  0.2114877E+00 -0.4960528E-02  0.8840643E-02  0.3588619E-01  0.1471829E+00
3338844. -0.2491145E-02  0.1905163E+00 -0.5036444E-02  0.4897575E-02  0.3423552E-01  0.1507474E+00
3268266. -0.4481390E-02  0.1687022E+00 -0.5069833E-02  0.1169282E-02  0.3254831E-01  0.1537496E+00
3197688. -0.6227679E-02  0.1465509E+00 -0.5063266E-02 -0.2311499E-02  0.3083168E-01  0.1560393E+00
3127109. -0.7728751E-02  0.1244940E+00 -0.5019623E-02 -0.5520639E-02  0.2909412E-01  0.1575064E+00
3056531. -0.8987717E-02  0.1029021E+00 -0.4942018E-02 -0.8440778E-02  0.2734525E-01  0.1580773E+00
2985953. -0.1001152E-01  0.8208400E-01 -0.4833721E-02 -0.1105990E-01  0.2559522E-01  0.1577117E+00
2915375. -0.1081017E-01  0.6229242E-01 -0.4698113E-02 -0.1337074E-01  0.2385449E-01  0.1563979E+00
2844797. -0.1139622E-01  0.4373086E-01 -0.4538623E-02 -0.1537184E-01  0.2213352E-01  0.1541498E+00
2774219. -0.1178419E-01  0.2655506E-01 -0.4358668E-02 -0.1706605E-01  0.2044247E-01  0.1510031E+00
2703641. -0.1199012E-01  0.1087979E-01 -0.4161620E-02 -0.1845894E-01  0.1879101E-01  0.1470117E+00
2633062. -0.1203108E-01 -0.3217328E-02 -0.3950766E-02 -0.1956012E-01  0.1718812E-01  0.1422443E+00
2562484. -0.1192483E-01 -0.1569244E-01 -0.3729271E-02 -0.2038301E-01  0.1564199E-01  0.1367816E+00
2491906. -0.1168944E-01 -0.2653055E-01 -0.3500135E-02 -0.2094201E-01  0.1415982E-01  0.1307130E+00
2421328. -0.1134302E-01 -0.3574212E-01 -0.3266192E-02 -0.2125396E-01  0.1274780E-01  0.1241336E+00
2350750. -0.1090344E-01 -0.4335767E-01 -0.3030070E-02 -0.2133881E-01  0.1141103E-01  0.1171424E+00
2280172. -0.1038811E-01 -0.4942582E-01 -0.2794171E-02 -0.2121726E-01  0.1015354E-01  0.1098394E+00
2209594. -0.9813845E-02 -0.5400806E-01 -0.2560660E-02 -0.2091164E-01  0.8978211E-02  0.1023239E+00
2139016. -0.9196730E-02 -0.5717475E-01 -0.2331444E-02 -0.2044572E-01  0.7886874E-02  0.9469231E-01
2068438. -0.8552035E-02 -0.5899966E-01 -0.2108162E-02 -0.1984518E-01  0.6880295E-02  0.8703668E-01
1997859. -0.7894210E-02 -0.5955523E-01 -0.1892147E-02 -0.1913767E-01  0.5958243E-02  0.7944344E-01
1927281. -0.7236975E-02 -0.5890364E-01 -0.1684429E-02 -0.1835295E-01  0.5119606E-02  0.7199227E-01
1856703. -0.6593431E-02 -0.5708849E-01 -0.1485679E-02 -0.1752493E-01  0.4362392E-02  0.6475461E-01
1786125. -0.5976378E-02 -0.5411868E-01 -0.1296161E-02 -0.1669320E-01  0.3683880E-02  0.5779320E-01
1715547. -0.5398802E-02 -0.4994761E-01 -0.1115661E-02 -0.1590603E-01  0.3080707E-02  0.5116112E-01
1644969. -0.4874661E-02 -0.4443871E-01 -0.9433527E-03 -0.1522646E-01  0.2548979E-02  0.4490080E-01
1574391. -0.4420174E-02 -0.3730870E-01 -0.7775906E-03 -0.1474122E-01  0.2084396E-02  0.3904311E-01
1503812. -0.4055918E-02 -0.2803326E-01 -0.6155676E-03 -0.1457662E-01  0.1682381E-02  0.3360534E-01
1433234. -0.3810335E-02 -0.1568302E-01 -0.4527420E-03 -0.1492661E-01  0.1338271E-02  0.2858871E-01
1362656. -0.3725668E-02  0.1370954E-02 -0.2818278E-03 -0.1610260E-01  0.1047487E-02  0.2397234E-01
1292078. -0.3868410E-02  0.2599828E-01 -0.9104267E-04 -0.1862585E-01  0.8058505E-03  0.1970347E-01
1221500. -0.4348136E-02  0.6334068E-01  0.1390839E-03 -0.2340279E-01  0.6100285E-03  0.1567770E-01
1221500. -0.4348136E-02  0.3583229E-01  0.1987458E-04  0.2278231E-01  0.6100285E-03  0.1756134E-01
1183328. -0.4515687E-02  0.2027191E-01 -0.1064243E-03  0.1937045E-01  0.5120814E-03  0.1518014E-01
1145156. -0.4593382E-02  0.5872654E-02 -0.2122457E-03  0.1595980E-01  0.4275936E-03  0.1306463E-01
1106984. -0.4588752E-02 -0.7180460E-02 -0.2978234E-03  0.1262500E-01  0.3550427E-03  0.1119183E-01
1068812. -0.4510319E-02 -0.1874203E-01 -0.3638194E-03  0.9434009E-02  0.2930395E-03  0.9540292E-02
1030641. -0.4367358E-02 -0.2870776E-01 -0.4112770E-03  0.6446391E-02  0.2403209E-03  0.8089765E-02
 992469. -0.4169626E-02 -0.3701594E-01 -0.4415712E-03  0.3711847E-02  0.1957376E-03  0.6821211E-02
 954297. -0.3927145E-02 -0.4364521E-01 -0.4563406E-03  0.1269827E-02  0.1582539E-03  0.5717012E-02
 916125. -0.3649937E-02 -0.4861416E-01 -0.4574287E-03 -0.8512347E-03  0.1269355E-03  0.4760544E-02
 877953. -0.3347800E-02 -0.5197831E-01 -0.4468150E-03 -0.2634353E-02  0.1009437E-03  0.3936473E-02
 839781. -0.3030102E-02 -0.5382650E-01 -0.4265492E-03 -0.4072933E-02  0.7952874E-04  0.3230517E-02
 801609. -0.2705581E-02 -0.5427710E-01 -0.3986881E-03 -0.5171210E-02  0.6202297E-04  0.2629441E-02
 763438. -0.2382207E-02 -0.5347271E-01 -0.3652366E-03 -0.5942271E-02  0.4783531E-04  0.2121093E-02
 725266. -0.2067002E-02 -0.5157547E-01 -0.3280916E-03 -0.6408088E-02  0.3644350E-04  0.1694257E-02
 687094. -0.1766002E-02 -0.4876108E-01 -0.2890005E-03 -0.6597107E-02  0.2739077E-04  0.1338672E-02
 648922. -0.1484155E-02 -0.4521371E-01 -0.2495220E-03 -0.6543546E-02  0.2027847E-04  0.1045049E-02
 610750. -0.1225291E-02 -0.4112010E-01 -0.2109966E-03 -0.6285579E-02  0.1476120E-04  0.8049019E-03
 572578. -0.9921303E-03 -0.3666419E-01 -0.1745283E-03 -0.5863715E-02  0.1054184E-04  0.6105900E-03
 534406. -0.7863104E-03 -0.3202208E-01 -0.1409756E-03 -0.5319245E-02  0.7366685E-05  0.4552613E-03
 496234. -0.6084496E-03 -0.2735741E-01 -0.1109507E-03 -0.4692749E-02  0.5020866E-05  0.3327895E-03
 458062. -0.4582334E-03 -0.2281721E-01 -0.8482849E-04 -0.4022707E-02  0.3324162E-05  0.2377321E-03
 419891. -0.3345275E-03 -0.1852863E-01 -0.6276318E-04 -0.3344241E-02  0.2127006E-05  0.1652996E-03
 381719. -0.2354943E-03 -0.1459568E-01 -0.4470976E-04 -0.2688034E-02  0.1306666E-05  0.1112852E-03
 343547. -0.1587548E-03 -0.1109806E-01 -0.3045650E-04 -0.2079513E-02  0.7640069E-06  0.7204342E-04
 305375. -0.1015265E-03 -0.8089554E-02 -0.1965574E-04 -0.1538340E-02  0.4201826E-06  0.4442808E-04
 267203. -0.6078351E-04 -0.5597651E-02 -0.1186077E-04 -0.1077877E-02  0.2137911E-06  0.2575680E-04
 229031. -0.3341222E-04 -0.3624243E-02 -0.6563580E-05 -0.7052391E-03  0.9821853E-07  0.1376819E-04
 190859. -0.1636204E-04 -0.2146719E-02 -0.3232176E-05 -0.4213487E-03  0.3923448E-07  0.6584427E-05
 152688. -0.6786281E-05 -0.1120092E-02 -0.1346621E-05 -0.2213675E-03  0.1279306E-07  0.2678436E-05
 114516. -0.2168106E-05 -0.4794861E-03 -0.4317180E-06 -0.9526288E-04  0.3024147E-08  0.8429029E-06
  76344. -0.4312272E-06 -0.1435499E-03 -0.8607794E-07 -0.2862606E-04  0.3971498E-09  0.1658584E-06
  38172. -0.2706317E-07 -0.1805491E-04 -0.5409964E-08 -0.3608309E-05  0.1239082E-10  0.1034310E-07
      0.  0.0000000E+00  0.0000000E+00  0.0000000E+00  0.0000000E+00  0.0000000E+00  0.0000000E+00
