       3        1 S      221       1060.05505         25.17490          6.00254        824.29779      185    7
6371000. -0.2869413E+00  0.4287850E+00  0.2574028E+00  0.5443441E+00 -0.7150863E-08  0.5411041E+00
6370000. -0.2870084E+00  0.4266200E+00  0.2573169E+00  0.5500510E+00 -0.8493751E-04  0.5410783E+00
6369000. -0.2870752E+00  0.4244526E+00  0.2572301E+00  0.5557571E+00 -0.1698638E-03  0.5410519E+00
6368000. -0.2871417E+00  0.4222827E+00  0.2571424E+00  0.5614624E+00 -0.2547858E-03  0.5410249E+00
6368000. -0.2871417E+00  0.4222827E+00  0.2571424E+00  0.5614624E+00 -0.2547858E-03  0.5410249E+00
6367000. -0.2872078E+00  0.4201104E+00  0.2570539E+00  0.5671669E+00 -0.3397036E-03  0.5409972E+00
6366000. -0.2872735E+00  0.4179357E+00  0.2569644E+00  0.5728705E+00 -0.4246170E-03  0.5409689E+00
6365000. -0.2873389E+00  0.4157586E+00  0.2568740E+00  0.5785732E+00 -0.5095258E-03  0.5409399E+00
6364000. -0.2874040E+00  0.4135791E+00  0.2567828E+00  0.5842751E+00 -0.5944301E-03  0.5409103E+00
6363000. -0.2874688E+00  0.4113971E+00  0.2566906E+00  0.5899760E+00 -0.6793297E-03  0.5408801E+00
6362000. -0.2875332E+00  0.4092127E+00  0.2565975E+00  0.5956759E+00 -0.7642245E-03  0.5408492E+00
6361000. -0.2875972E+00  0.4070259E+00  0.2565036E+00  0.6013749E+00 -0.8491144E-03  0.5408177E+00
6360000. -0.2876610E+00  0.4048367E+00  0.2564088E+00  0.6070729E+00 -0.9339993E-03  0.5407856E+00
6359000. -0.2877243E+00  0.4026451E+00  0.2563131E+00  0.6127700E+00 -0.1018879E-02  0.5407528E+00
6358000. -0.2877873E+00  0.4004511E+00  0.2562164E+00  0.6184660E+00 -0.1103754E-02  0.5407194E+00
6357000. -0.2878501E+00  0.3982546E+00  0.2561189E+00  0.6241611E+00 -0.1188623E-02  0.5406854E+00
6356000. -0.2879124E+00  0.3960558E+00  0.2560205E+00  0.6298550E+00 -0.1273487E-02  0.5406507E+00
6356000. -0.2879124E+00  0.3542222E+00  0.2560205E+00  0.5963039E+00 -0.1273487E-02  0.6032971E+00
6355000. -0.2879679E+00  0.3526807E+00  0.2559266E+00  0.6000661E+00 -0.1368177E-02  0.6032440E+00
6354000. -0.2880231E+00  0.3511376E+00  0.2558321E+00  0.6038277E+00 -0.1462859E-02  0.6031904E+00
6353000. -0.2880781E+00  0.3495930E+00  0.2557370E+00  0.6075885E+00 -0.1557532E-02  0.6031364E+00
6352000. -0.2881328E+00  0.3480467E+00  0.2556413E+00  0.6113487E+00 -0.1652197E-02  0.6030818E+00
6351000. -0.2881874E+00  0.3464990E+00  0.2555451E+00  0.6151083E+00 -0.1746853E-02  0.6030267E+00
6350000. -0.2882416E+00  0.3449497E+00  0.2554483E+00  0.6188670E+00 -0.1841500E-02  0.6029712E+00
6349000. -0.2882956E+00  0.3433988E+00  0.2553508E+00  0.6226251E+00 -0.1936139E-02  0.6029152E+00
6348000. -0.2883494E+00  0.3418464E+00  0.2552528E+00  0.6263825E+00 -0.2030769E-02  0.6028586E+00
6347000. -0.2884029E+00  0.3402925E+00  0.2551542E+00  0.6301392E+00 -0.2125390E-02  0.6028016E+00
6346600. -0.2884243E+00  0.3396704E+00  0.2551146E+00  0.6316416E+00 -0.2163236E-02  0.6027786E+00
6346600. -0.2884243E+00  0.4145025E+00  0.2551146E+00  0.6036996E+00 -0.2163236E-02  0.7033479E+00
6318800. -0.2901726E+00  0.3865796E+00  0.2523061E+00  0.6834266E+00 -0.5228412E-02  0.7015136E+00
6291000. -0.2917957E+00  0.3570891E+00  0.2491516E+00  0.7622483E+00 -0.8284954E-02  0.6993893E+00
6291000. -0.2917957E+00  0.3756326E+00  0.2491516E+00  0.7731544E+00 -0.8284954E-02  0.6993893E+00
6263000. -0.2933767E+00  0.3435802E+00  0.2455717E+00  0.8557475E+00 -0.1135389E-01  0.6971426E+00
6235000. -0.2948131E+00  0.3098055E+00  0.2416315E+00  0.9371162E+00 -0.1441226E-01  0.6945800E+00
6207000. -0.2960972E+00  0.2742794E+00  0.2373366E+00  0.1017141E+01 -0.1745865E-01  0.6916904E+00
6179000. -0.2972214E+00  0.2369721E+00  0.2326932E+00  0.1095706E+01 -0.2049160E-01  0.6884624E+00
6151000. -0.2981775E+00  0.1978608E+00  0.2277079E+00  0.1172689E+01 -0.2350961E-01  0.6848910E+00
6151000. -0.2981775E+00  0.2444777E+00  0.2277079E+00  0.1092129E+01 -0.2350961E-01  0.7013878E+00
6128500. -0.2990064E+00  0.2249786E+00  0.2237655E+00  0.1140213E+01 -0.2598795E-01  0.7021040E+00
6106000. -0.2997665E+00  0.2055126E+00  0.2196562E+00  0.1186652E+01 -0.2846861E-01  0.7026945E+00
6083500. -0.3004578E+00  0.1860827E+00  0.2153858E+00  0.1231438E+01 -0.3095112E-01  0.7031595E+00
6061000. -0.3010806E+00  0.1666883E+00  0.2109602E+00  0.1274558E+01 -0.3343506E-01  0.7035059E+00
6038500. -0.3016350E+00  0.1473263E+00  0.2063852E+00  0.1316007E+01 -0.3592002E-01  0.7037343E+00
6016000. -0.3021211E+00  0.1280000E+00  0.2016669E+00  0.1355784E+01 -0.3840557E-01  0.7038448E+00
5993500. -0.3025390E+00  0.1087094E+00  0.1968110E+00  0.1393879E+01 -0.4089133E-01  0.7038447E+00
5971000. -0.3028888E+00  0.8945061E-01  0.1918235E+00  0.1430296E+01 -0.4337688E-01  0.7037319E+00
5971000. -0.3028888E+00  0.1149460E+00  0.1918235E+00  0.1330877E+01 -0.4337688E-01  0.7433826E+00
5937667. -0.3034373E+00  0.9491340E-01  0.1848101E+00  0.1349280E+01 -0.4727854E-01  0.7480561E+00
5904333. -0.3038843E+00  0.7613639E-01  0.1777125E+00  0.1363050E+01 -0.5120439E-01  0.7525851E+00
5871000. -0.3042362E+00  0.5852713E-01  0.1705543E+00  0.1372634E+01 -0.5515347E-01  0.7569885E+00
5837667. -0.3044988E+00  0.4200344E-01  0.1633559E+00  0.1378444E+01 -0.5912532E-01  0.7612866E+00
5804333. -0.3046776E+00  0.2648719E-01  0.1561360E+00  0.1380857E+01 -0.6311952E-01  0.7654920E+00
5771000. -0.3047777E+00  0.1191443E-01  0.1489118E+00  0.1380208E+01 -0.6713540E-01  0.7696236E+00
5771000. -0.3047777E+00  0.1196114E-01  0.1489118E+00  0.1380180E+01 -0.6713540E-01  0.7696236E+00
5701000. -0.3046107E+00 -0.4243720E-01  0.1334405E+00  0.1434357E+01 -0.7554990E-01  0.7619185E+00
5701000. -0.3046107E+00  0.8895679E-02  0.1334405E+00  0.1232489E+01 -0.7554990E-01  0.8477773E+00
5667333. -0.3045896E+00 -0.1689191E-01  0.1269288E+00  0.1231659E+01 -0.8002800E-01  0.8470101E+00
5633667. -0.3044338E+00 -0.4207545E-01  0.1204269E+00  0.1228902E+01 -0.8450120E-01  0.8459741E+00
5600000. -0.3041465E+00 -0.6666442E-01  0.1139441E+00  0.1224391E+01 -0.8896837E-01  0.8446805E+00
5600000. -0.3041465E+00 -0.6663712E-01  0.1139441E+00  0.1224427E+01 -0.8896837E-01  0.8446805E+00
5563518. -0.3037095E+00 -0.8595911E-01  0.1068956E+00  0.1237089E+01 -0.9380068E-01  0.8430674E+00
5527037. -0.3031617E+00 -0.1053872E+00  0.9977973E-01  0.1248049E+01 -0.9862319E-01  0.8413040E+00
5490556. -0.3025023E+00 -0.1249240E+00  0.9260588E-01  0.1257339E+01 -0.1034352E+00  0.8393992E+00
5454074. -0.3017306E+00 -0.1445794E+00  0.8538337E-01  0.1264984E+01 -0.1082360E+00  0.8373573E+00
5417593. -0.3008461E+00 -0.1643582E+00  0.7812194E-01  0.1271001E+01 -0.1130247E+00  0.8351898E+00
5381111. -0.2998480E+00 -0.1842608E+00  0.7083045E-01  0.1275420E+01 -0.1178007E+00  0.8329027E+00
5344630. -0.2987356E+00 -0.2042929E+00  0.6351838E-01  0.1278262E+01 -0.1225632E+00  0.8305032E+00
5308148. -0.2975080E+00 -0.2244574E+00  0.5619428E-01  0.1279556E+01 -0.1273117E+00  0.8279977E+00
5271667. -0.2961647E+00 -0.2447554E+00  0.4886736E-01  0.1279318E+01 -0.1320455E+00  0.8253954E+00
5235185. -0.2947046E+00 -0.2651884E+00  0.4154594E-01  0.1277573E+01 -0.1367643E+00  0.8227027E+00
5198704. -0.2931273E+00 -0.2857567E+00  0.3423897E-01  0.1274343E+01 -0.1414672E+00  0.8199290E+00
5162222. -0.2914317E+00 -0.3064637E+00  0.2695449E-01  0.1269651E+01 -0.1461543E+00  0.8170786E+00
5125741. -0.2896172E+00 -0.3273038E+00  0.1970122E-01  0.1263518E+01 -0.1508246E+00  0.8141633E+00
5089259. -0.2876830E+00 -0.3482812E+00  0.1248694E-01  0.1255966E+01 -0.1554782E+00  0.8111876E+00
5052778. -0.2856283E+00 -0.3693907E+00  0.5320102E-02  0.1247018E+01 -0.1601145E+00  0.8081613E+00
5016296. -0.2834523E+00 -0.3906344E+00 -0.1791733E-02  0.1236692E+01 -0.1647335E+00  0.8050913E+00
4979815. -0.2811543E+00 -0.4120090E+00 -0.8840359E-02  0.1225011E+01 -0.1693347E+00  0.8019854E+00
4943333. -0.2787336E+00 -0.4335133E+00 -0.1581845E-01  0.1211993E+01 -0.1739181E+00  0.7988551E+00
4906852. -0.2761893E+00 -0.4551426E+00 -0.2271804E-01  0.1197664E+01 -0.1784834E+00  0.7957043E+00
4870370. -0.2735208E+00 -0.4768937E+00 -0.2953207E-01  0.1182043E+01 -0.1830308E+00  0.7925449E+00
4833889. -0.2707275E+00 -0.4987648E+00 -0.3625279E-01  0.1165145E+01 -0.1875599E+00  0.7893872E+00
4797407. -0.2678085E+00 -0.5207527E+00 -0.4287335E-01  0.1146999E+01 -0.1920711E+00  0.7862354E+00
4760926. -0.2647634E+00 -0.5428516E+00 -0.4938629E-01  0.1127624E+01 -0.1965642E+00  0.7831023E+00
4724444. -0.2615914E+00 -0.5650600E+00 -0.5578500E-01  0.1107038E+01 -0.2010395E+00  0.7799965E+00
4687963. -0.2582920E+00 -0.5873693E+00 -0.6206223E-01  0.1085264E+01 -0.2054971E+00  0.7769273E+00
4651482. -0.2548645E+00 -0.6097783E+00 -0.6821143E-01  0.1062322E+01 -0.2099372E+00  0.7739059E+00
4615000. -0.2513084E+00 -0.6322816E+00 -0.7422614E-01  0.1038235E+01 -0.2143602E+00  0.7709418E+00
4578518. -0.2476231E+00 -0.6548721E+00 -0.8009969E-01  0.1013022E+01 -0.2187665E+00  0.7680469E+00
4542037. -0.2438084E+00 -0.6775468E+00 -0.8582553E-01  0.9867049E+00 -0.2231563E+00  0.7652299E+00
4505556. -0.2398636E+00 -0.7002990E+00 -0.9139757E-01  0.9593064E+00 -0.2275303E+00  0.7625031E+00
4469074. -0.2357882E+00 -0.7231253E+00 -0.9680983E-01  0.9308458E+00 -0.2318890E+00  0.7598774E+00
4432593. -0.2315820E+00 -0.7460161E+00 -0.1020560E+00  0.9013473E+00 -0.2362329E+00  0.7573664E+00
4396111. -0.2272444E+00 -0.7689663E+00 -0.1071304E+00  0.8708305E+00 -0.2405629E+00  0.7549831E+00
4359630. -0.2227754E+00 -0.7919725E+00 -0.1120271E+00  0.8393201E+00 -0.2448795E+00  0.7527370E+00
4323148. -0.2181744E+00 -0.8150274E+00 -0.1167408E+00  0.8068334E+00 -0.2491838E+00  0.7506455E+00
4286667. -0.2134414E+00 -0.8381229E+00 -0.1212655E+00  0.7733992E+00 -0.2534764E+00  0.7487189E+00
4250185. -0.2085759E+00 -0.8612537E+00 -0.1255962E+00  0.7390343E+00 -0.2577587E+00  0.7469739E+00
4213704. -0.2035780E+00 -0.8844134E+00 -0.1297275E+00  0.7037653E+00 -0.2620314E+00  0.7454253E+00
4177222. -0.1984472E+00 -0.9075951E+00 -0.1336543E+00  0.6676104E+00 -0.2662960E+00  0.7440878E+00
4140741. -0.1931839E+00 -0.9307918E+00 -0.1373715E+00  0.6305968E+00 -0.2705534E+00  0.7429788E+00
4104259. -0.1877875E+00 -0.9539981E+00 -0.1408745E+00  0.5927454E+00 -0.2748053E+00  0.7421129E+00
4067778. -0.1822584E+00 -0.9772057E+00 -0.1441583E+00  0.5540797E+00 -0.2790529E+00  0.7415105E+00
4031296. -0.1765962E+00 -0.1000409E+01 -0.1472185E+00  0.5146222E+00 -0.2832979E+00  0.7411876E+00
3994815. -0.1708014E+00 -0.1023601E+01 -0.1500505E+00  0.4743976E+00 -0.2875418E+00  0.7411646E+00
3958333. -0.1648737E+00 -0.1046772E+01 -0.1526501E+00  0.4334278E+00 -0.2917866E+00  0.7414622E+00
3921852. -0.1588135E+00 -0.1069920E+01 -0.1550129E+00  0.3917369E+00 -0.2960339E+00  0.7420996E+00
3885370. -0.1526207E+00 -0.1093037E+01 -0.1571351E+00  0.3493460E+00 -0.3002861E+00  0.7430997E+00
3848889. -0.1462958E+00 -0.1116116E+01 -0.1590125E+00  0.3062828E+00 -0.3045449E+00  0.7444851E+00
3812407. -0.1398387E+00 -0.1139147E+01 -0.1606415E+00  0.2625668E+00 -0.3088130E+00  0.7462806E+00
3775926. -0.1332500E+00 -0.1162127E+01 -0.1620183E+00  0.2182230E+00 -0.3130924E+00  0.7485110E+00
3739444. -0.1265298E+00 -0.1185050E+01 -0.1631395E+00  0.1732732E+00 -0.3173861E+00  0.7512028E+00
3702963. -0.1196786E+00 -0.1207906E+01 -0.1640016E+00  0.1277422E+00 -0.3216964E+00  0.7543843E+00
3666482. -0.1126968E+00 -0.1230692E+01 -0.1646013E+00  0.8165167E-01 -0.3260264E+00  0.7580840E+00
3630000. -0.1055845E+00 -0.1253398E+01 -0.1649356E+00  0.3502214E-01 -0.3303793E+00  0.7623351E+00
3630000. -0.1055845E+00 -0.1253394E+01 -0.1649356E+00  0.3502061E-01 -0.3303793E+00  0.7623351E+00
3592500. -0.9812014E-01 -0.1282930E+01 -0.1650010E+00 -0.1297660E-01 -0.3348807E+00  0.7672380E+00
3555000. -0.9048156E-01 -0.1312587E+01 -0.1647810E+00 -0.6190703E-01 -0.3394123E+00  0.7726434E+00
3517500. -0.8266809E-01 -0.1342357E+01 -0.1642704E+00 -0.1117643E+00 -0.3439773E+00  0.7785842E+00
3480000. -0.7467906E-01 -0.1372236E+01 -0.1634635E+00 -0.1625419E+00 -0.3485790E+00  0.7850951E+00
3480000. -0.7467906E-01 -0.1206141E+01  0.1382895E+00 -0.3928497E+00 -0.3485790E+00  0.1020005E+01
3409422. -0.6148767E-01 -0.1175513E+01  0.1425888E+00 -0.3834116E+00 -0.3594099E+00  0.9354036E+00
3338844. -0.4863223E-01 -0.1145475E+01  0.1467853E+00 -0.3742349E+00 -0.3693045E+00  0.8509809E+00
3268266. -0.3610642E-01 -0.1116002E+01  0.1508811E+00 -0.3652568E+00 -0.3782654E+00  0.7668532E+00
3197688. -0.2390404E-01 -0.1087076E+01  0.1548788E+00 -0.3564986E+00 -0.3862964E+00  0.6831292E+00
3127109. -0.1201909E-01 -0.1058659E+01  0.1587805E+00 -0.3479359E+00 -0.3934027E+00  0.5999116E+00
3056531. -0.4464461E-03 -0.1030719E+01  0.1625883E+00 -0.3395311E+00 -0.3995904E+00  0.5173026E+00
2985953.  0.1081916E-01 -0.1003218E+01  0.1663037E+00 -0.3312716E+00 -0.4048667E+00  0.4353965E+00
2915375.  0.2178234E-01 -0.9761148E+00  0.1699285E+00 -0.3231699E+00 -0.4092400E+00  0.3542855E+00
2844797.  0.3244731E-01 -0.9493722E+00  0.1734643E+00 -0.3151998E+00 -0.4127195E+00  0.2740591E+00
2774219.  0.4281782E-01 -0.9229453E+00  0.1769125E+00 -0.3073337E+00 -0.4153156E+00  0.1948040E+00
2703641.  0.5289711E-01 -0.8967916E+00  0.1802741E+00 -0.2995930E+00 -0.4170395E+00  0.1166047E+00
2633062.  0.6268816E-01 -0.8708725E+00  0.1835507E+00 -0.2919725E+00 -0.4179033E+00  0.3954376E-01
2562484.  0.7219300E-01 -0.8451403E+00  0.1867433E+00 -0.2844188E+00 -0.4179202E+00 -0.3629559E-01
2491906.  0.8141363E-01 -0.8195496E+00  0.1898527E+00 -0.2769613E+00 -0.4171040E+00 -0.1108346E+00
2421328.  0.9035131E-01 -0.7940513E+00  0.1928801E+00 -0.2696279E+00 -0.4154696E+00 -0.1839927E+00
2350750.  0.9900683E-01 -0.7686026E+00  0.1958269E+00 -0.2623719E+00 -0.4130328E+00 -0.2556899E+00
2280172.  0.1073804E+00 -0.7431481E+00  0.1986936E+00 -0.2552076E+00 -0.4098102E+00 -0.3258480E+00
2209594.  0.1154718E+00 -0.7176320E+00  0.2014816E+00 -0.2481512E+00 -0.4058193E+00 -0.3943864E+00
2139016.  0.1232799E+00 -0.6919898E+00  0.2041921E+00 -0.2412301E+00 -0.4010785E+00 -0.4612239E+00
2068438.  0.1308028E+00 -0.6661560E+00  0.2068269E+00 -0.2344550E+00 -0.3956070E+00 -0.5262759E+00
1997859.  0.1380383E+00 -0.6400427E+00  0.2093873E+00 -0.2278287E+00 -0.3894251E+00 -0.5894579E+00
1927281.  0.1449824E+00 -0.6135616E+00  0.2118755E+00 -0.2214259E+00 -0.3825541E+00 -0.6506768E+00
1856703.  0.1516306E+00 -0.5865895E+00  0.2142942E+00 -0.2152797E+00 -0.3750163E+00 -0.7098363E+00
1786125.  0.1579766E+00 -0.5589876E+00  0.2166464E+00 -0.2094346E+00 -0.3668350E+00 -0.7668316E+00
1715547.  0.1640125E+00 -0.5305747E+00  0.2189360E+00 -0.2040152E+00 -0.3580348E+00 -0.8215471E+00
1644969.  0.1697281E+00 -0.5011140E+00  0.2211685E+00 -0.1991179E+00 -0.3486417E+00 -0.8738496E+00
1574391.  0.1751102E+00 -0.4702992E+00  0.2233501E+00 -0.1948846E+00 -0.3386832E+00 -0.9235885E+00
1503812.  0.1801417E+00 -0.4377183E+00  0.2254896E+00 -0.1915453E+00 -0.3281886E+00 -0.9705824E+00
1433234.  0.1847998E+00 -0.4028129E+00  0.2275983E+00 -0.1893778E+00 -0.3171898E+00 -0.1014610E+01
1362656.  0.1890550E+00 -0.3648061E+00  0.2296914E+00 -0.1888136E+00 -0.3057209E+00 -0.1055394E+01
1292078.  0.1928670E+00 -0.3226012E+00  0.2317895E+00 -0.1903859E+00 -0.2938197E+00 -0.1092578E+01
1221500.  0.1961813E+00 -0.2746202E+00  0.2339207E+00 -0.1949667E+00 -0.2815287E+00 -0.1125691E+01
1221500.  0.1961813E+00 -0.1666922E+00  0.2437856E+00  0.2482909E+00 -0.2815287E+00 -0.1210678E+01
1183328.  0.1971524E+00 -0.1575329E+00  0.2422813E+00  0.2536674E+00 -0.2742049E+00 -0.1233926E+01
1145156.  0.1980697E+00 -0.1487234E+00  0.2407482E+00  0.2579220E+00 -0.2667438E+00 -0.1256520E+01
1106984.  0.1989352E+00 -0.1402588E+00  0.2391928E+00  0.2610691E+00 -0.2591493E+00 -0.1278450E+01
1068812.  0.1997511E+00 -0.1321302E+00  0.2376219E+00  0.2631259E+00 -0.2514254E+00 -0.1299712E+01
1030641.  0.2005192E+00 -0.1243296E+00  0.2360419E+00  0.2641114E+00 -0.2435764E+00 -0.1320296E+01
 992469.  0.2012415E+00 -0.1168504E+00  0.2344592E+00  0.2640469E+00 -0.2356058E+00 -0.1340195E+01
 954297.  0.2019200E+00 -0.1096803E+00  0.2328799E+00  0.2629556E+00 -0.2275181E+00 -0.1359404E+01
 916125.  0.2025564E+00 -0.1028145E+00  0.2313102E+00  0.2608622E+00 -0.2193174E+00 -0.1377914E+01
 877953.  0.2031526E+00 -0.9624000E-01  0.2297559E+00  0.2577942E+00 -0.2110079E+00 -0.1395719E+01
 839781.  0.2037102E+00 -0.8994886E-01  0.2282229E+00  0.2537794E+00 -0.2025939E+00 -0.1412814E+01
 801609.  0.2042310E+00 -0.8393031E-01  0.2267167E+00  0.2488489E+00 -0.1940795E+00 -0.1429191E+01
 763438.  0.2047165E+00 -0.7817376E-01  0.2252427E+00  0.2430337E+00 -0.1854695E+00 -0.1444847E+01
 725266.  0.2051682E+00 -0.7266816E-01  0.2238062E+00  0.2363674E+00 -0.1767675E+00 -0.1459774E+01
 687094.  0.2055877E+00 -0.6740397E-01  0.2224120E+00  0.2288841E+00 -0.1679784E+00 -0.1473967E+01
 648922.  0.2059764E+00 -0.6236807E-01  0.2210650E+00  0.2206195E+00 -0.1591064E+00 -0.1487423E+01
 610750.  0.2063355E+00 -0.5755008E-01  0.2197698E+00  0.2116111E+00 -0.1501560E+00 -0.1500135E+01
 572578.  0.2066664E+00 -0.5293832E-01  0.2185307E+00  0.2018967E+00 -0.1411317E+00 -0.1512098E+01
 534406.  0.2069702E+00 -0.4852062E-01  0.2173518E+00  0.1915155E+00 -0.1320380E+00 -0.1523310E+01
 496234.  0.2072482E+00 -0.4428436E-01  0.2162370E+00  0.1805077E+00 -0.1228793E+00 -0.1533767E+01
 458062.  0.2075012E+00 -0.4021796E-01  0.2151899E+00  0.1689144E+00 -0.1136603E+00 -0.1543464E+01
 419891.  0.2077304E+00 -0.3630842E-01  0.2142140E+00  0.1567778E+00 -0.1043857E+00 -0.1552398E+01
 381719.  0.2079366E+00 -0.3254401E-01  0.2133122E+00  0.1441398E+00 -0.9505960E-01 -0.1560565E+01
 343547.  0.2081207E+00 -0.2891095E-01  0.2124876E+00  0.1310439E+00 -0.8568689E-01 -0.1567964E+01
 305375.  0.2082833E+00 -0.2539721E-01  0.2117428E+00  0.1175345E+00 -0.7627216E-01 -0.1574590E+01
 267203.  0.2084252E+00 -0.2198944E-01  0.2110800E+00  0.1036557E+00 -0.6682005E-01 -0.1580443E+01
 229031.  0.2085470E+00 -0.1867455E-01  0.2105013E+00  0.8945305E-01 -0.5733518E-01 -0.1585521E+01
 190859.  0.2086491E+00 -0.1543976E-01  0.2100086E+00  0.7497163E-01 -0.4782223E-01 -0.1589819E+01
 152688.  0.2087321E+00 -0.1227179E-01  0.2096034E+00  0.6025784E-01 -0.3828611E-01 -0.1593338E+01
 114516.  0.2087963E+00 -0.9156952E-02  0.2092869E+00  0.4535716E-01 -0.2873099E-01 -0.1596076E+01
  76344.  0.2088419E+00 -0.6082179E-02  0.2090601E+00  0.3031618E-01 -0.1916181E-01 -0.1598035E+01
  38172.  0.2088692E+00 -0.3033960E-02  0.2089238E+00  0.1518180E-01 -0.9583214E-02 -0.1599220E+01
      0.  0.2088783E+00  0.0000000E+00  0.2088783E+00  0.0000000E+00  0.0000000E+00 -0.1599583E+01
