      11       11 S      539        144.56580         24.07820          8.23669        323.62079      185    7
6371000. -0.3726939E-01  0.2875713E+00  0.4977421E-02  0.4224682E-01 -0.2367356E-03  0.7312219E-01
6370000. -0.3731345E-01  0.2737828E+00  0.4970346E-02  0.4789674E-01 -0.2482047E-03  0.7301681E-01
6369000. -0.3735534E-01  0.2598935E+00  0.4962386E-02  0.5353498E-01 -0.2596570E-03  0.7290777E-01
6368000. -0.3739503E-01  0.2459042E+00  0.4953541E-02  0.5916054E-01 -0.2710919E-03  0.7279508E-01
6368000. -0.3739503E-01  0.2459042E+00  0.4953541E-02  0.5916054E-01 -0.2710919E-03  0.7279508E-01
6367000. -0.3743253E-01  0.2318158E+00  0.4943815E-02  0.6477237E-01 -0.2825088E-03  0.7267875E-01
6366000. -0.3746780E-01  0.2176293E+00  0.4933208E-02  0.7036947E-01 -0.2939072E-03  0.7255879E-01
6365000. -0.3750084E-01  0.2033456E+00  0.4921725E-02  0.7595080E-01 -0.3052865E-03  0.7243519E-01
6364000. -0.3753163E-01  0.1889657E+00  0.4909366E-02  0.8151536E-01 -0.3166461E-03  0.7230797E-01
6363000. -0.3756016E-01  0.1744906E+00  0.4896136E-02  0.8706214E-01 -0.3279854E-03  0.7217712E-01
6362000. -0.3758640E-01  0.1599213E+00  0.4882037E-02  0.9259012E-01 -0.3393039E-03  0.7204266E-01
6361000. -0.3761035E-01  0.1452589E+00  0.4867071E-02  0.9809830E-01 -0.3506010E-03  0.7190459E-01
6360000. -0.3763200E-01  0.1305044E+00  0.4851243E-02  0.1035857E+00 -0.3618762E-03  0.7176292E-01
6359000. -0.3765132E-01  0.1156589E+00  0.4834555E-02  0.1090512E+00 -0.3731288E-03  0.7161766E-01
6358000. -0.3766830E-01  0.1007235E+00  0.4817010E-02  0.1144940E+00 -0.3843584E-03  0.7146881E-01
6357000. -0.3768293E-01  0.8569932E-01  0.4798613E-02  0.1199130E+00 -0.3955643E-03  0.7131638E-01
6356000. -0.3769520E-01  0.7058752E-01  0.4779368E-02  0.1253072E+00 -0.4067460E-03  0.7116037E-01
6356000. -0.3769520E-01  0.1080793E+00  0.4779368E-02  0.9251171E-01 -0.4067460E-03  0.7936241E-01
6355000. -0.3771131E-01  0.9719399E-01  0.4764569E-02  0.9605588E-01 -0.4191898E-03  0.7919642E-01
6354000. -0.3772571E-01  0.8625193E-01  0.4749215E-02  0.9958652E-01 -0.4316074E-03  0.7902765E-01
6353000. -0.3773838E-01  0.7525368E-01  0.4733307E-02  0.1031032E+00 -0.4439983E-03  0.7885610E-01
6352000. -0.3774933E-01  0.6419986E-01  0.4716849E-02  0.1066055E+00 -0.4563620E-03  0.7868180E-01
6351000. -0.3775853E-01  0.5309107E-01  0.4699843E-02  0.1100930E+00 -0.4686981E-03  0.7850473E-01
6350000. -0.3776599E-01  0.4192794E-01  0.4682289E-02  0.1135652E+00 -0.4810062E-03  0.7832490E-01
6349000. -0.3777169E-01  0.3071109E-01  0.4664192E-02  0.1170218E+00 -0.4932859E-03  0.7814233E-01
6348000. -0.3777563E-01  0.1944117E-01  0.4645554E-02  0.1204623E+00 -0.5055367E-03  0.7795701E-01
6347000. -0.3777779E-01  0.8118813E-02  0.4626377E-02  0.1238864E+00 -0.5177582E-03  0.7776896E-01
6346600. -0.3777816E-01  0.3575335E-02  0.4618556E-02  0.1252513E+00 -0.5226385E-03  0.7769297E-01
6346600. -0.3777816E-01  0.1313198E+00  0.4618556E-02  0.9838822E-01 -0.5226385E-03  0.9086566E-01
6318800. -0.3782670E-01 -0.1147515E+00  0.4038168E-02  0.1657610E+00 -0.9071465E-03  0.8509630E-01
6291000. -0.3673418E-01 -0.3899681E+00  0.3191599E-02  0.2196605E+00 -0.1262926E-02  0.7771132E-01
6291000. -0.3673418E-01 -0.3918299E+00  0.3191599E-02  0.2260618E+00 -0.1262926E-02  0.7771132E-01
6263000. -0.3435319E-01 -0.6936001E+00  0.2107275E-02  0.2639891E+00 -0.1585214E-02  0.6870038E-01
6235000. -0.3063235E-01 -0.9988695E+00  0.9026902E-03  0.2804633E+00 -0.1864677E-02  0.5824794E-01
6207000. -0.2559272E-01 -0.1290870E+01 -0.3248334E-03  0.2743908E+00 -0.2095337E-02  0.4652254E-01
6179000. -0.1933067E-01 -0.1552281E+01 -0.1476998E-02  0.2464218E+00 -0.2272038E-02  0.3373074E-01
6151000. -0.1201785E-01 -0.1766374E+01 -0.2462108E-02  0.1988915E+00 -0.2390620E-02  0.2011765E-01
6151000. -0.1201785E-01 -0.1448507E+01 -0.2462108E-02  0.1758930E+00 -0.2390620E-02  0.2078254E-01
6128500. -0.6751162E-02 -0.1528511E+01 -0.3006866E-02  0.1315425E+00 -0.2448890E-02  0.1220765E-01
6106000. -0.1262980E-02 -0.1573560E+01 -0.3384996E-02  0.8190516E-01 -0.2476841E-02  0.3628431E-02
6083500.  0.4319865E-02 -0.1581936E+01 -0.3581891E-02  0.2930223E-01 -0.2474629E-02 -0.4857873E-02
6061000.  0.9866621E-02 -0.1553147E+01 -0.3591287E-02 -0.2387863E-01 -0.2442747E-02 -0.1315869E-01
6038500.  0.1524703E-01 -0.1487960E+01 -0.3415323E-02 -0.7528605E-01 -0.2382007E-02 -0.2118705E-01
6016000.  0.2033568E-01 -0.1388338E+01 -0.3064229E-02 -0.1227041E+00 -0.2293514E-02 -0.2886222E-01
5993500.  0.2501608E-01 -0.1257367E+01 -0.2555688E-02 -0.1641399E+00 -0.2178648E-02 -0.3611083E-01
5971000.  0.2918449E-01 -0.1099138E+01 -0.1913916E-02 -0.1979014E+00 -0.2039035E-02 -0.4286636E-01
5971000.  0.2918449E-01 -0.1004883E+01 -0.1913916E-02 -0.1797547E+00 -0.2039035E-02 -0.4668686E-01
5937667.  0.3374065E-01 -0.7332676E+00 -0.8995808E-03 -0.2047450E+00 -0.1771655E-02 -0.5528026E-01
5904333.  0.3683633E-01 -0.4494352E+00  0.1951004E-03 -0.2105982E+00 -0.1463129E-02 -0.6241002E-01
5871000.  0.3845114E-01 -0.1698099E+00  0.1273417E-02 -0.1988691E+00 -0.1121128E-02 -0.6808485E-01
5837667.  0.3864567E-01  0.9130702E-01  0.2250059E-02 -0.1722538E+00 -0.7531546E-03 -0.7234766E-01
5804333.  0.3754828E-01  0.3223440E+00  0.3055890E-02 -0.1341759E+00 -0.3664204E-03 -0.7526458E-01
5771000.  0.3534009E-01  0.5147833E+00  0.3640683E-02 -0.8840661E-01  0.3222070E-04 -0.7691856E-01
5771000.  0.3534009E-01  0.5148112E+00  0.3640683E-02 -0.8840487E-01  0.3222070E-04 -0.7691856E-01
5701000.  0.2789662E-01  0.8094462E+00  0.4034002E-02  0.1928038E-01  0.8692297E-03 -0.7453425E-01
5701000.  0.2789662E-01  0.6936881E+00  0.4034002E-02  0.9644384E-02  0.8692297E-03 -0.8239730E-01
5667333.  0.2405217E-01  0.7548860E+00  0.3868664E-02  0.5239258E-01  0.1302365E-02 -0.8137611E-01
5633667.  0.1998340E-01  0.7790450E+00  0.3487730E-02  0.9092994E-01  0.1727674E-02 -0.7945103E-01
5600000.  0.1587790E-01  0.7694007E+00  0.2917992E-02  0.1236128E+00  0.2140576E-02 -0.7668612E-01
5600000.  0.1587790E-01  0.7694135E+00  0.2917992E-02  0.1236195E+00  0.2140576E-02 -0.7668612E-01
5563518.  0.1155748E-01  0.7336982E+00  0.2115541E-02  0.1554157E+00  0.2568862E-02 -0.7272491E-01
5527037.  0.7537805E-02  0.6653526E+00  0.1153804E-02  0.1790115E+00  0.2971514E-02 -0.6775048E-01
5490556.  0.3987947E-02  0.5707744E+00  0.8351733E-04  0.1931679E+00  0.3342983E-02 -0.6184813E-01
5454074.  0.1036826E-02  0.4575293E+00 -0.1039064E-02  0.1971994E+00  0.3678225E-02 -0.5510997E-01
5417593. -0.1232004E-02  0.3339030E+00 -0.2155300E-02  0.1909911E+00  0.3972716E-02 -0.4763474E-01
5381111. -0.2783576E-02  0.2084006E+00 -0.3207634E-02  0.1749880E+00  0.4222544E-02 -0.3952545E-01
5344630. -0.3630994E-02  0.8930282E-01 -0.4142432E-02  0.1501475E+00  0.4424373E-02 -0.3089016E-01
5308148. -0.3833102E-02 -0.1581159E-01 -0.4912957E-02  0.1178695E+00  0.4575515E-02 -0.2183929E-01
5271667. -0.3489204E-02 -0.1004294E+00 -0.5481455E-02  0.7990728E-01  0.4673908E-02 -0.1248643E-01
5235185. -0.2731984E-02 -0.1594502E+00 -0.5821039E-02  0.3826018E-01  0.4718154E-02 -0.2945437E-02
5198704. -0.1718806E-02 -0.1894062E+00 -0.5916676E-02 -0.4932992E-02  0.4707502E-02  0.6668739E-02
5162222. -0.6217172E-03 -0.1886214E+00 -0.5765707E-02 -0.4751759E-01  0.4641856E-02  0.1624328E-01
5125741.  0.3827920E-03 -0.1572588E+00 -0.5377616E-02 -0.8742465E-01  0.4521767E-02  0.2566670E-01
5089259.  0.1124428E-02 -0.9726483E-01 -0.4773188E-02 -0.1227816E+00  0.4348402E-02  0.3483225E-01
5052778.  0.1448791E-02 -0.1224755E-01 -0.3983236E-02 -0.1519911E+00  0.4123545E-02  0.4363716E-01
5016296.  0.1226396E-02  0.9276218E-01 -0.3046665E-02 -0.1738080E+00  0.3849524E-02  0.5198600E-01
4979815.  0.3600295E-03  0.2115728E+00 -0.2008484E-02 -0.1873833E+00  0.3529224E-02  0.5979002E-01
4943333. -0.1209666E-02  0.3371930E+00 -0.9172451E-03 -0.1922957E+00  0.3165978E-02  0.6697016E-01
4906852. -0.3500400E-02  0.4621780E+00  0.1772154E-03 -0.1885564E+00  0.2763583E-02  0.7345641E-01
4870370. -0.6487163E-02  0.5790415E+00  0.1226447E-02 -0.1765924E+00  0.2326164E-02  0.7919028E-01
4833889. -0.1010250E-01  0.6806075E+00  0.2185440E-02 -0.1572120E+00  0.1858196E-02  0.8412419E-01
4797407. -0.1424005E-01  0.7603982E+00  0.3014896E-02 -0.1315545E+00  0.1364338E-02  0.8822289E-01
4760926. -0.1875866E-01  0.8129269E+00  0.3682740E-02 -0.1010244E+00  0.8494747E-03  0.9146328E-01
4724444. -0.2348974E-01  0.8339800E+00  0.4165588E-02 -0.6721138E-01  0.3185271E-03  0.9383474E-01
4687963. -0.2824420E-01  0.8208138E+00  0.4449456E-02 -0.3181779E-01 -0.2234972E-03  0.9533845E-01
4651482. -0.3282218E-01  0.7722856E+00  0.4530249E-02  0.3432875E-02 -0.7716764E-03  0.9598761E-01
4615000. -0.3702197E-01  0.6889043E+00  0.4413602E-02  0.3687311E-01 -0.1321195E-02  0.9580605E-01
4578518. -0.4064925E-01  0.5728126E+00  0.4114363E-02  0.6696486E-01 -0.1867376E-02  0.9482793E-01
4542037. -0.4352647E-01  0.4276911E+00  0.3655666E-02  0.9236768E-01 -0.2405759E-02  0.9309581E-01
4505556. -0.4550134E-01  0.2585838E+00  0.3067593E-02  0.1119947E+00 -0.2932185E-02  0.9066041E-01
4469074. -0.4645377E-01  0.7167470E-01  0.2385623E-02  0.1250511E+00 -0.3442800E-02  0.8757835E-01
4432593. -0.4630166E-01 -0.1259612E+00  0.1648937E-02  0.1310602E+00 -0.3934049E-02  0.8391167E-01
4396111. -0.4500522E-01 -0.3267054E+00  0.8984253E-03  0.1298758E+00 -0.4402794E-02  0.7972527E-01
4359630. -0.4256923E-01 -0.5226821E+00  0.1749594E-03  0.1216771E+00 -0.4846225E-02  0.7508522E-01
4323148. -0.3904321E-01 -0.7061289E+00 -0.4825829E-03  0.1069489E+00 -0.5261960E-02  0.7005882E-01
4286667. -0.3452044E-01 -0.8696862E+00 -0.1038837E-02  0.8645333E-01 -0.5647951E-02  0.6471109E-01
4250185. -0.2913393E-01 -0.1006736E+01 -0.1463550E-02  0.6118301E-01 -0.6002562E-02  0.5910491E-01
4213704. -0.2305243E-01 -0.1111641E+01 -0.1732657E-02  0.3231570E-01 -0.6324462E-02  0.5329909E-01
4177222. -0.1647293E-01 -0.1179990E+01 -0.1829251E-02  0.1151889E-02 -0.6612682E-02  0.4734663E-01
4140741. -0.9614480E-02 -0.1208753E+01 -0.1744083E-02 -0.3093879E-01 -0.6866505E-02  0.4129505E-01
4104259. -0.2708476E-02 -0.1196407E+01 -0.1475778E-02 -0.6258466E-01 -0.7085494E-02  0.3518373E-01
4067778.  0.4008627E-02 -0.1142974E+01 -0.1030726E-02 -0.9246273E-01 -0.7269391E-02  0.2904491E-01
4031296.  0.1030566E-01 -0.1050009E+01 -0.4225589E-03 -0.1193598E+00 -0.7418118E-02  0.2290137E-01
3994815.  0.1596392E-01 -0.9205413E+00  0.3284909E-03 -0.1422123E+00 -0.7531685E-02  0.1676728E-01
3958333.  0.2078652E-01 -0.7589117E+00  0.1196718E-02 -0.1601516E+00 -0.7610168E-02  0.1064629E-01
3921852.  0.2460433E-01 -0.5706385E+00  0.2151967E-02 -0.1725267E+00 -0.7653626E-02  0.4532814E-02
3885370.  0.2728301E-01 -0.3621456E+00  0.3161140E-02 -0.1789287E+00 -0.7662061E-02 -0.1590314E-02
3848889.  0.2872676E-01 -0.1405551E+00  0.4189400E-02 -0.1791968E+00 -0.7635344E-02 -0.7750473E-02
3812407.  0.2888202E-01  0.8662983E-01  0.5201804E-02 -0.1734150E+00 -0.7573153E-02 -0.1398744E-01
3775926.  0.2773866E-01  0.3117546E+00  0.6164460E-02 -0.1619025E+00 -0.7474912E-02 -0.2035244E-01
3739444.  0.2532994E-01  0.5273579E+00  0.7046035E-02 -0.1451917E+00 -0.7339702E-02 -0.2691052E-01
3702963.  0.2173096E-01  0.7263845E+00  0.7818691E-02 -0.1240016E+00 -0.7166205E-02 -0.3374042E-01
3666482.  0.1705518E-01  0.9024727E+00  0.8459231E-02 -0.9920131E-01 -0.6952601E-02 -0.4093683E-01
3630000.  0.1144990E-01  0.1050159E+01  0.8949758E-02 -0.7177250E-01 -0.6696466E-02 -0.4861280E-01
3630000.  0.1144990E-01  0.1050149E+01  0.8949758E-02 -0.7177176E-01 -0.6696466E-02 -0.4861280E-01
3592500.  0.4903497E-02  0.1168217E+01  0.9285444E-02 -0.4202741E-01 -0.6385590E-02 -0.5713844E-01
3555000. -0.2227616E-02  0.1248242E+01  0.9442546E-02 -0.1128366E-01 -0.6022251E-02 -0.6646844E-01
3517500. -0.9710576E-02  0.1287427E+01  0.9418606E-02  0.1929362E-01 -0.5601159E-02 -0.7679738E-01
3480000. -0.1730043E-01  0.1284476E+01  0.9218020E-02  0.4854858E-01 -0.5115771E-02 -0.8835785E-01
3480000. -0.1730043E-01  0.3289902E+00 -0.7145189E-03 -0.3035248E-01 -0.5115771E-02 -0.3393782E-01
3409422. -0.2009933E-01  0.1756553E+00 -0.3393552E-03 -0.3692074E-01 -0.5040496E-02  0.1749403E-01
3338844. -0.2120646E-01  0.2604759E-01  0.9295392E-04 -0.4064341E-01 -0.5440950E-02  0.5205959E-01
3268266. -0.2073869E-01 -0.1068402E+00  0.5505372E-03 -0.4150268E-01 -0.6135885E-02  0.7093521E-01
3197688. -0.1893441E-01 -0.2141101E+00  0.1002725E-02 -0.3972396E-01 -0.6962109E-02  0.7615881E-01
3127109. -0.1610767E-01 -0.2909425E+00  0.1422416E-02 -0.3571449E-01 -0.7782469E-02  0.7034150E-01
3056531. -0.1260528E-01 -0.3361788E+00  0.1787711E-02 -0.2999773E-01 -0.8490512E-02  0.5637397E-01
2985953. -0.8769488E-02 -0.3516454E+00  0.2082871E-02 -0.2314996E-01 -0.9012135E-02  0.3715738E-01
2915375. -0.4909546E-02 -0.3413426E+00  0.2298571E-02 -0.1574517E-01 -0.9304371E-02  0.1538229E-01
2844797. -0.1282137E-02 -0.3106286E+00  0.2431617E-02 -0.8309565E-02 -0.9352115E-02 -0.6633657E-02
2774219.  0.1919353E-02 -0.2654532E+00  0.2484225E-02 -0.1289689E-02 -0.9163381E-02 -0.2704621E-01
2703641.  0.4567737E-02 -0.2117261E+00  0.2463025E-02  0.4966398E-02 -0.8763769E-02 -0.4452668E-01
2633062.  0.6598788E-02 -0.1548282E+00  0.2377910E-02  0.1021822E-01 -0.8190752E-02 -0.5825459E-01
2562484.  0.8003240E-02 -0.9927550E-01  0.2240847E-02  0.1433084E-01 -0.7488304E-02 -0.6787035E-01
2491906.  0.8816268E-02 -0.4854120E-01  0.2064760E-02  0.1726413E-01 -0.6702129E-02 -0.7340305E-01
2421328.  0.9105423E-02 -0.5003508E-02  0.1862556E-02  0.1905869E-01 -0.5875874E-02 -0.7518134E-01
2350750.  0.8958765E-02  0.2999718E-01  0.1646322E-02  0.1981841E-01 -0.5048308E-02 -0.7374161E-01
2280172.  0.8473979E-02  0.5603852E-01  0.1426740E-02  0.1969017E-01 -0.4251519E-02 -0.6973995E-01
2209594.  0.7749159E-02  0.7343672E-01  0.1212711E-02  0.1884596E-01 -0.3510029E-02 -0.6387424E-01
2139016.  0.6875689E-02  0.8305388E-01  0.1011166E-02  0.1746631E-01 -0.2840695E-02 -0.5682140E-01
2068438.  0.5933295E-02  0.8610203E-01  0.8270542E-03  0.1572672E-01 -0.2253214E-02 -0.4919081E-01
1997859.  0.4987126E-02  0.8397041E-01  0.6634580E-03  0.1378697E-01 -0.1751045E-02 -0.4149426E-01
1927281.  0.4086730E-02  0.7807219E-01  0.5218181E-03  0.1178387E-01 -0.1332614E-02 -0.3413109E-01
1856703.  0.3266345E-02  0.6973398E-01  0.4021984E-03  0.9827472E-02 -0.9925431E-03 -0.2738525E-01
1786125.  0.2546412E-02  0.6011322E-01  0.3036018E-03  0.7999768E-02 -0.7229231E-03 -0.2143316E-01
1715547.  0.1935694E-02  0.5015479E-01  0.2242745E-03  0.6355632E-02 -0.5144228E-03 -0.1635779E-01
1644969.  0.1433756E-02  0.4057498E-01  0.1619930E-03  0.4925637E-02 -0.3572275E-03 -0.1216668E-01
1574391.  0.1033461E-02  0.3186977E-01  0.1143130E-03  0.3719611E-02 -0.2417661E-03 -0.8811546E-02
1503812.  0.7232727E-03  0.2434335E-01  0.7877767E-04  0.2730624E-02 -0.1592232E-03 -0.6207100E-02
1433234.  0.4891613E-03  0.1815260E-01  0.5308395E-04  0.1938627E-02 -0.1018552E-03 -0.4248376E-02
1362656.  0.3158886E-03  0.1336869E-01  0.3521171E-04  0.1312444E-02 -0.6311898E-04 -0.2825337E-02
1292078.  0.1874903E-03  0.1007269E-01  0.2355162E-04  0.8084893E-03 -0.3765691E-04 -0.1836355E-02
1221500.  0.8629708E-04  0.8533090E-02  0.1708407E-04  0.3611170E-03 -0.2112479E-04 -0.1203064E-02
1221500.  0.8629708E-04 -0.1155707E-01 -0.1600531E-04 -0.5335804E-03 -0.2112479E-04 -0.1240448E-02
1183328.  0.1515670E-03 -0.1009383E-01 -0.1233493E-04 -0.6787493E-03 -0.1477157E-04 -0.8969785E-03
1145156.  0.2058484E-03 -0.7929466E-02 -0.8034837E-05 -0.7427064E-03 -0.1020061E-04 -0.6416296E-03
1106984.  0.2457238E-03 -0.5333547E-02 -0.3597141E-05 -0.7258415E-03 -0.6948753E-05 -0.4535901E-03
1068812.  0.2694892E-03 -0.2600748E-02  0.5254705E-06 -0.6403616E-03 -0.4663602E-05 -0.3165459E-03
1030641.  0.2771720E-03 -0.7897218E-05  0.3979160E-05 -0.5063580E-03 -0.3079322E-05 -0.2177928E-03
 992469.  0.2703165E-03  0.2220534E-02  0.6543150E-05 -0.3473191E-03 -0.1997111E-05 -0.1475126E-03
 954297.  0.2515979E-03  0.3933589E-02  0.8136744E-05 -0.1859755E-03 -0.1269932E-05 -0.9819167E-04
 916125.  0.2243529E-03  0.5061816E-02  0.8804849E-05 -0.4104942E-04 -0.7901396E-06 -0.6410990E-04
 877953.  0.1920998E-03  0.5612111E-02  0.8687242E-05  0.7472016E-04 -0.4799279E-06 -0.4096809E-04
 839781.  0.1581225E-03  0.5652865E-02  0.7980433E-05  0.1551283E-03 -0.2838318E-06 -0.2556035E-04
 801609.  0.1251611E-03  0.5293428E-02  0.6899535E-05  0.1999976E-03 -0.1629542E-06 -0.1552565E-04
 763438.  0.9523467E-04  0.4661882E-02  0.5646179E-05  0.2137364E-03 -0.9051384E-07 -0.9152059E-05
 725266.  0.6958715E-04  0.3884953E-02  0.4386015E-05  0.2036100E-03 -0.4844534E-07 -0.5216443E-05
 687094.  0.4874974E-04  0.3072586E-02  0.3237329E-05  0.1779101E-03 -0.2486878E-07 -0.2861817E-05
 648922.  0.3266952E-04  0.2308490E-02  0.2269381E-05  0.1444918E-03 -0.1217614E-07 -0.1503951E-05
 610750.  0.2088069E-04  0.1646651E-02  0.1508354E-05  0.1097507E-03 -0.5646948E-08 -0.7523298E-06
 572578.  0.1267996E-04  0.1112991E-02  0.9478407E-06  0.7813128E-04 -0.2459671E-08 -0.3555016E-06
 534406.  0.7280444E-05  0.7105569E-03  0.5608161E-06  0.5209903E-04 -0.9952864E-09 -0.1571972E-06
 496234.  0.3928299E-05  0.4264894E-03  0.3107044E-06  0.3244679E-04 -0.3685999E-09 -0.6424615E-07
 458062.  0.1976421E-05  0.2391521E-03  0.1600050E-06  0.1877782E-04 -0.1223027E-09 -0.2384598E-07
 419891.  0.9180329E-06  0.1242333E-03  0.7585971E-07  0.1002261E-04 -0.3515715E-10 -0.7840730E-08
 381719.  0.3885819E-06  0.5911465E-04  0.3269250E-07  0.4881674E-05 -0.8219502E-11 -0.2188002E-08
 343547.  0.1473237E-06  0.2537826E-04  0.1259114E-07  0.2138160E-05 -0.1328887E-11 -0.4761113E-09
 305375.  0.4886834E-07  0.9626829E-05  0.4233963E-08  0.8251157E-06 -0.3803856E-13 -0.6152581E-10
 267203.  0.1372116E-07  0.3132814E-05  0.1202826E-08  0.2724567E-06  0.6063860E-13  0.4823157E-11
 229031.  0.3106581E-08  0.8373909E-06  0.2750489E-09  0.7372333E-07  0.2255257E-13  0.5100852E-11
 190859.  0.5259783E-09  0.1718168E-06  0.4695445E-10  0.1527988E-07  0.4366296E-14  0.1398427E-11
 152688.  0.5869261E-10  0.2415584E-07  0.5274435E-11  0.2165605E-08  0.4682751E-15  0.2011134E-12
 114516.  0.3405045E-11  0.1879896E-08  0.3075598E-12  0.1695775E-09  0.2270567E-16  0.1348395E-13
  76344.  0.6031359E-13  0.5016027E-10  0.5467321E-14  0.4544311E-11  0.2842458E-18  0.2556580E-15
  38172.  0.0000000E+00  0.0000000E+00  0.0000000E+00  0.0000000E+00  0.0000000E+00  0.0000000E+00
      0.  0.0000000E+00  0.0000000E+00  0.0000000E+00  0.0000000E+00  0.0000000E+00  0.0000000E+00
