       3       10 S      230        324.58731         11.74537          5.36688        254.01750      185    7
6371000. -0.3867036E-01  0.8883098E+00  0.1982432E-01  0.5849468E-01 -0.4257413E-02  0.1197548E+00
6370000. -0.3880954E-01  0.8850723E+00  0.1981484E-01  0.6235446E-01 -0.4276187E-02  0.1194602E+00
6369000. -0.3894820E-01  0.8817782E+00  0.1980475E-01  0.6621224E-01 -0.4294914E-02  0.1191650E+00
6368000. -0.3908635E-01  0.8784277E+00  0.1979405E-01  0.7006788E-01 -0.4313595E-02  0.1188693E+00
6368000. -0.3908635E-01  0.8784277E+00  0.1979405E-01  0.7006788E-01 -0.4313595E-02  0.1188693E+00
6367000. -0.3922396E-01  0.8750207E+00  0.1978275E-01  0.7392126E-01 -0.4332230E-02  0.1185729E+00
6366000. -0.3936103E-01  0.8715573E+00  0.1977085E-01  0.7777224E-01 -0.4350818E-02  0.1182760E+00
6365000. -0.3949756E-01  0.8680374E+00  0.1975834E-01  0.8162072E-01 -0.4369359E-02  0.1179786E+00
6364000. -0.3963352E-01  0.8644612E+00  0.1974523E-01  0.8546654E-01 -0.4387854E-02  0.1176805E+00
6363000. -0.3976893E-01  0.8608287E+00  0.1973151E-01  0.8930960E-01 -0.4406302E-02  0.1173820E+00
6362000. -0.3990376E-01  0.8571399E+00  0.1971719E-01  0.9314974E-01 -0.4424703E-02  0.1170828E+00
6361000. -0.4003800E-01  0.8533949E+00  0.1970227E-01  0.9698686E-01 -0.4443057E-02  0.1167831E+00
6360000. -0.4017165E-01  0.8495937E+00  0.1968674E-01  0.1008208E+00 -0.4461363E-02  0.1164829E+00
6359000. -0.4030471E-01  0.8457364E+00  0.1967062E-01  0.1046515E+00 -0.4479623E-02  0.1161821E+00
6358000. -0.4043714E-01  0.8418230E+00  0.1965389E-01  0.1084788E+00 -0.4497836E-02  0.1158808E+00
6357000. -0.4056897E-01  0.8378536E+00  0.1963656E-01  0.1123025E+00 -0.4516001E-02  0.1155789E+00
6356000. -0.4070016E-01  0.8338283E+00  0.1961864E-01  0.1161225E+00 -0.4534118E-02  0.1152765E+00
6356000. -0.4070016E-01  0.7409006E+00  0.1961864E-01  0.9405813E-01 -0.4534118E-02  0.1241324E+00
6355000. -0.4081624E-01  0.7381096E+00  0.1960369E-01  0.9637538E-01 -0.4553573E-02  0.1237534E+00
6354000. -0.4093187E-01  0.7352856E+00  0.1958838E-01  0.9869055E-01 -0.4572968E-02  0.1233742E+00
6353000. -0.4104706E-01  0.7324285E+00  0.1957271E-01  0.1010036E+00 -0.4592303E-02  0.1229946E+00
6352000. -0.4116179E-01  0.7295382E+00  0.1955667E-01  0.1033145E+00 -0.4611578E-02  0.1226147E+00
6351000. -0.4127607E-01  0.7266148E+00  0.1954028E-01  0.1056231E+00 -0.4630794E-02  0.1222345E+00
6350000. -0.4138989E-01  0.7236584E+00  0.1952352E-01  0.1079295E+00 -0.4649951E-02  0.1218540E+00
6349000. -0.4150325E-01  0.7206690E+00  0.1950639E-01  0.1102335E+00 -0.4669047E-02  0.1214732E+00
6348000. -0.4161613E-01  0.7176466E+00  0.1948891E-01  0.1125352E+00 -0.4688084E-02  0.1210921E+00
6347000. -0.4172853E-01  0.7145913E+00  0.1947107E-01  0.1148344E+00 -0.4707060E-02  0.1207106E+00
6346600. -0.4177336E-01  0.7133599E+00  0.1946383E-01  0.1157534E+00 -0.4714634E-02  0.1205579E+00
6346600. -0.4177336E-01  0.8590775E+00  0.1946383E-01  0.9811983E-01 -0.4714634E-02  0.1351237E+00
6318800. -0.4538478E-01  0.7929199E+00  0.1894191E-01  0.1408369E+00 -0.5279485E-02  0.1237621E+00
6291000. -0.4866460E-01  0.7071245E+00  0.1823741E-01  0.1817200E+00 -0.5794617E-02  0.1123352E+00
6291000. -0.4866460E-01  0.7371479E+00  0.1823741E-01  0.1864843E+00 -0.5794617E-02  0.1123352E+00
6263000. -0.5167043E-01  0.6273277E+00  0.1732627E-01  0.2276745E+00 -0.6263605E-02  0.1010746E+00
6235000. -0.5414916E-01  0.4974240E+00  0.1624074E-01  0.2657607E+00 -0.6682923E-02  0.8973022E-01
6207000. -0.5601479E-01  0.3485261E+00  0.1499557E-01  0.3002381E+00 -0.7052185E-02  0.7829475E-01
6179000. -0.5718684E-01  0.1820487E+00  0.1360765E-01  0.3306496E+00 -0.7370973E-02  0.6675940E-01
6151000. -0.5759175E-01 -0.2612487E-03  0.1209577E-01  0.3565882E+00 -0.7638830E-02  0.5511548E-01
6151000. -0.5759175E-01  0.1179471E+00  0.1209577E-01  0.3212219E+00 -0.7638830E-02  0.5830178E-01
6128500. -0.5780376E-01  0.1515036E-02  0.1093919E-01  0.3333088E+00 -0.7830709E-02  0.5037655E-01
6106000. -0.5759812E-01 -0.1184278E+00  0.9744763E-02  0.3426489E+00 -0.7994764E-02  0.4254565E-01
6083500. -0.5696410E-01 -0.2409282E+00  0.8522194E-02  0.3492516E+00 -0.8131342E-02  0.3481839E-01
6061000. -0.5589437E-01 -0.3650316E+00  0.7281101E-02  0.3531447E+00 -0.8240828E-02  0.2720476E-01
6038500. -0.5438492E-01 -0.4897916E+00  0.6030974E-02  0.3543781E+00 -0.8323639E-02  0.1971284E-01
6016000. -0.5243513E-01 -0.6142635E+00  0.4781090E-02  0.3530201E+00 -0.8380217E-02  0.1235014E-01
5993500. -0.5004763E-01 -0.7375202E+00  0.3540457E-02  0.3491538E+00 -0.8411033E-02  0.5124609E-02
5971000. -0.4722832E-01 -0.8586679E+00  0.2317760E-02  0.3428813E+00 -0.8416582E-02 -0.1958090E-02
5971000. -0.4722832E-01 -0.7648281E+00  0.2317760E-02  0.3109312E+00 -0.8416582E-02  0.4224496E-02
5937667. -0.4288248E-01 -0.8942543E+00  0.7430330E-03  0.2905594E+00 -0.8415424E-02 -0.4573741E-02
5904333. -0.3789407E-01 -0.1010260E+01 -0.7184639E-03  0.2677612E+00 -0.8369721E-02 -0.1279842E-01
5871000. -0.3233544E-01 -0.1112204E+01 -0.2055918E-02  0.2432742E+00 -0.8282544E-02 -0.2042492E-01
5837667. -0.2628094E-01 -0.1199781E+01 -0.3262270E-02  0.2177469E+00 -0.8157065E-02 -0.2743788E-01
5804333. -0.1980572E-01 -0.1272971E+01 -0.4333623E-02  0.1917437E+00 -0.7996512E-02 -0.3383059E-01
5771000. -0.1298501E-01 -0.1331971E+01 -0.5268718E-02  0.1657469E+00 -0.7804141E-02 -0.3960250E-01
5771000. -0.1298501E-01 -0.1332017E+01 -0.5268718E-02  0.1657417E+00 -0.7804141E-02 -0.3960250E-01
5701000.  0.2560780E-02 -0.1488793E+01 -0.6845749E-02  0.1206801E+00 -0.7305023E-02 -0.5100363E-01
5701000.  0.2560780E-02 -0.1268749E+01 -0.6845749E-02  0.9295753E-01 -0.7305023E-02 -0.5172542E-01
5667333.  0.9335122E-02 -0.1293137E+01 -0.7286873E-02  0.7414918E-01 -0.7025753E-02 -0.5387932E-01
5633667.  0.1620943E-01 -0.1306773E+01 -0.7631138E-02  0.5632349E-01 -0.6736546E-02 -0.5548953E-01
5600000.  0.2312925E-01 -0.1310411E+01 -0.7884047E-02  0.3958483E-01 -0.6440255E-02 -0.5655789E-01
5600000.  0.2312925E-01 -0.1310443E+01 -0.7884047E-02  0.3958843E-01 -0.6440255E-02 -0.5655789E-01
5563518.  0.3067545E-01 -0.1323668E+01 -0.8066414E-02  0.2416447E-01 -0.6114176E-02 -0.5728643E-01
5527037.  0.3827002E-01 -0.1327425E+01 -0.8161580E-02  0.9153516E-02 -0.5784692E-02 -0.5775223E-01
5490556.  0.4585930E-01 -0.1321853E+01 -0.8172260E-02 -0.5325946E-02 -0.5453260E-02 -0.5796986E-01
5454074.  0.5339066E-01 -0.1307159E+01 -0.8101803E-02 -0.1916818E-01 -0.5121247E-02 -0.5795416E-01
5417593.  0.6081219E-01 -0.1283610E+01 -0.7954138E-02 -0.3227905E-01 -0.4789962E-02 -0.5772171E-01
5381111.  0.6807452E-01 -0.1251545E+01 -0.7733683E-02 -0.4457778E-01 -0.4460581E-02 -0.5728884E-01
5344630.  0.7512958E-01 -0.1211352E+01 -0.7445303E-02 -0.5599506E-01 -0.4134221E-02 -0.5667243E-01
5308148.  0.8193246E-01 -0.1163474E+01 -0.7094198E-02 -0.6647474E-01 -0.3811866E-02 -0.5588950E-01
5271667.  0.8844014E-01 -0.1108392E+01 -0.6685888E-02 -0.7597210E-01 -0.3494438E-02 -0.5495803E-01
5235185.  0.9461319E-01 -0.1046625E+01 -0.6226076E-02 -0.8445456E-01 -0.3182719E-02 -0.5389527E-01
5198704.  0.1004146E+00 -0.9787286E+00 -0.5720667E-02 -0.9189975E-01 -0.2877425E-02 -0.5271940E-01
5162222.  0.1058112E+00 -0.9052778E+00 -0.5175608E-02 -0.9829679E-01 -0.2579143E-02 -0.5144686E-01
5125741.  0.1107726E+00 -0.8268737E+00 -0.4596942E-02 -0.1036440E+00 -0.2288386E-02 -0.5009642E-01
5089259.  0.1152724E+00 -0.7441233E+00 -0.3990628E-02 -0.1079497E+00 -0.2005539E-02 -0.4868405E-01
5052778.  0.1192873E+00 -0.6576520E+00 -0.3362621E-02 -0.1112302E+00 -0.1730923E-02 -0.4722733E-01
5016296.  0.1227980E+00 -0.5680768E+00 -0.2718690E-02 -0.1135103E+00 -0.1464729E-02 -0.4574237E-01
4979815.  0.1257883E+00 -0.4760237E+00 -0.2064512E-02 -0.1148215E+00 -0.1207089E-02 -0.4424523E-01
4943333.  0.1282459E+00 -0.3821010E+00 -0.1405490E-02 -0.1152022E+00 -0.9580071E-03 -0.4275306E-01
4906852.  0.1301618E+00 -0.2869182E+00 -0.7468687E-03 -0.1146958E+00 -0.7174307E-03 -0.4127931E-01
4870370.  0.1315305E+00 -0.1910575E+00 -0.9355375E-04 -0.1133509E+00 -0.4851953E-03 -0.3984038E-01
4833889.  0.1323496E+00 -0.9509086E-01  0.5497684E-03 -0.1112209E+00 -0.2610677E-03 -0.3845172E-01
4797407.  0.1326203E+00  0.4401913E-03  0.1178794E-02 -0.1083610E+00 -0.4471464E-04 -0.3712516E-01
4760926.  0.1323464E+00  0.9501087E-01  0.1789478E-02 -0.1048303E+00  0.1642520E-03 -0.3587637E-01
4724444.  0.1315349E+00  0.1881355E+00  0.2378184E-02 -0.1006894E+00  0.3663278E-03 -0.3471845E-01
4687963.  0.1301955E+00  0.2793481E+00  0.2941563E-02 -0.9600004E-01  0.5620589E-03 -0.3366456E-01
4651482.  0.1283403E+00  0.3682242E+00  0.3476668E-02 -0.9082452E-01  0.7520861E-03 -0.3272837E-01
4615000.  0.1259837E+00  0.4543730E+00  0.3980908E-02 -0.8522475E-01  0.9371245E-03 -0.3192250E-01
4578518.  0.1231425E+00  0.5374337E+00  0.4452015E-02 -0.7926240E-01  0.1117954E-02 -0.3126057E-01
4542037.  0.1198354E+00  0.6170834E+00  0.4888074E-02 -0.7299784E-01  0.1295429E-02 -0.3075446E-01
4505556.  0.1160826E+00  0.6930399E+00  0.5287535E-02 -0.6648904E-01  0.1470485E-02 -0.3041788E-01
4469074.  0.1119060E+00  0.7650568E+00  0.5649171E-02 -0.5979190E-01  0.1644134E-02 -0.3026398E-01
4432593.  0.1073289E+00  0.8329188E+00  0.5972038E-02 -0.5295981E-01  0.1817456E-02 -0.3030735E-01
4396111.  0.1023754E+00  0.8964531E+00  0.6255523E-02 -0.4604224E-01  0.1991631E-02 -0.3056293E-01
4359630.  0.9707104E-01  0.9555162E+00  0.6499257E-02 -0.3908559E-01  0.2167904E-02 -0.3104433E-01
4323148.  0.9144136E-01  0.1010000E+01  0.6703152E-02 -0.3213201E-01  0.2347629E-02 -0.3176977E-01
4286667.  0.8551314E-01  0.1059828E+01  0.6867323E-02 -0.2521884E-01  0.2532239E-02 -0.3275520E-01
4250185.  0.7931290E-01  0.1104951E+01  0.6992108E-02 -0.1837901E-01  0.2723288E-02 -0.3402067E-01
4213704.  0.7286798E-01  0.1145345E+01  0.7078001E-02 -0.1164035E-01  0.2922429E-02 -0.3558671E-01
4177222.  0.6620512E-01  0.1181011E+01  0.7125654E-02 -0.5025195E-02  0.3131457E-02 -0.3747598E-01
4140741.  0.5935171E-01  0.1211969E+01  0.7135821E-02  0.1449871E-02  0.3352284E-02 -0.3971402E-01
4104259.  0.5233423E-01  0.1238257E+01  0.7109337E-02  0.7774822E-02  0.3586995E-02 -0.4232837E-01
4067778.  0.4517970E-01  0.1259915E+01  0.7047079E-02  0.1394499E-01  0.3837823E-02 -0.4535099E-01
4031296.  0.3791407E-01  0.1277000E+01  0.6949923E-02  0.1996375E-01  0.4107217E-02 -0.4881668E-01
3994815.  0.3056378E-01  0.1289561E+01  0.6818719E-02  0.2584068E-01  0.4397810E-02 -0.5276506E-01
3958333.  0.2315420E-01  0.1297645E+01  0.6654223E-02  0.3159405E-01  0.4712509E-02 -0.5724101E-01
3921852.  0.1571129E-01  0.1301279E+01  0.6457082E-02  0.3724939E-01  0.5054457E-02 -0.6229440E-01
3885370.  0.8260082E-02  0.1300472E+01  0.6227750E-02  0.4284192E-01  0.5427140E-02 -0.6798267E-01
3848889.  0.8264497E-03  0.1295203E+01  0.5966478E-02  0.4841639E-01  0.5834353E-02 -0.7437015E-01
3812407. -0.6564281E-02  0.1285400E+01  0.5673198E-02  0.5402854E-01  0.6280330E-02 -0.8153055E-01
3775926. -0.1388542E-01  0.1270940E+01  0.5347526E-02  0.5974526E-01  0.6769703E-02 -0.8954695E-01
3739444. -0.2111018E-01  0.1251628E+01  0.4988621E-02  0.6564762E-01  0.7307670E-02 -0.9851481E-01
3702963. -0.2820961E-01  0.1227179E+01  0.4595173E-02  0.7183083E-01  0.7899950E-02 -0.1085417E+00
3666482. -0.3515343E-01  0.1197198E+01  0.4165250E-02  0.7840768E-01  0.8552969E-02 -0.1197517E+00
3630000. -0.4190868E-01  0.1161154E+01  0.3696218E-02  0.8551028E-01  0.9273917E-02 -0.1322854E+00
3630000. -0.4190868E-01  0.1161147E+01  0.3696218E-02  0.8551022E-01  0.9273917E-02 -0.1322854E+00
3592500. -0.4862863E-01  0.1120930E+01  0.3169537E-02  0.9360266E-01  0.1009413E-01 -0.1466729E+00
3555000. -0.5508804E-01  0.1072414E+01  0.2592314E-02  0.1027184E+00  0.1100385E-01 -0.1627372E+00
3517500. -0.6123419E-01  0.1014238E+01  0.1957875E-02  0.1130855E+00  0.1201362E-01 -0.1807075E+00
3480000. -0.6700544E-01  0.9447179E+00  0.1258082E-02  0.1249733E+00  0.1313541E-01 -0.2008465E+00
3480000. -0.6700544E-01 -0.5257133E+00 -0.9646419E-02 -0.1048464E+00  0.1313541E-01  0.9925016E-02
3409422. -0.6108664E-01 -0.5398817E+00 -0.8521467E-02 -0.9812752E-01  0.1280076E-01  0.4816907E-01
3338844. -0.5510280E-01 -0.5380595E+00 -0.7474444E-02 -0.9082701E-01  0.1211432E-01  0.7390378E-01
3268266. -0.4921174E-01 -0.5236719E+00 -0.6510249E-02 -0.8321428E-01  0.1119990E-01  0.8972745E-01
3197688. -0.4353540E-01 -0.4997716E+00 -0.5631076E-02 -0.7551111E-01  0.1015468E-01  0.9785883E-01
3127109. -0.3816392E-01 -0.4690319E+00 -0.4836868E-02 -0.6789977E-01  0.9053183E-02  0.1001684E+00
3056531. -0.3316021E-01 -0.4337397E+00 -0.4125798E-02 -0.6052512E-01  0.7951050E-02  0.9821143E-01
2985953. -0.2856366E-01 -0.3958118E+00 -0.3494590E-02 -0.5349699E-01  0.6888225E-02  0.9326272E-01
2915375. -0.2439447E-01 -0.3568217E+00 -0.2938940E-02 -0.4689511E-01  0.5891951E-02  0.8634865E-01
2844797. -0.2065716E-01 -0.3180258E+00 -0.2453803E-02 -0.4077398E-01  0.4979322E-02  0.7828040E-01
2774219. -0.1734394E-01 -0.2803982E+00 -0.2033654E-02 -0.3516589E-01  0.4159497E-02  0.6968477E-01
2703641. -0.1443764E-01 -0.2446638E+00 -0.1672721E-02 -0.3008420E-01  0.3435579E-02  0.6103235E-01
2633062. -0.1191424E-01 -0.2113326E+00 -0.1365163E-02 -0.2552757E-01  0.2806194E-02  0.5266344E-01
2562484. -0.9745204E-02 -0.1807340E+00 -0.1105235E-02 -0.2148307E-01  0.2266835E-02  0.4481235E-01
2491906. -0.7899131E-02 -0.1530450E+00 -0.8873764E-03 -0.1792788E-01  0.1810863E-02  0.3762729E-01
2421328. -0.6343374E-02 -0.1283214E+00 -0.7063253E-03 -0.1483265E-01  0.1430401E-02  0.3118887E-01
2350750. -0.5045233E-02 -0.1065218E+00 -0.5571698E-03 -0.1216362E-01  0.1116974E-02  0.2552599E-01
2280172. -0.3972894E-02 -0.8753170E-01 -0.4353900E-03 -0.9883971E-02  0.8620143E-03  0.2062910E-01
2209594. -0.3096120E-02 -0.7118319E-01 -0.3368832E-03 -0.7955593E-02  0.6572207E-03  0.1646125E-01
2139016. -0.2386755E-02 -0.5727195E-01 -0.2579698E-03 -0.6340285E-02  0.4948089E-03  0.1296724E-01
2068438. -0.1819036E-02 -0.4557184E-01 -0.1953895E-03 -0.5000769E-02  0.3676734E-03  0.1008098E-01
1997859. -0.1369766E-02 -0.3584659E-01 -0.1462855E-03 -0.3901399E-02  0.2694722E-03  0.7731203E-02
1927281. -0.1018392E-02 -0.2785994E-01 -0.1081863E-03 -0.3008737E-02  0.1946642E-03  0.5845956E-02
1856703. -0.7469293E-03 -0.2138240E-01 -0.7897490E-04 -0.2291908E-02  0.1384915E-03  0.4355578E-02
1786125. -0.5398723E-03 -0.1619748E-01 -0.5686150E-04 -0.1722835E-02  0.9694461E-04  0.3195073E-02
1715547. -0.3840225E-03 -0.1210599E-01 -0.4035166E-04 -0.1276278E-02  0.6670190E-04  0.2305467E-02
1644969. -0.2682758E-03 -0.8929529E-02 -0.2821510E-04 -0.9297722E-03  0.4505794E-04  0.1634556E-02
1574391. -0.1833742E-03 -0.6513772E-02 -0.1945617E-04 -0.6633415E-03  0.2984669E-04  0.1137179E-02
1503812. -0.1216150E-03 -0.4733127E-02 -0.1328902E-04 -0.4589583E-03  0.1936368E-04  0.7750905E-03
1433234. -0.7649194E-04 -0.3499741E-02 -0.9121356E-05 -0.2995043E-03  0.1229169E-04  0.5166333E-03
1362656. -0.4217741E-04 -0.2783419E-02 -0.6554559E-05 -0.1665807E-03  0.7629546E-05  0.3362481E-03
1292078. -0.1265935E-04 -0.2659741E-02 -0.5421029E-05 -0.3572255E-04  0.4627332E-05  0.2141228E-03
1221500.  0.1999197E-04 -0.3429576E-02 -0.5905289E-05  0.1350289E-03  0.2722795E-05  0.1362724E-03
1221500.  0.1999197E-04 -0.5419302E-04 -0.6015348E-07 -0.1045862E-03  0.2722795E-05  0.1276118E-03
1183328.  0.1955922E-04  0.1799053E-03  0.4228307E-06 -0.5923307E-04  0.2044325E-05  0.9978907E-04
1145156.  0.1803023E-04  0.3166277E-03  0.6771492E-06 -0.2767485E-04  0.1516704E-05  0.7713158E-04
1106984.  0.1590604E-04  0.3825648E-03  0.7755656E-06 -0.6704912E-05  0.1111212E-05  0.5890259E-04
1068812.  0.1354423E-04  0.3991100E-03  0.7732858E-06  0.6338907E-05  0.8034003E-06  0.4441640E-04
1030641.  0.1118826E-04  0.3830936E-03  0.7110704E-06  0.1362576E-04  0.5727464E-06  0.3305057E-04
 992469.  0.8992672E-05  0.3474083E-03  0.6180180E-06  0.1688681E-04  0.4022417E-06  0.2424960E-04
 954297.  0.7045197E-05  0.3016213E-03  0.5140353E-06  0.1747025E-04  0.2780129E-06  0.1752834E-04
 916125.  0.5384701E-05  0.2525501E-03  0.4119554E-06  0.1639785E-04  0.1888822E-06  0.1246965E-04
 877953.  0.4016105E-05  0.2047921E-03  0.3193295E-06  0.1441944E-04  0.1259768E-06  0.8720491E-05
 839781.  0.2922232E-05  0.1612011E-03  0.2399100E-06  0.1206137E-04  0.8235856E-07  0.5987208E-05
 801609.  0.2072959E-05  0.1233092E-03  0.1748436E-06  0.9674321E-05  0.5268596E-07  0.4029413E-05
 763438.  0.1432053E-05  0.9168503E-04  0.1236051E-06  0.7472427E-05  0.3291471E-07  0.2653562E-05
 725266.  0.9619481E-06  0.6623194E-04  0.8469918E-07  0.5569502E-05  0.2003474E-07  0.1706415E-05
 687094.  0.6270770E-06  0.4643335E-04  0.5617946E-07  0.4008011E-05  0.1184990E-07  0.1068994E-05
 648922.  0.3957291E-06  0.3153936E-04  0.3599574E-07  0.2783312E-05  0.6789115E-08  0.6505347E-06
 610750.  0.2410242E-06  0.2070750E-04  0.2221887E-07  0.1862344E-05  0.3753702E-08  0.3832835E-06
 572578.  0.1411496E-06  0.1310200E-04  0.1316659E-07  0.1197743E-05  0.1993961E-08  0.2177642E-06
 534406.  0.7911249E-07  0.7957942E-05  0.7457341E-08  0.7378732E-06  0.1012144E-08  0.1187314E-06
 496234.  0.4219507E-07  0.4617252E-05  0.4014490E-08  0.4334374E-06  0.4877230E-09  0.6175658E-07
 458062.  0.2126184E-07  0.2543159E-05  0.2039580E-08  0.2413228E-06  0.2212864E-09  0.3041904E-07
 419891.  0.1002984E-07  0.1319166E-05  0.9691568E-09  0.1263612E-06  0.9356436E-10  0.1405805E-07
 381719.  0.4377038E-08  0.6377051E-06  0.4256636E-09  0.6158913E-07  0.3637881E-10  0.6023011E-08
 343547.  0.1739693E-08  0.2833563E-06  0.1701365E-09  0.2756271E-07  0.1278122E-10  0.2354929E-08
 305375.  0.6165384E-09  0.1135673E-06  0.6058669E-10  0.1111585E-07  0.3962563E-11  0.8225253E-09
 267203.  0.1891467E-09  0.3998571E-07  0.1866088E-10  0.3932502E-08  0.1048742E-11  0.2489741E-09
 229031.  0.0000000E+00  0.0000000E+00  0.0000000E+00  0.0000000E+00  0.0000000E+00  0.0000000E+00
 190859.  0.0000000E+00  0.0000000E+00  0.0000000E+00  0.0000000E+00  0.0000000E+00  0.0000000E+00
 152688.  0.0000000E+00  0.0000000E+00  0.0000000E+00  0.0000000E+00  0.0000000E+00  0.0000000E+00
 114516.  0.0000000E+00  0.0000000E+00  0.0000000E+00  0.0000000E+00  0.0000000E+00  0.0000000E+00
  76344.  0.0000000E+00  0.0000000E+00  0.0000000E+00  0.0000000E+00  0.0000000E+00  0.0000000E+00
  38172.  0.0000000E+00  0.0000000E+00  0.0000000E+00  0.0000000E+00  0.0000000E+00  0.0000000E+00
      0.  0.0000000E+00  0.0000000E+00  0.0000000E+00  0.0000000E+00  0.0000000E+00  0.0000000E+00
