      12        5 S      559        181.11681         40.18520          3.59991        220.09810      185    7
6371000. -0.3548584E-01 -0.1806690E+00 -0.1768262E-01  0.1780321E-01  0.4394997E-03  0.6428099E-01
6370000. -0.3545684E-01 -0.1887996E+00 -0.1768439E-01  0.4697352E-02  0.4294022E-03  0.6438050E-01
6369000. -0.3542658E-01 -0.1968831E+00 -0.1768410E-01 -0.8416010E-02  0.4192893E-03  0.6447774E-01
6368000. -0.3539504E-01 -0.2049190E+00 -0.1768175E-01 -0.2153534E-01  0.4091613E-03  0.6457270E-01
6368000. -0.3539504E-01 -0.2049190E+00 -0.1768175E-01 -0.2153534E-01  0.4091613E-03  0.6457270E-01
6367000. -0.3536225E-01 -0.2129070E+00 -0.1767734E-01 -0.3465911E-01  0.3990186E-03  0.6466538E-01
6366000. -0.3532821E-01 -0.2208469E+00 -0.1767087E-01 -0.4778578E-01  0.3888615E-03  0.6475577E-01
6365000. -0.3529292E-01 -0.2287383E+00 -0.1766234E-01 -0.6091382E-01  0.3786904E-03  0.6484387E-01
6364000. -0.3525640E-01 -0.2365809E+00 -0.1765174E-01 -0.7404170E-01  0.3685057E-03  0.6492968E-01
6363000. -0.3521866E-01 -0.2443745E+00 -0.1763909E-01 -0.8716788E-01  0.3583076E-03  0.6501319E-01
6362000. -0.3517969E-01 -0.2521186E+00 -0.1762438E-01 -0.1002908E+00  0.3480967E-03  0.6509440E-01
6361000. -0.3513951E-01 -0.2598131E+00 -0.1760761E-01 -0.1134090E+00  0.3378732E-03  0.6517331E-01
6360000. -0.3509813E-01 -0.2674577E+00 -0.1758878E-01 -0.1265209E+00  0.3276374E-03  0.6524991E-01
6359000. -0.3505556E-01 -0.2750520E+00 -0.1756789E-01 -0.1396249E+00  0.3173899E-03  0.6532420E-01
6358000. -0.3501179E-01 -0.2825958E+00 -0.1754495E-01 -0.1527195E+00  0.3071308E-03  0.6539617E-01
6357000. -0.3496685E-01 -0.2900889E+00 -0.1751995E-01 -0.1658033E+00  0.2968607E-03  0.6546584E-01
6356000. -0.3492073E-01 -0.2975310E+00 -0.1749290E-01 -0.1788745E+00  0.2865798E-03  0.6553318E-01
6356000. -0.3492073E-01 -0.2340701E+00 -0.1749290E-01 -0.1010431E+00  0.2865798E-03  0.7313152E-01
6355000. -0.3488356E-01 -0.2395742E+00 -0.1747636E-01 -0.1097744E+00  0.2750935E-03  0.7322553E-01
6354000. -0.3484552E-01 -0.2450462E+00 -0.1745844E-01 -0.1185015E+00  0.2635927E-03  0.7331769E-01
6353000. -0.3480663E-01 -0.2504858E+00 -0.1743916E-01 -0.1272240E+00  0.2520776E-03  0.7340800E-01
6352000. -0.3476689E-01 -0.2558929E+00 -0.1741850E-01 -0.1359411E+00  0.2405484E-03  0.7349646E-01
6351000. -0.3472630E-01 -0.2612674E+00 -0.1739648E-01 -0.1446520E+00  0.2290055E-03  0.7358306E-01
6350000. -0.3468487E-01 -0.2666091E+00 -0.1737309E-01 -0.1533562E+00  0.2174491E-03  0.7366780E-01
6349000. -0.3464261E-01 -0.2719179E+00 -0.1734834E-01 -0.1620529E+00  0.2058796E-03  0.7375068E-01
6348000. -0.3459951E-01 -0.2771937E+00 -0.1732222E-01 -0.1707415E+00  0.1942972E-03  0.7383170E-01
6347000. -0.3455559E-01 -0.2824363E+00 -0.1729474E-01 -0.1794212E+00  0.1827023E-03  0.7391085E-01
6346600. -0.3453780E-01 -0.2845241E+00 -0.1728337E-01 -0.1828905E+00  0.1780608E-03  0.7394199E-01
6346600. -0.3453780E-01 -0.2600428E+00 -0.1728337E-01 -0.1178502E+00  0.1780608E-03  0.8598481E-01
6318800. -0.3318266E-01 -0.3578825E+00 -0.1636384E-01 -0.3022633E+00 -0.2021471E-03  0.8807840E-01
6291000. -0.3144324E-01 -0.4360278E+00 -0.1466350E-01 -0.4743221E+00 -0.5887949E-03  0.8892936E-01
6291000. -0.3144324E-01 -0.4454630E+00 -0.1466350E-01 -0.4926995E+00 -0.5887949E-03  0.8892936E-01
6263000. -0.2935144E-01 -0.5029486E+00 -0.1214126E-01 -0.6506639E+00 -0.9789217E-03  0.8838565E-01
6235000. -0.2705241E-01 -0.5400131E+00 -0.8988733E-02 -0.7783297E+00 -0.1363748E-02  0.8651756E-01
6207000. -0.2463185E-01 -0.5586711E+00 -0.5353671E-02 -0.8693343E+00 -0.1737472E-02  0.8333646E-01
6179000. -0.2216443E-01 -0.5619014E+00 -0.1407930E-02 -0.9191100E+00 -0.2094384E-02  0.7887457E-01
6151000. -0.1970998E-01 -0.5534438E+00  0.2660882E-02 -0.9250892E+00 -0.2428965E-02  0.7318414E-01
6151000. -0.1970998E-01 -0.4361854E+00  0.2660882E-02 -0.8089950E+00 -0.2428965E-02  0.7427460E-01
6128500. -0.1820790E-01 -0.4140473E+00  0.5470525E-02 -0.7785303E+00 -0.2684013E-02  0.7006429E-01
6106000. -0.1678728E-01 -0.3903736E+00  0.8135180E-02 -0.7271356E+00 -0.2923178E-02  0.6528582E-01
6083500. -0.1545013E-01 -0.3670859E+00  0.1058388E-01 -0.6565695E+00 -0.3144521E-02  0.5997841E-01
6061000. -0.1419189E-01 -0.3459701E+00  0.1275275E-01 -0.5690694E+00 -0.3346249E-02  0.5418510E-01
6038500. -0.1300199E-01 -0.3286285E+00  0.1458654E-01 -0.4672874E+00 -0.3526726E-02  0.4795166E-01
6016000. -0.1186462E-01 -0.3164242E+00  0.1604000E-01 -0.3541988E+00 -0.3684483E-02  0.4132662E-01
5993500. -0.1075963E-01 -0.3104509E+00  0.1707879E-01 -0.2330083E+00 -0.3818226E-02  0.3436118E-01
5971000. -0.9663503E-02 -0.3115110E+00  0.1768020E-01 -0.1070653E+00 -0.3926846E-02  0.2710808E-01
5971000. -0.9663503E-02 -0.2630512E+00  0.1768020E-01 -0.9205607E-01 -0.3926846E-02  0.2837312E-01
5937667. -0.8285285E-02 -0.2664407E+00  0.1770043E-01  0.8196622E-01 -0.4046995E-02  0.1750072E-01
5904333. -0.6849093E-02 -0.2849183E+00  0.1685357E-01  0.2382334E+00 -0.4109548E-02  0.6383725E-02
5871000. -0.5281288E-02 -0.3163360E+00  0.1524892E-01  0.3708429E+00 -0.4113667E-02 -0.4807886E-02
5837667. -0.3521470E-02 -0.3577829E+00  0.1302112E-01  0.4759644E+00 -0.4059391E-02 -0.1591223E-01
5804333. -0.1525802E-02 -0.4058785E+00  0.1031976E-01  0.5516663E+00 -0.3947577E-02 -0.2677690E-01
5771000.  0.7309944E-03 -0.4570187E+00  0.7300288E-02  0.5976750E+00 -0.3779862E-02 -0.3725975E-01
5771000.  0.7309944E-03 -0.4570137E+00  0.7300288E-02  0.5976557E+00 -0.3779862E-02 -0.3725975E-01
5701000.  0.6547576E-02 -0.6002676E+00  0.3540801E-03  0.6467145E+00 -0.3256199E-02 -0.5767452E-01
5701000.  0.6547576E-02 -0.4965034E+00  0.3540801E-03  0.5093451E+00 -0.3256199E-02 -0.5952005E-01
5667333.  0.9275880E-02 -0.5346239E+00 -0.2275562E-02  0.4831136E+00 -0.2919957E-02 -0.6761842E-01
5633667.  0.1218118E-01 -0.5631926E+00 -0.4724785E-02  0.4415584E+00 -0.2542906E-02 -0.7495435E-01
5600000.  0.1520848E-01 -0.5805163E+00 -0.6920359E-02  0.3875836E+00 -0.2129277E-02 -0.8144543E-01
5600000.  0.1520848E-01 -0.5805250E+00 -0.6920359E-02  0.3876035E+00 -0.2129277E-02 -0.8144543E-01
5563518.  0.1857532E-01 -0.5931926E+00 -0.8973757E-02  0.3274308E+00 -0.1645067E-02 -0.8751068E-01
5527037.  0.2197459E-01 -0.5915994E+00 -0.1064826E-01  0.2557641E+00 -0.1129001E-02 -0.9256667E-01
5490556.  0.2532028E-01 -0.5742753E+00 -0.1188667E-01  0.1756420E+00 -0.5869977E-03 -0.9656311E-01
5454074.  0.2851946E-01 -0.5402895E+00 -0.1264986E-01  0.9033083E-01 -0.2521847E-04 -0.9946360E-01
5417593.  0.3147528E-01 -0.4892980E+00 -0.1291772E-01  0.3205292E-02  0.5499607E-03 -0.1012464E+00
5381111.  0.3409098E-01 -0.4215670E+00 -0.1268948E-01 -0.8239350E-01  0.1132142E-02 -0.1019036E+00
5344630.  0.3627282E-01 -0.3379775E+00 -0.1198317E-01 -0.1632631E+00  0.1714859E-02 -0.1014409E+00
5308148.  0.3793403E-01 -0.2399947E+00 -0.1083437E-01 -0.2364701E+00  0.2291778E-02 -0.9987725E-01
5271667.  0.3899762E-01 -0.1296365E+00 -0.9294628E-02 -0.2994271E+00  0.2856647E-02 -0.9724406E-01
5235185.  0.3939973E-01 -0.9397319E-02 -0.7428901E-02 -0.3499933E+00  0.3403490E-02 -0.9358386E-01
5198704.  0.3909190E-01  0.1178101E+00 -0.5313209E-02 -0.3865229E+00  0.3926545E-02 -0.8895028E-01
5162222.  0.3804331E-01  0.2487731E+00 -0.3031218E-02 -0.4079196E+00  0.4420440E-02 -0.8340523E-01
5125741.  0.3624227E-01  0.3800513E+00 -0.6715063E-03 -0.4136504E+00  0.4880130E-02 -0.7702034E-01
5089259.  0.3369695E-01  0.5081204E+00  0.1676194E-02 -0.4037550E+00  0.5301048E-02 -0.6987268E-01
5052778.  0.3043600E-01  0.6294503E+00  0.3923718E-02 -0.3788269E+00  0.5679043E-02 -0.6204647E-01
5016296.  0.2650763E-01  0.7406505E+00  0.5988047E-02 -0.3399749E+00  0.6010498E-02 -0.5362932E-01
4979815.  0.2197928E-01  0.8385489E+00  0.7793653E-02 -0.2887794E+00  0.6292273E-02 -0.4471314E-01
4943333.  0.1693514E-01  0.9203160E+00  0.9275439E-02 -0.2272166E+00  0.6521794E-02 -0.3539134E-01
4906852.  0.1147499E-01  0.9835377E+00  0.1038043E-01 -0.1575953E+00  0.6696996E-02 -0.2575880E-01
4870370.  0.5710455E-02  0.1026305E+01  0.1106973E-01 -0.8245517E-01  0.6816379E-02 -0.1590979E-01
4833889. -0.2368673E-03  0.1047261E+01  0.1131935E-01 -0.4491785E-02  0.6878968E-02 -0.5938480E-02
4797407. -0.6239979E-02  0.1045660E+01  0.1112101E-01  0.7355054E-01  0.6884329E-02  0.4063998E-02
4760926. -0.1216874E-01  0.1021382E+01  0.1048207E-01  0.1489573E+00  0.6832539E-02  0.1400812E-01
4724444. -0.1789478E-01  0.9749355E+00  0.9425065E-02  0.2191468E+00  0.6724176E-02  0.2380882E-01
4687963. -0.2329380E-01  0.9074537E+00  0.7986853E-02  0.2817382E+00  0.6560304E-02  0.3338393E-01
4651482. -0.2825016E-01  0.8206556E+00  0.6217063E-02  0.3346372E+00  0.6342434E-02  0.4265674E-01
4615000. -0.3265958E-01  0.7167946E+00  0.4176329E-02  0.3760927E+00  0.6072497E-02  0.5155529E-01
4578518. -0.3643183E-01  0.5986000E+00  0.1934322E-02  0.4047441E+00  0.5752838E-02  0.6001256E-01
4542037. -0.3949353E-01  0.4691986E+00 -0.4327035E-03  0.4196629E+00  0.5386174E-02  0.6796652E-01
4505556. -0.4179028E-01  0.3320104E+00 -0.2844597E-02  0.4203746E+00  0.4975539E-02  0.7536168E-01
4469074. -0.4328785E-01  0.1906593E+00 -0.5219805E-02  0.4068617E+00  0.4524267E-02  0.8214782E-01
4432593. -0.4397297E-01  0.4887842E-01 -0.7477783E-02  0.3795611E+00  0.4036001E-02  0.8828025E-01
4396111. -0.4385388E-01 -0.8962144E-01 -0.9541982E-02  0.3393382E+00  0.3514570E-02  0.9372047E-01
4359630. -0.4295980E-01 -0.2212277E+00 -0.1134174E-01  0.2874599E+00  0.2964069E-02  0.9843395E-01
4323148. -0.4133995E-01 -0.3425590E+00 -0.1281488E-01  0.2255380E+00  0.2388707E-02  0.1023936E+00
4286667. -0.3906225E-01 -0.4505342E+00 -0.1390917E-01  0.1554901E+00  0.1792905E-02  0.1055755E+00
4250185. -0.3621093E-01 -0.5424799E+00 -0.1458417E-01  0.7945730E-01  0.1181135E-02  0.1079623E+00
4213704. -0.3288448E-01 -0.6161867E+00 -0.1481214E-01 -0.2452758E-03  0.5580256E-03  0.1095404E+00
4177222. -0.2919222E-01 -0.6699853E+00 -0.1457892E-01 -0.8121877E-01 -0.7180063E-04  0.1103010E+00
4140741. -0.2525176E-01 -0.7027805E+00 -0.1388421E-01 -0.1610370E+00 -0.7036131E-03  0.1102398E+00
4104259. -0.2118483E-01 -0.7140877E+00 -0.1274139E-01 -0.2373365E+00 -0.1332736E-02  0.1093559E+00
4067778. -0.1711462E-01 -0.7040371E+00 -0.1117718E-01 -0.3078675E+00 -0.1954433E-02  0.1076530E+00
4031296. -0.1316138E-01 -0.6733730E+00 -0.9230513E-02 -0.3705774E+00 -0.2564066E-02  0.1051377E+00
3994815. -0.9439788E-02 -0.6234307E+00 -0.6951611E-02 -0.4236503E+00 -0.3156978E-02  0.1018206E+00
3958333. -0.6054914E-02 -0.5560890E+00 -0.4400017E-02 -0.4655722E+00 -0.3728646E-02  0.9771472E-01
3921852. -0.3099970E-02 -0.4737309E+00 -0.1643288E-02 -0.4951555E+00 -0.4274569E-02  0.9283666E-01
3885370. -0.6529494E-03 -0.3791564E+00  0.1245544E-02 -0.5115799E+00 -0.4790406E-02  0.8720511E-01
3848889.  0.1224956E-02 -0.2755229E+00  0.4189532E-02 -0.5144070E+00 -0.5271877E-02  0.8084188E-01
3812407.  0.2491619E-02 -0.1662342E+00  0.7110637E-02 -0.5035819E+00 -0.5714884E-02  0.7377037E-01
3775926.  0.3124790E-02 -0.5487288E-01  0.9931280E-02 -0.4794326E+00 -0.6115421E-02  0.6601675E-01
3739444.  0.3123029E-02  0.5492956E-01  0.1257714E-01 -0.4426555E+00 -0.6469680E-02  0.5760817E-01
3702963.  0.2505628E-02  0.1595660E+00  0.1497859E-01 -0.3942887E+00 -0.6773978E-02  0.4857421E-01
3666482.  0.1312176E-02  0.2555718E+00  0.1707304E-01 -0.3356744E+00 -0.7024826E-02  0.3894502E-01
3630000. -0.3985654E-03  0.3397137E+00  0.1880634E-01 -0.2684160E+00 -0.7218912E-02  0.2875155E-01
3630000. -0.3985654E-03  0.3397095E+00  0.1880634E-01 -0.2684126E+00 -0.7218912E-02  0.2875155E-01
3592500. -0.2613516E-02  0.4101181E+00  0.2016840E-01 -0.1932297E+00 -0.7355924E-02  0.1770947E-01
3555000. -0.5190809E-02  0.4623711E+00  0.2106934E-01 -0.1120814E+00 -0.7426315E-02  0.6120090E-02
3517500. -0.8015965E-02  0.4939663E+00  0.2148042E-01 -0.2715984E-01 -0.7426963E-02 -0.5982524E-02
3480000. -0.1096138E-01  0.5029595E+00  0.2138620E-01  0.5922025E-01 -0.7354946E-02 -0.1856517E-01
3480000. -0.1096138E-01 -0.1094926E-01  0.9653539E-04 -0.2024669E-01 -0.7354946E-02  0.1591482E-01
3409422. -0.1042752E-01 -0.8418847E-01  0.3213595E-03 -0.2009023E-01 -0.7548560E-02  0.1799305E-01
3338844. -0.9131772E-02 -0.1478090E+00  0.5361728E-03 -0.1845228E-01 -0.7731383E-02  0.1406725E-01
3268266. -0.7201272E-02 -0.1983100E+00  0.7251580E-03 -0.1545458E-01 -0.7840892E-02  0.4913059E-02
3197688. -0.4794735E-02 -0.2334921E+00  0.8742920E-03 -0.1129629E-01 -0.7824821E-02 -0.8409623E-02
3127109. -0.2088186E-02 -0.2524076E+00  0.9720993E-03 -0.6234617E-02 -0.7643762E-02 -0.2465527E-01
3056531.  0.7381690E-03 -0.2552470E+00  0.1010182E-02 -0.5653680E-03 -0.7272688E-02 -0.4249031E-01
2985953.  0.3511899E-02 -0.2431708E+00  0.9835429E-03  0.5397102E-02 -0.6701390E-02 -0.6058694E-01
2915375.  0.6077848E-02 -0.2181099E+00  0.8906848E-03  0.1133816E-01 -0.5933961E-02 -0.7770337E-01
2844797.  0.8305551E-02 -0.1825544E+00  0.7335171E-03  0.1695998E-01 -0.4987459E-02 -0.9275071E-01
2774219.  0.1009421E-01 -0.1393366E+00  0.5170897E-03  0.2199540E-01 -0.3889916E-02 -0.1048431E+00
2703641.  0.1137539E-01 -0.9143032E-01  0.2491908E-03  0.2621896E-01 -0.2677895E-02 -0.1133306E+00
2633062.  0.1211349E-01 -0.4176651E-01 -0.6017058E-04  0.2945539E-01 -0.1393758E-02 -0.1178144E+00
2562484.  0.1230443E-01  0.6920498E-02 -0.3993301E-03  0.3158405E-01 -0.8293800E-04 -0.1181469E+00
2491906.  0.1197271E-01  0.5222186E-01 -0.7556144E-03  0.3254119E-01  0.1208883E-02 -0.1144178E+00
2421328.  0.1116732E-01  0.9214427E-01 -0.1115952E-02  0.3231897E-01  0.2438195E-02 -0.1069275E+00
2350750.  0.9956685E-02  0.1251721E+00 -0.1467476E-02  0.3096153E-01  0.3565825E-02 -0.9615245E-01
2280172.  0.8423267E-02  0.1502924E+00 -0.1798076E-02  0.2855988E-01  0.4558669E-02 -0.8270446E-01
2209594.  0.6657939E-02  0.1669968E+00 -0.2096872E-02  0.2524448E-01  0.5390945E-02 -0.6728620E-01
2139016.  0.4754534E-02  0.1752530E+00 -0.2354612E-02  0.2117679E-01  0.6044953E-02 -0.5064667E-01
2068438.  0.2804786E-02  0.1754628E+00 -0.2563961E-02  0.1653950E-01  0.6511346E-02 -0.3353809E-01
1997859.  0.8938792E-03  0.1683904E+00 -0.2719677E-02  0.1152680E-01  0.6788950E-02 -0.1667699E-01
1927281. -0.9031175E-03  0.1551000E+00 -0.2818694E-02  0.6335813E-02  0.6884166E-02 -0.7116669E-03
1856703. -0.2524243E-02  0.1368652E+00 -0.2860095E-02  0.1155478E-02  0.6810078E-02  0.1380569E-01
1786125. -0.3922458E-02  0.1150987E+00 -0.2844975E-02 -0.3841432E-02  0.6585267E-02  0.2643681E-01
1715547. -0.5066765E-02  0.9127195E-01 -0.2776216E-02 -0.8505871E-02  0.6232481E-02  0.3686856E-01
1644969. -0.5942495E-02  0.6685142E-01 -0.2658181E-02 -0.1272143E-01  0.5777229E-02  0.4491545E-01
1574391. -0.6550969E-02  0.4325207E-01 -0.2496307E-02 -0.1641102E-01  0.5246385E-02  0.5051483E-01
1503812. -0.6908777E-02  0.2181230E-01 -0.2296634E-02 -0.1954487E-01  0.4666886E-02  0.5371425E-01
1433234. -0.7046930E-02  0.3806303E-02 -0.2065223E-02 -0.2215167E-01  0.4064644E-02  0.5465163E-01
1362656. -0.7010477E-02 -0.9491722E-02 -0.1807418E-02 -0.2433478E-01  0.3463639E-02  0.5352776E-01
1292078. -0.6859251E-02 -0.1664931E-01 -0.1526878E-02 -0.2630194E-01  0.2885456E-02  0.5056864E-01
1221500. -0.6671197E-02 -0.1575526E-01 -0.1224150E-02 -0.2841895E-01  0.2349271E-02  0.4597254E-01
1221500. -0.6671197E-02  0.1219186E+00 -0.1905685E-03  0.3380113E-01  0.2349271E-02  0.4886253E-01
1183328. -0.7280916E-02  0.7822849E-01 -0.4471874E-03  0.5078390E-01  0.2067817E-02  0.4509155E-01
1145156. -0.7571733E-02  0.1614023E-01 -0.7845908E-03  0.6052522E-01  0.1808863E-02  0.4135724E-01
1106984. -0.7447488E-02 -0.5933134E-01 -0.1155998E-02  0.6205543E-01  0.1572096E-02  0.3769068E-01
1068812. -0.6847187E-02 -0.1415648E+00 -0.1511790E-02  0.5539991E-01  0.1357019E-02  0.3412191E-01
1030641. -0.5752662E-02 -0.2230234E+00 -0.1805394E-02  0.4153436E-01  0.1162966E-02  0.3067867E-01
 992469. -0.4191563E-02 -0.2960542E+00 -0.1998578E-02  0.2222525E-01  0.9891002E-03  0.2738559E-01
 954297. -0.2235868E-02 -0.3536728E+00 -0.2065450E-02 -0.2128388E-03  0.8344607E-03  0.2426407E-01
 916125.  0.4479747E-05 -0.3902892E+00 -0.1994899E-02 -0.2321539E-01  0.6979659E-03  0.2133129E-01
 877953.  0.2391673E-02 -0.4022694E+00 -0.1791149E-02 -0.4427908E-01  0.5784440E-03  0.1860024E-01
 839781.  0.4772908E-02 -0.3882795E+00 -0.1472514E-02 -0.6124705E-01  0.4746583E-03  0.1607956E-01
 801609.  0.6994606E-02 -0.3493901E+00 -0.1068605E-02 -0.7253727E-01  0.3853329E-03  0.1377374E-01
 763438.  0.8916433E-02 -0.2889234E+00 -0.6164156E-03 -0.7728788E-01  0.3091786E-03  0.1168341E-01
 725266.  0.1042395E-01 -0.2120698E+00 -0.1557565E-03 -0.7540927E-01  0.2449076E-03  0.9805662E-02
 687094.  0.1143791E-01 -0.1253323E+00  0.2752157E-03 -0.6754006E-01  0.1912632E-03  0.8135002E-02
 648922.  0.1192034E-01 -0.3584332E-01  0.6440664E-03 -0.5492062E-01  0.1470285E-03  0.6663149E-02
 610750.  0.1187605E-01  0.4935557E-01  0.9271339E-03 -0.3920362E-01  0.1110407E-03  0.5380344E-02
 572578.  0.1135008E-01  0.1239976E+00  0.1111336E-02 -0.2222905E-01  0.8220045E-04  0.4275285E-02
 534406.  0.1042120E-01  0.1831660E+00  0.1194599E-02 -0.5794012E-02  0.5947944E-04  0.3335571E-02
 496234.  0.9192524E-02  0.2237030E+00  0.1184958E-02  0.8554485E-02  0.4192585E-04  0.2548157E-02
 458062.  0.7780265E-02  0.2444151E+00  0.1098559E-02  0.1967915E-01  0.2866733E-04  0.1899562E-02
 419891.  0.6301910E-02  0.2460595E+00  0.9568807E-03  0.2694737E-01  0.1891406E-04  0.1375835E-02
 381719.  0.4864955E-02  0.2311221E+00  0.7835882E-03  0.3025605E-01  0.1195954E-04  0.9628749E-03
 343547.  0.3557900E-02  0.2034200E+00  0.6014971E-03  0.2998297E-01  0.7183081E-05  0.6464103E-03
 305375.  0.2443622E-02  0.1675805E+00  0.4299541E-03  0.2688540E-01  0.4049105E-05  0.4122584E-03
 267203.  0.1556309E-02  0.1284543E+00  0.2830008E-03  0.2195010E-01  0.2106529E-05  0.2464120E-03
 229031.  0.9018609E-03  0.9054183E-01  0.1684808E-03  0.1623163E-01  0.9869671E-06  0.1353352E-03
 190859.  0.4615570E-03  0.5748582E-01  0.8812605E-04  0.1069031E-01  0.4009726E-06  0.6625620E-04
 152688.  0.1983948E-03  0.3169909E-01  0.3853659E-04  0.6060605E-02  0.1325829E-06  0.2748232E-04
 114516.  0.6515479E-04  0.1415331E-01  0.1282124E-04  0.2761572E-02  0.3168486E-07  0.8781778E-05
  76344.  0.1321508E-04  0.4364685E-02  0.2624201E-05  0.8635679E-03  0.4193442E-08  0.1746940E-05
  38172.  0.8391158E-06  0.5587168E-03  0.1675238E-06  0.1114440E-03  0.1314322E-09  0.1096206E-06
      0.  0.0000000E+00  0.0000000E+00  0.0000000E+00  0.0000000E+00  0.0000000E+00  0.0000000E+00
