      15       11 S      630        123.05410         28.28744         11.39033        503.68680      185    7
6371000.  0.4237709E-01 -0.1848447E+00 -0.2920829E-02 -0.4529792E-01  0.3950753E-04 -0.8038736E-01
6370000.  0.4240442E-01 -0.1634331E+00 -0.2913355E-02 -0.4992965E-01  0.5212049E-04 -0.8032601E-01
6369000.  0.4242839E-01 -0.1419357E+00 -0.2905156E-02 -0.5454281E-01  0.6472336E-04 -0.8025881E-01
6368000.  0.4244898E-01 -0.1203542E+00 -0.2896234E-02 -0.5913624E-01  0.7731523E-04 -0.8018579E-01
6368000.  0.4244898E-01 -0.1203542E+00 -0.2896234E-02 -0.5913624E-01  0.7731523E-04 -0.8018579E-01
6367000.  0.4246617E-01 -0.9869061E-01 -0.2886593E-02 -0.6370877E-01  0.8989518E-04 -0.8010693E-01
6366000.  0.4247995E-01 -0.7694680E-01 -0.2876236E-02 -0.6825923E-01  0.1024623E-03 -0.8002225E-01
6365000.  0.4249032E-01 -0.5512476E-01 -0.2865166E-02 -0.7278649E-01  0.1150157E-03 -0.7993175E-01
6364000.  0.4249725E-01 -0.3322646E-01 -0.2853388E-02 -0.7728939E-01  0.1275544E-03 -0.7983544E-01
6363000.  0.4250074E-01 -0.1125391E-01 -0.2840905E-02 -0.8176678E-01  0.1400775E-03 -0.7973331E-01
6362000.  0.4250078E-01  0.1079087E-01 -0.2827721E-02 -0.8621755E-01  0.1525841E-03 -0.7962539E-01
6361000.  0.4249735E-01  0.3290582E-01 -0.2813840E-02 -0.9064056E-01  0.1650734E-03 -0.7951166E-01
6360000.  0.4249045E-01  0.5508887E-01 -0.2799268E-02 -0.9503469E-01  0.1775443E-03 -0.7939215E-01
6359000.  0.4248006E-01  0.7733794E-01 -0.2784009E-02 -0.9939883E-01  0.1899961E-03 -0.7926685E-01
6358000.  0.4246617E-01  0.9965090E-01 -0.2768066E-02 -0.1037319E+00  0.2024277E-03 -0.7913579E-01
6357000.  0.4244877E-01  0.1220256E+00 -0.2751446E-02 -0.1080327E+00  0.2148383E-03 -0.7899895E-01
6356000.  0.4242786E-01  0.1444599E+00 -0.2734154E-02 -0.1123003E+00  0.2272269E-03 -0.7885636E-01
6356000.  0.4242786E-01  0.5509794E-01 -0.2734154E-02 -0.8572864E-01  0.2272269E-03 -0.8808817E-01
6355000.  0.4241793E-01  0.7134232E-01 -0.2720477E-02 -0.8854323E-01  0.2410428E-03 -0.8795264E-01
6354000.  0.4240546E-01  0.8762710E-01 -0.2706359E-02 -0.9133904E-01  0.2548370E-03 -0.8781260E-01
6353000.  0.4239042E-01  0.1039511E+00 -0.2691804E-02 -0.9411559E-01  0.2686089E-03 -0.8766802E-01
6352000.  0.4237282E-01  0.1203132E+00 -0.2676815E-02 -0.9687243E-01  0.2823577E-03 -0.8751893E-01
6351000.  0.4235265E-01  0.1367123E+00 -0.2661395E-02 -0.9960907E-01  0.2960828E-03 -0.8736534E-01
6350000.  0.4232990E-01  0.1531471E+00 -0.2645547E-02 -0.1023251E+00  0.3097834E-03 -0.8720724E-01
6349000.  0.4230458E-01  0.1696165E+00 -0.2629274E-02 -0.1050199E+00  0.3234589E-03 -0.8704464E-01
6348000.  0.4227666E-01  0.1861193E+00 -0.2612580E-02 -0.1076932E+00  0.3371084E-03 -0.8687756E-01
6347000.  0.4224614E-01  0.2026543E+00 -0.2595468E-02 -0.1103445E+00  0.3507315E-03 -0.8670601E-01
6346600.  0.4223321E-01  0.2092770E+00 -0.2588507E-02 -0.1113988E+00  0.3561731E-03 -0.8663613E-01
6346600.  0.4223321E-01  0.4867927E-01 -0.2588507E-02 -0.8982664E-01  0.3561731E-03 -0.1013622E+00
6318800.  0.4127287E-01  0.3952158E+00 -0.2082900E-02 -0.1395004E+00  0.7875059E-03 -0.9587565E-01
6291000.  0.3876381E-01  0.7556390E+00 -0.1395431E-02 -0.1724922E+00  0.1188934E-02 -0.8767575E-01
6291000.  0.3876381E-01  0.7641548E+00 -0.1395431E-02 -0.1770418E+00  0.1188934E-02 -0.8767575E-01
6263000.  0.3459793E-01  0.1129050E+01 -0.5798850E-03 -0.1903567E+00  0.1551122E-02 -0.7672610E-01
6235000.  0.2887837E-01  0.1467531E+01  0.2446411E-03 -0.1811397E+00  0.1859860E-02 -0.6340154E-01
6207000.  0.2176918E-01  0.1757896E+01  0.9810770E-03 -0.1506864E+00  0.2105428E-02 -0.4804361E-01
6179000.  0.1352670E-01  0.1980162E+01  0.1543227E-02 -0.1026035E+00  0.2279792E-02 -0.3107498E-01
6151000.  0.4488171E-02  0.2117766E+01  0.1865143E-02 -0.4241411E-01  0.2376936E-02 -0.1299158E-01
6151000.  0.4488171E-02  0.1726960E+01  0.1865143E-02 -0.3760435E-01  0.2376936E-02 -0.1323989E-01
6128500. -0.1629634E-02  0.1730016E+01  0.1917033E-02  0.8309145E-02  0.2402984E-02 -0.1508521E-02
6106000. -0.7677572E-02  0.1687598E+01  0.1807573E-02  0.5327690E-01  0.2387681E-02  0.1014685E-01
6083500. -0.1349825E-01  0.1601803E+01  0.1545219E-02  0.9443779E-01  0.2331621E-02  0.2154263E-01
6061000. -0.1894461E-01  0.1476370E+01  0.1148053E-02  0.1292272E+00  0.2236031E-02  0.3250499E-01
6038500. -0.2388547E-01  0.1316492E+01  0.6424760E-03  0.1555223E+00  0.2102732E-02  0.4287180E-01
6016000. -0.2821010E-01  0.1128530E+01  0.6143150E-04  0.1717542E+00  0.1934093E-02  0.5249471E-01
5993500. -0.3183186E-01  0.9197013E+00 -0.5576873E-03  0.1769826E+00  0.1732980E-02  0.6124135E-01
5971000. -0.3469063E-01  0.6977404E+00 -0.1175342E-02  0.1709357E+00  0.1502699E-02  0.6899534E-01
5971000. -0.3469063E-01  0.6282597E+00 -0.1175342E-02  0.1560439E+00  0.1502699E-02  0.7353663E-01
5937667. -0.3712079E-01  0.3038362E+00 -0.1921777E-02  0.1264935E+00  0.1091757E-02  0.8312166E-01
5904333. -0.3791860E-01  0.7107561E-02 -0.2474510E-02  0.8293767E-01  0.6374477E-03  0.9010295E-01
5871000. -0.3726879E-01 -0.2475971E+00 -0.2775586E-02  0.3131698E-01  0.1534538E-03  0.9448030E-01
5837667. -0.3541661E-01 -0.4515043E+00 -0.2798626E-02 -0.2237847E-01 -0.3467655E-03  0.9632128E-01
5804333. -0.3263905E-01 -0.6011322E+00 -0.2547289E-02 -0.7273681E-01 -0.8502482E-03  0.9574590E-01
5771000. -0.2921911E-01 -0.6976244E+00 -0.2051068E-02 -0.1153607E+00 -0.1344731E-02  0.9291673E-01
5771000. -0.2921911E-01 -0.6976447E+00 -0.2051068E-02 -0.1153560E+00 -0.1344731E-02  0.9291673E-01
5701000. -0.2085263E-01 -0.7956494E+00 -0.3761157E-03 -0.1807232E+00 -0.2295116E-02  0.7857917E-01
5701000. -0.2085263E-01 -0.6585842E+00 -0.3761157E-03 -0.1380879E+00 -0.2295116E-02  0.8445677E-01
5667333. -0.1735793E-01 -0.6605246E+00  0.3714384E-03 -0.1432151E+00 -0.2719926E-02  0.7605921E-01
5633667. -0.1390312E-01 -0.6445755E+00  0.1120832E-02 -0.1389130E+00 -0.3096371E-02  0.6619140E-01
5600000. -0.1056621E-01 -0.6168596E+00  0.1824707E-02 -0.1261917E+00 -0.3417267E-02  0.5506829E-01
5600000. -0.1056621E-01 -0.6168520E+00  0.1824707E-02 -0.1261985E+00 -0.3417267E-02  0.5506829E-01
5563518. -0.7132708E-02 -0.5811971E+00  0.2498170E-02 -0.1076056E+00 -0.3695250E-02  0.4183746E-01
5527037. -0.3917198E-02 -0.5418130E+00  0.3042399E-02 -0.8135683E-01 -0.3894588E-02  0.2765432E-01
5490556. -0.9234839E-03 -0.5046205E+00  0.3419048E-02 -0.4944295E-01 -0.4010737E-02  0.1283441E-01
5454074.  0.1875064E-02 -0.4742653E+00  0.3602328E-02 -0.1423136E-01 -0.4040966E-02 -0.2302257E-02
5417593.  0.4526936E-02 -0.4537719E+00  0.3580615E-02  0.2172439E-01 -0.3984378E-02 -0.1743643E-01
5381111.  0.7093101E-02 -0.4443554E+00  0.3356957E-02  0.5589090E-01 -0.3841873E-02 -0.3225881E-01
5344630.  0.9635976E-02 -0.4454142E+00  0.2948424E-02  0.8593743E-01 -0.3616102E-02 -0.4647266E-01
5308148.  0.1220987E-01 -0.4546556E+00  0.2384393E-02  0.1099097E+00 -0.3311338E-02 -0.5980258E-01
5271667.  0.1485146E-01 -0.4683698E+00  0.1704111E-02  0.1263519E+00 -0.2933393E-02 -0.7199644E-01
5235185.  0.1757333E-01 -0.4818211E+00  0.9534241E-03  0.1344014E+00 -0.2489402E-02 -0.8283233E-01
5198704.  0.2035882E-01 -0.4897101E+00  0.1814022E-03  0.1338250E+00 -0.1987726E-02 -0.9211980E-01
5162222.  0.2316077E-01 -0.4866775E+00 -0.5634324E-03  0.1250131E+00 -0.1437664E-02 -0.9970447E-01
5125741.  0.2590209E-01 -0.4678025E+00 -0.1236379E-02  0.1089268E+00 -0.8493521E-03 -0.1054688E+00
5089259.  0.2848018E-01 -0.4290691E+00 -0.1799740E-02  0.8700556E-01 -0.2334254E-03 -0.1093336E+00
5052778.  0.3077270E-01 -0.3677548E+00 -0.2225084E-02  0.6104807E-01  0.3990702E-03 -0.1112583E+00
5016296.  0.3264637E-01 -0.2827097E+00 -0.2495012E-02  0.3306533E-01  0.1037034E-02 -0.1112399E+00
4979815.  0.3396609E-01 -0.1745357E+00 -0.2603869E-02  0.5135001E-02  0.1669383E-02 -0.1093119E+00
4943333.  0.3460543E-01 -0.4560198E-01 -0.2557727E-02 -0.2075477E-01  0.2285396E-02 -0.1055421E+00
4906852.  0.3445636E-01  0.1000267E+00 -0.2373470E-02 -0.4283661E-01  0.2874760E-02 -0.1000291E+00
4870370.  0.3343842E-01  0.2568410E+00 -0.2077158E-02 -0.5968645E-01  0.3427878E-02 -0.9289966E-01
4833889.  0.3150623E-01  0.4181855E+00 -0.1701843E-02 -0.7030661E-01  0.3935884E-02 -0.8430489E-01
4797407.  0.2865458E-01  0.5766963E+00 -0.1284882E-02 -0.7418463E-01  0.4390892E-02 -0.7441419E-01
4760926.  0.2492172E-01  0.7247332E+00 -0.8651732E-03 -0.7131035E-01  0.4785986E-02 -0.6341431E-01
4724444.  0.2038883E-01  0.8548974E+00 -0.4802162E-03 -0.6216095E-01  0.5115391E-02 -0.5150132E-01
4687963.  0.1517818E-01  0.9604696E+00 -0.1635320E-03 -0.4765361E-01  0.5374445E-02 -0.3887924E-01
4651482.  0.9447052E-02  0.1035874E+01  0.5772028E-04 -0.2906717E-01  0.5559683E-02 -0.2575360E-01
4615000.  0.3380531E-02  0.1077014E+01  0.1645031E-03 -0.7944373E-02  0.5668812E-02 -0.1232815E-01
4578518. -0.2817421E-02  0.1081544E+01  0.1470967E-03  0.1401929E-01  0.5700681E-02  0.1197669E-02
4542037. -0.8934841E-02  0.1049037E+01  0.5651189E-05  0.3509552E-01  0.5655271E-02  0.1463281E-01
4505556. -0.1476324E-01  0.9810097E+00 -0.2499831E-03  0.5364200E-01  0.5533619E-02  0.2779805E-01
4469074. -0.2010823E-01  0.8808477E+00 -0.6010630E-03  0.6820858E-01  0.5337749E-02  0.4052750E-01
4432593. -0.2479926E-01  0.7536179E+00 -0.1021284E-02  0.7762837E-01  0.5070608E-02  0.5266953E-01
4396111. -0.2869945E-01  0.6057600E+00 -0.1478695E-02  0.8109061E-01  0.4735935E-02  0.6409039E-01
4359630. -0.3171149E-01  0.4447428E+00 -0.1937781E-02  0.7818428E-01  0.4338226E-02  0.7467185E-01
4323148. -0.3378299E-01  0.2785945E+00 -0.2361921E-02  0.6891701E-01  0.3882555E-02  0.8431564E-01
4286667. -0.3490789E-01  0.1154847E+00 -0.2715678E-02  0.5370746E-01  0.3374562E-02  0.9293918E-01
4250185. -0.3512632E-01 -0.3677198E-01 -0.2967147E-02  0.3334845E-01  0.2820250E-02  0.1004793E+00
4213704. -0.3452107E-01 -0.1711175E+00 -0.3089880E-02  0.8953580E-02  0.2225996E-02  0.1068888E+00
4177222. -0.3321215E-01 -0.2816655E+00 -0.3064558E-02 -0.1812184E-01  0.1598337E-02  0.1121371E+00
4140741. -0.3134936E-01 -0.3639859E+00 -0.2880115E-02 -0.4636402E-01  0.9440079E-03  0.1162089E+00
4104259. -0.2910289E-01 -0.4153478E+00 -0.2534354E-02 -0.7420085E-01  0.2697190E-03  0.1191030E+00
4067778. -0.2665367E-01 -0.4348223E+00 -0.2034066E-02 -0.1000911E+00 -0.4177778E-03  0.1208316E+00
4031296. -0.2418243E-01 -0.4233115E+00 -0.1394497E-02 -0.1226222E+00 -0.1111908E-02  0.1214183E+00
3994815. -0.2185998E-01 -0.3834524E+00 -0.6384935E-03 -0.1405842E+00 -0.1806190E-02  0.1208975E+00
3958333. -0.1983723E-01 -0.3194285E+00  0.2049985E-03 -0.1530413E+00 -0.2494440E-02  0.1193129E+00
3921852. -0.1823751E-01 -0.2367112E+00  0.1102479E-02 -0.1593747E+00 -0.3170672E-02  0.1167158E+00
3885370. -0.1714982E-01 -0.1417047E+00  0.2017988E-02 -0.1593139E+00 -0.3829289E-02  0.1131642E+00
3848889. -0.1662480E-01 -0.4137925E-01  0.2914937E-02 -0.1529440E+00 -0.4464969E-02  0.1087215E+00
3812407. -0.1667248E-01  0.5715527E-01  0.3758303E-02 -0.1406879E+00 -0.5072834E-02  0.1034546E+00
3775926. -0.1726274E-01  0.1470307E+00  0.4516293E-02 -0.1232778E+00 -0.5648329E-02  0.9743329E-01
3739444. -0.1832785E-01  0.2220394E+00  0.5162164E-02 -0.1017048E+00 -0.6187368E-02  0.9072756E-01
3702963. -0.1976711E-01  0.2769507E+00  0.5675373E-02 -0.7715878E-01 -0.6686202E-02  0.8340764E-01
3666482. -0.2145346E-01  0.3078065E+00  0.6042638E-02 -0.5095598E-01 -0.7141524E-02  0.7554056E-01
3630000. -0.2324139E-01  0.3121278E+00  0.6258389E-02 -0.2446545E-01 -0.7550396E-02  0.6718970E-01
3630000. -0.2324139E-01  0.3121219E+00  0.6258389E-02 -0.2446462E-01 -0.7550396E-02  0.6718970E-01
3592500. -0.2501412E-01  0.2853329E+00  0.6325314E-02  0.1490738E-02 -0.7919453E-02  0.5812956E-01
3555000. -0.2654343E-01  0.2296178E+00  0.6244912E-02  0.2537520E-01 -0.8233773E-02  0.4859523E-01
3517500. -0.2766450E-01  0.1471265E+00  0.6033113E-02  0.4594396E-01 -0.8490633E-02  0.3860837E-01
3480000. -0.2823030E-01  0.4172242E-01  0.5712650E-02  0.6214095E-01 -0.8687402E-02  0.2817638E-01
3480000. -0.2823030E-01 -0.6315418E+00  0.1080314E-02 -0.5368029E-01 -0.8687402E-02  0.1169773E+00
3409422. -0.1954925E-01 -0.9133626E+00  0.1602837E-02 -0.3954554E-01 -0.9764340E-02  0.7292189E-01
3338844. -0.8517019E-02 -0.1054279E+01  0.1936305E-02 -0.1996156E-01 -0.1022300E-01  0.7230022E-02
3268266.  0.3288504E-02 -0.1054755E+01  0.2034710E-02  0.2435528E-02 -0.9887469E-02 -0.6851158E-01
3197688.  0.1440160E-01 -0.9336255E+00  0.1881980E-02  0.2494081E-01 -0.8709591E-02 -0.1430846E+00
3127109.  0.2363895E-01 -0.7219391E+00  0.1490756E-02  0.4512387E-01 -0.6756962E-02 -0.2069935E+00
3056531.  0.3019888E-01 -0.4565881E+00  0.8979160E-03  0.6107599E-01 -0.4188605E-02 -0.2533503E+00
2985953.  0.3369395E-01 -0.1745177E+00  0.1578547E-03  0.7155483E-01 -0.1223220E-02 -0.2782804E+00
2915375.  0.3412471E-01  0.9177342E-01 -0.6651826E-03  0.7602464E-01  0.1894179E-02 -0.2808738E+00
2844797.  0.3181254E-01  0.3172244E+00 -0.1504752E-02  0.7461024E-01  0.4923246E-02 -0.2627945E+00
2774219.  0.2730796E-01  0.4856545E+00 -0.2298958E-02  0.6798526E-01  0.7653528E-02 -0.2276597E+00
2703641.  0.2129058E-01  0.5898456E+00 -0.2995722E-02  0.5722121E-01  0.9922110E-02 -0.1803092E+00
2633062.  0.1447437E-01  0.6305682E+00 -0.3556273E-02  0.4361922E-01  0.1162308E-01 -0.1260740E+00
2562484.  0.7528435E-02  0.6148806E+00 -0.3956743E-02  0.2854796E-01  0.1270922E-01 -0.7013462E-01
2491906.  0.1017783E-02  0.5541161E+00 -0.4188168E-02  0.1330441E-01  0.1318751E-01 -0.1701221E-01
2421328. -0.4632046E-02  0.4618066E+00 -0.4255034E-02 -0.9948798E-03  0.1310973E-01  0.2976351E-01
2350750. -0.9148960E-02  0.3518388E+00 -0.4172835E-02 -0.1348690E-01  0.1256042E-01  0.6781865E-01
2280172. -0.1240945E-01  0.2369383E+00 -0.3965063E-02 -0.2359317E-01  0.1164393E-01  0.9594518E-01
2209594. -0.1441963E-01  0.1276475E+00 -0.3660027E-02 -0.3102110E-01  0.1047200E-01  0.1139877E+00
2139016. -0.1528740E-01  0.3174123E-01 -0.3287800E-02 -0.3573718E-01  0.9153142E-02  0.1226472E+00
2068438. -0.1519062E-01 -0.4591890E-01 -0.2877600E-02 -0.3792179E-01  0.7784461E-02  0.1232395E+00
1997859. -0.1434547E-01 -0.1032195E+00 -0.2455712E-02 -0.3791230E-01  0.6446228E-02  0.1174445E+00
1927281. -0.1297841E-01 -0.1403409E+00 -0.2044112E-02 -0.3614291E-01  0.5199223E-02  0.1070752E+00
1856703. -0.1130358E-01 -0.1592156E+00 -0.1659668E-02 -0.3308991E-01  0.4084261E-02  0.9388464E-01
1786125. -0.9507012E-02 -0.1628914E+00 -0.1313971E-02 -0.2922322E-01  0.3123764E-02  0.7942483E-01
1715547. -0.7737448E-02 -0.1549529E+00 -0.1013617E-02 -0.2497000E-01  0.2324507E-02  0.6495824E-01
1644969. -0.6103390E-02 -0.1390068E+00 -0.7608162E-03 -0.2069225E-01  0.1681083E-02  0.5141889E-01
1574391. -0.4675229E-02 -0.1182652E+00 -0.5541804E-03 -0.1667713E-01  0.1179562E-02  0.3941505E-01
1503812. -0.3491475E-02 -0.9521858E-01 -0.3895348E-03 -0.1314246E-01  0.8009383E-03  0.2926053E-01
1433234. -0.2568477E-02 -0.7133155E-01 -0.2605851E-03 -0.1025990E-01  0.5241600E-03  0.2102199E-01
1362656. -0.1913872E-02 -0.4660584E-01 -0.1591729E-03 -0.8204690E-02  0.3285852E-03  0.1456189E-01
1292078. -0.1547276E-02 -0.1864774E-01 -0.7473483E-04 -0.7261263E-02  0.1961403E-03  0.9552305E-02
1221500. -0.1537872E-02  0.1970788E-01  0.8047906E-05 -0.8063015E-02  0.1137242E-03  0.5397201E-02
1221500. -0.1537872E-02 -0.3128452E-01 -0.7695037E-04  0.7619758E-02  0.1137242E-03  0.6063413E-02
1183328. -0.1242594E-02 -0.6679697E-01 -0.1185938E-03  0.6017183E-02  0.8217727E-04  0.4531396E-02
1145156. -0.7497411E-03 -0.9620075E-01 -0.1465174E-03  0.3150847E-02  0.5873093E-04  0.3347016E-02
1106984. -0.1125850E-03 -0.1142813E+00 -0.1552697E-03 -0.2558892E-03  0.4151247E-04  0.2442133E-02
1068812.  0.5913569E-03 -0.1182575E+00 -0.1438383E-03 -0.3472993E-02  0.2902318E-04  0.1759721E-02
1030641.  0.1276040E-02 -0.1080682E+00 -0.1152168E-03 -0.5914852E-02  0.2007714E-04  0.1252258E-02
 992469.  0.1862671E-02 -0.8608656E-01 -0.7521398E-04 -0.7237161E-02  0.1374733E-04  0.8803933E-03
 954297.  0.2292189E-02 -0.5639865E-01 -0.3089236E-04 -0.7365852E-02  0.9321350E-05  0.6119293E-03
 916125.  0.2532799E-02 -0.2384576E-01  0.1098388E-04 -0.6464355E-02  0.6260180E-05  0.4209616E-03
 877953.  0.2581540E-02  0.6936887E-02  0.4515567E-04 -0.4856523E-02  0.4163582E-05  0.2869278E-03
 839781.  0.2460609E-02  0.3229363E-01  0.6854791E-04 -0.2931364E-02  0.2740174E-05  0.1939476E-03
 801609.  0.2209930E-02  0.5000813E-01  0.8038141E-04 -0.1052922E-02  0.1781576E-05  0.1300598E-03
 763438.  0.1878052E-02  0.5941289E-01  0.8181456E-04  0.5042517E-03  0.1141297E-05  0.8645389E-04
 725266.  0.1513277E-02  0.6119337E-01  0.7529221E-04  0.1587777E-02  0.7177649E-06  0.5683402E-04
 687094.  0.1156764E-02  0.5698012E-01  0.6380363E-04  0.2165680E-02  0.4410874E-06  0.3682736E-04
 648922.  0.8382758E-03  0.4886141E-01  0.5022709E-04  0.2301303E-02  0.2633859E-06  0.2338319E-04
 610750.  0.5748611E-03  0.3892349E-01  0.3687126E-04  0.2114551E-02  0.1518692E-06  0.1445666E-04
 572578.  0.3719706E-03  0.2890725E-01  0.2525726E-04  0.1742276E-02  0.8395037E-07  0.8636816E-05
 534406.  0.2261684E-03  0.2002004E-01  0.1611706E-04  0.1306777E-02  0.4413110E-07  0.4942252E-05
 496234.  0.1285057E-03  0.1290001E-01  0.9543533E-05  0.8971294E-03  0.2186284E-07  0.2682858E-05
 458062.  0.6773358E-04  0.7697565E-02  0.5212078E-05  0.5636682E-03  0.1009978E-07  0.1367269E-05
 419891.  0.3280331E-04  0.4222960E-02  0.2602713E-05  0.3227069E-03  0.4295862E-08  0.6458974E-06
 381719.  0.1441261E-04  0.2107985E-02  0.1174180E-05  0.1669260E-03  0.1656219E-08  0.2787262E-06
 343547.  0.5648219E-05  0.9436670E-03  0.4707587E-06  0.7699252E-04  0.5671827E-09  0.1078009E-06
 305375.  0.1928938E-05  0.3712328E-03  0.1639432E-06  0.3105780E-04  0.1679886E-09  0.3645921E-07
 267203.  0.5555003E-06  0.1246541E-03  0.4800442E-07  0.1064981E-04  0.4145584E-10  0.1042245E-07
 229031.  0.1285271E-06  0.3421797E-04  0.1126318E-07  0.2974685E-05  0.8076046E-11  0.2396370E-08
 190859.  0.2215987E-07  0.7177996E-05  0.1964433E-08  0.6329194E-06  0.1142813E-11  0.4109449E-09
 152688.  0.2509468E-08  0.1027345E-05  0.2245220E-09  0.9161165E-07  0.1021586E-12  0.4629299E-10
 114516.  0.1472534E-09  0.8105823E-07  0.1326806E-10  0.7290316E-08  0.4442081E-14  0.2700406E-11
  76344.  0.2629497E-11  0.2184006E-08  0.2381017E-12  0.1976046E-09  0.5231825E-16  0.4779346E-13
  38172.  0.0000000E+00  0.0000000E+00  0.0000000E+00  0.0000000E+00  0.0000000E+00  0.0000000E+00
      0.  0.0000000E+00  0.0000000E+00  0.0000000E+00  0.0000000E+00  0.0000000E+00  0.0000000E+00
