      13        6 S      584        162.37570         37.92739         11.31193        644.98633      185    7
6371000.  0.5340565E-01 -0.1328622E+00 -0.5503366E-02 -0.5890902E-01  0.2458940E-04 -0.1008827E+00
6370000.  0.5342530E-01 -0.1174788E+00 -0.5493720E-02 -0.6400048E-01  0.4042169E-04 -0.1008516E+00
6369000.  0.5344253E-01 -0.1020620E+00 -0.5483275E-02 -0.6907878E-01  0.5624877E-04 -0.1008162E+00
6368000.  0.5345733E-01 -0.8661265E-01 -0.5472035E-02 -0.7414316E-01  0.7206994E-04 -0.1007764E+00
6368000.  0.5345733E-01 -0.8661265E-01 -0.5472035E-02 -0.7414316E-01  0.7206994E-04 -0.1007764E+00
6367000.  0.5346972E-01 -0.7113135E-01 -0.5460000E-02 -0.7919288E-01  0.8788452E-04 -0.1007323E+00
6366000.  0.5347966E-01 -0.5561888E-01 -0.5447175E-02 -0.8422722E-01  0.1036918E-03 -0.1006838E+00
6365000.  0.5348717E-01 -0.4007599E-01 -0.5433561E-02 -0.8924540E-01  0.1194912E-03 -0.1006310E+00
6364000.  0.5349224E-01 -0.2450343E-01 -0.5419159E-02 -0.9424672E-01  0.1352819E-03 -0.1005737E+00
6363000.  0.5349487E-01 -0.8901949E-02 -0.5403975E-02 -0.9923042E-01  0.1510633E-03 -0.1005122E+00
6362000.  0.5349504E-01  0.6727681E-02 -0.5388010E-02 -0.1041958E+00  0.1668347E-03 -0.1004463E+00
6361000.  0.5349275E-01  0.2238470E-01 -0.5371267E-02 -0.1091421E+00  0.1825955E-03 -0.1003760E+00
6360000.  0.5348801E-01  0.3806834E-01 -0.5353749E-02 -0.1140685E+00  0.1983448E-03 -0.1003013E+00
6359000.  0.5348080E-01  0.5377781E-01 -0.5335459E-02 -0.1189745E+00  0.2140821E-03 -0.1002224E+00
6358000.  0.5347113E-01  0.6951235E-01 -0.5316401E-02 -0.1238592E+00  0.2298066E-03 -0.1001390E+00
6357000.  0.5345898E-01  0.8527116E-01 -0.5296578E-02 -0.1287220E+00  0.2455177E-03 -0.1000514E+00
6356000.  0.5344436E-01  0.1010535E+00 -0.5275994E-02 -0.1335620E+00  0.2612148E-03 -0.9995936E-01
6356000.  0.5344436E-01  0.3706842E-01 -0.5275994E-02 -0.1039494E+00  0.2612148E-03 -0.1115882E+00
6355000.  0.5343764E-01  0.4851589E-01 -0.5259425E-02 -0.1071678E+00  0.2787231E-03 -0.1115024E+00
6354000.  0.5342912E-01  0.5997970E-01 -0.5242352E-02 -0.1103731E+00  0.2962177E-03 -0.1114131E+00
6353000.  0.5341881E-01  0.7145942E-01 -0.5224777E-02 -0.1135652E+00  0.3136980E-03 -0.1113203E+00
6352000.  0.5340669E-01  0.8295465E-01 -0.5206702E-02 -0.1167437E+00  0.3311635E-03 -0.1112241E+00
6351000.  0.5339277E-01  0.9446496E-01 -0.5188129E-02 -0.1199083E+00  0.3486135E-03 -0.1111244E+00
6350000.  0.5337704E-01  0.1059899E+00 -0.5169061E-02 -0.1230586E+00  0.3660477E-03 -0.1110213E+00
6349000.  0.5335949E-01  0.1175291E+00 -0.5149500E-02 -0.1261944E+00  0.3834654E-03 -0.1109147E+00
6348000.  0.5334014E-01  0.1290821E+00 -0.5129447E-02 -0.1293153E+00  0.4008661E-03 -0.1108046E+00
6347000.  0.5331897E-01  0.1406485E+00 -0.5108905E-02 -0.1324210E+00  0.4182493E-03 -0.1106912E+00
6346600.  0.5331000E-01  0.1452787E+00 -0.5100552E-02 -0.1336590E+00  0.4251976E-03 -0.1106448E+00
6346600.  0.5331000E-01  0.2906505E-01 -0.5100552E-02 -0.1092869E+00  0.4251976E-03 -0.1292332E+00
6318800.  0.5266668E-01  0.2677126E+00 -0.4484667E-02 -0.1712833E+00  0.9817031E-03 -0.1254729E+00
6291000.  0.5096092E-01  0.5150899E+00 -0.3623267E-02 -0.2212650E+00  0.1517031E-02 -0.1195312E+00
6291000.  0.5096092E-01  0.5206570E+00 -0.3623267E-02 -0.2273377E+00  0.1517031E-02 -0.1195312E+00
6263000.  0.4810922E-01  0.7769656E+00 -0.2537935E-02 -0.2636691E+00  0.2025092E-02 -0.1113124E+00
6235000.  0.4413785E-01  0.1028949E+01 -0.1332469E-02 -0.2817403E+00  0.2492356E-02 -0.1009848E+00
6207000.  0.3908246E-01  0.1268978E+01 -0.8975946E-04 -0.2805530E+00  0.2909834E-02 -0.8868138E-01
6179000.  0.3301269E-01  0.1489265E+01  0.1105604E-02 -0.2603343E+00  0.3269211E-02 -0.7457767E-01
6151000.  0.2603223E-01  0.1682158E+01  0.2172693E-02 -0.2225137E+00  0.3563039E-02 -0.5889156E-01
6151000.  0.2603223E-01  0.1358903E+01  0.2172693E-02 -0.1983682E+00  0.3563039E-02 -0.6033181E-01
6128500.  0.2108738E-01  0.1438288E+01  0.2809362E-02 -0.1610839E+00  0.3757541E-02 -0.4973396E-01
6106000.  0.1589648E-01  0.1498077E+01  0.3303638E-02 -0.1180014E+00  0.3913801E-02 -0.3869333E-01
6083500.  0.1053027E-01  0.1537472E+01  0.3638012E-02 -0.7082403E-01  0.4030452E-02 -0.2732121E-01
6061000.  0.5061601E-02  0.1556062E+01  0.3801192E-02 -0.2135886E-01  0.4106520E-02 -0.1572957E-01
6038500. -0.4359196E-03  0.1553847E+01  0.3788357E-02  0.2854773E-01  0.4141426E-02 -0.4029338E-02
6016000. -0.5889385E-02  0.1531208E+01  0.3601179E-02  0.7707634E-01  0.4134981E-02  0.7670202E-02
5993500. -0.1122790E-01  0.1488908E+01  0.3247615E-02  0.1224955E+00  0.4087376E-02  0.1926255E-01
5971000. -0.1638394E-01  0.1428081E+01  0.2741498E-02  0.1632191E+00  0.3999173E-02  0.3064469E-01
5971000. -0.1638394E-01  0.1296899E+01  0.2741498E-02  0.1474859E+00  0.3999173E-02  0.3278948E-01
5937667. -0.2280422E-01  0.1153643E+01  0.1860050E-02  0.1869207E+00  0.3786774E-02  0.4822040E-01
5904333. -0.2842375E-01  0.9919339E+00  0.8128388E-03  0.2107378E+00  0.3496661E-02  0.6246310E-01
5871000. -0.3316415E-01  0.8187903E+00 -0.3177754E-03  0.2188997E+00  0.3135508E-02  0.7535687E-01
5837667. -0.3698317E-01  0.6407703E+00 -0.1452073E-02  0.2123802E+00  0.2710689E-02  0.8678345E-01
5804333. -0.3987114E-01  0.4637783E+00 -0.2517561E-02  0.1929265E+00  0.2230097E-02  0.9666086E-01
5771000. -0.4184701E-01  0.2929206E+00 -0.3452290E-02  0.1628212E+00  0.1702006E-02  0.1049403E+00
5771000. -0.4184701E-01  0.2929215E+00 -0.3452290E-02  0.1628173E+00  0.1702006E-02  0.1049403E+00
5701000. -0.4329430E-01 -0.2516690E-01 -0.4816394E-02  0.7959660E-01  0.4876665E-03  0.1149125E+00
5701000. -0.4329430E-01 -0.2668148E-01 -0.4816394E-02  0.7191326E-01  0.4876665E-03  0.1271157E+00
5667333. -0.4281917E-01 -0.1510474E+00 -0.5084231E-02  0.2924417E-01 -0.1925377E-03  0.1300515E+00
5633667. -0.4172112E-01 -0.2622193E+00 -0.5125044E-02 -0.1367442E-01 -0.8839654E-03  0.1313762E+00
5600000. -0.4007286E-01 -0.3591416E+00 -0.4942591E-02 -0.5496445E-01 -0.1578238E-02  0.1311278E+00
5600000. -0.4007286E-01 -0.3591463E+00 -0.4942591E-02 -0.5496902E-01 -0.1578238E-02  0.1311278E+00
5563518. -0.3774220E-01 -0.4521078E+00 -0.4498948E-02 -0.9954660E-01 -0.2324184E-02  0.1291008E+00
5527037. -0.3492773E-01 -0.5280603E+00 -0.3809533E-02 -0.1404740E+00 -0.3053292E-02  0.1252643E+00
5490556. -0.3172773E-01 -0.5867808E+00 -0.2900876E-02 -0.1758237E+00 -0.3755421E-02  0.1196916E+00
5454074. -0.2823987E-01 -0.6286961E+00 -0.1809727E-02 -0.2039588E+00 -0.4420904E-02  0.1124748E+00
5417593. -0.2455793E-01 -0.6548108E+00 -0.5813157E-03 -0.2235961E+00 -0.5040600E-02  0.1037261E+00
5381111. -0.2076809E-01 -0.6666309E+00  0.7330657E-03 -0.2338635E+00 -0.5606127E-02  0.9357197E-01
5344630. -0.1694714E-01 -0.6660575E+00  0.2078216E-02 -0.2343193E+00 -0.6109810E-02  0.8215467E-01
5308148. -0.1315970E-01 -0.6552740E+00  0.3397825E-02 -0.2249660E+00 -0.6544872E-02  0.6962733E-01
5271667. -0.9457760E-02 -0.6366215E+00  0.4636678E-02 -0.2062317E+00 -0.6905403E-02  0.5615474E-01
5235185. -0.5879364E-02 -0.6124836E+00  0.5743314E-02 -0.1789439E+00 -0.7186498E-02  0.4190832E-01
5198704. -0.2449433E-02 -0.5851730E+00  0.6671924E-02 -0.1442848E+00 -0.7384219E-02  0.2706707E-01
5162222.  0.8202657E-03 -0.5568205E+00  0.7384434E-02 -0.1037248E+00 -0.7495689E-02  0.1181228E-01
5125741.  0.3929046E-02 -0.5292805E+00  0.7851788E-02 -0.5896046E-01 -0.7519062E-02 -0.3671187E-02
5089259.  0.6886233E-02 -0.5040623E+00  0.8055141E-02 -0.1182797E-01 -0.7453556E-02 -0.1920030E-01
5052778.  0.9708310E-02 -0.4822651E+00  0.7986368E-02  0.3576777E-01 -0.7299437E-02 -0.3459253E-01
5016296.  0.1241712E-01 -0.4645467E+00  0.7648226E-02  0.8194423E-01 -0.7057988E-02 -0.4967105E-01
4979815.  0.1503667E-01 -0.4511080E+00  0.7054059E-02  0.1249083E+00 -0.6731516E-02 -0.6426331E-01
4943333.  0.1759109E-01 -0.4416984E+00  0.6226970E-02  0.1630373E+00 -0.6323259E-02 -0.7820629E-01
4906852.  0.2010159E-01 -0.4356469E+00  0.5198817E-02  0.1949326E+00 -0.5837408E-02 -0.9134428E-01
4870370.  0.2258470E-01 -0.4319076E+00  0.4008577E-02  0.2194782E+00 -0.5278960E-02 -0.1035343E+00
4833889.  0.2504978E-01 -0.4291256E+00  0.2700862E-02  0.2358694E+00 -0.4653759E-02 -0.1146443E+00
4797407.  0.2749799E-01 -0.4257126E+00  0.1323773E-02  0.2436485E+00 -0.3968299E-02 -0.1245561E+00
4760926.  0.2992067E-01 -0.4199346E+00 -0.7281726E-04  0.2427048E+00 -0.3229785E-02 -0.1331658E+00
4724444.  0.3229928E-01 -0.4100035E+00 -0.1439546E-02  0.2332726E+00 -0.2445890E-02 -0.1403853E+00
4687963.  0.3460488E-01 -0.3941754E+00 -0.2729198E-02  0.2159168E+00 -0.1624835E-02 -0.1461417E+00
4651482.  0.3679908E-01 -0.3708415E+00 -0.3898771E-02  0.1914976E+00 -0.7751449E-03 -0.1503793E+00
4615000.  0.3883486E-01 -0.3386153E+00 -0.4910930E-02  0.1611303E+00  0.9438762E-04 -0.1530586E+00
4578518.  0.4065798E-01 -0.2964126E+00 -0.5735279E-02  0.1261365E+00  0.9747436E-03 -0.1541572E+00
4542037.  0.4220902E-01 -0.2435168E+00 -0.6349466E-02  0.8798730E-01  0.1856821E-02 -0.1536686E+00
4505556.  0.4342574E-01 -0.1796273E+00 -0.6739875E-02  0.4823918E-01  0.2731577E-02 -0.1516033E+00
4469074.  0.4424540E-01 -0.1048915E+00 -0.6901882E-02  0.8472451E-02  0.3590075E-02 -0.1479870E+00
4432593.  0.4460742E-01 -0.1993145E-01 -0.6839831E-02 -0.2976638E-01  0.4423496E-02 -0.1428611E+00
4396111.  0.4445613E-01  0.7417767E-01 -0.6566668E-02 -0.6503173E-01  0.5223394E-02 -0.1362804E+00
4359630.  0.4374331E-01  0.1759126E+00 -0.6103237E-02 -0.9602392E-01  0.5981582E-02 -0.1283127E+00
4323148.  0.4243056E-01  0.2833579E+00 -0.5477235E-02 -0.1216433E+00  0.6690382E-02 -0.1190382E+00
4286667.  0.4049161E-01  0.3942412E+00 -0.4722065E-02 -0.1410219E+00  0.7342529E-02 -0.1085472E+00
4250185.  0.3791381E-01  0.5060302E+00 -0.3875282E-02 -0.1535558E+00  0.7931371E-02 -0.9693918E-01
4213704.  0.3469988E-01  0.6159883E+00 -0.2977193E-02 -0.1589198E+00  0.8450786E-02 -0.8432190E-01
4177222.  0.3086818E-01  0.7212877E+00 -0.2069053E-02 -0.1570745E+00  0.8895342E-02 -0.7080793E-01
4140741.  0.2645378E-01  0.8190839E+00 -0.1191631E-02 -0.1482631E+00  0.9260220E-02 -0.5651608E-01
4104259.  0.2150732E-01  0.9066343E+00 -0.3834338E-03 -0.1329938E+00  0.9541327E-02 -0.4156615E-01
4067778.  0.1609519E-01  0.9813724E+00  0.3205586E-03 -0.1120181E+00  0.9735232E-02 -0.2608148E-01
4031296.  0.1029715E-01  0.1041018E+01  0.8903649E-03 -0.8629549E-01  0.9839231E-02 -0.1018308E-01
3994815.  0.4205641E-02  0.1083642E+01  0.1301939E-02 -0.5695669E-01  0.9851296E-02  0.6007742E-02
3958333. -0.2077697E-02  0.1107750E+01  0.1538134E-02 -0.2525416E-01  0.9770091E-02  0.2237462E-01
3921852. -0.8443363E-02  0.1112334E+01  0.1589190E-02  0.7480732E-02  0.9594938E-02  0.3880393E-01
3885370. -0.1477827E-01  0.1096911E+01  0.1453075E-02  0.3989404E-01  0.9325776E-02  0.5518960E-01
3848889. -0.2096746E-01  0.1061556E+01  0.1135476E-02  0.7065275E-01  0.8963165E-02  0.7143065E-01
3812407. -0.2689865E-01  0.1006892E+01  0.6494970E-03  0.9849937E-01  0.8508176E-02  0.8743597E-01
3775926. -0.3246409E-01  0.9341046E+00  0.1518231E-04  0.1222891E+00  0.7962429E-02  0.1031216E+00
3739444. -0.3756490E-01  0.8448842E+00 -0.7413653E-03  0.1410354E+00  0.7327938E-02  0.1184149E+00
3702963. -0.4211273E-01  0.7414023E+00 -0.1588835E-02  0.1539371E+00  0.6607171E-02  0.1332525E+00
3666482. -0.4603324E-01  0.6262384E+00 -0.2491994E-02  0.1604072E+00  0.5802873E-02  0.1475827E+00
3630000. -0.4926784E-01  0.5023035E+00 -0.3412902E-02  0.1600876E+00  0.4918043E-02  0.1613667E+00
3630000. -0.4926784E-01  0.5023023E+00 -0.3412902E-02  0.1600868E+00  0.4918043E-02  0.1613667E+00
3592500. -0.5184191E-01  0.3714583E+00 -0.4337617E-02  0.1528826E+00  0.3927934E-02  0.1749655E+00
3555000. -0.5363390E-01  0.2371670E+00 -0.5198178E-02  0.1383115E+00  0.2859468E-02  0.1879857E+00
3517500. -0.5463437E-01  0.1031333E+00 -0.5951898E-02  0.1166467E+00  0.1716140E-02  0.2003991E+00
3480000. -0.5485586E-01 -0.2689757E-01 -0.6558464E-02  0.8842032E-01  0.5015742E-03  0.2121898E+00
3480000. -0.5485586E-01  0.3400252E+00 -0.4526210E-03 -0.9959251E-01  0.5015742E-03  0.3847438E+00
3409422. -0.5599079E-01 -0.1322822E+00  0.6943918E-03 -0.1059344E+00 -0.3874624E-02  0.3990240E+00
3338844. -0.5206126E-01 -0.5679799E+00  0.1859760E-02 -0.1029045E+00 -0.8201525E-02  0.3761268E+00
3268266. -0.4366598E-01 -0.9337757E+00  0.2940996E-02 -0.9086621E-01 -0.1208237E-01  0.3192675E+00
3197688. -0.3171800E-01 -0.1206357E+01  0.3843498E-02 -0.7085823E-01 -0.1517106E-01  0.2342611E+00
3127109. -0.1733101E-01 -0.1372760E+01  0.4487263E-02 -0.4445024E-01 -0.1719690E-01  0.1287670E+00
3056531. -0.1707545E-02 -0.1429874E+01  0.4811851E-02 -0.1358131E-01 -0.1798051E-01  0.1148919E-01
2985953.  0.1396544E-01 -0.1383269E+01  0.4779585E-02  0.1961135E-01 -0.1744106E-01 -0.1086196E+00
2915375.  0.2860307E-01 -0.1245544E+01  0.4376800E-02  0.5295466E-01 -0.1559500E-01 -0.2230587E+00
2844797.  0.4129039E-01 -0.1034444E+01  0.3613398E-02  0.8438950E-01 -0.1254764E-01 -0.3243661E+00
2774219.  0.5132832E-01 -0.7708734E+00  0.2520882E-02  0.1120937E+00 -0.8479145E-02 -0.4065566E+00
2703641.  0.5825807E-01 -0.4770085E+00  0.1149175E-02  0.1345772E+00 -0.3626415E-02 -0.4653996E+00
2633062.  0.6186561E-01 -0.1745864E+00 -0.4374732E-03  0.1507483E+00  0.1737186E-02 -0.4985382E+00
2562484.  0.6216847E-01  0.1165086E+00 -0.2165023E-02  0.1599456E+00  0.7322278E-02 -0.5054644E+00
2491906.  0.5938898E-01  0.3793662E+00 -0.3954595E-02  0.1619437E+00  0.1284369E-01 -0.4873702E+00
2421328.  0.5391676E-01  0.6007826E+00 -0.5727117E-02  0.1569311E+00  0.1803768E-01 -0.4468953E+00
2350750.  0.4626510E-01  0.7716785E+00 -0.7407687E-02  0.1454628E+00  0.2267630E-01 -0.3878106E+00
2280172.  0.3702457E-01  0.8871607E+00 -0.8929313E-02  0.1284019E+00  0.2657803E-01 -0.3146611E+00
2209594.  0.2681752E-01  0.9463342E+00 -0.1023594E-01  0.1068445E+00  0.2961427E-01 -0.2323964E+00
2139016.  0.1625604E-01  0.9518619E+00 -0.1128456E-01  0.8204036E-01  0.3171186E-01 -0.1460194E+00
2068438.  0.5905573E-02  0.9093860E+00 -0.1204651E-01  0.5530933E-01  0.3285186E-01 -0.6026865E-01
1997859. -0.3744056E-02  0.8267711E+00 -0.1250774E-01  0.2796259E-01  0.3306513E-01  0.2064460E-01
1927281. -0.1229890E-01  0.7134072E+00 -0.1266837E-01  0.1237066E-02  0.3242531E-01  0.9323213E-01
1856703. -0.1947404E-01  0.5793890E+00 -0.1254150E-01 -0.2377462E-01  0.3104004E-01  0.1548655E+00
1786125. -0.2509717E-01  0.4348732E+00 -0.1215131E-01 -0.4616906E-01  0.2904100E-01  0.2038314E+00
1715547. -0.2910585E-01  0.2894438E+00 -0.1153078E-01 -0.6526615E-01  0.2657378E-01  0.2393286E+00
1644969. -0.3153845E-01  0.1516503E+00 -0.1071906E-01 -0.8063884E-01  0.2378809E-01  0.2614035E+00
1574391. -0.3252085E-01  0.2870888E-01 -0.9758539E-02 -0.9212364E-01  0.2082886E-01  0.2708413E+00
1503812. -0.3225081E-01 -0.7361858E-01 -0.8691944E-02 -0.9982844E-01  0.1782891E-01  0.2690193E+00
1433234. -0.3098234E-01 -0.1509050E+00 -0.7559270E-02 -0.1041457E+00  0.1490338E-01  0.2577386E+00
1362656. -0.2901276E-01 -0.1996512E+00 -0.6394444E-02 -0.1057795E+00  0.1214584E-01  0.2390405E+00
1292078. -0.2667679E-01 -0.2164146E+00 -0.5221558E-02 -0.1058225E+00  0.9626850E-02  0.2150141E+00
1221500. -0.2435402E-01 -0.1961622E+00 -0.4049713E-02 -0.1059303E+00  0.7394482E-02  0.1875905E+00
1221500. -0.2435402E-01  0.8402431E+00  0.1509585E-02  0.1348973E+00  0.7394482E-02  0.1981408E+00
1183328. -0.2879074E-01  0.6157594E+00  0.3970132E-03  0.2310974E+00  0.6276699E-02  0.1752529E+00
1145156. -0.3145850E-01  0.2545741E+00 -0.1184020E-02  0.2896167E+00  0.5291144E-02  0.1540035E+00
1106984. -0.3164228E-01 -0.2058226E+00 -0.2984229E-02  0.3036691E+00  0.4427989E-02  0.1343956E+00
1068812. -0.2889560E-01 -0.7142987E+00 -0.4733176E-02  0.2730083E+00  0.3677399E-02  0.1164276E+00
1030641. -0.2310290E-01 -0.1212777E+01 -0.6177933E-02  0.2036021E+00  0.3029597E-02  0.1000874E+00
 992469. -0.1449808E-01 -0.1643802E+01 -0.7117179E-02  0.1064058E+00  0.2474866E-02  0.8534870E-01
 954297. -0.3639746E-02 -0.1957736E+01 -0.7425550E-02 -0.4490379E-02  0.2003742E-02  0.7217108E-01
 916125.  0.8655393E-02 -0.2118871E+01 -0.7066093E-02 -0.1140508E+00  0.1607036E-02  0.6049662E-01
 877953.  0.2140918E-01 -0.2109507E+01 -0.6089314E-02 -0.2084575E+00  0.1275955E-02  0.5025113E-01
 839781.  0.3359598E-01 -0.1931557E+01 -0.4620195E-02 -0.2769283E+00  0.1002199E-02  0.4134575E-01
 801609.  0.4425874E-01 -0.1605631E+01 -0.2835963E-02 -0.3129551E+00  0.7780321E-03  0.3368022E-01
 763438.  0.5261200E-01 -0.1167756E+01 -0.9385903E-03 -0.3148267E+00  0.5963536E-03  0.2714591E-01
 725266.  0.5812063E-01 -0.6642977E+00  0.8738583E-03 -0.2854162E+00  0.4507136E-03  0.2162998E-01
 687094.  0.6054274E-01 -0.1459317E+00  0.2432150E-02 -0.2313398E+00  0.3353497E-03  0.1702090E-01
 648922.  0.5993735E-01  0.3386517E+00  0.3614780E-02 -0.1616534E+00  0.2451617E-03  0.1320823E-01
 610750.  0.5663503E-01  0.7483367E+00  0.4358039E-02 -0.8633621E-01  0.1756888E-03  0.1008959E-01
 572578.  0.5117901E-01  0.1053823E+01  0.4657021E-02 -0.1480334E-01  0.1230622E-03  0.7569562E-02
 534406.  0.4424614E-01  0.1240043E+01  0.4558353E-02  0.4533375E-01  0.8396085E-04  0.5561017E-02
 496234.  0.3655940E-01  0.1306556E+01  0.4146674E-02  0.8909535E-01  0.5555844E-04  0.3985957E-02
 458062.  0.2880400E-01  0.1266022E+01  0.3527617E-02  0.1144681E+00  0.3546956E-04  0.2774947E-02
 419891.  0.2155762E-01  0.1141114E+01  0.2810290E-02  0.1222471E+00  0.2170395E-04  0.1865574E-02
 381719.  0.1524168E-01  0.9603937E+00  0.2091888E-02  0.1154723E+00  0.1262257E-04  0.1202503E-02
 343547.  0.1010045E-01  0.7538863E+00  0.1446796E-02  0.9858442E-01  0.6901450E-05  0.7361445E-03
 305375.  0.6204301E-02  0.5489204E+00  0.9208928E-03  0.7649577E-01  0.3495950E-05  0.4227131E-03
 267203.  0.3476395E-02  0.3668639E+00  0.5314635E-03  0.5370619E-01  0.1607580E-05  0.2237828E-03
 229031.  0.1734945E-02  0.2211701E+00  0.2717685E-03  0.3364897E-01  0.6515187E-06  0.1065240E-03
 190859.  0.7429126E-03  0.1168727E+00  0.1186937E-03  0.1832342E-01  0.2223433E-06  0.4388802E-04
 152688.  0.2563110E-03  0.5152205E-01  0.4159501E-04  0.8266169E-02  0.5920664E-07  0.1468431E-04
 114516.  0.6329352E-04  0.1724703E-01  0.1039377E-04  0.2814822E-02  0.1066662E-07  0.3541941E-05
  76344.  0.8574061E-05  0.3545268E-02  0.1419712E-05  0.5854738E-03  0.9444940E-09  0.4718426E-06
  38172.  0.2725101E-06  0.2268974E-03  0.4534432E-07  0.3772986E-04  0.1482997E-10  0.1483807E-07
      0.  0.0000000E+00  0.0000000E+00  0.0000000E+00  0.0000000E+00  0.0000000E+00  0.0000000E+00
