       6        6 S      367        294.09290         20.94062          5.52292        255.81630      185    7
6371000. -0.6796251E-02 -0.4020246E+00 -0.2465730E-01 -0.1786105E-01  0.1563972E-02  0.1868334E-02
6370000. -0.6733107E-02 -0.4025384E+00 -0.2465397E-01 -0.2452277E-01  0.1563665E-02  0.2042095E-02
6369000. -0.6669886E-02 -0.4030164E+00 -0.2464960E-01 -0.3118561E-01  0.1563331E-02  0.2215800E-02
6368000. -0.6606593E-02 -0.4034586E+00 -0.2464418E-01 -0.3784926E-01  0.1562970E-02  0.2389446E-02
6368000. -0.6606593E-02 -0.4034586E+00 -0.2464418E-01 -0.3784926E-01  0.1562970E-02  0.2389446E-02
6367000. -0.6543234E-02 -0.4038650E+00 -0.2463772E-01 -0.4451344E-01  0.1562581E-02  0.2563032E-02
6366000. -0.6479813E-02 -0.4042355E+00 -0.2463021E-01 -0.5117786E-01  0.1562165E-02  0.2736554E-02
6365000. -0.6416337E-02 -0.4045701E+00 -0.2462165E-01 -0.5784224E-01  0.1561722E-02  0.2910012E-02
6364000. -0.6352811E-02 -0.4048688E+00 -0.2461205E-01 -0.6450628E-01  0.1561251E-02  0.3083403E-02
6363000. -0.6289241E-02 -0.4051316E+00 -0.2460140E-01 -0.7116970E-01  0.1560754E-02  0.3256725E-02
6362000. -0.6225633E-02 -0.4053585E+00 -0.2458971E-01 -0.7783221E-01  0.1560229E-02  0.3429975E-02
6361000. -0.6161992E-02 -0.4055494E+00 -0.2457697E-01 -0.8449351E-01  0.1559677E-02  0.3603151E-02
6360000. -0.6098324E-02 -0.4057043E+00 -0.2456318E-01 -0.9115333E-01  0.1559098E-02  0.3776251E-02
6359000. -0.6034635E-02 -0.4058233E+00 -0.2454835E-01 -0.9781138E-01  0.1558492E-02  0.3949274E-02
6358000. -0.5970929E-02 -0.4059063E+00 -0.2453248E-01 -0.1044673E+00  0.1557858E-02  0.4122215E-02
6357000. -0.5907213E-02 -0.4059533E+00 -0.2451556E-01 -0.1111210E+00  0.1557198E-02  0.4295075E-02
6356000. -0.5843493E-02 -0.4059642E+00 -0.2449759E-01 -0.1177719E+00  0.1556510E-02  0.4467849E-02
6356000. -0.5843493E-02 -0.3542780E+00 -0.2449759E-01 -0.7849865E-01  0.1556510E-02  0.5739326E-02
6355000. -0.5787876E-02 -0.3543828E+00 -0.2448493E-01 -0.8285695E-01  0.1555593E-02  0.5950453E-02
6354000. -0.5732245E-02 -0.3544649E+00 -0.2447158E-01 -0.8721428E-01  0.1554642E-02  0.6161529E-02
6353000. -0.5676603E-02 -0.3545243E+00 -0.2445755E-01 -0.9157048E-01  0.1553658E-02  0.6372551E-02
6352000. -0.5620954E-02 -0.3545610E+00 -0.2444284E-01 -0.9592546E-01  0.1552642E-02  0.6583516E-02
6351000. -0.5565300E-02 -0.3545749E+00 -0.2442744E-01 -0.1002791E+00  0.1551592E-02  0.6794425E-02
6350000. -0.5509646E-02 -0.3545661E+00 -0.2441136E-01 -0.1046312E+00  0.1550509E-02  0.7005273E-02
6349000. -0.5453994E-02 -0.3545345E+00 -0.2439459E-01 -0.1089817E+00  0.1549392E-02  0.7216061E-02
6348000. -0.5398350E-02 -0.3544801E+00 -0.2437715E-01 -0.1133305E+00  0.1548243E-02  0.7426786E-02
6347000. -0.5342716E-02 -0.3544030E+00 -0.2435902E-01 -0.1176774E+00  0.1547061E-02  0.7637445E-02
6346600. -0.5320467E-02 -0.3543658E+00 -0.2435157E-01 -0.1194156E+00  0.1546579E-02  0.7721691E-02
6346600. -0.5320467E-02 -0.4092109E+00 -0.2435157E-01 -0.8682861E-01  0.1546579E-02  0.9576860E-02
6318800. -0.3540375E-02 -0.4043154E+00 -0.2377355E-01 -0.1778021E+00  0.1491131E-02  0.1582707E-01
6291000. -0.1812852E-02 -0.3850927E+00 -0.2280365E-01 -0.2661862E+00  0.1408562E-02  0.2200391E-01
6291000. -0.1812852E-02 -0.3995239E+00 -0.2280365E-01 -0.2762423E+00  0.1408562E-02  0.2200391E-01
6263000. -0.1302212E-03 -0.3636723E+00 -0.2139289E-01 -0.3648686E+00  0.1298700E-02  0.2797318E-01
6235000.  0.1361784E-02 -0.3128618E+00 -0.1960548E-01 -0.4473835E+00  0.1162854E-02  0.3382527E-01
6207000.  0.2598861E-02 -0.2478042E+00 -0.1747160E-01 -0.5223009E+00  0.1001577E-02  0.3954384E-01
6179000.  0.3520566E-02 -0.1695431E+00 -0.1502766E-01 -0.5882726E+00  0.8154874E-03  0.4511460E-01
6151000.  0.4071763E-02 -0.7944918E-01 -0.1231565E-01 -0.6441039E+00  0.6052630E-03  0.5052476E-01
6151000.  0.4071763E-02 -0.1069320E+00 -0.1231565E-01 -0.5663243E+00  0.6052630E-03  0.5029948E-01
6128500.  0.4339723E-02 -0.4418639E-01 -0.1026493E-01 -0.5939936E+00  0.4205010E-03  0.5430960E-01
6106000.  0.4379651E-02  0.2207501E-01 -0.8127475E-02 -0.6154211E+00  0.2218336E-03  0.5817261E-01
6083500.  0.4180585E-02  0.9102495E-01 -0.5925507E-02 -0.6305184E+00  0.9797620E-05  0.6187874E-01
6061000.  0.3734520E-02  0.1618168E+00 -0.3681449E-02 -0.6392586E+00 -0.2150361E-03  0.6541863E-01
6038500.  0.3036463E-02  0.2335937E+00 -0.1417696E-02 -0.6416846E+00 -0.4520649E-03  0.6878360E-01
6016000.  0.2084455E-02  0.3054953E+00  0.8436223E-03 -0.6379016E+00 -0.7006567E-03  0.7196558E-01
5993500.  0.8795662E-03  0.3766670E+00  0.3080840E-02 -0.6280681E+00 -0.9601519E-03  0.7495711E-01
5971000. -0.5741422E-03  0.4462728E+00  0.5272964E-02 -0.6124055E+00 -0.1229866E-02  0.7775147E-01
5971000. -0.5741422E-03  0.4113190E+00  0.5272964E-02 -0.5442515E+00 -0.1229866E-02  0.7782663E-01
5937667. -0.2927542E-02  0.4866828E+00  0.7998119E-02 -0.4964172E+00 -0.1646153E-02  0.8121869E-01
5904333. -0.5649307E-02  0.5519390E+00  0.1045807E-01 -0.4431512E+00 -0.2078837E-02  0.8408742E-01
5871000. -0.8684196E-02  0.6063039E+00  0.1262889E-01 -0.3861919E+00 -0.2525131E-02  0.8642609E-01
5837667. -0.1197397E-01  0.6493174E+00  0.1449546E-01 -0.3270959E+00 -0.2982272E-02  0.8823426E-01
5804333. -0.1545876E-01  0.6808010E+00  0.1605034E-01 -0.2672378E+00 -0.3447509E-02  0.8951687E-01
5771000. -0.1907808E-01  0.7008133E+00  0.1729264E-01 -0.2078090E+00 -0.3918090E-02  0.9028435E-01
5771000. -0.1907808E-01  0.7008618E+00  0.1729264E-01 -0.2078009E+00 -0.3918090E-02  0.9028435E-01
5701000. -0.2699737E-01  0.7324546E+00  0.1898128E-01 -0.9863109E-01 -0.4907397E-02  0.8951413E-01
5701000. -0.2699737E-01  0.6484318E+00  0.1898128E-01 -0.6696056E-01 -0.4907397E-02  0.9712371E-01
5667333. -0.3038450E-01  0.6317886E+00  0.1921199E-01 -0.2082808E-01 -0.5414454E-02  0.9469451E-01
5633667. -0.3365903E-01  0.6059790E+00  0.1920670E-01  0.2230041E-01 -0.5907279E-02  0.9174637E-01
5600000. -0.3677475E-01  0.5717788E+00  0.1898214E-01  0.6211704E-01 -0.6383214E-02  0.8829962E-01
5600000. -0.3677475E-01  0.5718082E+00  0.1898214E-01  0.6211697E-01 -0.6383214E-02  0.8829962E-01
5563518. -0.3995778E-01  0.5383679E+00  0.1851023E-01  0.1023652E+00 -0.6877092E-02  0.8414449E-01
5527037. -0.4292227E-01  0.4955648E+00  0.1781418E-01  0.1403333E+00 -0.7346293E-02  0.7968888E-01
5490556. -0.4561587E-01  0.4438324E+00  0.1690829E-01  0.1755863E+00 -0.7789177E-02  0.7495656E-01
5454074. -0.4798902E-01  0.3837116E+00  0.1580921E-01  0.2077398E+00 -0.8204239E-02  0.6997145E-01
5417593. -0.4999536E-01  0.3158528E+00  0.1453574E-01  0.2364584E+00 -0.8590083E-02  0.6475954E-01
5381111. -0.5159279E-01  0.2410015E+00  0.1310829E-01  0.2614669E+00 -0.8945502E-02  0.5934593E-01
5344630. -0.5274353E-01  0.1599903E+00  0.1154884E-01  0.2825418E+00 -0.9269399E-02  0.5375662E-01
5308148. -0.5341492E-01  0.7372061E-01  0.9880336E-02  0.2995210E+00 -0.9560855E-02  0.4801687E-01
5271667. -0.5357955E-01 -0.1683766E-01  0.8126657E-02  0.3122928E+00 -0.9819069E-02  0.4215285E-01
5235185. -0.5321577E-01 -0.1106720E+00  0.6311980E-02  0.3208043E+00 -0.1004341E-01  0.3618922E-01
5198704. -0.5230784E-01 -0.2067233E+00  0.4460827E-02  0.3250551E+00 -0.1023338E-01  0.3015116E-01
5162222. -0.5084608E-01 -0.3039187E+00  0.2597368E-02  0.3250969E+00 -0.1038862E-01  0.2406157E-01
5125741. -0.4882717E-01 -0.4011585E+00  0.7455451E-03  0.3210295E+00 -0.1050889E-01  0.1794427E-01
5089259. -0.4625385E-01 -0.4973578E+00 -0.1071610E-02  0.3129988E+00 -0.1059411E-01  0.1182015E-01
5052778. -0.4313535E-01 -0.5914293E+00 -0.2831826E-02  0.3011941E+00 -0.1064429E-01  0.5710278E-02
5016296. -0.3948669E-01 -0.6823214E+00 -0.4514218E-02  0.2858414E+00 -0.1065957E-01 -0.3667535E-03
4979815. -0.3532925E-01 -0.7690060E+00 -0.6099115E-02  0.2672036E+00 -0.1064018E-01 -0.6393134E-02
4943333. -0.3068971E-01 -0.8505080E+00 -0.7568612E-02  0.2455716E+00 -0.1058648E-01 -0.1235291E-01
4906852. -0.2560067E-01 -0.9259005E+00 -0.8906388E-02  0.2212659E+00 -0.1049887E-01 -0.1823216E-01
4870370. -0.2009934E-01 -0.9943272E+00 -0.1009817E-01  0.1946252E+00 -0.1037785E-01 -0.2401863E-01
4833889. -0.1422819E-01 -0.1054994E+01 -0.1113153E-01  0.1660066E+00 -0.1022400E-01 -0.2970161E-01
4797407. -0.8033413E-02 -0.1107199E+01 -0.1199626E-01  0.1357795E+00 -0.1003791E-01 -0.3527343E-01
4760926. -0.1565615E-02 -0.1150316E+01 -0.1268419E-01  0.1043226E+00 -0.9820258E-02 -0.4072744E-01
4724444.  0.5121946E-02 -0.1183813E+01 -0.1318938E-01  0.7201423E-01 -0.9571716E-02 -0.4606000E-01
4687963.  0.1197252E-01 -0.1207252E+01 -0.1350803E-01  0.3923637E-01 -0.9293000E-02 -0.5126896E-01
4651482.  0.1892769E-01 -0.1220298E+01 -0.1363854E-01  0.6362698E-02 -0.8984809E-02 -0.5635500E-01
4615000.  0.2592740E-01 -0.1222714E+01 -0.1358141E-01 -0.2624202E-01 -0.8647831E-02 -0.6132101E-01
4578518.  0.3291017E-01 -0.1214364E+01 -0.1333919E-01 -0.5822404E-01 -0.8282749E-02 -0.6617212E-01
4542037.  0.3981401E-01 -0.1195217E+01 -0.1291644E-01 -0.8924570E-01 -0.7890210E-02 -0.7091545E-01
4505556.  0.4657744E-01 -0.1165343E+01 -0.1231957E-01 -0.1189904E+00 -0.7470797E-02 -0.7556116E-01
4469074.  0.5313967E-01 -0.1124911E+01 -0.1155672E-01 -0.1471637E+00 -0.7025020E-02 -0.8012162E-01
4432593.  0.5944058E-01 -0.1074189E+01 -0.1063772E-01 -0.1734932E+00 -0.6553350E-02 -0.8461174E-01
4396111.  0.6542260E-01 -0.1013535E+01 -0.9573795E-02 -0.1977364E+00 -0.6056115E-02 -0.8904944E-01
4359630.  0.7102977E-01 -0.9434029E+00 -0.8377575E-02 -0.2196766E+00 -0.5533590E-02 -0.9345345E-01
4323148.  0.7620960E-01 -0.8643191E+00 -0.7062729E-02 -0.2391290E+00 -0.4985870E-02 -0.9784792E-01
4286667.  0.8091229E-01 -0.7769019E+00 -0.5644031E-02 -0.2559386E+00 -0.4412974E-02 -0.1022567E+00
4250185.  0.8509227E-01 -0.6818261E+00 -0.4136907E-02 -0.2699827E+00 -0.3814706E-02 -0.1067092E+00
4213704.  0.8870757E-01 -0.5798440E+00 -0.2557549E-02 -0.2811697E+00 -0.3190761E-02 -0.1112360E+00
4177222.  0.9172112E-01 -0.4717509E+00 -0.9224174E-03 -0.2894403E+00 -0.2540584E-02 -0.1158712E+00
4140741.  0.9410018E-01 -0.3584041E+00  0.7516042E-03 -0.2947668E+00 -0.1863484E-02 -0.1206521E+00
4104259.  0.9581731E-01 -0.2406876E+00  0.2447744E-02 -0.2971525E+00 -0.1158478E-02 -0.1256188E+00
4067778.  0.9685004E-01 -0.1195286E+00  0.4149147E-02 -0.2966290E+00 -0.4244121E-03 -0.1308162E+00
4031296.  0.9718139E-01  0.4135130E-02  0.5839411E-02 -0.2932581E+00  0.3402076E-03 -0.1362915E+00
3994815.  0.9679976E-01  0.1293392E+00  0.7502376E-02 -0.2871273E+00  0.1137077E-02 -0.1420970E+00
3958333.  0.9569903E-01  0.2551283E+00  0.9122642E-02 -0.2783494E+00  0.1968293E-02 -0.1482895E+00
3921852.  0.9387871E-01  0.3805355E+00  0.1068534E-01 -0.2670602E+00  0.2836194E-02 -0.1549290E+00
3885370.  0.9134356E-01  0.5046197E+00  0.1217661E-01 -0.2534156E+00  0.3743578E-02 -0.1620827E+00
3848889.  0.8810399E-01  0.6264484E+00  0.1358339E-01 -0.2375918E+00  0.4693541E-02 -0.1698221E+00
3812407.  0.8417530E-01  0.7451275E+00  0.1489380E-01 -0.2197785E+00  0.5689713E-02 -0.1782264E+00
3775926.  0.7957828E-01  0.8597841E+00  0.1609697E-01 -0.2001804E+00  0.6736085E-02 -0.1873804E+00
3739444.  0.7433806E-01  0.9696023E+00  0.1718334E-01 -0.1790117E+00  0.7837271E-02 -0.1973777E+00
3702963.  0.6848488E-01  0.1073799E+01  0.1814451E-01 -0.1564961E+00  0.8998329E-02 -0.2083202E+00
3666482.  0.6205289E-01  0.1171655E+01  0.1897343E-01 -0.1328609E+00  0.1022501E-01 -0.2203192E+00
3630000.  0.5508015E-01  0.1262504E+01  0.1966438E-01 -0.1083359E+00  0.1152376E-01 -0.2334993E+00
3630000.  0.5508015E-01  0.1262496E+01  0.1966438E-01 -0.1083354E+00  0.1152376E-01 -0.2334993E+00
3592500.  0.4738297E-01  0.1351603E+01  0.2022644E-01 -0.8249120E-01  0.1294126E-01 -0.2483770E+00
3555000.  0.3918527E-01  0.1432446E+01  0.2063388E-01 -0.5583363E-01  0.1445054E-01 -0.2647156E+00
3517500.  0.3053780E-01  0.1504318E+01  0.2088256E-01 -0.2858375E-01  0.1606071E-01 -0.2826839E+00
3480000.  0.2149528E-01  0.1566578E+01  0.2096964E-01 -0.9623211E-03  0.1778189E-01 -0.3024704E+00
3480000.  0.2149528E-01  0.6651877E+00 -0.9001978E-02  0.5599728E-01  0.1778189E-01 -0.3700857E+00
3409422.  0.1424637E-01  0.6410517E+00 -0.9559380E-02  0.4460282E-01  0.2149851E-01 -0.3012501E+00
3338844.  0.7341319E-02  0.6035972E+00 -0.9989984E-02  0.3314919E-01  0.2446613E-01 -0.2350446E+00
3268266.  0.9114385E-03  0.5557420E+00 -0.1029455E-01  0.2188829E-01  0.2671960E-01 -0.1724707E+00
3197688. -0.4943483E-02  0.5002338E+00 -0.1047647E-01  0.1104084E-01  0.2830381E-01 -0.1143366E+00
3127109. -0.1015285E-01  0.4395797E+00 -0.1054138E-01  0.7890516E-03  0.2927155E-01 -0.6126025E-01
3056531. -0.1467228E-01  0.3760433E+00 -0.1049670E-01 -0.8720134E-02  0.2968142E-01 -0.1367978E-01
2985953. -0.1848120E-01  0.3116126E+00 -0.1035134E-01 -0.1737213E-01  0.2959594E-01  0.2813970E-01
2915375. -0.2157942E-01  0.2479975E+00 -0.1011529E-01 -0.2508233E-01  0.2907966E-01  0.6408811E-01
2844797. -0.2398421E-01  0.1866383E+00 -0.9799294E-02 -0.3179740E-01  0.2819758E-01  0.9419485E-01
2774219. -0.2572726E-01  0.1287043E+00 -0.9414560E-02 -0.3749051E-01  0.2701370E-01  0.1186112E+00
2703641. -0.2685185E-01  0.7511415E-01 -0.8972450E-02 -0.4215632E-01  0.2558972E-01  0.1375916E+00
2633062. -0.2741009E-01  0.2655142E-01 -0.8484269E-02 -0.4581205E-01  0.2398402E-01  0.1514750E+00
2562484. -0.2746044E-01 -0.1651934E-01 -0.7961026E-02 -0.4849480E-01  0.2225094E-01  0.1606666E+00
2491906. -0.2706539E-01 -0.5382838E-01 -0.7413229E-02 -0.5025385E-01  0.2043994E-01  0.1656213E+00
2421328. -0.2628946E-01 -0.8528014E-01 -0.6850782E-02 -0.5115161E-01  0.1859528E-01  0.1668257E+00
2350750. -0.2519738E-01 -0.1109257E+00 -0.6282818E-02 -0.5126309E-01  0.1675573E-01  0.1647839E+00
2280172. -0.2385257E-01 -0.1309464E+00 -0.5717602E-02 -0.5066897E-01  0.1495444E-01  0.1600045E+00
2209594. -0.2231586E-01 -0.1456268E+00 -0.5162483E-02 -0.4945550E-01  0.1321893E-01  0.1529869E+00
2139016. -0.2064443E-01 -0.1553335E+00 -0.4623821E-02 -0.4771236E-01  0.1157134E-01  0.1442123E+00
2068438. -0.1889109E-01 -0.1604910E+00 -0.4106983E-02 -0.4553153E-01  0.1002857E-01  0.1341341E+00
1997859. -0.1710365E-01 -0.1615633E+00 -0.3616292E-02 -0.4300551E-01  0.8602704E-02  0.1231714E+00
1927281. -0.1532479E-01 -0.1590270E+00 -0.3155083E-02 -0.4022549E-01  0.7301423E-02  0.1117041E+00
1856703. -0.1359183E-01 -0.1533523E+00 -0.2725656E-02 -0.3728282E-01  0.6128405E-02  0.1000676E+00
1786125. -0.1193710E-01 -0.1449725E+00 -0.2329307E-02 -0.3426889E-01  0.5083872E-02  0.8855179E-01
1715547. -0.1038845E-01 -0.1342522E+00 -0.1966314E-02 -0.3127680E-01  0.4165102E-02  0.7739934E-01
1644969. -0.8970298E-02 -0.1214419E+00 -0.1635888E-02 -0.2840705E-01  0.3366943E-02  0.6680538E-01
1574391. -0.7705226E-02 -0.1066057E+00 -0.1336051E-02 -0.2577548E-01  0.2682345E-02  0.5691828E-01
1503812. -0.6616622E-02 -0.8950638E-01 -0.1063387E-02 -0.2352900E-01  0.2102862E-02  0.4783960E-01
1433234. -0.5733100E-02 -0.6940126E-01 -0.8125619E-03 -0.2187542E-01  0.1619207E-02  0.3962418E-01
1362656. -0.5095877E-02 -0.4466557E-01 -0.5753579E-03 -0.2113788E-01  0.1221739E-02  0.3227554E-01
1292078. -0.4772152E-02 -0.1207181E-01 -0.3388854E-03 -0.2186148E-01  0.9011119E-03  0.2573589E-01
1221500. -0.4879884E-02  0.3464902E-01 -0.8208789E-04 -0.2502433E-01  0.6490648E-03  0.1986043E-01
1221500. -0.4879884E-02  0.6719852E-01  0.1403389E-03  0.2618407E-01  0.6490648E-03  0.2197442E-01
1183328. -0.5207017E-02  0.4222083E-01 -0.5808462E-05  0.2255862E-01  0.5282589E-03  0.1843675E-01
1145156. -0.5389056E-02  0.1885695E-01 -0.1296200E-03  0.1875139E-01  0.4271685E-03  0.1538382E-01
1106984. -0.5437209E-02 -0.2395228E-02 -0.2304175E-03  0.1489876E-01  0.3430544E-03  0.1276136E-01
1068812. -0.5365372E-02 -0.2113886E-01 -0.3083193E-03  0.1112915E-01  0.2734877E-03  0.1051996E-01
1030641. -0.5189495E-02 -0.3708677E-01 -0.3641738E-03  0.7557622E-02  0.2163242E-03  0.8614416E-02
 992469. -0.4926894E-02 -0.5006675E-01 -0.3994716E-03  0.4281360E-02  0.1696741E-03  0.7003562E-02
 954297. -0.4595594E-02 -0.6001778E-01 -0.4162215E-03  0.1377237E-02  0.1318861E-03  0.5650278E-02
 916125. -0.4213654E-02 -0.6698629E-01 -0.4168279E-03 -0.1100247E-02  0.1015199E-03  0.4520798E-02
 877953. -0.3798561E-02 -0.7111569E-01 -0.4039520E-03 -0.3119839E-02  0.7732684E-04  0.3584864E-02
 839781. -0.3366685E-02 -0.7263298E-01 -0.3803769E-03 -0.4671882E-02  0.5823031E-04  0.2815276E-02
 801609. -0.2932819E-02 -0.7183352E-01 -0.3488795E-03 -0.5767780E-02  0.4330787E-04  0.2187714E-02
 763438. -0.2509842E-02 -0.6906290E-01 -0.3121161E-03 -0.6436144E-02  0.3177475E-04  0.1680624E-02
 725266. -0.2108422E-02 -0.6469914E-01 -0.2725216E-03 -0.6720811E-02  0.2296695E-04  0.1274901E-02
 687094. -0.1736943E-02 -0.5913384E-01 -0.2322378E-03 -0.6676014E-02  0.1632884E-04  0.9537626E-03
 648922. -0.1401435E-02 -0.5275543E-01 -0.1930570E-03 -0.6363288E-02  0.1139833E-04  0.7026261E-03
 610750. -0.1105653E-02 -0.4593269E-01 -0.1563913E-03 -0.5847333E-02  0.7794949E-05  0.5087961E-03
 572578. -0.8512322E-03 -0.3900114E-01 -0.1232648E-03 -0.5192346E-02  0.5208836E-05  0.3613833E-03
 534406. -0.6379292E-03 -0.3225200E-01 -0.9432698E-04 -0.4458792E-02  0.3390409E-05  0.2511179E-03
 496234. -0.4639073E-03 -0.2592415E-01 -0.6988280E-04 -0.3700719E-02  0.2141226E-05  0.1701736E-03
 458062. -0.3260688E-03 -0.2019932E-01 -0.4993799E-04 -0.2963699E-02  0.1305796E-05  0.1120158E-03
 419891. -0.2204054E-03 -0.1520051E-01 -0.3425463E-04 -0.2283465E-02  0.7642637E-06  0.7126339E-04
 381719. -0.1423385E-03 -0.1099295E-01 -0.2241079E-04 -0.1685253E-02  0.4259203E-06  0.4353168E-04
 343547. -0.8706703E-04 -0.7589315E-02 -0.1386586E-04 -0.1183928E-02  0.2236737E-06  0.2531451E-04
 305375. -0.4985428E-04 -0.4955846E-02 -0.8019058E-05 -0.7847385E-03  0.1091339E-06  0.1385040E-04
 267203. -0.2628323E-04 -0.3021172E-02 -0.4264181E-05 -0.4844941E-03  0.4849962E-07  0.7013361E-05
 229031. -0.1245182E-04 -0.1686536E-02 -0.2035018E-05 -0.2733570E-03  0.1906740E-07  0.3208118E-05
 190859. -0.5104920E-05 -0.8366074E-03 -0.8394040E-06 -0.1367927E-03  0.6338268E-08  0.1276661E-05
 152688. -0.1700239E-05 -0.3506243E-03 -0.2809497E-06 -0.5773353E-04  0.1651432E-08  0.4149502E-06
 114516. -0.4085886E-06 -0.1129225E-03 -0.6777188E-07 -0.1869366E-04  0.2925219E-09  0.9784487E-07
  76344. -0.5429018E-07 -0.2258807E-04 -0.9029187E-08 -0.3753473E-05  0.2559470E-10  0.1282688E-07
  38172. -0.1705689E-08 -0.1422381E-05 -0.2841292E-09 -0.2368856E-06  0.3991392E-12  0.3998202E-09
      0.  0.0000000E+00  0.0000000E+00  0.0000000E+00  0.0000000E+00  0.0000000E+00  0.0000000E+00
