       4       35 S      304        127.34750          8.85460          6.44036        244.30260      185    7
6371000. -0.1218986E-01 -0.1418908E+01 -0.2884455E-02  0.9305404E-02  0.1773657E-02 -0.4086442E-01
6370000. -0.1196666E-01 -0.1424960E+01 -0.2885678E-02  0.6281628E-02  0.1780049E-02 -0.4058063E-01
6369000. -0.1174256E-01 -0.1430507E+01 -0.2886426E-02  0.3254474E-02  0.1786396E-02 -0.4029917E-01
6368000. -0.1151762E-01 -0.1435547E+01 -0.2886700E-02  0.2245381E-03  0.1792700E-02 -0.4002007E-01
6368000. -0.1151762E-01 -0.1435547E+01 -0.2886700E-02  0.2245381E-03  0.1792700E-02 -0.4002007E-01
6367000. -0.1129193E-01 -0.1440081E+01 -0.2886497E-02 -0.2807586E-02  0.1798959E-02 -0.3974334E-01
6366000. -0.1106557E-01 -0.1444107E+01 -0.2885818E-02 -0.5841302E-02  0.1805176E-02 -0.3946900E-01
6365000. -0.1083862E-01 -0.1447624E+01 -0.2884663E-02 -0.8876014E-02  0.1811350E-02 -0.3919706E-01
6364000. -0.1061116E-01 -0.1450632E+01 -0.2883032E-02 -0.1191112E-01  0.1817481E-02 -0.3892757E-01
6363000. -0.1038326E-01 -0.1453131E+01 -0.2880924E-02 -0.1494604E-01  0.1823570E-02 -0.3866052E-01
6362000. -0.1015502E-01 -0.1455120E+01 -0.2878340E-02 -0.1798015E-01  0.1829618E-02 -0.3839595E-01
6361000. -0.9926496E-02 -0.1456599E+01 -0.2875280E-02 -0.2101288E-01  0.1835624E-02 -0.3813387E-01
6360000. -0.9697783E-02 -0.1457569E+01 -0.2871744E-02 -0.2404362E-01  0.1841589E-02 -0.3787430E-01
6359000. -0.9468959E-02 -0.1458028E+01 -0.2867732E-02 -0.2707177E-01  0.1847513E-02 -0.3761726E-01
6358000. -0.9240102E-02 -0.1457977E+01 -0.2863245E-02 -0.3009675E-01  0.1853398E-02 -0.3736278E-01
6357000. -0.9011294E-02 -0.1457417E+01 -0.2858284E-02 -0.3311794E-01  0.1859242E-02 -0.3711087E-01
6356000. -0.8782613E-02 -0.1456347E+01 -0.2852849E-02 -0.3613477E-01  0.1865048E-02 -0.3686156E-01
6356000. -0.8782613E-02 -0.1264166E+01 -0.2852849E-02 -0.1945466E-01  0.1865048E-02 -0.3495057E-01
6355000. -0.8584182E-02 -0.1264199E+01 -0.2849669E-02 -0.2106692E-01  0.1870504E-02 -0.3456684E-01
6354000. -0.8385767E-02 -0.1263962E+01 -0.2846236E-02 -0.2267774E-01  0.1875899E-02 -0.3418523E-01
6353000. -0.8187409E-02 -0.1263457E+01 -0.2842550E-02 -0.2428692E-01  0.1881235E-02 -0.3380572E-01
6352000. -0.7989153E-02 -0.1262683E+01 -0.2838612E-02 -0.2589427E-01  0.1886512E-02 -0.3342833E-01
6351000. -0.7791040E-02 -0.1261640E+01 -0.2834421E-02 -0.2749960E-01  0.1891729E-02 -0.3305306E-01
6350000. -0.7593110E-02 -0.1260328E+01 -0.2829979E-02 -0.2910272E-01  0.1896888E-02 -0.3267993E-01
6349000. -0.7395408E-02 -0.1258749E+01 -0.2825285E-02 -0.3070343E-01  0.1901988E-02 -0.3230893E-01
6348000. -0.7197975E-02 -0.1256901E+01 -0.2820341E-02 -0.3230155E-01  0.1907031E-02 -0.3194008E-01
6347000. -0.7000853E-02 -0.1254786E+01 -0.2815145E-02 -0.3389688E-01  0.1912015E-02 -0.3157338E-01
6346600. -0.6922100E-02 -0.1253865E+01 -0.2812997E-02 -0.3453419E-01  0.1913993E-02 -0.3142731E-01
6346600. -0.6922100E-02 -0.1437911E+01 -0.2812997E-02 -0.2197546E-01  0.1913993E-02 -0.2901367E-01
6318800. -0.7943728E-03 -0.1349989E+01 -0.2665989E-02 -0.4515508E-01  0.2016154E-02 -0.1803361E-01
6291000.  0.4682863E-02 -0.1141079E+01 -0.2422228E-02 -0.6606974E-01  0.2073183E-02 -0.8298129E-02
6291000.  0.4682863E-02 -0.1179144E+01 -0.2422228E-02 -0.6811672E-01  0.2073183E-02 -0.8298129E-02
6263000.  0.9167668E-02 -0.8435812E+00 -0.2079732E-02 -0.8693691E-01  0.2091018E-02  0.1387440E-04
6235000.  0.1195684E-01 -0.4121631E+00 -0.1666094E-02 -0.1002918E+00  0.2074421E-02  0.7396855E-02
6207000.  0.1269639E-01  0.8324650E-01 -0.1207663E-02 -0.1071929E+00  0.2027145E-02  0.1399866E-01
6179000.  0.1118689E-01  0.6046160E+00 -0.7341154E-03 -0.1071292E+00  0.1952328E-02  0.1994925E-01
6151000.  0.7404578E-02  0.1110512E+01 -0.2762250E-03 -0.1001148E+00  0.1852593E-02  0.2535326E-01
6151000.  0.7404578E-02  0.8655342E+00 -0.2762250E-03 -0.8893839E-01  0.1852593E-02  0.2494360E-01
6128500.  0.3827967E-02  0.1153312E+01  0.2209363E-04 -0.7956308E-01  0.1760928E-02  0.2688511E-01
6106000. -0.6878010E-03  0.1395586E+01  0.2829526E-03 -0.6781419E-01  0.1663266E-02  0.2834307E-01
6083500. -0.5964124E-02  0.1582624E+01  0.4989579E-03 -0.5426139E-01  0.1561277E-02  0.2933976E-01
6061000. -0.1179249E-01  0.1707263E+01  0.6648151E-03 -0.3951954E-01  0.1456550E-02  0.2989639E-01
6038500. -0.1794396E-01  0.1765113E+01  0.7774421E-03 -0.2422236E-01  0.1350606E-02  0.3003298E-01
6016000. -0.2417908E-01  0.1754610E+01  0.8359888E-03 -0.8995407E-02  0.1244893E-02  0.2976818E-01
5993500. -0.3025779E-01  0.1676966E+01  0.8417628E-03  0.5568434E-02  0.1140798E-02  0.2911939E-01
5971000. -0.3594903E-01  0.1536028E+01  0.7980775E-03  0.1892945E-01  0.1039650E-02  0.2810113E-01
5971000. -0.3594903E-01  0.1426179E+01  0.7980775E-03  0.2116356E-01  0.1039650E-02  0.3280716E-01
5937667. -0.4260086E-01  0.1103440E+01  0.6486048E-03  0.3516149E-01  0.8749670E-03  0.3003845E-01
5904333. -0.4738806E-01  0.7189341E+00  0.4387306E-03  0.4424969E-01  0.7262852E-03  0.2671826E-01
5871000. -0.5007352E-01  0.3053448E+00  0.1937964E-03  0.4863207E-01  0.5960447E-03  0.2301797E-01
5837667. -0.5058445E-01 -0.1077166E+00 -0.6287215E-04  0.4884544E-01  0.4858221E-03  0.1908919E-01
5804333. -0.4899094E-01 -0.4953845E+00 -0.3113422E-03  0.4562923E-01  0.3964775E-03  0.1505373E-01
5771000. -0.4547888E-01 -0.8384014E+00 -0.5358097E-03  0.3981381E-01  0.3283280E-03  0.1099942E-01
5771000. -0.4547888E-01 -0.8384425E+00 -0.5358097E-03  0.3981413E-01  0.3283280E-03  0.1099942E-01
5701000. -0.3285841E-01 -0.1412063E+01 -0.8738035E-03  0.2038714E-01  0.2690619E-03 -0.4626745E-03
5701000. -0.3285841E-01 -0.1220641E+01 -0.8738035E-03  0.2360382E-01  0.2690619E-03  0.8798930E-02
5667333. -0.2597556E-01 -0.1375921E+01 -0.9826646E-03  0.1760055E-01  0.2292532E-03  0.6355598E-02
5633667. -0.1840139E-01 -0.1482745E+01 -0.1060157E-02  0.1178913E-01  0.2009342E-03  0.4456809E-02
5600000. -0.1038331E-01 -0.1544574E+01 -0.1108113E-02  0.6462001E-02  0.1811378E-03  0.3134503E-02
5600000. -0.1038331E-01 -0.1544621E+01 -0.1108113E-02  0.6461804E-02  0.1811378E-03  0.3134503E-02
5563518. -0.1381710E-02 -0.1591997E+01 -0.1129490E-02  0.1049811E-02  0.1661403E-03  0.2141651E-02
5527037.  0.7765665E-02 -0.1596024E+01 -0.1120831E-02 -0.4000134E-02  0.1561952E-03  0.1365995E-02
5490556.  0.1681901E-01 -0.1559763E+01 -0.1084670E-02 -0.8533848E-02  0.1501273E-03  0.7833254E-03
5454074.  0.2555935E-01 -0.1487385E+01 -0.1024304E-02 -0.1243827E-01  0.1469018E-03  0.3690860E-03
5417593.  0.3379338E-01 -0.1383890E+01 -0.9435677E-03 -0.1564012E-01  0.1456253E-03  0.9855580E-04
5381111.  0.4135905E-01 -0.1254817E+01 -0.8465998E-03 -0.1810372E-01  0.1455435E-03 -0.5203549E-04
5344630.  0.4812606E-01 -0.1105981E+01 -0.7376542E-03 -0.1982677E-01  0.1460349E-03 -0.1053007E-03
5308148.  0.5399835E-01 -0.9432097E+00 -0.6209026E-03 -0.2083550E-01  0.1466031E-03 -0.8221556E-04
5271667.  0.5891209E-01 -0.7721447E+00 -0.5003085E-03 -0.2117992E-01  0.1468678E-03 -0.2304997E-05
5235185.  0.6283533E-01 -0.5980478E+00 -0.3794832E-03 -0.2092753E-01  0.1465529E-03  0.1175014E-03
5198704.  0.6576443E-01 -0.4256931E+00 -0.2616264E-03 -0.2015832E-01  0.1454752E-03  0.2619064E-03
5162222.  0.6772172E-01 -0.2592308E+00 -0.1494433E-03 -0.1895970E-01  0.1435290E-03  0.4189082E-03
5125741.  0.6875118E-01 -0.1021636E+00 -0.4514013E-04 -0.1742212E-01  0.1406756E-03  0.5771815E-03
5089259.  0.6891499E-01  0.4271943E-01  0.4960451E-04 -0.1563480E-01  0.1369308E-03  0.7291069E-03
5052778.  0.6828928E-01  0.1733049E+00  0.1336015E-03 -0.1368278E-01  0.1323509E-03  0.8679404E-03
5016296.  0.6696029E-01  0.2881627E+00  0.2061402E-03 -0.1164432E-01  0.1270242E-03  0.9893693E-03
4979815.  0.6502080E-01  0.3864693E+00  0.2669255E-03 -0.9589134E-02  0.1210589E-03  0.1090560E-02
4943333.  0.6256644E-01  0.4679730E+00  0.3160417E-03 -0.7577166E-02  0.1145782E-03  0.1169218E-02
4906852.  0.5969312E-01  0.5329012E+00  0.3538796E-03 -0.5657661E-02  0.1077104E-03  0.1225933E-02
4870370.  0.5649393E-01  0.5818982E+00  0.3810866E-03 -0.3869445E-02  0.1005809E-03  0.1260558E-02
4833889.  0.5305765E-01  0.6159319E+00  0.3985022E-03 -0.2241992E-02  0.9331483E-04  0.1274043E-02
4797407.  0.4946634E-01  0.6362321E+00  0.4071060E-03 -0.7940149E-03  0.8602515E-04  0.1269107E-02
4760926.  0.4579490E-01  0.6441991E+00  0.4079599E-03  0.4635890E-03  0.7881325E-04  0.1247254E-02
4724444.  0.4210946E-01  0.6413439E+00  0.4021677E-03  0.1527310E-02  0.7176879E-04  0.1211014E-02
4687963.  0.3846773E-01  0.6292285E+00  0.3908335E-03  0.2400306E-02  0.6496709E-04  0.1162908E-02
4651482.  0.3491817E-01  0.6094092E+00  0.3750281E-03  0.3090733E-02  0.5846951E-04  0.1105200E-02
4615000.  0.3150044E-01  0.5833939E+00  0.3557630E-03  0.3610803E-02  0.5232371E-04  0.1040342E-02
4578518.  0.2824599E-01  0.5526085E+00  0.3339725E-03  0.3975453E-02  0.4656503E-04  0.9703523E-03
4542037.  0.2517839E-01  0.5183708E+00  0.3104996E-03  0.4201548E-02  0.4121648E-04  0.8974664E-03
4505556.  0.2231386E-01  0.4818698E+00  0.2860860E-03  0.4307054E-02  0.3628974E-04  0.8232767E-03
4469074.  0.1966220E-01  0.4441545E+00  0.2613697E-03  0.4310009E-02  0.3178769E-04  0.7493140E-03
4432593.  0.1722785E-01  0.4061344E+00  0.2368883E-03  0.4228167E-02  0.2770589E-04  0.6766832E-03
4396111.  0.1501016E-01  0.3685713E+00  0.2130772E-03  0.4078343E-02  0.2403400E-04  0.6062798E-03
4359630.  0.1300478E-01  0.3320935E+00  0.1902816E-03  0.3876174E-02  0.2075643E-04  0.5390787E-03
4323148.  0.1120392E-01  0.2971941E+00  0.1687594E-03  0.3635617E-02  0.1785396E-04  0.4752891E-03
4286667.  0.9597486E-02  0.2642530E+00  0.1486945E-03  0.3369265E-02  0.1530586E-04  0.4153661E-03
4250185.  0.8173370E-02  0.2335374E+00  0.1302025E-03  0.3087712E-02  0.1308988E-04  0.3592437E-03
4213704.  0.6918353E-02  0.2052262E+00  0.1133446E-03  0.2800014E-02  0.1118470E-04  0.3068007E-03
4177222.  0.5818290E-02  0.1794149E+00  0.9813367E-04  0.2513430E-02  0.9569904E-05  0.2577243E-03
4140741.  0.4858801E-02  0.1561374E+00  0.8454663E-04  0.2233808E-02  0.8227856E-05  0.2114509E-03
4104259.  0.4025366E-02  0.1353717E+00  0.7252971E-04  0.1965519E-02  0.7144247E-05  0.1673035E-03
4067778.  0.3303802E-02  0.1170585E+00  0.6200921E-04  0.1711686E-02  0.6309749E-05  0.1242690E-03
4031296.  0.2680270E-02  0.1011080E+00  0.5289532E-04  0.1474403E-02  0.5721226E-05  0.8115829E-04
3994815.  0.2141577E-02  0.8741323E-01  0.4508987E-04  0.1254912E-02  0.5383426E-05  0.3640862E-04
3958333.  0.1675111E-02  0.7585582E-01  0.3848854E-04  0.1053832E-02  0.5311141E-05 -0.1194413E-04
3921852.  0.1269006E-02  0.6631465E-01  0.3298540E-04  0.8714240E-03  0.5531744E-05 -0.6635257E-04
3885370.  0.9120421E-03  0.5866817E-01  0.2847273E-04  0.7078961E-03  0.6088585E-05 -0.1299695E-03
3848889.  0.5937313E-03  0.5279743E-01  0.2484119E-04  0.5638634E-03  0.7045337E-05 -0.2067868E-03
3812407.  0.3042344E-03  0.4858046E-01  0.2197524E-04  0.4408308E-03  0.8491646E-05 -0.3019022E-03
3775926.  0.3446962E-04  0.4588407E-01  0.1974656E-04  0.3420443E-03  0.1055000E-04 -0.4217846E-03
3739444. -0.2238334E-03  0.4454283E-01  0.1800035E-04  0.2736489E-03  0.1338489E-04 -0.5746303E-03
3702963. -0.4777968E-03  0.4432347E-01  0.1653442E-04  0.2464874E-03  0.1721319E-04 -0.7706870E-03
3666482. -0.7328957E-03  0.4486383E-01  0.1506473E-04  0.2788218E-03  0.2231743E-04 -0.1022605E-02
3630000. -0.9919348E-03  0.4557195E-01  0.1317173E-04  0.4005760E-03  0.2905996E-04 -0.1345584E-02
3630000. -0.9919348E-03  0.4557171E-01  0.1317173E-04  0.4005911E-03  0.2905996E-04 -0.1345584E-02
3592500. -0.1261068E-02  0.4561930E-01  0.1012654E-04  0.6646223E-03  0.3817513E-04 -0.1768331E-02
3555000. -0.1523886E-02  0.4303738E-01  0.4896037E-05  0.1160539E-02  0.5009385E-04 -0.2301584E-02
3517500. -0.1756669E-02  0.3476392E-01 -0.4248189E-05  0.2022340E-02  0.6552316E-04 -0.2963811E-02
3480000. -0.1912152E-02  0.1568979E-01 -0.2004071E-04  0.3463978E-02  0.8525777E-04 -0.3764839E-02
3480000. -0.1912152E-02 -0.9366456E-01 -0.6684730E-04 -0.3377138E-02  0.8525777E-04  0.2250005E-02
3409422. -0.1098630E-02 -0.5609593E-01 -0.3779226E-04 -0.1981888E-02  0.5974109E-04  0.2203594E-02
3338844. -0.6169339E-03 -0.3277104E-01 -0.2091562E-04 -0.1137134E-02  0.3816665E-04  0.1664183E-02
3268266. -0.3386348E-03 -0.1868417E-01 -0.1133029E-04 -0.6379858E-03  0.2288127E-04  0.1111161E-02
3197688. -0.1816849E-03 -0.1039944E-01 -0.6006555E-05 -0.3500083E-03  0.1305865E-04  0.6866170E-03
3127109. -0.9526441E-04 -0.5651272E-02 -0.3115221E-05 -0.1877404E-03  0.7151746E-05  0.4008577E-03
3056531. -0.4880428E-04 -0.2998260E-02 -0.1580043E-05 -0.9843609E-04  0.3776519E-05  0.2235331E-03
2985953. -0.2441923E-04 -0.1552718E-02 -0.7833394E-06 -0.5043277E-04  0.1928370E-05  0.1198070E-03
2915375. -0.1192729E-04 -0.7846492E-03 -0.3793867E-06 -0.2523682E-04  0.9538138E-06  0.6194904E-04
2844797. -0.5683680E-05 -0.3867434E-03 -0.1793802E-06 -0.1232756E-04  0.4574405E-06  0.3097240E-04
2774219. -0.2640535E-05 -0.1858173E-03 -0.8273597E-07 -0.5874232E-05  0.2128094E-06  0.1499207E-04
2703641. -0.1195027E-05 -0.8696874E-04 -0.3719335E-07 -0.2728476E-05  0.9603779E-07  0.7030172E-05
2633062. -0.5263580E-06 -0.3961823E-04 -0.1628024E-07 -0.1234227E-05  0.4202939E-07  0.3194062E-05
2562484. -0.2254035E-06 -0.1755019E-04 -0.6931378E-08 -0.5431902E-06  0.1782730E-07  0.1405726E-05
2491906. -0.9373537E-07 -0.7551811E-05 -0.2866900E-08 -0.2323250E-06  0.7322891E-08  0.5989568E-06
2421328. -0.3780452E-07 -0.3152650E-05 -0.1150426E-08 -0.9644501E-07  0.2910011E-08  0.2468720E-06
2350750. -0.1476556E-07 -0.1275154E-05 -0.4472128E-09 -0.3880563E-07  0.1117326E-08  0.9832547E-07
2280172. -0.5575972E-08 -0.4989393E-06 -0.1681381E-09 -0.1510991E-07  0.4139080E-09  0.3779303E-07
2209594. -0.2032246E-08 -0.1885338E-06 -0.6102738E-10 -0.5683644E-08  0.1476843E-09  0.1399712E-07
2139016. -0.7134285E-09 -0.6866878E-07 -0.2134098E-10 -0.2061343E-08  0.5065686E-10  0.4986216E-08
2068438. -0.2407021E-09 -0.2405665E-07 -0.7174047E-11 -0.7192817E-09  0.1666757E-10  0.1704980E-08
1997859. -0.7785460E-10 -0.8086836E-08 -0.2312525E-11 -0.2408944E-09  0.5247655E-11  0.5582976E-09
1927281. -0.2407578E-10 -0.2601656E-08 -0.7128382E-12 -0.7722988E-10  0.1576640E-11  0.1746142E-09
1856703. -0.7096150E-11 -0.7986385E-09 -0.2094717E-12 -0.2363040E-10  0.4506262E-12  0.5200679E-10
1786125. -0.1986658E-11 -0.2331381E-09 -0.5847472E-13 -0.6877676E-11  0.1220895E-12  0.1470143E-10
1715547. -0.5265247E-12 -0.6443993E-10 -0.1543833E-13 -0.1898011E-11  0.3121267E-13  0.3931846E-11
1644969.  0.0000000E+00  0.0000000E+00  0.0000000E+00  0.0000000E+00  0.0000000E+00  0.0000000E+00
1574391.  0.0000000E+00  0.0000000E+00  0.0000000E+00  0.0000000E+00  0.0000000E+00  0.0000000E+00
1503812.  0.0000000E+00  0.0000000E+00  0.0000000E+00  0.0000000E+00  0.0000000E+00  0.0000000E+00
1433234.  0.0000000E+00  0.0000000E+00  0.0000000E+00  0.0000000E+00  0.0000000E+00  0.0000000E+00
1362656.  0.0000000E+00  0.0000000E+00  0.0000000E+00  0.0000000E+00  0.0000000E+00  0.0000000E+00
1292078.  0.0000000E+00  0.0000000E+00  0.0000000E+00  0.0000000E+00  0.0000000E+00  0.0000000E+00
1221500.  0.0000000E+00  0.0000000E+00  0.0000000E+00  0.0000000E+00  0.0000000E+00  0.0000000E+00
1221500.  0.0000000E+00  0.0000000E+00  0.0000000E+00  0.0000000E+00  0.0000000E+00  0.0000000E+00
1183328.  0.0000000E+00  0.0000000E+00  0.0000000E+00  0.0000000E+00  0.0000000E+00  0.0000000E+00
1145156.  0.0000000E+00  0.0000000E+00  0.0000000E+00  0.0000000E+00  0.0000000E+00  0.0000000E+00
1106984.  0.0000000E+00  0.0000000E+00  0.0000000E+00  0.0000000E+00  0.0000000E+00  0.0000000E+00
1068812.  0.0000000E+00  0.0000000E+00  0.0000000E+00  0.0000000E+00  0.0000000E+00  0.0000000E+00
1030641.  0.0000000E+00  0.0000000E+00  0.0000000E+00  0.0000000E+00  0.0000000E+00  0.0000000E+00
 992469.  0.0000000E+00  0.0000000E+00  0.0000000E+00  0.0000000E+00  0.0000000E+00  0.0000000E+00
 954297.  0.0000000E+00  0.0000000E+00  0.0000000E+00  0.0000000E+00  0.0000000E+00  0.0000000E+00
 916125.  0.0000000E+00  0.0000000E+00  0.0000000E+00  0.0000000E+00  0.0000000E+00  0.0000000E+00
 877953.  0.0000000E+00  0.0000000E+00  0.0000000E+00  0.0000000E+00  0.0000000E+00  0.0000000E+00
 839781.  0.0000000E+00  0.0000000E+00  0.0000000E+00  0.0000000E+00  0.0000000E+00  0.0000000E+00
 801609.  0.0000000E+00  0.0000000E+00  0.0000000E+00  0.0000000E+00  0.0000000E+00  0.0000000E+00
 763438.  0.0000000E+00  0.0000000E+00  0.0000000E+00  0.0000000E+00  0.0000000E+00  0.0000000E+00
 725266.  0.0000000E+00  0.0000000E+00  0.0000000E+00  0.0000000E+00  0.0000000E+00  0.0000000E+00
 687094.  0.0000000E+00  0.0000000E+00  0.0000000E+00  0.0000000E+00  0.0000000E+00  0.0000000E+00
 648922.  0.0000000E+00  0.0000000E+00  0.0000000E+00  0.0000000E+00  0.0000000E+00  0.0000000E+00
 610750.  0.0000000E+00  0.0000000E+00  0.0000000E+00  0.0000000E+00  0.0000000E+00  0.0000000E+00
 572578.  0.0000000E+00  0.0000000E+00  0.0000000E+00  0.0000000E+00  0.0000000E+00  0.0000000E+00
 534406.  0.0000000E+00  0.0000000E+00  0.0000000E+00  0.0000000E+00  0.0000000E+00  0.0000000E+00
 496234.  0.0000000E+00  0.0000000E+00  0.0000000E+00  0.0000000E+00  0.0000000E+00  0.0000000E+00
 458062.  0.0000000E+00  0.0000000E+00  0.0000000E+00  0.0000000E+00  0.0000000E+00  0.0000000E+00
 419891.  0.0000000E+00  0.0000000E+00  0.0000000E+00  0.0000000E+00  0.0000000E+00  0.0000000E+00
 381719.  0.0000000E+00  0.0000000E+00  0.0000000E+00  0.0000000E+00  0.0000000E+00  0.0000000E+00
 343547.  0.0000000E+00  0.0000000E+00  0.0000000E+00  0.0000000E+00  0.0000000E+00  0.0000000E+00
 305375.  0.0000000E+00  0.0000000E+00  0.0000000E+00  0.0000000E+00  0.0000000E+00  0.0000000E+00
 267203.  0.0000000E+00  0.0000000E+00  0.0000000E+00  0.0000000E+00  0.0000000E+00  0.0000000E+00
 229031.  0.0000000E+00  0.0000000E+00  0.0000000E+00  0.0000000E+00  0.0000000E+00  0.0000000E+00
 190859.  0.0000000E+00  0.0000000E+00  0.0000000E+00  0.0000000E+00  0.0000000E+00  0.0000000E+00
 152688.  0.0000000E+00  0.0000000E+00  0.0000000E+00  0.0000000E+00  0.0000000E+00  0.0000000E+00
 114516.  0.0000000E+00  0.0000000E+00  0.0000000E+00  0.0000000E+00  0.0000000E+00  0.0000000E+00
  76344.  0.0000000E+00  0.0000000E+00  0.0000000E+00  0.0000000E+00  0.0000000E+00  0.0000000E+00
  38172.  0.0000000E+00  0.0000000E+00  0.0000000E+00  0.0000000E+00  0.0000000E+00  0.0000000E+00
      0.  0.0000000E+00  0.0000000E+00  0.0000000E+00  0.0000000E+00  0.0000000E+00  0.0000000E+00
