       1       30 S      126        186.02060          7.05548          5.60056        156.73621      185    7
6371000.  0.1006587E+00  0.5435851E+00  0.1703028E-02 -0.9895571E-01 -0.4627923E-02 -0.4635319E-01
6370000.  0.1005713E+00  0.5710410E+00  0.1718515E-02 -0.9837753E-01 -0.4620681E-02 -0.4593899E-01
6369000.  0.1004795E+00  0.5984294E+00  0.1733910E-02 -0.9778595E-01 -0.4613502E-02 -0.4552175E-01
6368000.  0.1003834E+00  0.6257482E+00  0.1749212E-02 -0.9718098E-01 -0.4606390E-02 -0.4510146E-01
6368000.  0.1003834E+00  0.6257482E+00  0.1749212E-02 -0.9718098E-01 -0.4606390E-02 -0.4510146E-01
6367000.  0.1002830E+00  0.6529952E+00  0.1764417E-02 -0.9656268E-01 -0.4599344E-02 -0.4467811E-01
6366000.  0.1001784E+00  0.6801683E+00  0.1779524E-02 -0.9593108E-01 -0.4592365E-02 -0.4425170E-01
6365000.  0.1000695E+00  0.7072655E+00  0.1794531E-02 -0.9528625E-01 -0.4585453E-02 -0.4382221E-01
6364000.  0.9995639E-01  0.7342845E+00  0.1809436E-02 -0.9462823E-01 -0.4578608E-02 -0.4338962E-01
6363000.  0.9983902E-01  0.7612233E+00  0.1824236E-02 -0.9395707E-01 -0.4571832E-02 -0.4295393E-01
6362000.  0.9971743E-01  0.7880797E+00  0.1838931E-02 -0.9327282E-01 -0.4565124E-02 -0.4251512E-01
6361000.  0.9959163E-01  0.8148518E+00  0.1853516E-02 -0.9257553E-01 -0.4558485E-02 -0.4207319E-01
6360000.  0.9946164E-01  0.8415373E+00  0.1867991E-02 -0.9186526E-01 -0.4551917E-02 -0.4162812E-01
6359000.  0.9932746E-01  0.8681343E+00  0.1882354E-02 -0.9114207E-01 -0.4545418E-02 -0.4117990E-01
6358000.  0.9918911E-01  0.8946406E+00  0.1896602E-02 -0.9040600E-01 -0.4538990E-02 -0.4072851E-01
6357000.  0.9904661E-01  0.9210542E+00  0.1910734E-02 -0.8965711E-01 -0.4532632E-02 -0.4027395E-01
6356000.  0.9889998E-01  0.9473731E+00  0.1924747E-02 -0.8889547E-01 -0.4526347E-02 -0.3981621E-01
6356000.  0.9889998E-01  0.7579303E+00  0.1924747E-02 -0.9218904E-01 -0.4526347E-02 -0.6133570E-01
6355000.  0.9877943E-01  0.7780657E+00  0.1939193E-02 -0.9187331E-01 -0.4516748E-02 -0.6096734E-01
6354000.  0.9865573E-01  0.7981627E+00  0.1953588E-02 -0.9155078E-01 -0.4507208E-02 -0.6059804E-01
6353000.  0.9852887E-01  0.8182200E+00  0.1967932E-02 -0.9122146E-01 -0.4497726E-02 -0.6022777E-01
6352000.  0.9839887E-01  0.8382367E+00  0.1982224E-02 -0.9088538E-01 -0.4488301E-02 -0.5985653E-01
6351000.  0.9826573E-01  0.8582118E+00  0.1996462E-02 -0.9054253E-01 -0.4478935E-02 -0.5948431E-01
6350000.  0.9812946E-01  0.8781441E+00  0.2010647E-02 -0.9019295E-01 -0.4469628E-02 -0.5911111E-01
6349000.  0.9799007E-01  0.8980328E+00  0.2024776E-02 -0.8983665E-01 -0.4460379E-02 -0.5873692E-01
6348000.  0.9784755E-01  0.9178768E+00  0.2038848E-02 -0.8947364E-01 -0.4451189E-02 -0.5836172E-01
6347000.  0.9770193E-01  0.9376751E+00  0.2052863E-02 -0.8910394E-01 -0.4442058E-02 -0.5798552E-01
6346600.  0.9764281E-01  0.9455813E+00  0.2058453E-02 -0.8895420E-01 -0.4438422E-02 -0.5783476E-01
6346600.  0.9764281E-01  0.9067211E+00  0.2058453E-02 -0.9122744E-01 -0.4438422E-02 -0.9188138E-01
6318800.  0.9267955E-01  0.1366498E+01  0.2449112E-02 -0.8731021E-01 -0.4056279E-02 -0.8336181E-01
6291000.  0.8574161E-01  0.1809585E+01  0.2815958E-02 -0.8033316E-01 -0.3710211E-02 -0.7532997E-01
6291000.  0.8574161E-01  0.1855870E+01  0.2815958E-02 -0.8019601E-01 -0.3710211E-02 -0.7532997E-01
6263000.  0.7664216E-01  0.2277944E+01  0.3144469E-02 -0.6878787E-01 -0.3397343E-02 -0.6708875E-01
6235000.  0.6579212E-01  0.2650166E+01  0.3416340E-02 -0.5447986E-01 -0.3120217E-02 -0.5904892E-01
6207000.  0.5344054E-01  0.2959119E+01  0.3619671E-02 -0.3767167E-01 -0.2878153E-02 -0.5111833E-01
6179000.  0.3989233E-01  0.3192851E+01  0.3744511E-02 -0.1884773E-01 -0.2670860E-02 -0.4321208E-01
6151000.  0.2550100E-01  0.3341291E+01  0.3783199E-02  0.1435147E-02 -0.2498406E-02 -0.3525201E-01
6151000.  0.2550100E-01  0.2976391E+01  0.3783199E-02 -0.1496634E-02 -0.2498406E-02 -0.3666287E-01
6128500.  0.1492529E-01  0.3006691E+01  0.3770508E-02  0.8649622E-02 -0.2373875E-02 -0.3389490E-01
6106000.  0.4308670E-02  0.2999707E+01  0.3722456E-02  0.1850058E-01 -0.2258747E-02 -0.3133836E-01
6083500. -0.6219131E-02  0.2956631E+01  0.3640375E-02  0.2789529E-01 -0.2152273E-02 -0.2899390E-01
6061000. -0.1653350E-01  0.2879152E+01  0.3526135E-02  0.3668978E-01 -0.2053705E-02 -0.2686117E-01
6038500. -0.2651661E-01  0.2769425E+01  0.3382083E-02  0.4475864E-01 -0.1962297E-02 -0.2493923E-01
6016000. -0.3605900E-01  0.2630011E+01  0.3210975E-02  0.5199565E-01 -0.1877305E-02 -0.2322680E-01
5993500. -0.4506083E-01  0.2463792E+01  0.3015909E-02  0.5831403E-01 -0.1797995E-02 -0.2172193E-01
5971000. -0.5343296E-01  0.2273945E+01  0.2800252E-02  0.6364653E-01 -0.1723633E-02 -0.2042400E-01
5971000. -0.5343296E-01  0.2149506E+01  0.2800252E-02  0.6324483E-01 -0.1723633E-02 -0.1342917E-01
5937667. -0.6383041E-01  0.1823596E+01  0.2462642E-02  0.6537267E-01 -0.1654316E-02 -0.1314763E-01
5904333. -0.7251263E-01  0.1495814E+01  0.2120382E-02  0.6509250E-01 -0.1585292E-02 -0.1330411E-01
5871000. -0.7949954E-01  0.1177301E+01  0.1784922E-02  0.6285162E-01 -0.1514454E-02 -0.1383186E-01
5837667. -0.8486374E-01  0.8767892E+00  0.1465356E-02  0.5908788E-01 -0.1440007E-02 -0.1467546E-01
5804333. -0.8871746E-01  0.6007789E+00  0.1168560E-02  0.5420918E-01 -0.1360407E-02 -0.1579575E-01
5771000. -0.9120129E-01  0.3537790E+00  0.8994061E-03  0.4858134E-01 -0.1274281E-02 -0.1716799E-01
5771000. -0.9120129E-01  0.3538358E+00  0.8994061E-03  0.4858307E-01 -0.1274281E-02 -0.1716799E-01
5701000. -0.9264101E-01 -0.6801055E-01  0.4588114E-03  0.3125646E-01 -0.1039192E-02 -0.2600769E-01
5701000. -0.9264101E-01 -0.2522519E-01  0.4588114E-03  0.4655688E-01 -0.1039192E-02  0.1044795E-03
5667333. -0.9201422E-01 -0.2064769E+00  0.2298778E-03  0.4020143E-01 -0.1029623E-02 -0.3587447E-02
5633667. -0.9051507E-01 -0.3559137E+00  0.3263312E-04  0.3458391E-01 -0.1002695E-02 -0.6474204E-02
5600000. -0.8830261E-01 -0.4770219E+00 -0.1370955E-03  0.2979911E-01 -0.9625541E-03 -0.8591012E-02
5600000. -0.8830261E-01 -0.4770211E+00 -0.1370955E-03  0.2979572E-01 -0.9625541E-03 -0.8591012E-02
5563518. -0.8525111E-01 -0.5843908E+00 -0.2897912E-03  0.2366545E-01 -0.9087157E-03 -0.1009163E-01
5527037. -0.8165764E-01 -0.6668147E+00 -0.4095583E-03  0.1828764E-01 -0.8482013E-03 -0.1095179E-01
5490556. -0.7765701E-01 -0.7270668E+00 -0.5005639E-03  0.1361094E-01 -0.7842216E-03 -0.1132501E-01
5454074. -0.7336830E-01 -0.7678267E+00 -0.5666737E-03  0.9582746E-02 -0.7191943E-03 -0.1133530E-01
5417593. -0.6889602E-01 -0.7916447E+00 -0.6114481E-03  0.6150681E-02 -0.6549123E-03 -0.1107975E-01
5381111. -0.6432994E-01 -0.8009335E+00 -0.6381492E-03  0.3261097E-02 -0.5926631E-03 -0.1063617E-01
5344630. -0.5974699E-01 -0.7979405E+00 -0.6497327E-03  0.8620404E-03 -0.5333451E-03 -0.1006553E-01
5308148. -0.5521122E-01 -0.7847428E+00 -0.6488595E-03 -0.1098109E-02 -0.4775406E-03 -0.9415297E-02
5271667. -0.5077580E-01 -0.7632309E+00 -0.6379031E-03 -0.2667704E-02 -0.4256005E-03 -0.8721580E-02
5235185. -0.4648312E-01 -0.7351157E+00 -0.6189645E-03 -0.3893533E-02 -0.3776879E-03 -0.8012057E-02
5198704. -0.4236676E-01 -0.7019293E+00 -0.5938859E-03 -0.4819521E-02 -0.3338351E-03 -0.7307013E-02
5162222. -0.3845156E-01 -0.6650229E+00 -0.5642639E-03 -0.5486711E-02 -0.2939675E-03 -0.6621780E-02
5125741. -0.3475559E-01 -0.6255795E+00 -0.5314724E-03 -0.5932863E-02 -0.2579434E-03 -0.5966348E-02
5089259. -0.3129018E-01 -0.5846181E+00 -0.4966746E-03 -0.6192665E-02 -0.2255678E-03 -0.5348063E-02
5052778. -0.2806163E-01 -0.5430095E+00 -0.4608478E-03 -0.6297569E-02 -0.1966167E-03 -0.4771065E-02
5016296. -0.2507135E-01 -0.5014790E+00 -0.4247948E-03 -0.6275732E-02 -0.1708449E-03 -0.4237633E-02
4979815. -0.2231727E-01 -0.4606284E+00 -0.3891700E-03 -0.6152272E-02 -0.1480013E-03 -0.3748480E-02
4943333. -0.1979391E-01 -0.4209379E+00 -0.3544889E-03 -0.5949205E-02 -0.1278332E-03 -0.3302792E-02
4906852. -0.1749363E-01 -0.3827894E+00 -0.3211525E-03 -0.5685967E-02 -0.1100955E-03 -0.2899554E-02
4870370. -0.1540662E-01 -0.3464666E+00 -0.2894544E-03 -0.5379200E-02 -0.9454984E-04 -0.2536578E-02
4833889. -0.1352192E-01 -0.3121752E+00 -0.2596045E-03 -0.5042892E-02 -0.8097359E-04 -0.2211447E-02
4797407. -0.1182738E-01 -0.2800506E+00 -0.2317348E-03 -0.4689149E-02 -0.6915589E-04 -0.1921797E-02
4760926. -0.1031043E-01 -0.2501694E+00 -0.2059172E-03 -0.4327863E-02 -0.5890231E-04 -0.1664774E-02
4724444. -0.8958051E-02 -0.2225547E+00 -0.1821699E-03 -0.3966979E-02 -0.5003330E-04 -0.1437668E-02
4687963. -0.7757368E-02 -0.1971928E+00 -0.1604727E-03 -0.3612997E-02 -0.4238567E-04 -0.1237810E-02
4651482. -0.6695574E-02 -0.1740333E+00 -0.1407705E-03 -0.3270890E-02 -0.3581078E-04 -0.1062556E-02
4615000. -0.5760237E-02 -0.1530000E+00 -0.1229836E-03 -0.2944415E-02 -0.3017469E-04 -0.9094487E-03
4578518. -0.4939476E-02 -0.1339976E+00 -0.1070147E-03 -0.2636256E-02 -0.2535760E-04 -0.7761343E-03
4542037. -0.4221993E-02 -0.1169161E+00 -0.9275386E-04 -0.2348200E-02 -0.2125241E-04 -0.6604942E-03
4505556. -0.3597105E-02 -0.1016346E+00 -0.8008230E-04 -0.2081285E-02 -0.1776368E-04 -0.5605002E-03
4469074. -0.3054854E-02 -0.8802636E-01 -0.6887723E-04 -0.1835899E-02 -0.1480703E-04 -0.4743274E-03
4432593. -0.2586053E-02 -0.7596325E-01 -0.5901597E-04 -0.1611974E-02 -0.1230836E-04 -0.4002972E-03
4396111. -0.2182201E-02 -0.6531586E-01 -0.5037638E-04 -0.1409006E-02 -0.1020245E-04 -0.3368926E-03
4359630. -0.1835575E-02 -0.5595848E-01 -0.4284100E-04 -0.1226226E-02 -0.8432371E-05 -0.2828045E-03
4323148. -0.1539123E-02 -0.4776827E-01 -0.3629670E-04 -0.1062595E-02 -0.6948316E-05 -0.2367852E-03
4286667. -0.1286514E-02 -0.4062914E-01 -0.3063739E-04 -0.9169823E-03 -0.5707217E-05 -0.1977932E-03
4250185. -0.1072034E-02 -0.3443019E-01 -0.2576321E-04 -0.7881004E-03 -0.4671572E-05 -0.1648647E-03
4213704. -0.8906115E-03 -0.2906854E-01 -0.2158233E-04 -0.6746518E-03 -0.3809145E-05 -0.1371735E-03
4177222. -0.7377201E-03 -0.2444793E-01 -0.1800999E-04 -0.5752951E-03 -0.3092011E-05 -0.1139965E-03
4140741. -0.6093807E-03 -0.2048035E-01 -0.1496943E-04 -0.4887339E-03 -0.2496220E-05 -0.9470139E-04
4104259. -0.5020826E-03 -0.1708477E-01 -0.1239086E-04 -0.4136953E-03 -0.2001077E-05 -0.7875406E-04
4067778. -0.4127695E-03 -0.1418792E-01 -0.1021197E-04 -0.3489661E-03 -0.1588811E-05 -0.6568820E-04
4031296. -0.3387743E-03 -0.1172335E-01 -0.8376907E-05 -0.2934012E-03 -0.1244031E-05 -0.5512136E-04
3994815. -0.2777991E-03 -0.9631602E-02 -0.6836395E-05 -0.2459306E-03 -0.9533898E-06 -0.4673329E-04
3958333. -0.2278613E-03 -0.7859354E-02 -0.5546894E-05 -0.2055561E-03 -0.7051648E-06 -0.4026662E-04
3921852. -0.1872720E-03 -0.6359435E-02 -0.4470520E-05 -0.1713528E-03 -0.4889504E-06 -0.3552688E-04
3885370. -0.1545917E-03 -0.5090096E-02 -0.3574382E-05 -0.1424563E-03 -0.2952809E-06 -0.3237110E-04
3848889. -0.1286083E-03 -0.4015009E-02 -0.2830474E-05 -0.1180587E-03 -0.1153735E-06 -0.3071153E-04
3812407. -0.1083004E-03 -0.3102731E-02 -0.2215249E-05 -0.9737461E-04  0.5921879E-07 -0.3051095E-04
3775926. -0.9281469E-04 -0.2326952E-02 -0.1709710E-05 -0.7962066E-04  0.2368538E-06 -0.3178202E-04
3739444. -0.8143180E-04 -0.1666532E-02 -0.1299388E-05 -0.6396912E-04  0.4261160E-06 -0.3458342E-04
3702963. -0.7353826E-04 -0.1106319E-02 -0.9748701E-06 -0.4948619E-04  0.6360191E-06 -0.3901234E-04
3666482. -0.6858668E-04 -0.6383351E-03 -0.7325731E-06 -0.3503964E-04  0.8762392E-06 -0.4519447E-04
3630000. -0.6604978E-04 -0.2641263E-03 -0.5762767E-06 -0.1916618E-04  0.1157195E-05 -0.5325754E-04
3630000. -0.6604978E-04 -0.2641232E-03 -0.5762767E-06 -0.1916470E-04  0.1157195E-05 -0.5325754E-04
3592500. -0.6536306E-04  0.1020080E-04 -0.5177697E-06  0.1145649E-06  0.1500077E-05 -0.6359943E-04
3555000. -0.6588363E-04  0.1375824E-03 -0.5906578E-06  0.2608245E-04  0.1909958E-05 -0.7600460E-04
3517500. -0.6656095E-04  0.4839172E-04 -0.8464811E-06  0.6316398E-04  0.2398347E-05 -0.9019591E-04
3480000. -0.6579987E-04 -0.3763538E-03 -0.1368768E-05  0.1179570E-03  0.2973767E-05 -0.1053840E-03
3480000. -0.6579987E-04 -0.3052999E-02 -0.2456619E-05 -0.1159247E-03  0.2973767E-05  0.1015952E-03
3409422. -0.3903563E-04 -0.1868649E-02 -0.1445242E-05 -0.7022680E-04  0.1982503E-05  0.7696682E-04
3338844. -0.2278134E-04 -0.1124452E-02 -0.8370243E-06 -0.4186693E-04  0.1262720E-05  0.5365740E-04
3268266. -0.1307633E-04 -0.6651834E-03 -0.4770900E-06 -0.2455849E-04  0.7749111E-06  0.3532366E-04
3197688. -0.7380001E-05 -0.3867792E-03 -0.2675296E-06 -0.1417033E-04  0.4605275E-06  0.2225109E-04
3127109. -0.4093857E-05 -0.2210038E-03 -0.1475257E-06 -0.8040070E-05  0.2658867E-06  0.1351293E-04
3056531. -0.2231192E-05 -0.1240564E-03 -0.7996277E-07 -0.4484114E-05  0.1494368E-06  0.7947755E-05
2985953. -0.1194127E-05 -0.6838216E-04 -0.4257882E-07 -0.2457108E-05  0.8186110E-07  0.4540127E-05
2915375. -0.6272328E-06 -0.3699673E-04 -0.2225986E-07 -0.1322114E-05  0.4373883E-07  0.2523414E-05
2844797. -0.3231428E-06 -0.1963532E-04 -0.1141782E-07 -0.6981488E-06  0.2280169E-07  0.1366042E-05
2774219. -0.1631692E-06 -0.1021620E-04 -0.5741855E-08 -0.3615482E-06  0.1159807E-07  0.7206639E-06
2703641. -0.8068917E-07 -0.5207182E-05 -0.2828615E-08 -0.1834818E-06  0.5754742E-08  0.3705688E-06
2633062. -0.3904271E-07 -0.2597902E-05 -0.1363805E-08 -0.9117132E-07  0.2784156E-08  0.1856995E-06
2562484. -0.1846714E-07 -0.1267550E-05 -0.6429326E-09 -0.4431668E-07  0.1312589E-08  0.9065735E-07
2491906. -0.8529534E-08 -0.6042114E-06 -0.2960303E-09 -0.2105077E-07  0.6025337E-09  0.4309079E-07
2421328. -0.3842421E-08 -0.2810677E-06 -0.1329674E-09 -0.9760400E-08  0.2690503E-09  0.1992555E-07
2350750. -0.1686069E-08 -0.1274369E-06 -0.5818631E-10 -0.4411894E-08  0.1167328E-09  0.8954807E-08
2280172. -0.7196501E-09 -0.5623961E-07 -0.2477016E-10 -0.1941548E-08  0.4914558E-10  0.3906848E-08
2209594. -0.2983327E-09 -0.2411840E-07 -0.1024082E-10 -0.8306591E-09  0.2004451E-10  0.1652734E-08
2139016. -0.1199960E-09 -0.1002638E-07 -0.4101774E-11 -0.3451840E-09  0.7898013E-11  0.6776584E-09
2068438.  0.0000000E+00  0.0000000E+00  0.0000000E+00  0.0000000E+00  0.0000000E+00  0.0000000E+00
1997859.  0.0000000E+00  0.0000000E+00  0.0000000E+00  0.0000000E+00  0.0000000E+00  0.0000000E+00
1927281.  0.0000000E+00  0.0000000E+00  0.0000000E+00  0.0000000E+00  0.0000000E+00  0.0000000E+00
1856703.  0.0000000E+00  0.0000000E+00  0.0000000E+00  0.0000000E+00  0.0000000E+00  0.0000000E+00
1786125.  0.0000000E+00  0.0000000E+00  0.0000000E+00  0.0000000E+00  0.0000000E+00  0.0000000E+00
1715547.  0.0000000E+00  0.0000000E+00  0.0000000E+00  0.0000000E+00  0.0000000E+00  0.0000000E+00
1644969.  0.0000000E+00  0.0000000E+00  0.0000000E+00  0.0000000E+00  0.0000000E+00  0.0000000E+00
1574391.  0.0000000E+00  0.0000000E+00  0.0000000E+00  0.0000000E+00  0.0000000E+00  0.0000000E+00
1503812.  0.0000000E+00  0.0000000E+00  0.0000000E+00  0.0000000E+00  0.0000000E+00  0.0000000E+00
1433234.  0.0000000E+00  0.0000000E+00  0.0000000E+00  0.0000000E+00  0.0000000E+00  0.0000000E+00
1362656.  0.0000000E+00  0.0000000E+00  0.0000000E+00  0.0000000E+00  0.0000000E+00  0.0000000E+00
1292078.  0.0000000E+00  0.0000000E+00  0.0000000E+00  0.0000000E+00  0.0000000E+00  0.0000000E+00
1221500.  0.0000000E+00  0.0000000E+00  0.0000000E+00  0.0000000E+00  0.0000000E+00  0.0000000E+00
1221500.  0.0000000E+00  0.0000000E+00  0.0000000E+00  0.0000000E+00  0.0000000E+00  0.0000000E+00
1183328.  0.0000000E+00  0.0000000E+00  0.0000000E+00  0.0000000E+00  0.0000000E+00  0.0000000E+00
1145156.  0.0000000E+00  0.0000000E+00  0.0000000E+00  0.0000000E+00  0.0000000E+00  0.0000000E+00
1106984.  0.0000000E+00  0.0000000E+00  0.0000000E+00  0.0000000E+00  0.0000000E+00  0.0000000E+00
1068812.  0.0000000E+00  0.0000000E+00  0.0000000E+00  0.0000000E+00  0.0000000E+00  0.0000000E+00
1030641.  0.0000000E+00  0.0000000E+00  0.0000000E+00  0.0000000E+00  0.0000000E+00  0.0000000E+00
 992469.  0.0000000E+00  0.0000000E+00  0.0000000E+00  0.0000000E+00  0.0000000E+00  0.0000000E+00
 954297.  0.0000000E+00  0.0000000E+00  0.0000000E+00  0.0000000E+00  0.0000000E+00  0.0000000E+00
 916125.  0.0000000E+00  0.0000000E+00  0.0000000E+00  0.0000000E+00  0.0000000E+00  0.0000000E+00
 877953.  0.0000000E+00  0.0000000E+00  0.0000000E+00  0.0000000E+00  0.0000000E+00  0.0000000E+00
 839781.  0.0000000E+00  0.0000000E+00  0.0000000E+00  0.0000000E+00  0.0000000E+00  0.0000000E+00
 801609.  0.0000000E+00  0.0000000E+00  0.0000000E+00  0.0000000E+00  0.0000000E+00  0.0000000E+00
 763438.  0.0000000E+00  0.0000000E+00  0.0000000E+00  0.0000000E+00  0.0000000E+00  0.0000000E+00
 725266.  0.0000000E+00  0.0000000E+00  0.0000000E+00  0.0000000E+00  0.0000000E+00  0.0000000E+00
 687094.  0.0000000E+00  0.0000000E+00  0.0000000E+00  0.0000000E+00  0.0000000E+00  0.0000000E+00
 648922.  0.0000000E+00  0.0000000E+00  0.0000000E+00  0.0000000E+00  0.0000000E+00  0.0000000E+00
 610750.  0.0000000E+00  0.0000000E+00  0.0000000E+00  0.0000000E+00  0.0000000E+00  0.0000000E+00
 572578.  0.0000000E+00  0.0000000E+00  0.0000000E+00  0.0000000E+00  0.0000000E+00  0.0000000E+00
 534406.  0.0000000E+00  0.0000000E+00  0.0000000E+00  0.0000000E+00  0.0000000E+00  0.0000000E+00
 496234.  0.0000000E+00  0.0000000E+00  0.0000000E+00  0.0000000E+00  0.0000000E+00  0.0000000E+00
 458062.  0.0000000E+00  0.0000000E+00  0.0000000E+00  0.0000000E+00  0.0000000E+00  0.0000000E+00
 419891.  0.0000000E+00  0.0000000E+00  0.0000000E+00  0.0000000E+00  0.0000000E+00  0.0000000E+00
 381719.  0.0000000E+00  0.0000000E+00  0.0000000E+00  0.0000000E+00  0.0000000E+00  0.0000000E+00
 343547.  0.0000000E+00  0.0000000E+00  0.0000000E+00  0.0000000E+00  0.0000000E+00  0.0000000E+00
 305375.  0.0000000E+00  0.0000000E+00  0.0000000E+00  0.0000000E+00  0.0000000E+00  0.0000000E+00
 267203.  0.0000000E+00  0.0000000E+00  0.0000000E+00  0.0000000E+00  0.0000000E+00  0.0000000E+00
 229031.  0.0000000E+00  0.0000000E+00  0.0000000E+00  0.0000000E+00  0.0000000E+00  0.0000000E+00
 190859.  0.0000000E+00  0.0000000E+00  0.0000000E+00  0.0000000E+00  0.0000000E+00  0.0000000E+00
 152688.  0.0000000E+00  0.0000000E+00  0.0000000E+00  0.0000000E+00  0.0000000E+00  0.0000000E+00
 114516.  0.0000000E+00  0.0000000E+00  0.0000000E+00  0.0000000E+00  0.0000000E+00  0.0000000E+00
  76344.  0.0000000E+00  0.0000000E+00  0.0000000E+00  0.0000000E+00  0.0000000E+00  0.0000000E+00
  38172.  0.0000000E+00  0.0000000E+00  0.0000000E+00  0.0000000E+00  0.0000000E+00  0.0000000E+00
      0.  0.0000000E+00  0.0000000E+00  0.0000000E+00  0.0000000E+00  0.0000000E+00  0.0000000E+00
