       6       20 S      381        150.37981         12.98506          8.14841        311.38141      185    7
6371000.  0.8279018E-01 -0.7785379E-01 -0.7729973E-04 -0.8286748E-01 -0.7142116E-03 -0.1411245E+00
6370000.  0.8280008E-01 -0.4821766E-01 -0.6428427E-04 -0.8297183E-01 -0.6920637E-03 -0.1410833E+00
6369000.  0.8280532E-01 -0.1856597E-01 -0.5125417E-04 -0.8305415E-01 -0.6699227E-03 -0.1410363E+00
6368000.  0.8280590E-01  0.1109881E-01 -0.3821286E-04 -0.8311441E-01 -0.6477895E-03 -0.1409836E+00
6368000.  0.8280590E-01  0.1109881E-01 -0.3821286E-04 -0.8311441E-01 -0.6477895E-03 -0.1409836E+00
6367000.  0.8280183E-01  0.4077423E-01 -0.2516384E-04 -0.8315258E-01 -0.6256651E-03 -0.1409252E+00
6366000.  0.8279310E-01  0.7045783E-01 -0.1211056E-04 -0.8316868E-01 -0.6035502E-03 -0.1408611E+00
6365000.  0.8277971E-01  0.1001471E+00  0.9435180E-06 -0.8316265E-01 -0.5814459E-03 -0.1407912E+00
6364000.  0.8276167E-01  0.1298397E+00  0.1399491E-04 -0.8313452E-01 -0.5593530E-03 -0.1407156E+00
6363000.  0.8273896E-01  0.1595330E+00  0.2704015E-04 -0.8308425E-01 -0.5372724E-03 -0.1406343E+00
6362000.  0.8271158E-01  0.1892247E+00  0.4007577E-04 -0.8301187E-01 -0.5152050E-03 -0.1405472E+00
6361000.  0.8267955E-01  0.2189122E+00  0.5309828E-04 -0.8291737E-01 -0.4931518E-03 -0.1404544E+00
6360000.  0.8264286E-01  0.2485930E+00  0.6610424E-04 -0.8280075E-01 -0.4711135E-03 -0.1403559E+00
6359000.  0.8260152E-01  0.2782647E+00  0.7909015E-04 -0.8266202E-01 -0.4490912E-03 -0.1402516E+00
6358000.  0.8255551E-01  0.3079249E+00  0.9205255E-04 -0.8250122E-01 -0.4270857E-03 -0.1401417E+00
6357000.  0.8250485E-01  0.3375711E+00  0.1049880E-03 -0.8231834E-01 -0.4050979E-03 -0.1400260E+00
6356000.  0.8244954E-01  0.3672007E+00  0.1178930E-03 -0.8211342E-01 -0.3831287E-03 -0.1399045E+00
6356000.  0.8244954E-01  0.2294130E+00  0.1178930E-03 -0.8227694E-01 -0.3831287E-03 -0.1578446E+00
6355000.  0.8241182E-01  0.2512645E+00  0.1307962E-03 -0.8213329E-01 -0.3583604E-03 -0.1577531E+00
6354000.  0.8237066E-01  0.2731076E+00  0.1436757E-03 -0.8197567E-01 -0.3336067E-03 -0.1576578E+00
6353000.  0.8232608E-01  0.2949408E+00  0.1565295E-03 -0.8180412E-01 -0.3088683E-03 -0.1575586E+00
6352000.  0.8227807E-01  0.3167628E+00  0.1693551E-03 -0.8161864E-01 -0.2841457E-03 -0.1574558E+00
6351000.  0.8222664E-01  0.3385721E+00  0.1821506E-03 -0.8141924E-01 -0.2594395E-03 -0.1573491E+00
6350000.  0.8217179E-01  0.3603675E+00  0.1949137E-03 -0.8120596E-01 -0.2347505E-03 -0.1572386E+00
6349000.  0.8211352E-01  0.3821476E+00  0.2076423E-03 -0.8097879E-01 -0.2100790E-03 -0.1571244E+00
6348000.  0.8205183E-01  0.4039109E+00  0.2203341E-03 -0.8073777E-01 -0.1854258E-03 -0.1570064E+00
6347000.  0.8198673E-01  0.4256561E+00  0.2329870E-03 -0.8048292E-01 -0.1607914E-03 -0.1568846E+00
6346600.  0.8195972E-01  0.4343488E+00  0.2380367E-03 -0.8037710E-01 -0.1509430E-03 -0.1568348E+00
6346600.  0.8195972E-01  0.2556214E+00  0.2380367E-03 -0.8091597E-01 -0.1509430E-03 -0.1854130E+00
6318800.  0.7984713E-01  0.7110102E+00  0.5733450E-03 -0.7145224E-01  0.6518654E-03 -0.1822459E+00
6291000.  0.7578320E-01  0.1146828E+01  0.8505749E-03 -0.5442306E-01  0.1436852E-02 -0.1772424E+00
6291000.  0.7578320E-01  0.1164833E+01  0.8505749E-03 -0.5365017E-01  0.1436852E-02 -0.1772424E+00
6263000.  0.6975479E-01  0.1570143E+01  0.1034038E-02 -0.2880633E-01  0.2200865E-02 -0.1701179E+00
6235000.  0.6206848E-01  0.1916498E+01  0.1095997E-02  0.1335482E-02  0.2929387E-02 -0.1611025E+00
6207000.  0.5301779E-01  0.2188820E+01  0.1017491E-02  0.3475042E-01  0.3614288E-02 -0.1502860E+00
6179000.  0.4295414E-01  0.2375982E+01  0.7891085E-03  0.6914273E-01  0.4247929E-02 -0.1378014E+00
6151000.  0.3226783E-01  0.2471501E+01  0.4118549E-03  0.1020917E+00  0.4823350E-02 -0.1238239E+00
6151000.  0.3226783E-01  0.2000969E+01  0.4118549E-03  0.8563563E-01  0.4823350E-02 -0.1256091E+00
6128500.  0.2524388E-01  0.1969450E+01  0.7482666E-04  0.1048300E+00  0.5253130E-02 -0.1177247E+00
6106000.  0.1840734E-01  0.1895475E+01 -0.3253668E-03  0.1212942E+00  0.5654525E-02 -0.1095470E+00
6083500.  0.1190066E-01  0.1783456E+01 -0.7779628E-03  0.1344142E+00  0.6026632E-02 -0.1011512E+00
6061000.  0.5848911E-02  0.1638810E+01 -0.1270255E-02  0.1437060E+00  0.6368812E-02 -0.9261123E-01
6038500.  0.3565182E-03  0.1467768E+01 -0.1788084E-02  0.1488315E+00  0.6680683E-02 -0.8399843E-01
6016000. -0.4495148E-02  0.1277112E+01 -0.2316360E-02  0.1496039E+00  0.6962110E-02 -0.7538206E-01
5993500. -0.8649319E-02  0.1073960E+01 -0.2839601E-02  0.1459872E+00  0.7213200E-02 -0.6682905E-01
5971000. -0.1207464E-01  0.8655400E+00 -0.3342467E-02  0.1380957E+00  0.7434292E-02 -0.5840413E-01
5971000. -0.1207464E-01  0.7359693E+00 -0.3342467E-02  0.1239086E+00  0.7434292E-02 -0.5682345E-01
5937667. -0.1512875E-01  0.4364870E+00 -0.3940047E-02  0.1037500E+00  0.7699921E-02 -0.4483595E-01
5904333. -0.1670493E-01  0.1729760E+00 -0.4421637E-02  0.7987368E-01  0.7904771E-02 -0.3359915E-01
5871000. -0.1701836E-01 -0.4496742E-01 -0.4772532E-02  0.5408537E-01  0.8052932E-02 -0.2317756E-01
5837667. -0.1632304E-01 -0.2120887E+00 -0.4987124E-02  0.2802529E-01  0.8148805E-02 -0.1361836E-01
5804333. -0.1489010E-01 -0.3269607E+00 -0.5067770E-02  0.3091507E-02  0.8197003E-02 -0.4957437E-02
5771000. -0.1298959E-01 -0.3913735E+00 -0.5023401E-02 -0.1960150E-01  0.8202298E-02  0.2777298E-02
5771000. -0.1298959E-01 -0.3914852E+00 -0.5023401E-02 -0.1960057E-01  0.8202298E-02  0.2777298E-02
5701000. -0.8750474E-02 -0.3487464E+00 -0.4564260E-02 -0.6247097E-01  0.8099410E-02  0.1522816E-01
5701000. -0.8750474E-02 -0.3848224E+00 -0.4564260E-02 -0.4838337E-01  0.8099410E-02  0.1769460E-01
5667333. -0.6881154E-02 -0.3188222E+00 -0.4281265E-02 -0.5821623E-01  0.7987770E-02  0.2445481E-01
5633667. -0.5413054E-02 -0.2340831E+00 -0.3954301E-02 -0.6503765E-01  0.7842036E-02  0.3060284E-01
5600000. -0.4428087E-02 -0.1370190E+00 -0.3599002E-02 -0.6896577E-01  0.7665391E-02  0.3615515E-01
5600000. -0.4428087E-02 -0.1370684E+00 -0.3599002E-02 -0.6896913E-01  0.7665391E-02  0.3615515E-01
5563518. -0.3926575E-02 -0.3630028E-01 -0.3193390E-02 -0.7228269E-01  0.7442928E-02  0.4138971E-01
5527037. -0.4027935E-02  0.7252915E-01 -0.2775910E-02 -0.7312936E-01  0.7193092E-02  0.4572754E-01
5490556. -0.4761598E-02  0.1835928E+00 -0.2360397E-02 -0.7162203E-01  0.6920853E-02  0.4922399E-01
5454074. -0.6124107E-02  0.2912499E+00 -0.1959795E-02 -0.6795564E-01  0.6630860E-02  0.5193494E-01
5417593. -0.8080589E-02  0.3902394E+00 -0.1585765E-02 -0.6239392E-01  0.6327467E-02  0.5391685E-01
5381111. -0.1056782E-01  0.4758873E+00 -0.1248251E-02 -0.5525474E-01  0.6014667E-02  0.5522680E-01
5344630. -0.1349760E-01  0.5442534E+00 -0.9553009E-03 -0.4689358E-01  0.5696163E-02  0.5592190E-01
5308148. -0.1676189E-01  0.5922530E+00 -0.7128240E-03 -0.3768682E-01  0.5375293E-02  0.5605937E-01
5271667. -0.2023720E-01  0.6177144E+00 -0.5245819E-03 -0.2801604E-01  0.5055106E-02  0.5569624E-01
5235185. -0.2379077E-01  0.6194268E+00 -0.3921497E-03 -0.1825290E-01  0.4738288E-02  0.5488878E-01
5198704. -0.2728519E-01  0.5971304E+00 -0.3150479E-03 -0.8747392E-02  0.4427242E-02  0.5369262E-01
5162222. -0.3058465E-01  0.5514748E+00 -0.2908762E-03  0.1853663E-03  0.4124020E-02  0.5216156E-01
5125741. -0.3355907E-01  0.4839491E+00 -0.3155516E-03  0.8272083E-02  0.3830406E-02  0.5034852E-01
5089259. -0.3608945E-01  0.3967829E+00 -0.3835675E-03  0.1528963E-01  0.3547854E-02  0.4830347E-01
5052778. -0.3807110E-01  0.2928358E+00 -0.4882834E-03  0.2106750E-01  0.3277568E-02  0.4607471E-01
5016296. -0.3941742E-01  0.1754512E+00 -0.6222525E-03  0.2549130E-01  0.3020454E-02  0.4370723E-01
4979815. -0.4006187E-01  0.4833568E-01 -0.7775160E-03  0.2850091E-01  0.2777200E-02  0.4124328E-01
4943333. -0.3995985E-01 -0.8460964E-01 -0.9459400E-03  0.3008937E-01  0.2548230E-02  0.3872205E-01
4906852. -0.3908940E-01 -0.2194034E+00 -0.1119474E-02  0.3029789E-01  0.2333784E-02  0.3617837E-01
4870370. -0.3745112E-01 -0.3521466E+00 -0.1290448E-02  0.2921114E-01  0.2133884E-02  0.3364416E-01
4833889. -0.3506761E-01 -0.4791129E+00 -0.1451769E-02  0.2695075E-01  0.1948406E-02  0.3114764E-01
4797407. -0.3198175E-01 -0.5968944E+00 -0.1597144E-02  0.2366752E-01  0.1777054E-02  0.2871208E-01
4760926. -0.2825520E-01 -0.7024575E+00 -0.1721196E-02  0.1953471E-01  0.1619428E-02  0.2635822E-01
4724444. -0.2396527E-01 -0.7932404E+00 -0.1819598E-02  0.1473970E-01  0.1475003E-02  0.2410227E-01
4687963. -0.1920299E-01 -0.8671891E+00 -0.1889110E-02  0.9477231E-02  0.1343188E-02  0.2195713E-01
4651482. -0.1406918E-01 -0.9228013E+00 -0.1927614E-02  0.3941649E-02  0.1223315E-02  0.1993215E-01
4615000. -0.8671664E-02 -0.9591330E+00 -0.1934089E-02 -0.1679122E-02  0.1114677E-02  0.1803329E-01
4578518. -0.3122378E-02 -0.9757900E+00 -0.1908559E-02 -0.7208736E-02  0.1016542E-02  0.1626362E-01
4542037.  0.2466012E-02 -0.9729105E+00 -0.1852014E-02 -0.1248737E-01  0.9281720E-03  0.1462337E-01
4505556.  0.7983387E-02 -0.9511293E+00 -0.1766298E-02 -0.1737572E-01  0.8488289E-03  0.1311018E-01
4469074.  0.1332454E-01 -0.9115202E+00 -0.1653990E-02 -0.2175721E-01  0.7777953E-03  0.1171946E-01
4432593.  0.1839111E-01 -0.8555481E+00 -0.1518274E-02 -0.2553933E-01  0.7143916E-03  0.1044463E-01
4396111.  0.2309463E-01 -0.7849905E+00 -0.1362778E-02 -0.2865511E-01  0.6579745E-03  0.9277189E-02
4359630.  0.2735706E-01 -0.7018809E+00 -0.1191461E-02 -0.3106199E-01  0.6079584E-03  0.8207666E-02
4323148.  0.3111298E-01 -0.6084193E+00 -0.1008435E-02 -0.3274155E-01  0.5638127E-03  0.7224376E-02
4286667.  0.3430952E-01 -0.5069251E+00 -0.8178764E-03 -0.3369716E-01  0.5250796E-03  0.6315492E-02
4250185.  0.3690755E-01 -0.3997388E+00 -0.6238612E-03 -0.3395236E-01  0.4913697E-03  0.5467194E-02
4213704.  0.3888102E-01 -0.2891875E+00 -0.4303024E-03 -0.3354766E-01  0.4623786E-03  0.4665200E-02
4177222.  0.4021722E-01 -0.1775002E+00 -0.2408172E-03 -0.3253791E-01  0.4378828E-03  0.3894208E-02
4140741.  0.4091568E-01 -0.6678468E-01 -0.5869642E-04 -0.3098889E-01  0.4177532E-03  0.3137595E-02
4104259.  0.4098757E-01  0.4104083E-01  0.1131893E-03 -0.2897415E-01  0.4019553E-03  0.2378057E-02
4067778.  0.4045448E-01  0.1442551E+00  0.2723873E-03 -0.2657226E-01  0.3905620E-03  0.1595943E-02
4031296.  0.3934714E-01  0.2413803E+00  0.4169174E-03 -0.2386288E-01  0.3837603E-03  0.7705908E-03
3994815.  0.3770415E-01  0.3311733E+00  0.5452379E-03 -0.2092481E-01  0.3818642E-03 -0.1215926E-03
3958333.  0.3557033E-01  0.4126506E+00  0.6562617E-03 -0.1783247E-01  0.3853313E-03 -0.1107277E-02
3921852.  0.3299567E-01  0.4850644E+00  0.7492994E-03 -0.1465445E-01  0.3947805E-03 -0.2216468E-02
3885370.  0.3003351E-01  0.5479062E+00  0.8240409E-03 -0.1145045E-01  0.4110188E-03 -0.3484805E-02
3848889.  0.2673977E-01  0.6008716E+00  0.8804801E-03 -0.8269823E-02  0.4350726E-03 -0.4954021E-02
3812407.  0.2317124E-01  0.6438395E+00  0.9188664E-03 -0.5149704E-02  0.4682330E-03 -0.6674345E-02
3775926.  0.1938540E-01  0.6768258E+00  0.9396191E-03 -0.2113839E-02  0.5121033E-03 -0.8706116E-02
3739444.  0.1543887E-01  0.6999488E+00  0.9432519E-03  0.8299261E-03  0.5686732E-03 -0.1112310E-01
3702963.  0.1138792E-01  0.7133631E+00  0.9302757E-03  0.3690331E-02  0.6403956E-03 -0.1401574E-01
3666482.  0.7287613E-02  0.7172039E+00  0.9010971E-03  0.6495395E-02  0.7303039E-03 -0.1749575E-01
3630000.  0.3192497E-02  0.7115047E+00  0.8559015E-03  0.9294470E-02  0.8421482E-03 -0.2170215E-01
3630000.  0.3192497E-02  0.7115006E+00  0.8559015E-03  0.9294322E-02  0.8421482E-03 -0.2170215E-01
3592500. -0.9597029E-03  0.6975834E+00  0.7923184E-03  0.1234226E-01  0.9848073E-03 -0.2693900E-01
3555000. -0.4997521E-02  0.6724592E+00  0.7101125E-03  0.1564382E-01  0.1161490E-02 -0.3330602E-01
3517500. -0.8851347E-02  0.6347910E+00  0.6073681E-03  0.1934975E-01  0.1379671E-02 -0.4109358E-01
3480000. -0.1244177E-01  0.5825489E+00  0.4811469E-03  0.2365859E-01  0.1648748E-02 -0.5066847E-01
3480000. -0.1244177E-01 -0.1583001E+00 -0.1104886E-02 -0.2073563E-01  0.1648748E-02 -0.1153180E-01
3409422. -0.1064283E-01 -0.1640538E+00 -0.8888771E-03 -0.1821611E-01  0.1656170E-02  0.8161689E-02
3338844. -0.8851628E-02 -0.1576957E+00 -0.7018375E-03 -0.1554567E-01  0.1504387E-02  0.1793119E-01
3268266. -0.7177381E-02 -0.1436038E+00 -0.5442436E-03 -0.1292808E-01  0.1281844E-02  0.2144696E-01
3197688. -0.5685212E-02 -0.1253467E+00 -0.4146952E-03 -0.1050020E-01  0.1042733E-02  0.2127264E-01
3127109. -0.4405476E-02 -0.1056280E+00 -0.3105954E-03 -0.8342757E-02  0.8176843E-03  0.1913895E-01
3056531. -0.3343230E-02 -0.8633736E-01 -0.2287141E-03 -0.6492216E-02  0.6217365E-03  0.1616492E-01
2985953. -0.2486530E-02 -0.6866761E-01 -0.1656035E-03 -0.4952463E-02  0.4600810E-03  0.1303288E-01
2915375. -0.1813425E-02 -0.5326014E-01 -0.1179042E-03 -0.3705577E-02  0.3321326E-03  0.1012371E-01
2844797. -0.1297248E-02 -0.4034821E-01 -0.8253463E-04 -0.2720630E-02  0.2342719E-03  0.7618811E-02
2774219. -0.9103977E-03 -0.2988730E-01 -0.5679566E-04 -0.1960466E-02  0.1616207E-03  0.5574466E-02
2703641. -0.6267980E-03 -0.2166217E-01 -0.3841080E-04 -0.1386608E-02  0.1091192E-03  0.3974342E-02
2633062. -0.4233085E-03 -0.1536945E-01 -0.2552111E-04 -0.9625485E-03  0.7211998E-04  0.2764988E-02
2562484. -0.2803613E-03 -0.1067703E-01 -0.1665222E-04 -0.6556785E-03  0.4666433E-04  0.1878755E-02
2491906. -0.1820338E-03 -0.7262411E-02 -0.1066460E-04 -0.4381494E-03  0.2955408E-04  0.1247365E-02
2421328. -0.1158118E-03 -0.4835928E-02 -0.6699667E-05 -0.2871004E-03  0.1831496E-04  0.8093258E-03
2350750. -0.7215475E-04 -0.3151430E-02 -0.4125671E-05 -0.1843729E-03  0.1110027E-04  0.5131054E-03
2280172. -0.4399276E-04 -0.2008904E-02 -0.2488395E-05 -0.1159661E-03  0.6575314E-05  0.3177569E-03
2209594. -0.2622659E-04 -0.1251886E-02 -0.1468694E-05 -0.7138436E-04  0.3803683E-05  0.1921110E-03
2139016. -0.1527319E-04 -0.7620620E-03 -0.8473866E-06 -0.4296602E-04  0.2146742E-05  0.1133078E-03
2068438. -0.8678927E-05 -0.4527245E-03 -0.4773809E-06 -0.2526102E-04  0.1180743E-05  0.6513565E-04
1997859. -0.4806189E-05 -0.2621920E-03 -0.2622450E-06 -0.1448992E-04  0.6320695E-06  0.3645388E-04
1927281. -0.2590122E-05 -0.1478436E-03 -0.1402728E-06 -0.8098284E-05  0.3288296E-06  0.1983691E-04
1856703. -0.1356174E-05 -0.8104862E-04 -0.7293509E-07 -0.4403169E-05  0.1659718E-06  0.1047959E-04
1786125. -0.6886290E-06 -0.4312397E-04 -0.3679422E-07 -0.2325032E-05  0.8111812E-07  0.5365263E-05
1715547. -0.3383913E-06 -0.2222727E-04 -0.1797128E-07 -0.1189936E-05  0.3830607E-07  0.2656655E-05
1644969. -0.1605373E-06 -0.1107376E-04 -0.8477966E-08 -0.5889328E-06  0.1743401E-07  0.1269304E-05
1574391. -0.7332344E-07 -0.5319609E-05 -0.3852581E-08 -0.2811287E-06  0.7625524E-08  0.5836035E-06
1503812. -0.3212690E-07 -0.2458047E-05 -0.1681787E-08 -0.1289864E-06  0.3195094E-08  0.2574115E-06
1433234. -0.1341464E-07 -0.1092714E-05 -0.7047750E-09 -0.5650013E-07  0.1278091E-08  0.1085065E-06
1362656. -0.5189601E-08 -0.4779834E-06 -0.2885722E-09 -0.2291569E-07  0.4868498E-09  0.4348622E-07
1292078. -0.1435298E-08 -0.2473505E-06 -0.1349203E-09 -0.6412705E-08  0.1771829E-09  0.1645829E-07
1221500.  0.1274362E-08 -0.2931823E-06 -0.1357856E-09  0.7353940E-08  0.6203401E-10  0.6136101E-08
1221500.  0.1274362E-08 -0.1221855E-07 -0.9305134E-11 -0.6695244E-08  0.6203401E-10  0.5584043E-08
1183328.  0.1184806E-08  0.3406044E-07  0.1551061E-10 -0.2139760E-08  0.3567949E-10  0.3375822E-08
1145156.  0.9346502E-09  0.4559979E-07  0.2126758E-10 -0.7965671E-10  0.1996176E-10  0.1981338E-08
1106984.  0.6687528E-09  0.4163741E-07  0.1903858E-10  0.6750972E-09  0.1085868E-10  0.1129338E-08
1068812.  0.4458244E-09  0.3243420E-07  0.1439765E-10  0.8086108E-09  0.5738622E-11  0.6249913E-09
1030641.  0.2805083E-09  0.2292700E-07  0.9837231E-11  0.6914545E-09  0.2943154E-11  0.3356046E-09
 992469.  0.1676765E-09  0.1508092E-07  0.6237094E-11  0.5081700E-09  0.1462695E-11  0.1746683E-09
 954297.  0.9554049E-10  0.9342086E-08  0.3715987E-11  0.3389840E-09  0.7031848E-12  0.8798660E-10
 916125.  0.5196340E-10  0.5482194E-08  0.2093210E-11  0.2099170E-09  0.3263100E-12  0.4282135E-10
 877953.  0.2698510E-10  0.3055582E-08  0.1117877E-11  0.1219186E-09  0.1457953E-12  0.2008484E-10
 839781.  0.1337528E-10  0.1619962E-08  0.5669696E-12  0.6654086E-10  0.6262327E-13  0.9024631E-11
 801609.  0.0000000E+00  0.0000000E+00  0.0000000E+00  0.0000000E+00  0.0000000E+00  0.0000000E+00
 763438.  0.0000000E+00  0.0000000E+00  0.0000000E+00  0.0000000E+00  0.0000000E+00  0.0000000E+00
 725266.  0.0000000E+00  0.0000000E+00  0.0000000E+00  0.0000000E+00  0.0000000E+00  0.0000000E+00
 687094.  0.0000000E+00  0.0000000E+00  0.0000000E+00  0.0000000E+00  0.0000000E+00  0.0000000E+00
 648922.  0.0000000E+00  0.0000000E+00  0.0000000E+00  0.0000000E+00  0.0000000E+00  0.0000000E+00
 610750.  0.0000000E+00  0.0000000E+00  0.0000000E+00  0.0000000E+00  0.0000000E+00  0.0000000E+00
 572578.  0.0000000E+00  0.0000000E+00  0.0000000E+00  0.0000000E+00  0.0000000E+00  0.0000000E+00
 534406.  0.0000000E+00  0.0000000E+00  0.0000000E+00  0.0000000E+00  0.0000000E+00  0.0000000E+00
 496234.  0.0000000E+00  0.0000000E+00  0.0000000E+00  0.0000000E+00  0.0000000E+00  0.0000000E+00
 458062.  0.0000000E+00  0.0000000E+00  0.0000000E+00  0.0000000E+00  0.0000000E+00  0.0000000E+00
 419891.  0.0000000E+00  0.0000000E+00  0.0000000E+00  0.0000000E+00  0.0000000E+00  0.0000000E+00
 381719.  0.0000000E+00  0.0000000E+00  0.0000000E+00  0.0000000E+00  0.0000000E+00  0.0000000E+00
 343547.  0.0000000E+00  0.0000000E+00  0.0000000E+00  0.0000000E+00  0.0000000E+00  0.0000000E+00
 305375.  0.0000000E+00  0.0000000E+00  0.0000000E+00  0.0000000E+00  0.0000000E+00  0.0000000E+00
 267203.  0.0000000E+00  0.0000000E+00  0.0000000E+00  0.0000000E+00  0.0000000E+00  0.0000000E+00
 229031.  0.0000000E+00  0.0000000E+00  0.0000000E+00  0.0000000E+00  0.0000000E+00  0.0000000E+00
 190859.  0.0000000E+00  0.0000000E+00  0.0000000E+00  0.0000000E+00  0.0000000E+00  0.0000000E+00
 152688.  0.0000000E+00  0.0000000E+00  0.0000000E+00  0.0000000E+00  0.0000000E+00  0.0000000E+00
 114516.  0.0000000E+00  0.0000000E+00  0.0000000E+00  0.0000000E+00  0.0000000E+00  0.0000000E+00
  76344.  0.0000000E+00  0.0000000E+00  0.0000000E+00  0.0000000E+00  0.0000000E+00  0.0000000E+00
  38172.  0.0000000E+00  0.0000000E+00  0.0000000E+00  0.0000000E+00  0.0000000E+00  0.0000000E+00
      0.  0.0000000E+00  0.0000000E+00  0.0000000E+00  0.0000000E+00  0.0000000E+00  0.0000000E+00
