      20        3 S      697        130.13220         87.88901         21.28348        140.66910      185    7
6371000.  0.2655409E-01  0.2917293E-02  0.5044192E-02 -0.2150990E-01 -0.2305839E-04 -0.4998257E-01
6370000.  0.2655271E-01  0.1469439E-01  0.5046993E-02 -0.1418534E-01 -0.1521182E-04 -0.4999783E-01
6369000.  0.2654948E-01  0.2646455E-01  0.5048645E-02 -0.6851019E-02 -0.7363130E-05 -0.5000963E-01
6368000.  0.2654440E-01  0.3822694E-01  0.5049143E-02  0.4913969E-03  0.4871428E-06 -0.5001798E-01
6368000.  0.2654440E-01  0.3822694E-01  0.5049143E-02  0.4913969E-03  0.4871428E-06 -0.5001798E-01
6367000.  0.2653748E-01  0.4998073E-01  0.5048490E-02  0.7840234E-02  0.8338454E-05 -0.5002286E-01
6366000.  0.2652871E-01  0.6172509E-01  0.5046682E-02  0.1519382E-01  0.1619026E-04 -0.5002429E-01
6365000.  0.2651810E-01  0.7345920E-01  0.5043720E-02  0.2255047E-01  0.2404202E-04 -0.5002226E-01
6364000.  0.2650565E-01  0.8518224E-01  0.5039603E-02  0.2990852E-01  0.3189319E-04 -0.5001677E-01
6363000.  0.2649136E-01  0.9689338E-01  0.5034331E-02  0.3726629E-01  0.3974323E-04 -0.5000781E-01
6362000.  0.2647524E-01  0.1085918E+00  0.5027905E-02  0.4462209E-01  0.4759159E-04 -0.4999540E-01
6361000.  0.2645728E-01  0.1202767E+00  0.5020324E-02  0.5197424E-01  0.5543773E-04 -0.4997952E-01
6360000.  0.2643748E-01  0.1319473E+00  0.5011589E-02  0.5932108E-01  0.6328110E-04 -0.4996018E-01
6359000.  0.2641585E-01  0.1436027E+00  0.5001702E-02  0.6666090E-01  0.7112117E-04 -0.4993738E-01
6358000.  0.2639240E-01  0.1552422E+00  0.4990663E-02  0.7399205E-01  0.7895738E-04 -0.4991112E-01
6357000.  0.2636712E-01  0.1668649E+00  0.4978474E-02  0.8131284E-01  0.8678920E-04 -0.4988139E-01
6356000.  0.2634002E-01  0.1784701E+00  0.4965138E-02  0.8862159E-01  0.9461609E-04 -0.4984821E-01
6356000.  0.2634002E-01  0.1170325E+00  0.4965138E-02  0.4499852E-01  0.9461609E-04 -0.5557949E-01
6355000.  0.2632099E-01  0.1254851E+00  0.4957689E-02  0.4990202E-01  0.1033384E-03 -0.5555940E-01
6354000.  0.2630063E-01  0.1339277E+00  0.4949472E-02  0.5480215E-01  0.1120573E-03 -0.5553653E-01
6353000.  0.2627894E-01  0.1423600E+00  0.4940487E-02  0.5969813E-01  0.1207724E-03 -0.5551086E-01
6352000.  0.2625594E-01  0.1507815E+00  0.4930732E-02  0.6458922E-01  0.1294832E-03 -0.5548239E-01
6351000.  0.2623161E-01  0.1591919E+00  0.4920211E-02  0.6947467E-01  0.1381894E-03 -0.5545114E-01
6350000.  0.2620596E-01  0.1675906E+00  0.4908923E-02  0.7435372E-01  0.1468905E-03 -0.5541709E-01
6349000.  0.2617900E-01  0.1759774E+00  0.4896870E-02  0.7922563E-01  0.1555859E-03 -0.5538025E-01
6348000.  0.2615072E-01  0.1843517E+00  0.4884053E-02  0.8408963E-01  0.1642754E-03 -0.5534061E-01
6347000.  0.2612113E-01  0.1927131E+00  0.4870472E-02  0.8894499E-01  0.1729584E-03 -0.5529819E-01
6346600.  0.2610893E-01  0.1960540E+00  0.4864827E-02  0.9088454E-01  0.1764298E-03 -0.5528045E-01
6346600.  0.2610893E-01  0.1219811E+00  0.4864827E-02  0.5443207E-01  0.1764298E-03 -0.6438424E-01
6318800.  0.2521344E-01  0.2875631E+00  0.4400905E-02  0.1569067E+00  0.4544823E-03 -0.6275894E-01
6291000.  0.2361047E-01  0.4455153E+00  0.3513587E-02  0.2469804E+00  0.7215184E-03 -0.5933992E-01
6291000.  0.2361047E-01  0.4516846E+00  0.3513587E-02  0.2563184E+00  0.7215184E-03 -0.5933992E-01
6263000.  0.2129327E-01  0.6003923E+00  0.2219756E-02  0.3280191E+00  0.9713512E-03 -0.5406193E-01
6235000.  0.1835710E-01  0.7327616E+00  0.6740821E-03  0.3699667E+00  0.1194262E-02 -0.4711204E-01
6207000.  0.1488123E-01  0.8454908E+00 -0.9822318E-03  0.3779224E+00  0.1383254E-02 -0.3865914E-01
6179000.  0.1095817E-01  0.9358572E+00 -0.2596335E-02  0.3508644E+00  0.1532186E-02 -0.2892253E-01
6151000.  0.6691193E-02  0.1001680E+01 -0.4018161E-02  0.2910713E+00  0.1635983E-02 -0.1816702E-01
6151000.  0.6691193E-02  0.8024949E+00 -0.4018161E-02  0.2544055E+00  0.1635983E-02 -0.1853721E-01
6128500.  0.3834220E-02  0.8135571E+00 -0.4809141E-02  0.1916136E+00  0.1688312E-02 -0.1105666E-01
6106000.  0.9580021E-03  0.8134944E+00 -0.5360196E-02  0.1191684E+00  0.1713864E-02 -0.3393007E-02
6083500. -0.1899269E-02  0.8029342E+00 -0.5644175E-02  0.4105437E-01  0.1712205E-02  0.4332514E-02
6061000. -0.4701668E-02  0.7825298E+00 -0.5648440E-02 -0.3853247E-01  0.1683331E-02  0.1199990E-01
6038500. -0.7415602E-02  0.7529450E+00 -0.5375205E-02 -0.1154136E+00  0.1627653E-02  0.1949220E-01
6016000. -0.1000980E-01  0.7148257E+00 -0.4841083E-02 -0.1856499E+00  0.1545991E-02  0.2669712E-01
5993500. -0.1245522E-01  0.6687965E+00 -0.4075881E-02 -0.2457398E+00  0.1439548E-02  0.3350883E-01
5971000. -0.1472503E-01  0.6154694E+00 -0.3120736E-02 -0.2927933E+00  0.1309889E-02  0.3982893E-01
5971000. -0.1472503E-01  0.5564848E+00 -0.3120736E-02 -0.2591732E+00  0.1309889E-02  0.4175656E-01
5937667. -0.1737797E-01  0.4566536E+00 -0.1671451E-02 -0.2896902E+00  0.1069649E-02  0.4982924E-01
5904333. -0.1949552E-01  0.3522075E+00 -0.1419098E-03 -0.2901819E+00  0.7912052E-03  0.5633453E-01
5871000. -0.2105954E-01  0.2454469E+00  0.1318462E-02 -0.2640273E+00  0.4830857E-03  0.6116286E-01
5837667. -0.2206347E-01  0.1384367E+00  0.2583790E-02 -0.2166530E+00  0.1542185E-03  0.6426108E-01
5804333. -0.2251108E-01  0.3309242E-01  0.3560033E-02 -0.1546637E+00 -0.1863265E-03  0.6562655E-01
5771000. -0.2241586E-01 -0.6876503E-01  0.4188923E-02 -0.8504054E-01 -0.5295583E-03  0.6530285E-01
5771000. -0.2241586E-01 -0.6876110E-01  0.4188923E-02 -0.8503681E-01 -0.5295583E-03  0.6530285E-01
5701000. -0.2047927E-01 -0.2822339E+00  0.4331166E-02  0.5839503E-01 -0.1214533E-02  0.5824016E-01
5701000. -0.2047927E-01 -0.2287389E+00  0.4331166E-02  0.5196958E-01 -0.1214533E-02  0.6401253E-01
5667333. -0.1904357E-01 -0.3135993E+00  0.3914935E-02  0.1038814E+00 -0.1539883E-02  0.5889433E-01
5633667. -0.1717745E-01 -0.3913409E+00  0.3253285E-02  0.1444767E+00 -0.1834686E-02  0.5248124E-01
5600000. -0.1492329E-01 -0.4601505E+00  0.2411048E-02  0.1720275E+00 -0.2092555E-02  0.4494254E-01
5600000. -0.1492329E-01 -0.4601493E+00  0.2411048E-02  0.1720348E+00 -0.2092555E-02  0.4494254E-01
5563518. -0.1209188E-01 -0.5268035E+00  0.1364914E-02  0.1907572E+00 -0.2323908E-02  0.3568709E-01
5527037. -0.8914672E-02 -0.5806381E+00  0.2567082E-03  0.1936581E+00 -0.2499487E-02  0.2550460E-01
5490556. -0.5470151E-02 -0.6199108E+00 -0.8230545E-03  0.1809633E+00 -0.2614701E-02  0.1464612E-01
5454074. -0.1845709E-02 -0.6432531E+00 -0.1788622E-02  0.1540924E+00 -0.2666428E-02  0.3373587E-02
5417593.  0.1864359E-02 -0.6497401E+00 -0.2565380E-02  0.1155140E+00 -0.2653059E-02 -0.8045241E-02
5381111.  0.5562304E-02 -0.6389599E+00 -0.3095433E-02  0.6852284E-01 -0.2574517E-02 -0.1934530E-01
5344630.  0.9149183E-02 -0.6110526E+00 -0.3341415E-02  0.1697185E-01 -0.2432233E-02 -0.3026748E-01
5308148.  0.1252886E-01 -0.5667214E+00 -0.3288922E-02 -0.3503884E-01 -0.2229073E-02 -0.4056656E-01
5271667.  0.1561045E-01 -0.5072204E+00 -0.2947013E-02 -0.8346243E-01 -0.1969278E-02 -0.5001394E-01
5235185.  0.1831207E-01 -0.4343133E+00 -0.2347002E-02 -0.1246105E+00 -0.1658314E-02 -0.5840398E-01
5198704.  0.2056296E-01 -0.3502194E+00 -0.1539750E-02 -0.1554035E+00 -0.1302780E-02 -0.6555605E-01
5162222.  0.2230641E-01 -0.2575115E+00 -0.5913925E-03 -0.1735868E+00 -0.9101952E-03 -0.7131898E-01
5125741.  0.2350103E-01 -0.1590285E+00  0.4216247E-03 -0.1778669E+00 -0.4888931E-03 -0.7557265E-01
5089259.  0.2412229E-01 -0.5774354E-01  0.1418509E-02 -0.1679864E+00 -0.4775871E-04 -0.7822997E-01
5052778.  0.2416273E-01  0.4333854E-01  0.2319855E-02 -0.1447192E+00  0.4038741E-03 -0.7923780E-01
5016296.  0.2363188E-01  0.1413222E+00  0.3053575E-02 -0.1097928E+00  0.8565146E-03 -0.7857721E-01
4979815.  0.2255535E-01  0.2335125E+00  0.3559813E-02 -0.6575423E-01  0.1300611E-02 -0.7626322E-01
4943333.  0.2097323E-01  0.3175354E+00  0.3795239E-02 -0.1577083E-01  0.1726842E-02 -0.7234380E-01
4906852.  0.1893826E-01  0.3914005E+00  0.3735884E-02  0.3659040E-01  0.2126203E-02 -0.6689797E-01
4870370.  0.1651312E-01  0.4535774E+00  0.3378727E-02  0.8762469E-01  0.2490273E-02 -0.6003400E-01
4833889.  0.1376810E-01  0.5030167E+00  0.2741807E-02  0.1337320E+00  0.2811286E-02 -0.5188727E-01
4797407.  0.1077779E-01  0.5391735E+00  0.1862801E-02  0.1716723E+00  0.3082355E-02 -0.4261559E-01
4760926.  0.7618833E-02  0.5619797E+00  0.7965066E-03  0.1987665E+00  0.3297530E-02 -0.3239848E-01
4724444.  0.4366606E-02  0.5718151E+00 -0.3890883E-03  0.2130753E+00  0.3451960E-02 -0.2143081E-01
4687963.  0.1093544E-02  0.5694442E+00 -0.1617178E-02  0.2135153E+00  0.3541931E-02 -0.9921537E-02
4651482. -0.2133513E-02  0.5559480E+00 -0.2807464E-02  0.1999212E+00  0.3564964E-02  0.1912350E-02
4615000. -0.5254602E-02  0.5326344E+00 -0.3881335E-02  0.1730436E+00  0.3519832E-02  0.1384906E-01
4578518. -0.8217520E-02  0.5009522E+00 -0.4766919E-02  0.1344924E+00  0.3406587E-02  0.2566529E-01
4542037. -0.1097857E-01  0.4624054E+00 -0.5403775E-02  0.8662406E-01  0.3226556E-02  0.3714075E-01
4505556. -0.1350277E-01  0.4184627E+00 -0.5746758E-02  0.3237869E-01  0.2982300E-02  0.4806285E-01
4469074. -0.1576326E-01  0.3704893E+00 -0.5768757E-02 -0.2491156E-01  0.2677565E-02  0.5822949E-01
4432593. -0.1774036E-01  0.3196906E+00 -0.5462368E-02 -0.8173149E-01  0.2317240E-02  0.6745192E-01
4396111. -0.1942098E-01  0.2670640E+00 -0.4840261E-02 -0.1346162E+00  0.1907209E-02  0.7555963E-01
4359630. -0.2079689E-01  0.2133882E+00 -0.3934368E-02 -0.1803549E+00  0.1454323E-02  0.8240076E-01
4323148. -0.2186381E-01  0.1592055E+00 -0.2793698E-02 -0.2161965E+00  0.9661880E-03  0.8784743E-01
4286667. -0.2261985E-01  0.1048522E+00 -0.1481419E-02 -0.2400085E+00  0.4511268E-03  0.9179480E-01
4250185. -0.2306457E-01  0.5047846E-01 -0.7069715E-04 -0.2504020E+00 -0.8206797E-04  0.9416524E-01
4213704. -0.2319795E-01 -0.3893725E-02  0.1359524E-02 -0.2468083E+00 -0.6241782E-03  0.9490767E-01
4177222. -0.2301985E-01 -0.5832691E-01  0.2729611E-02 -0.2295007E+00 -0.1165832E-02  0.9399909E-01
4140741. -0.2252972E-01 -0.1128944E+00  0.3963716E-02 -0.1995730E+00 -0.1697547E-02  0.9144474E-01
4104259. -0.2172661E-01 -0.1676304E+00  0.4994555E-02 -0.1588555E+00 -0.2210009E-02  0.8727715E-01
4067778. -0.2060977E-01 -0.2224599E+00  0.5767052E-02 -0.1098027E+00 -0.2694112E-02  0.8155680E-01
4031296. -0.1917915E-01 -0.2771597E+00  0.6241688E-02 -0.5533088E-01 -0.3141223E-02  0.7436903E-01
3994815. -0.1743668E-01 -0.3313105E+00  0.6396499E-02  0.1353318E-02 -0.3543222E-02  0.6582445E-01
3958333. -0.1538710E-01 -0.3842817E+00  0.6228250E-02  0.5695858E-01 -0.3892729E-02  0.5605509E-01
3921852. -0.1303962E-01 -0.4352213E+00  0.5752363E-02  0.1082935E+00 -0.4183139E-02  0.4521365E-01
3885370. -0.1040868E-01 -0.4830710E+00  0.5001730E-02  0.1524653E+00 -0.4408807E-02  0.3346917E-01
3848889. -0.7515591E-02 -0.5265893E+00  0.4024641E-02  0.1870373E+00 -0.4565069E-02  0.2100618E-01
3812407. -0.4388874E-02 -0.5644069E+00  0.2881581E-02  0.2101732E+00 -0.4648375E-02  0.8019195E-02
3775926. -0.1065453E-02 -0.5950820E+00  0.1641721E-02  0.2207303E+00 -0.4656298E-02 -0.5288039E-02
3739444.  0.2409815E-02 -0.6171740E+00  0.3784909E-03  0.2183235E+00 -0.4587597E-02 -0.1870862E-01
3702963.  0.5983620E-02 -0.6293165E+00 -0.8345327E-03  0.2033326E+00 -0.4442225E-02 -0.3203298E-01
3666482.  0.9595549E-02 -0.6303062E+00 -0.1928182E-02  0.1768721E+00 -0.4221326E-02 -0.4505476E-01
3630000.  0.1317892E-01 -0.6191707E+00 -0.2841588E-02  0.1407141E+00 -0.3927202E-02 -0.5757322E-01
3630000.  0.1317892E-01 -0.6191685E+00 -0.2841588E-02  0.1407123E+00 -0.3927202E-02 -0.5757322E-01
3592500.  0.1676583E-01 -0.5972623E+00 -0.3543031E-02  0.9649491E-01 -0.3552117E-02 -0.6974725E-01
3555000.  0.2018176E-01 -0.5610141E+00 -0.3967102E-02  0.4697201E-01 -0.3107842E-02 -0.8104953E-01
3517500.  0.2334173E-01 -0.5103160E+00 -0.4091830E-02 -0.4665579E-02 -0.2600090E-02 -0.9128420E-01
3480000.  0.2616164E-01 -0.4455768E+00 -0.3914617E-02 -0.5506202E-01 -0.2035688E-02 -0.1002696E+00
3480000.  0.2616164E-01 -0.6702170E+00  0.7768916E-03  0.4645979E-01 -0.2035688E-02 -0.1825634E+00
3409422.  0.3117802E-01 -0.2252821E+00  0.1910352E-03  0.5790187E-01  0.2338714E-03 -0.2213522E+00
3338844.  0.3107022E-01  0.2421877E+00 -0.4720060E-03  0.6019115E-01  0.2731611E-02 -0.2232494E+00
3268266.  0.2599815E-01  0.6597341E+00 -0.1106790E-02  0.5284187E-01  0.5043139E-02 -0.1882231E+00
3197688.  0.1685837E-01  0.9682226E+00 -0.1610517E-02  0.3679962E-01  0.6785665E-02 -0.1218747E+00
3127109.  0.5096034E-02  0.1128551E+01 -0.1897980E-02  0.1424875E-01  0.7664601E-02 -0.3427899E-01
3056531. -0.7537434E-02  0.1124857E+01 -0.1913517E-02 -0.1172545E-01  0.7514130E-02  0.6169286E-01
2985953. -0.1924478E-01  0.9643514E+00 -0.1638672E-02 -0.3756942E-01  0.6317652E-02  0.1523057E+00
2915375. -0.2842333E-01  0.6742802E+00 -0.1094806E-02 -0.5972442E-01  0.4206701E-02  0.2248488E+00
2844797. -0.3386033E-01  0.2968036E+00 -0.3406655E-03 -0.7506909E-01  0.1440244E-02  0.2692642E+00
2774219. -0.3486357E-01 -0.1173742E+00  0.5346024E-03 -0.8129021E-01 -0.1631723E-02  0.2793305E+00
2703641. -0.3131883E-01 -0.5157148E+00  0.1421983E-02 -0.7714812E-01 -0.4614747E-02  0.2532998E+00
2633062. -0.2367450E-01 -0.8501373E+00  0.2205384E-02 -0.6261437E-01 -0.7120350E-02  0.1939556E+00
2562484. -0.1286272E-01 -0.1082201E+01  0.2775150E-02 -0.3887474E-01 -0.8813919E-02  0.1081378E+00
2491906. -0.1697085E-03 -0.1186833E+01  0.3040996E-02 -0.8204725E-02 -0.9455063E-02  0.5812995E-02
2421328.  0.1292414E-01 -0.1154248E+01  0.2942836E-02  0.2626481E-01 -0.8925498E-02 -0.1011566E+00
2350750.  0.2491635E-01 -0.9901212E+00  0.2458567E-02  0.6086542E-01 -0.7242472E-02 -0.2004008E+00
2280172.  0.3444667E-01 -0.7140900E+00  0.1608035E-02  0.9175356E-01 -0.4556662E-02 -0.2804216E+00
2209594.  0.4043732E-01 -0.3569500E+00  0.4528959E-03  0.1152882E+00 -0.1135525E-02 -0.3318184E+00
2139016.  0.4219637E-01  0.4311586E-01 -0.9076428E-03  0.1283851E+00  0.2665506E-02 -0.3482396E+00
2068438.  0.3947620E-01  0.4448040E+00 -0.2344701E-02  0.1288157E+00  0.6440442E-02 -0.3269758E+00
1997859.  0.3248397E-01  0.8079966E+00 -0.3710521E-02  0.1154259E+00  0.9774582E-02 -0.2691529E+00
1927281.  0.2184658E-01  0.1097686E+01 -0.4851078E-02  0.8826032E-01  0.1228604E-01 -0.1795287E+00
1856703.  0.8534887E-02  0.1287188E+01 -0.5619648E-02  0.4857518E-01  0.1366339E-01 -0.6592290E-01
1786125. -0.6241363E-02  0.1360357E+01 -0.5889750E-02 -0.1250296E-02  0.1369497E-01  0.6163150E-01
1715547. -0.2115745E-01  0.1312659E+01 -0.5566670E-02 -0.5789822E-01  0.1228774E-01  0.1919323E+00
1644969. -0.3490293E-01  0.1151103E+01 -0.4596449E-02 -0.1173797E+00  0.9474041E-02  0.3137313E+00
1574391. -0.4630405E-01  0.8930790E+00 -0.2971565E-02 -0.1753549E+00  0.5405999E-02  0.4168314E+00
1503812. -0.5442810E-01  0.5642874E+00 -0.7328762E-03 -0.2274849E+00  0.3382309E-03  0.4930560E+00
1433234. -0.5866047E-01  0.1960236E+00  0.2032236E-02 -0.2697835E+00 -0.5398651E-02  0.5370085E+00
1362656. -0.5875020E-01 -0.1779513E+00  0.5195842E-02 -0.2989508E+00 -0.1143235E-01  0.5465822E+00
1292078. -0.5481932E-01 -0.5245495E+00  0.8598532E-02 -0.3126503E+00 -0.1738655E-01  0.5231851E+00
1221500. -0.4733911E-01 -0.8142564E+00  0.1206139E-01 -0.3097291E+00 -0.2292001E-01  0.4717227E+00
1221500. -0.4733911E-01  0.2184047E+01  0.7019904E-01  0.6130459E+00 -0.2292001E-01  0.4922302E+00
1183328. -0.5915557E-01  0.1609331E+01  0.5940315E-01  0.2913538E+01 -0.2564380E-01  0.4162524E+00
1145156. -0.6492297E-01  0.1909247E+00  0.3680002E-01  0.4462199E+01 -0.2790080E-01  0.3366802E+00
1106984. -0.6028694E-01 -0.1800167E+01  0.8322550E-02  0.4824360E+01 -0.2967437E-01  0.2551644E+00
1068812. -0.4311828E-01 -0.3904933E+01 -0.1834648E-01  0.3864294E+01 -0.3095797E-01  0.1734066E+00
1030641. -0.1436368E-01 -0.5575857E+01 -0.3572945E-01  0.1785967E+01 -0.3175517E-01  0.9308853E-01
 992469.  0.2180875E-01 -0.6307071E+01 -0.3849685E-01 -0.9124292E+00 -0.3207947E-01  0.1579504E-01
 954297.  0.5865339E-01 -0.5765112E+01 -0.2490067E-01 -0.3557915E+01 -0.3195336E-01 -0.5703584E-01
 916125.  0.8820897E-01 -0.3890210E+01  0.2657498E-02 -0.5467632E+01 -0.3140741E-01 -0.1241653E+00
 877953.  0.1031049E+00 -0.9411750E+00  0.3808328E-01 -0.6118053E+01 -0.3047891E-01 -0.1845795E+00
 839781.  0.9843101E-01  0.2529850E+01  0.7296740E-01 -0.5277023E+01 -0.2921058E-01 -0.2374899E+00
 801609.  0.7324237E-01  0.5772264E+01  0.9856120E-01 -0.3067034E+01 -0.2764921E-01 -0.2823204E+00
 763438.  0.3132730E-01  0.7984818E+01  0.1078793E+00  0.5639770E-01 -0.2584450E-01 -0.3186846E+00
 725266. -0.1900612E-01  0.8487676E+01  0.9742795E-01  0.3406070E+01 -0.2384781E-01 -0.3463642E+00
 687094. -0.6614342E-01  0.6881842E+01  0.6814153E-01  0.6219730E+01 -0.2171150E-01 -0.3652865E+00
 648922. -0.9722120E-01  0.3162288E+01  0.2530440E-01  0.7836496E+01 -0.1948792E-01 -0.3755215E+00
 610750. -0.1006437E+00 -0.2243468E+01 -0.2253925E-01  0.7850835E+01 -0.1722853E-01 -0.3772905E+00
 572578. -0.6857450E-01 -0.8523264E+01 -0.6543889E-01  0.6208587E+01 -0.1498298E-01 -0.3709799E+00
 534406.  0.1110443E-02 -0.1461001E+02 -0.9423323E-01  0.3222827E+01 -0.1279807E-01 -0.3571616E+00
 496234.  0.1038416E+00 -0.1937135E+02 -0.1025867E+00 -0.4940471E+00 -0.1071655E-01 -0.3366093E+00
 458062.  0.2286051E+00 -0.2182415E+02 -0.8840242E-01 -0.4166379E+01 -0.8775963E-02 -0.3102992E+00
 419891.  0.3594453E+00 -0.2133252E+02 -0.5429255E-01 -0.7028181E+01 -0.7007440E-02 -0.2793964E+00
 381719.  0.4780195E+00 -0.1774915E+02 -0.6993408E-02 -0.8493864E+01 -0.5434547E-02 -0.2452099E+00
 343547.  0.5667181E+00 -0.1147054E+02  0.4412451E-01 -0.8287015E+01 -0.4072814E-02 -0.2091496E+00
 305375.  0.6118525E+00 -0.3391844E+01  0.8913054E-01 -0.6499761E+01 -0.2929179E-02 -0.1726455E+00
 267203.  0.6062601E+00  0.5234044E+01  0.1197101E+00 -0.3568460E+01 -0.2002088E-02 -0.1370915E+00
 229031.  0.5508391E+00  0.1300885E+02  0.1309565E+00 -0.1719825E+00 -0.1281938E-02 -0.1037690E+00
 190859.  0.4546881E+00  0.1863505E+02  0.1223779E+00  0.2923505E+01 -0.7519209E-03 -0.7379581E-01
 152688.  0.3337846E+00  0.2115072E+02  0.9789884E-01  0.5038633E+01 -0.3890845E-03 -0.4810549E-01
 114516.  0.2083875E+00  0.2010855E+02  0.6485863E-01  0.5733986E+01 -0.1654552E-03 -0.2742973E-01
  76344.  0.9965657E-01  0.1566457E+02  0.3225312E-01  0.4906871E+01 -0.4929588E-04 -0.1230535E-01
  38172.  0.2602207E-01  0.8560598E+01  0.8611366E-02  0.2811952E+01 -0.6181865E-05 -0.3094022E-02
      0.  0.0000000E+00  0.0000000E+00  0.0000000E+00  0.0000000E+00  0.0000000E+00  0.0000000E+00
