       3        8 S      228        355.07001         13.26339          5.27192        263.22101      185    7
6371000. -0.4888322E-01  0.7391207E+00  0.2473415E-01  0.7361737E-01 -0.3425244E-02  0.1230095E+00
6370000. -0.4899897E-01  0.7358081E+00  0.2472227E-01  0.7783239E-01 -0.3444531E-02  0.1227492E+00
6369000. -0.4911420E-01  0.7324550E+00  0.2470972E-01  0.8204534E-01 -0.3463778E-02  0.1224881E+00
6368000. -0.4922890E-01  0.7290611E+00  0.2469651E-01  0.8625612E-01 -0.3482983E-02  0.1222264E+00
6368000. -0.4922890E-01  0.7290611E+00  0.2469651E-01  0.8625612E-01 -0.3482983E-02  0.1222264E+00
6367000. -0.4934307E-01  0.7256267E+00  0.2468264E-01  0.9046460E-01 -0.3502148E-02  0.1219639E+00
6366000. -0.4945669E-01  0.7221517E+00  0.2466811E-01  0.9467065E-01 -0.3521270E-02  0.1217006E+00
6365000. -0.4956977E-01  0.7186362E+00  0.2465292E-01  0.9887417E-01 -0.3540352E-02  0.1214367E+00
6364000. -0.4968229E-01  0.7150802E+00  0.2463707E-01  0.1030750E+00 -0.3559392E-02  0.1211720E+00
6363000. -0.4979425E-01  0.7114837E+00  0.2462056E-01  0.1072731E+00 -0.3578390E-02  0.1209067E+00
6362000. -0.4990564E-01  0.7078468E+00  0.2460340E-01  0.1114683E+00 -0.3597347E-02  0.1206406E+00
6361000. -0.5001645E-01  0.7041695E+00  0.2458557E-01  0.1156604E+00 -0.3616262E-02  0.1203738E+00
6360000. -0.5012669E-01  0.7004518E+00  0.2456709E-01  0.1198494E+00 -0.3635135E-02  0.1201062E+00
6359000. -0.5023634E-01  0.6966938E+00  0.2454795E-01  0.1240352E+00 -0.3653966E-02  0.1198380E+00
6358000. -0.5034539E-01  0.6928955E+00  0.2452815E-01  0.1282176E+00 -0.3672755E-02  0.1195691E+00
6357000. -0.5045385E-01  0.6890571E+00  0.2450770E-01  0.1323964E+00 -0.3691502E-02  0.1192995E+00
6356000. -0.5056170E-01  0.6851783E+00  0.2448659E-01  0.1365717E+00 -0.3710206E-02  0.1190291E+00
6356000. -0.5056170E-01  0.6109462E+00  0.2448659E-01  0.1122538E+00 -0.3710206E-02  0.1300308E+00
6355000. -0.5065738E-01  0.6082333E+00  0.2446877E-01  0.1148550E+00 -0.3730590E-02  0.1296984E+00
6354000. -0.5075264E-01  0.6054959E+00  0.2445053E-01  0.1174541E+00 -0.3750921E-02  0.1293655E+00
6353000. -0.5084746E-01  0.6027342E+00  0.2443190E-01  0.1200512E+00 -0.3771200E-02  0.1290321E+00
6352000. -0.5094185E-01  0.5999480E+00  0.2441285E-01  0.1226460E+00 -0.3791427E-02  0.1286983E+00
6351000. -0.5103580E-01  0.5971376E+00  0.2439339E-01  0.1252387E+00 -0.3811602E-02  0.1283640E+00
6350000. -0.5112930E-01  0.5943027E+00  0.2437353E-01  0.1278290E+00 -0.3831723E-02  0.1280292E+00
6349000. -0.5122236E-01  0.5914436E+00  0.2435327E-01  0.1304171E+00 -0.3851793E-02  0.1276939E+00
6348000. -0.5131497E-01  0.5885602E+00  0.2433259E-01  0.1330028E+00 -0.3871809E-02  0.1273581E+00
6347000. -0.5140712E-01  0.5856524E+00  0.2431151E-01  0.1355861E+00 -0.3891773E-02  0.1270219E+00
6346600. -0.5144386E-01  0.5844826E+00  0.2430297E-01  0.1366187E+00 -0.3899744E-02  0.1268873E+00
6346600. -0.5144386E-01  0.7095625E+00  0.2430297E-01  0.1169386E+00 -0.3899744E-02  0.1448250E+00
6318800. -0.5441104E-01  0.6478960E+00  0.2368286E-01  0.1670071E+00 -0.4509908E-02  0.1348073E+00
6291000. -0.5707593E-01  0.5710267E+00  0.2284829E-01  0.2151516E+00 -0.5075922E-02  0.1245891E+00
6291000. -0.5707593E-01  0.5961908E+00  0.2284829E-01  0.2208536E+00 -0.5075922E-02  0.1245891E+00
6263000. -0.5949142E-01  0.5003988E+00  0.2176978E-01  0.2694517E+00 -0.5601082E-02  0.1143611E+00
6235000. -0.6145132E-01  0.3889540E+00  0.2048459E-01  0.3148187E+00 -0.6080825E-02  0.1039205E+00
6207000. -0.6288830E-01  0.2625657E+00  0.1900808E-01  0.3564313E+00 -0.6514211E-02  0.9326485E-01
6179000. -0.6373865E-01  0.1221648E+00  0.1735783E-01  0.3938099E+00 -0.6900287E-02  0.8239084E-01
6151000. -0.6394327E-01 -0.3108455E-01  0.1555340E-01  0.4265197E+00 -0.7238088E-02  0.7129575E-01
6151000. -0.6394327E-01  0.7691127E-01  0.1555340E-01  0.3836187E+00 -0.7238088E-02  0.7483345E-01
6128500. -0.6404518E-01 -0.1970325E-01  0.1416862E-01  0.4001127E+00 -0.7489040E-02  0.6728460E-01
6106000. -0.6380036E-01 -0.1193439E+00  0.1273078E-01  0.4136594E+00 -0.7713352E-02  0.5974923E-01
6083500. -0.6319929E-01 -0.2213518E+00  0.1125032E-01  0.4242477E+00 -0.7911093E-02  0.5223837E-01
6061000. -0.6223478E-01 -0.3250635E+00  0.9737683E-02  0.4318841E+00 -0.8082368E-02  0.4476412E-01
6038500. -0.6090197E-01 -0.4298166E+00  0.8203251E-02  0.4365972E+00 -0.8227328E-02  0.3733671E-01
6016000. -0.5919838E-01 -0.5349423E+00  0.6657271E-02  0.4384339E+00 -0.8346153E-02  0.2996595E-01
5993500. -0.5712385E-01 -0.6397781E+00  0.5109796E-02  0.4374556E+00 -0.8439065E-02  0.2266250E-01
5971000. -0.5468056E-01 -0.7436799E+00  0.3570629E-02  0.4337440E+00 -0.8506314E-02  0.1543472E-01
5971000. -0.5468056E-01 -0.6602206E+00  0.3570629E-02  0.3928070E+00 -0.8506314E-02  0.2259287E-01
5937667. -0.5092925E-01 -0.7722193E+00  0.1566389E-02  0.3727500E+00 -0.8600557E-02  0.1349898E-01
5904333. -0.4661665E-01 -0.8746184E+00 -0.3244080E-03  0.3495552E+00 -0.8648291E-02  0.4819716E-02
5871000. -0.4179480E-01 -0.9668579E+00 -0.2087275E-02  0.3239895E+00 -0.8651777E-02 -0.3409704E-02
5837667. -0.3651769E-01 -0.1048602E+01 -0.3711693E-02  0.2967394E+00 -0.8613445E-02 -0.1116172E-01
5804333. -0.3084050E-01 -0.1119711E+01 -0.5190521E-02  0.2684137E+00 -0.8535846E-02 -0.1841634E-01
5771000. -0.2481930E-01 -0.1180187E+01 -0.6519469E-02  0.2395451E+00 -0.8421629E-02 -0.2515828E-01
5771000. -0.2481930E-01 -0.1180224E+01 -0.6519469E-02  0.2395380E+00 -0.8421629E-02 -0.2515828E-01
5701000. -0.1091188E-01 -0.1344936E+01 -0.8890891E-02  0.1910320E+00 -0.8065554E-02 -0.3945208E-01
5701000. -0.1091188E-01 -0.1142682E+01 -0.8890891E-02  0.1511082E+00 -0.8065554E-02 -0.3637641E-01
5667333. -0.4777027E-02 -0.1177528E+01 -0.9629630E-02  0.1285895E+00 -0.7863145E-02 -0.4014679E-01
5633667.  0.1518065E-02 -0.1203457E+01 -0.1025118E-01  0.1067923E+00 -0.7642135E-02 -0.4341740E-01
5600000.  0.7927752E-02 -0.1220897E+01 -0.1075983E-01  0.8587371E-01 -0.7405177E-02 -0.4617809E-01
5600000.  0.7927752E-02 -0.1220925E+01 -0.1075983E-01  0.8587886E-01 -0.7405177E-02 -0.4617809E-01
5563518.  0.1500253E-01 -0.1248812E+01 -0.1119605E-01  0.6647914E-01 -0.7133261E-02 -0.4874639E-01
5527037.  0.2221432E-01 -0.1268832E+01 -0.1152131E-01  0.4714942E-01 -0.6847454E-02 -0.5103323E-01
5490556.  0.2951805E-01 -0.1280919E+01 -0.1173645E-01  0.2804577E-01 -0.6549341E-02 -0.5304635E-01
5454074.  0.3686845E-01 -0.1285061E+01 -0.1184321E-01  0.9313676E-02 -0.6240455E-02 -0.5479436E-01
5417593.  0.4421968E-01 -0.1281295E+01 -0.1184409E-01 -0.8910662E-02 -0.5922304E-02 -0.5628759E-01
5381111.  0.5152714E-01 -0.1269719E+01 -0.1174237E-01 -0.2650324E-01 -0.5596295E-02 -0.5753707E-01
5344630.  0.5874609E-01 -0.1250478E+01 -0.1154199E-01 -0.4334991E-01 -0.5263811E-02 -0.5855469E-01
5308148.  0.6583359E-01 -0.1223773E+01 -0.1124752E-01 -0.5934961E-01 -0.4926125E-02 -0.5935324E-01
5271667.  0.7274716E-01 -0.1189836E+01 -0.1086409E-01 -0.7441187E-01 -0.4584468E-02 -0.5994674E-01
5235185.  0.7944654E-01 -0.1148948E+01 -0.1039727E-01 -0.8845911E-01 -0.4239958E-02 -0.6034933E-01
5198704.  0.8589248E-01 -0.1101431E+01 -0.9853095E-02 -0.1014240E+00 -0.3893662E-02 -0.6057642E-01
5162222.  0.9204835E-01 -0.1047635E+01 -0.9237896E-02 -0.1132523E+00 -0.3546523E-02 -0.6064266E-01
5125741.  0.9787896E-01 -0.9879473E+00 -0.8558346E-02 -0.1238998E+00 -0.3199435E-02 -0.6056514E-01
5089259.  0.1033520E+00 -0.9227755E+00 -0.7821266E-02 -0.1333344E+00 -0.2853155E-02 -0.6035921E-01
5052778.  0.1084371E+00 -0.8525590E+00 -0.7033711E-02 -0.1415338E+00 -0.2508391E-02 -0.6004210E-01
5016296.  0.1131069E+00 -0.7777478E+00 -0.6202749E-02 -0.1484868E+00 -0.2165712E-02 -0.5963037E-01
4979815.  0.1173362E+00 -0.6988171E+00 -0.5335573E-02 -0.1541911E+00 -0.1825632E-02 -0.5914097E-01
4943333.  0.1211030E+00 -0.6162448E+00 -0.4439266E-02 -0.1586546E+00 -0.1488521E-02 -0.5859248E-01
4906852.  0.1243876E+00 -0.5305300E+00 -0.3520943E-02 -0.1618931E+00 -0.1154693E-02 -0.5800043E-01
4870370.  0.1271736E+00 -0.4421658E+00 -0.2587500E-02 -0.1639312E+00 -0.8243265E-03 -0.5738378E-01
4833889.  0.1294473E+00 -0.3516545E+00 -0.1645776E-02 -0.1648005E+00 -0.4975251E-03 -0.5676094E-01
4797407.  0.1311977E+00 -0.2594923E+00 -0.7023024E-03 -0.1645398E+00 -0.1742630E-03 -0.5614737E-01
4760926.  0.1324168E+00 -0.1661782E+00  0.2365221E-03 -0.1631939E+00  0.1455504E-03 -0.5556267E-01
4724444.  0.1330995E+00 -0.7219305E-01  0.1164677E-02 -0.1608132E+00  0.4621492E-03 -0.5502439E-01
4687963.  0.1332432E+00  0.2198031E-01  0.2076343E-02 -0.1574530E+00  0.7758323E-03 -0.5455047E-01
4651482.  0.1328483E+00  0.1158811E+00  0.2966105E-02 -0.1531726E+00  0.1087031E-02 -0.5415983E-01
4615000.  0.1319175E+00  0.2090630E+00  0.3828894E-02 -0.1480346E+00  0.1396284E-02 -0.5387067E-01
4578518.  0.1304562E+00  0.3010921E+00  0.4659962E-02 -0.1421048E+00  0.1704218E-02 -0.5370253E-01
4542037.  0.1284723E+00  0.3915546E+00  0.5454948E-02 -0.1354510E+00  0.2011570E-02 -0.5367345E-01
4505556.  0.1259758E+00  0.4800623E+00  0.6209924E-02 -0.1281421E+00  0.2319202E-02 -0.5380370E-01
4469074.  0.1229789E+00  0.5662501E+00  0.6921360E-02 -0.1202478E+00  0.2628091E-02 -0.5411322E-01
4432593.  0.1194961E+00  0.6497694E+00  0.7586064E-02 -0.1118386E+00  0.2939309E-02 -0.5462367E-01
4396111.  0.1155433E+00  0.7303063E+00  0.8201325E-02 -0.1029836E+00  0.3254088E-02 -0.5535739E-01
4359630.  0.1111387E+00  0.8075651E+00  0.8764752E-02 -0.9375153E-01  0.3573748E-02 -0.5633527E-01
4323148.  0.1063016E+00  0.8812819E+00  0.9274409E-02 -0.8420917E-01  0.3899777E-02 -0.5758352E-01
4286667.  0.1010532E+00  0.9512164E+00  0.9728679E-02 -0.7442125E-01  0.4233775E-02 -0.5912578E-01
4250185.  0.9541558E-01  0.1017157E+01  0.1012636E-01 -0.6444948E-01  0.4577523E-02 -0.6099043E-01
4213704.  0.8941243E-01  0.1078917E+01  0.1046654E-01 -0.5435293E-01  0.4932930E-02 -0.6320624E-01
4177222.  0.8306781E-01  0.1136337E+01  0.1074869E-01 -0.4418639E-01  0.5302114E-02 -0.6580435E-01
4140741.  0.7640734E-01  0.1189280E+01  0.1097255E-01 -0.3400103E-01  0.5687341E-02 -0.6881903E-01
4104259.  0.6945660E-01  0.1237638E+01  0.1113814E-01 -0.2384248E-01  0.6091119E-02 -0.7228651E-01
4067778.  0.6224251E-01  0.1281319E+01  0.1124573E-01 -0.1375275E-01  0.6516135E-02 -0.7624792E-01
4031296.  0.5479164E-01  0.1320257E+01  0.1129584E-01 -0.3766823E-02  0.6965364E-02 -0.8074714E-01
3994815.  0.4713173E-01  0.1354399E+01  0.1128913E-01  0.6084790E-02  0.7442000E-02 -0.8583312E-01
3958333.  0.3928990E-01  0.1383715E+01  0.1122645E-01  0.1577924E-01  0.7949581E-02 -0.9156039E-01
3921852.  0.3129432E-01  0.1408178E+01  0.1110876E-01  0.2529895E-01  0.8491919E-02 -0.9798823E-01
3885370.  0.2317235E-01  0.1427778E+01  0.1093707E-01  0.3463460E-01  0.9073244E-02 -0.1051840E+00
3848889.  0.1495231E-01  0.1442510E+01  0.1071247E-01  0.4378391E-01  0.9698131E-02 -0.1132218E+00
3812407.  0.6661644E-02  0.1452365E+01  0.1043599E-01  0.5275331E-01  0.1037167E-01 -0.1221855E+00
3775926. -0.1671238E-02  0.1457333E+01  0.1010864E-01  0.6155679E-01  0.1109939E-01 -0.1321681E+00
3739444. -0.1001876E-01  0.1457394E+01  0.9731286E-02  0.7021886E-01  0.1188745E-01 -0.1432751E+00
3702963. -0.1835227E-01  0.1452512E+01  0.9304675E-02  0.7877288E-01  0.1274259E-01 -0.1556239E+00
3666482. -0.2664354E-01  0.1442625E+01  0.8829286E-02  0.8726365E-01  0.1367232E-01 -0.1693482E+00
3630000. -0.3486386E-01  0.1427634E+01  0.8305314E-02  0.9574745E-01  0.1468494E-01 -0.1845982E+00
3630000. -0.3486386E-01  0.1427626E+01  0.8305314E-02  0.9574722E-01  0.1468494E-01 -0.1845982E+00
3592500. -0.4322150E-01  0.1411250E+01  0.7715511E-02  0.1047024E+00  0.1582181E-01 -0.2019901E+00
3555000. -0.5146554E-01  0.1388967E+01  0.7072162E-02  0.1139572E+00  0.1706650E-01 -0.2212746E+00
3517500. -0.5956006E-01  0.1360371E+01  0.6373210E-02  0.1236143E+00  0.1843085E-01 -0.2426872E+00
3480000. -0.6746651E-01  0.1324968E+01  0.5615938E-02  0.1337955E+00  0.1992814E-01 -0.2664958E+00
3480000. -0.6746651E-01 -0.1597114E+00 -0.1398305E-01 -0.9767481E-01  0.1992814E-01 -0.5427391E-01
3409422. -0.6527671E-01 -0.2327074E+00 -0.1289932E-01 -0.9772444E-01  0.2019969E-01  0.2916211E-02
3338844. -0.6237232E-01 -0.2889980E+00 -0.1182306E-01 -0.9636761E-01  0.1991167E-01  0.4706389E-01
3268266. -0.5892921E-01 -0.3302491E+00 -0.1076852E-01 -0.9383872E-01  0.1919837E-01  0.7998951E-01
3197688. -0.5510449E-01 -0.3581836E+00 -0.9747495E-02 -0.9035321E-01  0.1817461E-01  0.1033825E+00
3127109. -0.5103599E-01 -0.3745364E+00 -0.8769422E-02 -0.8611355E-01  0.1693727E-01  0.1187921E+00
3056531. -0.4684274E-01 -0.3809921E+00 -0.7841645E-02 -0.8130521E-01  0.1556691E-01  0.1276215E+00
2985953. -0.4262532E-01 -0.3791583E+00 -0.6969509E-02 -0.7609378E-01  0.1412931E-01  0.1311289E+00
2915375. -0.3846713E-01 -0.3705410E+00 -0.6156655E-02 -0.7062558E-01  0.1267714E-01  0.1304272E+00
2844797. -0.3443553E-01 -0.3565243E+00 -0.5405196E-02 -0.6502993E-01  0.1125150E-01  0.1264896E+00
2774219. -0.3058326E-01 -0.3383635E+00 -0.4715909E-02 -0.5941796E-01  0.9883463E-02  0.1201569E+00
2703641. -0.2694990E-01 -0.3171777E+00 -0.4088446E-02 -0.5388250E-01  0.8595487E-02  0.1121450E+00
2633062. -0.2356334E-01 -0.2939505E+00 -0.3521509E-02 -0.4850099E-01  0.7402732E-02  0.1030539E+00
2562484. -0.2044145E-01 -0.2695339E+00 -0.3013045E-02 -0.4333667E-01  0.6314351E-02  0.9337870E-01
2491906. -0.1759325E-01 -0.2446500E+00 -0.2560361E-02 -0.3843743E-01  0.5334502E-02  0.8351915E-01
2421328. -0.1502047E-01 -0.2199017E+00 -0.2160312E-02 -0.3383902E-01  0.4463410E-02  0.7378962E-01
2350750. -0.1271878E-01 -0.1957787E+00 -0.1809417E-02 -0.2956679E-01  0.3698244E-02  0.6443001E-01
2280172. -0.1067904E-01 -0.1726683E+00 -0.1503970E-02 -0.2563551E-01  0.3033877E-02  0.5561564E-01
2209594. -0.8888304E-02 -0.1508652E+00 -0.1240153E-02 -0.2205139E-01  0.2463561E-02  0.4746625E-01
2139016. -0.7330846E-02 -0.1305821E+00 -0.1014121E-02 -0.1881323E-01  0.1979483E-02  0.4005513E-01
2068438. -0.5988986E-02 -0.1119596E+00 -0.8220761E-03 -0.1591364E-01  0.1573240E-02  0.3341718E-01
1997859. -0.4843818E-02 -0.9507746E-01 -0.6603314E-03 -0.1333999E-01  0.1236214E-02  0.2755652E-01
1927281. -0.3875889E-02 -0.7996561E-01 -0.5253718E-03 -0.1107517E-01  0.9598930E-03  0.2245333E-01
1856703. -0.3065593E-02 -0.6661452E-01 -0.4138851E-03 -0.9098528E-02  0.7360797E-03  0.1806940E-01
1786125. -0.2393608E-02 -0.5498764E-01 -0.3228082E-03 -0.7386218E-02  0.5570785E-03  0.1435372E-01
1715547. -0.1841101E-02 -0.4503581E-01 -0.2493593E-03 -0.5911185E-02  0.4158097E-03  0.1124687E-01
1644969. -0.1389771E-02 -0.3671622E-01 -0.1910766E-03 -0.4642649E-02  0.3058806E-03  0.8684822E-02
1574391. -0.1021629E-02 -0.3002072E-01 -0.1458679E-03 -0.3544072E-02  0.2216183E-03  0.6602215E-02
1503812. -0.7183714E-03 -0.2502470E-01 -0.1120962E-03 -0.2568768E-02  0.1580673E-03  0.4935076E-02
1433234. -0.4600206E-03 -0.2197769E-01 -0.8873786E-04 -0.1650714E-02  0.1109636E-03  0.3623507E-02
1362656. -0.2220910E-03 -0.2148348E-01 -0.7569026E-04 -0.6848273E-03  0.7666925E-04  0.2614398E-02
1292078.  0.3015506E-04 -0.2487977E-01 -0.7440925E-04  0.5151404E-03  0.5207922E-04  0.1865786E-02
1221500.  0.3538535E-03 -0.3507438E-01 -0.8925788E-04  0.2310473E-02  0.3445694E-04  0.1355001E-02
1221500.  0.3538535E-03 -0.1325906E-02 -0.5407159E-06 -0.1848420E-02  0.3445694E-04  0.1201711E-02
1183328.  0.3527164E-03  0.1546674E-02  0.8545381E-05 -0.1209910E-02  0.2781468E-04  0.1018472E-02
1145156.  0.3370582E-03  0.3548285E-02  0.1424051E-04 -0.7130344E-03  0.2221605E-04  0.8534741E-03
1106984.  0.3116241E-03  0.4834708E-02  0.1733173E-04 -0.3374040E-03  0.1755018E-04  0.7071172E-03
1068812.  0.2802673E-03  0.5547703E-02  0.1848707E-04 -0.6371630E-04  0.1370595E-04  0.5791104E-03
1030641.  0.2460369E-03  0.5814057E-02  0.1826284E-04  0.1259663E-03  0.1057563E-04  0.4686708E-03
 992469.  0.2112659E-03  0.5745102E-02  0.1711248E-04  0.2480148E-03  0.8057122E-05  0.3746456E-03
 954297.  0.1776697E-03  0.5436613E-02  0.1539652E-04  0.3170552E-03  0.6056201E-05  0.2956526E-03
 916125.  0.1464344E-03  0.4969225E-02  0.1339325E-04  0.3459083E-03  0.4487290E-05  0.2301795E-03
 877953.  0.1183069E-03  0.4409088E-02  0.1130954E-04  0.3455876E-03  0.3274082E-05  0.1766545E-03
 839781.  0.9367885E-04  0.3808828E-02  0.9291771E-05  0.3252914E-03  0.2349680E-05  0.1335192E-03
 801609.  0.7266391E-04  0.3208788E-02  0.7436273E-05  0.2925360E-03  0.1656360E-05  0.9927517E-04
 763438.  0.5516811E-04  0.2638353E-02  0.5799272E-05  0.2532339E-03  0.1145125E-05  0.7251825E-04
 725266.  0.4094922E-04  0.2117399E-02  0.4405769E-05  0.2118807E-03  0.7750072E-06  0.5196197E-04
 687094.  0.2967196E-04  0.1657835E-02  0.3257840E-05  0.1717044E-03  0.5123820E-06  0.3645650E-04
 648922.  0.2094941E-04  0.1265063E-02  0.2341477E-05  0.1348644E-03  0.3300882E-06  0.2499036E-04
 610750.  0.1437826E-04  0.9393969E-03  0.1632480E-05  0.1026336E-03  0.2065980E-06  0.1669429E-04
 572578.  0.9565186E-05  0.6773872E-03  0.1101222E-05  0.7558082E-04  0.1251811E-06  0.1083487E-04
 534406.  0.6145825E-05  0.4730130E-03  0.7163383E-06  0.5374424E-04  0.7311397E-07  0.6806341E-05
 496234.  0.3796951E-05  0.3187173E-03  0.4474325E-06  0.3678769E-04  0.4094733E-07  0.4119517E-05
 458062.  0.2243015E-05  0.2062722E-03  0.2668966E-06  0.2413714E-04  0.2184618E-07  0.2388623E-05
 419891.  0.1258035E-05  0.1274702E-03  0.1509869E-06  0.1509496E-04  0.1101218E-07  0.1317321E-05
 381719.  0.6637566E-06  0.7463311E-04  0.8026986E-07  0.8930217E-05  0.5189067E-08  0.6845991E-06
 343547.  0.3254654E-06  0.4097641E-04  0.3962258E-07  0.4947314E-05  0.2253981E-08  0.3311849E-06
 305375.  0.1458833E-06  0.2080211E-04  0.1786348E-07  0.2531118E-05  0.8855646E-09  0.1466874E-06
 267203.  0.5840246E-07  0.9572875E-05  0.7187300E-08  0.1172533E-05  0.3064412E-09  0.5811648E-07
 229031.  0.2018367E-07  0.3878813E-05  0.2494495E-08  0.4777587E-06  0.8982799E-10  0.1990608E-07
 190859.  0.5711845E-08  0.1322625E-05  0.7084272E-09  0.1636641E-06  0.2099816E-10  0.5591188E-08
 152688.  0.1211542E-08  0.3518370E-06  0.1506939E-09  0.4369862E-07  0.3537728E-11  0.1178736E-08
 114516.  0.1631423E-09  0.6333040E-07  0.2033649E-10  0.7888075E-08  0.3553071E-12  0.1579757E-09
  76344.  0.9607708E-11  0.5604500E-08  0.1199504E-11  0.6994630E-09  0.1389475E-13  0.9272128E-11
  38172.  0.7533724E-13  0.8798601E-10  0.9414266E-14  0.1099391E-10  0.5434732E-16  0.7255679E-13
      0.  0.0000000E+00  0.0000000E+00  0.0000000E+00  0.0000000E+00  0.0000000E+00  0.0000000E+00
