      19       10 S      691        106.91170         35.65931         12.34805        675.35999      185    7
6371000.  0.3492218E-01 -0.1218011E+00 -0.2182715E-02 -0.3710489E-01 -0.9775448E-05 -0.6574752E-01
6370000.  0.3493947E-01 -0.9859758E-01 -0.2176527E-02 -0.4173775E-01  0.5414288E-06 -0.6570904E-01
6369000.  0.3495312E-01 -0.7532114E-01 -0.2169613E-02 -0.4634989E-01  0.1085176E-04 -0.6566405E-01
6368000.  0.3496311E-01 -0.5197439E-01 -0.2161978E-02 -0.5093975E-01  0.2115451E-04 -0.6561252E-01
6368000.  0.3496311E-01 -0.5197439E-01 -0.2161978E-02 -0.5093975E-01  0.2115451E-04 -0.6561252E-01
6367000.  0.3496943E-01 -0.2855996E-01 -0.2153624E-02 -0.5550577E-01  0.3144866E-04 -0.6555449E-01
6366000.  0.3497208E-01 -0.5080495E-02 -0.2144555E-02 -0.6004643E-01  0.4173319E-04 -0.6548995E-01
6365000.  0.3497102E-01  0.1846132E-01 -0.2134775E-02 -0.6456020E-01  0.5200709E-04 -0.6541890E-01
6364000.  0.3496628E-01  0.4206277E-01 -0.2124290E-02 -0.6904554E-01  0.6226931E-04 -0.6534135E-01
6363000.  0.3495782E-01  0.6572114E-01 -0.2113102E-02 -0.7350094E-01  0.7251886E-04 -0.6525730E-01
6362000.  0.3494564E-01  0.8943366E-01 -0.2101217E-02 -0.7792491E-01  0.8275470E-04 -0.6516676E-01
6361000.  0.3492974E-01  0.1131975E+00 -0.2088641E-02 -0.8231595E-01  0.9297583E-04 -0.6506974E-01
6360000.  0.3491011E-01  0.1370100E+00 -0.2075378E-02 -0.8667259E-01  0.1031812E-03 -0.6496625E-01
6359000.  0.3488673E-01  0.1608682E+00 -0.2061435E-02 -0.9099335E-01  0.1133699E-03 -0.6485628E-01
6358000.  0.3485960E-01  0.1847693E+00 -0.2046816E-02 -0.9527679E-01  0.1235407E-03 -0.6473987E-01
6357000.  0.3482872E-01  0.2087103E+00 -0.2031527E-02 -0.9952146E-01  0.1336928E-03 -0.6461701E-01
6356000.  0.3479408E-01  0.2326885E+00 -0.2015576E-02 -0.1037259E+00  0.1438251E-03 -0.6448771E-01
6356000.  0.3479408E-01  0.1262222E+00 -0.2015576E-02 -0.7723446E-01  0.1438251E-03 -0.7205850E-01
6355000.  0.3477291E-01  0.1435902E+00 -0.2003234E-02 -0.8002032E-01  0.1551265E-03 -0.7194304E-01
6354000.  0.3474900E-01  0.1609853E+00 -0.1990457E-02 -0.8278383E-01  0.1664094E-03 -0.7182246E-01
6353000.  0.3472237E-01  0.1784061E+00 -0.1977247E-02 -0.8552437E-01  0.1776729E-03 -0.7169677E-01
6352000.  0.3469300E-01  0.1958511E+00 -0.1963610E-02 -0.8824129E-01  0.1889163E-03 -0.7156596E-01
6351000.  0.3466089E-01  0.2133186E+00 -0.1949548E-02 -0.9093402E-01  0.2001388E-03 -0.7143008E-01
6350000.  0.3462603E-01  0.2308071E+00 -0.1935065E-02 -0.9360192E-01  0.2113396E-03 -0.7128910E-01
6349000.  0.3458843E-01  0.2483150E+00 -0.1920165E-02 -0.9624441E-01  0.2225178E-03 -0.7114305E-01
6348000.  0.3454808E-01  0.2658407E+00 -0.1904853E-02 -0.9886088E-01  0.2336727E-03 -0.7099192E-01
6347000.  0.3450498E-01  0.2833828E+00 -0.1889132E-02 -0.1014507E+00  0.2448035E-03 -0.7083573E-01
6346600.  0.3448696E-01  0.2904038E+00 -0.1882730E-02 -0.1024791E+00  0.2492489E-03 -0.7077184E-01
6346600.  0.3448696E-01  0.1269571E+00 -0.1882730E-02 -0.8104833E-01  0.2492489E-03 -0.8279695E-01
6318800.  0.3314891E-01  0.4884515E+00 -0.1419466E-02 -0.1283713E+00  0.6004619E-03 -0.7765252E-01
6291000.  0.3022126E-01  0.8518927E+00 -0.7919108E-03 -0.1555209E+00  0.9224393E-03 -0.6942768E-01
6291000.  0.3022126E-01  0.8622408E+00 -0.7919108E-03 -0.1596744E+00  0.9224393E-03 -0.6942768E-01
6263000.  0.2564894E-01  0.1212739E+01 -0.7349857E-04 -0.1629033E+00  0.1203789E-02 -0.5814904E-01
6235000.  0.1963062E-01  0.1516119E+01  0.6025070E-03 -0.1406773E+00  0.1429852E-02 -0.4434394E-01
6207000.  0.1242644E-01  0.1748710E+01  0.1130859E-02 -0.9659765E-01  0.1590611E-02 -0.2852643E-01
6179000.  0.4392562E-02  0.1890865E+01  0.1429367E-02 -0.3742656E-01  0.1678555E-02 -0.1131938E-01
6151000. -0.4041218E-02  0.1929036E+01  0.1450785E-02  0.2788904E-01  0.1689109E-02  0.6566835E-02
6151000. -0.4041218E-02  0.1569427E+01  0.1450785E-02  0.2520941E-01  0.1689109E-02  0.6790417E-02
6128500. -0.9478777E-02  0.1501986E+01  0.1282939E-02  0.6908008E-01  0.1644682E-02  0.1831370E-01
6106000. -0.1459609E-01  0.1388841E+01  0.9703735E-03  0.1065849E+00  0.1560292E-02  0.2938089E-01
6083500. -0.1924110E-01  0.1235596E+01  0.5413156E-03  0.1345930E+00  0.1437973E-02  0.3975636E-01
6061000. -0.2328453E-01  0.1049474E+01  0.3362965E-04  0.1508096E+00  0.1280551E-02  0.4922581E-01
6038500. -0.2662486E-01  0.8388847E+00 -0.5084389E-03  0.1539362E+00  0.1091570E-02  0.5759932E-01
6016000. -0.2919159E-01  0.6129027E+00 -0.1037942E-02  0.1437453E+00  0.8751946E-03  0.6471463E-01
5993500. -0.3094665E-01  0.3807482E+00 -0.1509012E-02  0.1210686E+00  0.6361109E-03  0.7044013E-01
5971000. -0.3188408E-01  0.1512822E+00 -0.1880469E-02  0.8770616E-01  0.3794142E-03  0.7467494E-01
5971000. -0.3188408E-01  0.1319830E+00 -0.1880469E-02  0.8157068E-01  0.3794142E-03  0.7884884E-01
5937667. -0.3177273E-01 -0.1666580E+00 -0.2156952E-02  0.2292896E-01 -0.4484702E-04  0.8276110E-01
5904333. -0.3023315E-01 -0.4122039E+00 -0.2116398E-02 -0.3803748E-01 -0.4807329E-03  0.8330794E-01
5871000. -0.2756405E-01 -0.5979484E+00 -0.1770322E-02 -0.9254048E-01 -0.9110286E-03  0.8066776E-01
5837667. -0.2408041E-01 -0.7241058E+00 -0.1171276E-02 -0.1338176E+00 -0.1319756E-02  0.7511556E-01
5804333. -0.2008124E-01 -0.7962495E+00 -0.4005247E-03 -0.1577024E+00 -0.1692572E-02  0.6699925E-01
5771000. -0.1582672E-01 -0.8234858E+00  0.4459165E-03 -0.1627341E+00 -0.2017073E-02  0.5672104E-01
5771000. -0.1582672E-01 -0.8234928E+00  0.4459165E-03 -0.1627282E+00 -0.2017073E-02  0.5672104E-01
5701000. -0.6602128E-02 -0.8374762E+00  0.2111952E-02 -0.1279579E+00 -0.2492649E-02  0.2877104E-01
5701000. -0.6602128E-02 -0.6803873E+00  0.2111952E-02 -0.9916233E-01 -0.2492649E-02  0.3063194E-01
5667333. -0.3049298E-02 -0.6632675E+00  0.2542291E-02 -0.6275932E-01 -0.2617471E-02  0.1649529E-01
5633667.  0.4007762E-03 -0.6421005E+00  0.2768812E-02 -0.2270264E-01 -0.2666148E-02  0.1884403E-02
5600000.  0.3734203E-02 -0.6193452E+00  0.2782712E-02  0.1709344E-01 -0.2637286E-02 -0.1278290E-01
5600000.  0.3734203E-02 -0.6193364E+00  0.2782712E-02  0.1709432E-01 -0.2637286E-02 -0.1278290E-01
5563518.  0.7215135E-02 -0.5963498E+00  0.2567153E-02  0.5749438E-01 -0.2519393E-02 -0.2829020E-01
5527037.  0.1056215E-01 -0.5724304E+00  0.2135957E-02  0.9179714E-01 -0.2314944E-02 -0.4293639E-01
5490556.  0.1376537E-01 -0.5456648E+00  0.1533776E-02  0.1167564E+00 -0.2030193E-02 -0.5626586E-01
5454074.  0.1679938E-01 -0.5126349E+00  0.8208830E-03  0.1301982E+00 -0.1673856E-02 -0.6787370E-01
5417593.  0.1961609E-01 -0.4690533E+00  0.6651990E-04  0.1312044E+00 -0.1256826E-02 -0.7741635E-01
5381111.  0.2214251E-01 -0.4105166E+00 -0.6586422E-03  0.1201619E+00 -0.7917213E-03 -0.8462168E-01
5344630.  0.2428169E-01 -0.3332928E+00 -0.1289604E-02  0.9866678E-01 -0.2925501E-03 -0.8929335E-01
5308148.  0.2591914E-01 -0.2350112E+00 -0.1773560E-02  0.6931151E-01  0.2258368E-03 -0.9131582E-01
5271667.  0.2693191E-01 -0.1152297E+00 -0.2074632E-02  0.3537984E-01  0.7481039E-03 -0.9065448E-01
5235185.  0.2720100E-01  0.2424203E-01 -0.2176898E-02  0.4813648E-03  0.1259002E-02 -0.8735400E-01
5198704.  0.2662451E-01  0.1792303E+00 -0.2085125E-02 -0.3182352E-01  0.1743702E-02 -0.8153488E-01
5162222.  0.2513072E-01  0.3434005E+00 -0.1823440E-02 -0.5838965E-01  0.2188317E-02 -0.7338593E-01
5125741.  0.2268967E-01  0.5086361E+00 -0.1432089E-02 -0.7678276E-01  0.2580175E-02 -0.6315857E-01
5089259.  0.1932120E-01  0.6657001E+00 -0.9626239E-03 -0.8550375E-01  0.2908237E-02 -0.5115438E-01
5052778.  0.1509990E-01  0.8049509E+00 -0.4722589E-03 -0.8410180E-01  0.3163279E-02 -0.3771769E-01
5016296.  0.1015423E-01  0.9172081E+00 -0.1768422E-04 -0.7318437E-01  0.3338168E-02 -0.2322128E-01
4979815.  0.4662561E-02  0.9945291E+00  0.3506609E-03 -0.5432114E-01  0.3427946E-02 -0.8057943E-02
4943333. -0.1157204E-02  0.1030952E+01  0.5936900E-03 -0.2985418E-01  0.3429937E-02  0.7373977E-02
4906852. -0.7059413E-02  0.1023042E+01  0.6873177E-03 -0.2645427E-02  0.3343742E-02  0.2267837E-01
4870370. -0.1278751E-01  0.9702388E+00  0.6246311E-03  0.2422734E-01  0.3171186E-02  0.3747473E-01
4833889. -0.1808965E-01  0.8749672E+00  0.4162333E-03  0.4777430E-01  0.2916226E-02  0.5140416E-01
4797407. -0.2273669E-01  0.7424747E+00  0.8886051E-04  0.6539101E-01  0.2584766E-02  0.6413995E-01
4760926. -0.2653624E-01  0.5804585E+00 -0.3175004E-03  0.7509981E-01  0.2184508E-02  0.7539213E-01
4724444. -0.2934603E-01  0.3984502E+00 -0.7538280E-03  0.7573258E-01  0.1724652E-02  0.8491466E-01
4687963. -0.3108161E-01  0.2071088E+00 -0.1166935E-02  0.6702764E-01  0.1215723E-02  0.9250706E-01
4651482. -0.3172097E-01  0.1736514E-01 -0.1504817E-02  0.4964066E-01  0.6692160E-03  0.9801906E-01
4615000. -0.3130341E-01 -0.1604016E+00 -0.1721678E-02  0.2506885E-01  0.9733862E-04  0.1013503E+00
4578518. -0.2992427E-01 -0.3171274E+00 -0.1782353E-02 -0.4497858E-02 -0.4872391E-03  0.1024507E+00
4542037. -0.2772543E-01 -0.4457287E+00 -0.1665720E-02 -0.3638813E-01 -0.1071700E-02  0.1013191E+00
4505556. -0.2488240E-01 -0.5415813E+00 -0.1366733E-02 -0.6770154E-01 -0.1643392E-02  0.9800190E-01
4469074. -0.2158941E-01 -0.6027690E+00 -0.8969670E-03 -0.9557112E-01 -0.2190051E-02  0.9258917E-01
4432593. -0.1804407E-01 -0.6301089E+00 -0.2837494E-03 -0.1174178E+00 -0.2700006E-02  0.8521217E-01
4396111. -0.1443152E-01 -0.6269621E+00  0.4322691E-03 -0.1311795E+00 -0.3162498E-02  0.7603771E-01
4359630. -0.1091169E-01 -0.5988232E+00  0.1200458E-02 -0.1354818E+00 -0.3567765E-02  0.6526485E-01
4323148. -0.7607908E-02 -0.5527399E+00  0.1964650E-02 -0.1297506E+00 -0.3907311E-02  0.5311865E-01
4286667. -0.4600656E-02 -0.4966341E+00  0.2667716E-02 -0.1142527E+00 -0.4173951E-02  0.3984639E-01
4250185. -0.1924014E-02 -0.4385514E+00  0.3256465E-02 -0.9005741E-01 -0.4361995E-02  0.2571009E-01
4213704.  0.4323330E-03 -0.3859414E+00  0.3685844E-02 -0.5894114E-01 -0.4467266E-02  0.1098341E-01
4177222.  0.2518294E-02 -0.3449860E+00  0.3922669E-02 -0.2322193E-01 -0.4487181E-02 -0.4056798E-02
4140741.  0.4414028E-02 -0.3200798E+00  0.3948091E-02  0.1443370E-01 -0.4420740E-02 -0.1913284E-01
4104259.  0.6219029E-02 -0.3134593E+00  0.3758986E-02  0.5124368E-01 -0.4268511E-02 -0.3397471E-01
4067778.  0.8038789E-02 -0.3250439E+00  0.3367978E-02  0.8453077E-01 -0.4032595E-02 -0.4832220E-01
4031296.  0.9971939E-02 -0.3524739E+00  0.2802148E-02  0.1119450E+00 -0.3716514E-02 -0.6193259E-01
3994815.  0.1209741E-01 -0.3913545E+00  0.2100725E-02  0.1316380E+00 -0.3325157E-02 -0.7458225E-01
3958333.  0.1446432E-01 -0.4356733E+00  0.1311663E-02  0.1424055E+00 -0.2864583E-02 -0.8607342E-01
3921852.  0.1708381E-01 -0.4783623E+00  0.4878572E-03  0.1437621E+00 -0.2341955E-02 -0.9623465E-01
3885370.  0.1992529E-01 -0.5119419E+00 -0.3172359E-03  0.1359653E+00 -0.1765275E-02 -0.1049264E+00
3848889.  0.2291552E-01 -0.5292065E+00 -0.1053590E-02  0.1199750E+00 -0.1143314E-02 -0.1120405E+00
3812407.  0.2594272E-01 -0.5238914E+00 -0.1678546E-02  0.9735485E-01 -0.4852990E-03 -0.1175038E+00
3775926.  0.2886301E-01 -0.4912589E+00 -0.2159742E-02  0.7013737E-01  0.1991523E-03 -0.1212766E+00
3739444.  0.3151122E-01 -0.4285626E+00 -0.2477437E-02  0.4064672E-01  0.9003668E-03 -0.1233541E+00
3702963.  0.3371265E-01 -0.3353603E+00 -0.2625551E-02  0.1131238E-01  0.1608663E-02 -0.1237643E+00
3666482.  0.3529719E-01 -0.2136263E+00 -0.2611767E-02 -0.1552795E-01  0.2314670E-02 -0.1225667E+00
3630000.  0.3611279E-01 -0.6768664E-01 -0.2456453E-02 -0.3780556E-01  0.3009442E-02 -0.1198509E+00
3630000.  0.3611279E-01 -0.6768447E-01 -0.2456453E-02 -0.3780590E-01  0.3009442E-02 -0.1198509E+00
3592500.  0.3601737E-01  0.1028142E+00 -0.2182247E-02 -0.5418737E-01  0.3703026E-02 -0.1155762E+00
3555000.  0.3487957E-01  0.2849164E+00 -0.1833521E-02 -0.6296251E-01  0.4367265E-02 -0.1099007E+00
3517500.  0.3266037E-01  0.4684862E+00 -0.1457285E-02 -0.6348501E-01  0.4994300E-02 -0.1029584E+00
3480000.  0.2938298E-01  0.6426454E+00 -0.1102297E-02 -0.5581083E-01  0.5577118E-02 -0.9490380E-01
3480000.  0.2938298E-01  0.9572631E+00 -0.1055353E-02  0.5574421E-01  0.5577118E-02 -0.1873306E+00
3409422.  0.1615201E-01  0.1384929E+01 -0.1556921E-02  0.3311079E-01  0.7192464E-02 -0.9807749E-01
3338844. -0.1946260E-03  0.1515083E+01 -0.1761214E-02  0.3002913E-02  0.7654226E-02  0.1703316E-01
3268266. -0.1632450E-01  0.1351427E+01 -0.1617713E-02 -0.2866196E-01  0.6808942E-02  0.1338630E+00
3197688. -0.2926085E-01  0.9517011E+00 -0.1142217E-02 -0.5602112E-01  0.4765941E-02  0.2298736E+00
3127109. -0.3687829E-01  0.4082634E+00 -0.4102614E-03 -0.7429804E-01  0.1856423E-02  0.2880777E+00
3056531. -0.3816487E-01 -0.1737839E+00  0.4591126E-03 -0.8050662E-01 -0.1442589E-02  0.2994085E+00
2985953. -0.3324919E-01 -0.6966846E+00  0.1325375E-02 -0.7376688E-01 -0.4601381E-02  0.2633646E+00
2915375. -0.2322976E-01 -0.1085065E+01  0.2049750E-02 -0.5523749E-01 -0.7128458E-02  0.1870941E+00
2844797. -0.9873213E-02 -0.1294550E+01  0.2515961E-02 -0.2773814E-01 -0.8644834E-02  0.8335250E-01
2774219.  0.4746077E-02 -0.1313780E+01  0.2645542E-02  0.4831898E-02 -0.8931780E-02 -0.3214597E-01
2703641.  0.1859656E-01 -0.1160879E+01  0.2406141E-02  0.3815850E-01 -0.7948356E-02 -0.1434533E+00
2633062.  0.2997781E-01 -0.8760025E+00  0.1812490E-02  0.6815326E-01 -0.5820390E-02 -0.2367478E+00
2562484.  0.3771258E-01 -0.5119061E+00  0.9209071E-03  0.9147523E-01 -0.2807009E-02 -0.3020189E+00
2491906.  0.4123366E-01 -0.1243489E+00 -0.1811656E-03  0.1058841E+00  0.7474485E-03 -0.3339533E+00
2421328.  0.4056887E-01  0.2361853E+00 -0.1388366E-02  0.1103970E+00  0.4466421E-02 -0.3320028E+00
2350750.  0.3624703E-01  0.5305188E+00 -0.2591356E-02  0.1052594E+00  0.7991152E-02 -0.2997833E+00
2280172.  0.2915174E-01  0.7340958E+00 -0.3689532E-02  0.9176251E-01  0.1102119E-01 -0.2439980E+00
2209594.  0.2035340E-01  0.8376643E+00 -0.4601095E-02  0.7195526E-01  0.1334139E-01 -0.1731206E+00
2139016.  0.1094644E-01  0.8457270E+00 -0.5269572E-02  0.4830424E-01  0.1483414E-01 -0.9606839E-01
2068438.  0.1912913E-02  0.7734570E+00 -0.5666550E-02  0.2335257E-01  0.1547758E-01 -0.2104508E-01
1997859. -0.5974163E-02  0.6427199E+00 -0.5790802E-02 -0.5773735E-03  0.1533266E-01  0.4531694E-01
1927281. -0.1220235E-01  0.4781036E+00 -0.5664550E-02 -0.2160497E-01  0.1452265E-01  0.9845407E-01
1856703. -0.1652976E-01  0.3032707E+00 -0.5327709E-02 -0.3843252E-01  0.1320906E-01  0.1360214E+00
1786125. -0.1895875E-01  0.1383128E+00 -0.4831099E-02 -0.5038931E-01  0.1156773E-01  0.1577274E+00
1715547. -0.1968622E-01 -0.1927490E-02 -0.4229609E-02 -0.5740022E-01  0.9768067E-02  0.1649508E+00
1644969. -0.1904139E-01 -0.1084047E+00 -0.3576047E-02 -0.5989925E-01  0.7957273E-02  0.1602262E+00
1574391. -0.1742318E-01 -0.1774416E+00 -0.2916138E-02 -0.5870862E-01  0.6250623E-02  0.1466945E+00
1503812. -0.1524677E-01 -0.2095066E+00 -0.2284908E-02 -0.5491898E-01  0.4727641E-02  0.1275843E+00
1433234. -0.1290783E-01 -0.2073024E+00 -0.1704244E-02 -0.4980786E-01  0.3433737E-02  0.1057698E+00
1362656. -0.1077144E-01 -0.1730954E+00 -0.1180857E-02 -0.4484547E-01  0.2386165E-02  0.8338662E-01
1292078. -0.9197799E-02 -0.1046486E+00 -0.7033498E-03 -0.4188869E-01  0.1584469E-02  0.6141904E-01
1221500. -0.8628489E-02  0.1222719E-01 -0.2351551E-03 -0.4377890E-01  0.1026692E-02  0.3898114E-01
1221500. -0.8628489E-02 -0.2717973E+00 -0.8510352E-03  0.4056501E-01  0.1026692E-02  0.4271904E-01
1183328. -0.6428306E-02 -0.4548114E+00 -0.1050047E-02  0.2304270E-01  0.7953159E-03  0.3471051E-01
1145156. -0.3331799E-02 -0.5617379E+00 -0.1101675E-02 -0.7121014E-02  0.6084714E-03  0.2784456E-01
1106984.  0.6470972E-04 -0.5504384E+00 -0.9597386E-03 -0.3977469E-01  0.4595100E-03  0.2205135E-01
1068812.  0.3007122E-02 -0.4116241E+00 -0.6405367E-03 -0.6477763E-01  0.3422683E-03  0.1723969E-01
1030641.  0.4791953E-02 -0.1709518E+00 -0.2133376E-03 -0.7501337E-01  0.2511798E-03  0.1330348E-01
 992469.  0.4956380E-02  0.1190057E+00  0.2238998E-03 -0.6817441E-01  0.1813338E-03  0.1012878E-01
 954297.  0.3396526E-02  0.3938233E+00  0.5745415E-03 -0.4691131E-01  0.1285128E-03  0.7601787E-02
 916125.  0.3863805E-03  0.5946137E+00  0.7696870E-03 -0.1751054E-01  0.8916264E-04  0.5615008E-02
 877953. -0.3501544E-02  0.6825773E+00  0.7835869E-03  0.1231075E-01  0.6034257E-04  0.4071717E-02
 839781. -0.7544316E-02  0.6469647E+00  0.6351663E-03  0.3570880E-01  0.3965242E-04  0.2888409E-02
 801609. -0.1104035E-01  0.5049750E+00  0.3772498E-03  0.4841982E-01  0.2515202E-04  0.1994954E-02
 763438. -0.1345811E-01  0.2945326E+00  0.7844534E-04  0.4946853E-01  0.1528403E-04  0.1333456E-02
 725266. -0.1452735E-01  0.6277468E-01 -0.1960704E-03  0.4083764E-01  0.8806160E-05  0.8559697E-03
 687094. -0.1425703E-01 -0.1460460E+00 -0.3992648E-03  0.2638937E-01  0.4740144E-05  0.5222984E-03
 648922. -0.1288791E-01 -0.3000574E+00 -0.5094408E-03  0.1048684E-01  0.2327404E-05  0.2989645E-03
 610750. -0.1080141E-01 -0.3845480E+00 -0.5294082E-03 -0.3222186E-02  0.9952312E-06  0.1572240E-03
 572578. -0.8415237E-02 -0.4016665E+00 -0.4796911E-03 -0.1254769E-01  0.3285230E-06  0.7326074E-04
 534406. -0.6093812E-02 -0.3661070E+00 -0.3890213E-03 -0.1692178E-01  0.4075205E-07  0.2790831E-04
 496234. -0.4091613E-02 -0.2987549E+00 -0.2853801E-03 -0.1707988E-01 -0.5310054E-07  0.6422350E-05
 458062. -0.2535416E-02 -0.2204147E+00 -0.1898692E-03 -0.1447684E-01 -0.6237086E-07 -0.1762008E-05
 419891. -0.1439576E-02 -0.1472539E+00 -0.1142595E-03 -0.1068176E-01 -0.4457489E-07 -0.3501398E-05
 381719. -0.7412579E-03 -0.8870657E-01 -0.6173376E-04 -0.6936166E-02 -0.2506249E-07 -0.2812729E-05
 343547. -0.3411950E-03 -0.4772682E-01 -0.2957733E-04 -0.3956814E-02 -0.1168036E-07 -0.1662007E-05
 305375. -0.1375758E-03 -0.2257609E-01 -0.1233162E-04 -0.1960855E-02 -0.4536522E-08 -0.7881409E-06
 267203. -0.4720407E-04 -0.9164276E-02 -0.4350504E-05 -0.8262515E-03 -0.1440270E-08 -0.3026226E-06
 229031. -0.1320066E-04 -0.3075957E-02 -0.1244878E-05 -0.2857673E-03 -0.3590217E-09 -0.9163725E-07
 190859. -0.2812759E-05 -0.8047458E-03 -0.2702496E-06 -0.7656838E-04 -0.6550977E-10 -0.2067836E-07
 152688. -0.4077316E-06 -0.1484785E-03 -0.3975771E-07 -0.1439214E-04 -0.7729993E-11 -0.3119717E-08
 114516. -0.3248937E-07 -0.1599218E-04 -0.3203697E-08 -0.1571869E-05 -0.4660517E-12 -0.2548546E-09
  76344. -0.8815743E-09 -0.6571569E-06 -0.8761465E-10 -0.6521991E-07 -0.8443069E-14 -0.6999238E-11
  38172. -0.1765804E-11 -0.2647481E-08 -0.1763088E-12 -0.2642502E-09 -0.8411738E-17 -0.1400435E-13
      0.  0.0000000E+00  0.0000000E+00  0.0000000E+00  0.0000000E+00  0.0000000E+00  0.0000000E+00
