      11       25 S      553        101.95150         15.39762          9.30106        359.96469      185    7
6371000.  0.4985748E-01 -0.1310814E+00 -0.3597825E-03 -0.5021726E-01 -0.2332222E-03 -0.8795577E-01
6370000.  0.4987507E-01 -0.9305984E-01 -0.3518389E-03 -0.5099521E-01 -0.2194212E-03 -0.8789547E-01
6369000.  0.4988669E-01 -0.5496241E-01 -0.3437755E-03 -0.5174335E-01 -0.2056303E-03 -0.8782680E-01
6368000.  0.4989232E-01 -0.1679533E-01 -0.3355971E-03 -0.5246140E-01 -0.1918508E-03 -0.8774977E-01
6368000.  0.4989232E-01 -0.1679533E-01 -0.3355971E-03 -0.5246140E-01 -0.1918508E-03 -0.8774977E-01
6367000.  0.4989196E-01  0.2143515E-01 -0.3273083E-03 -0.5314909E-01 -0.1780841E-03 -0.8766439E-01
6366000.  0.4988559E-01  0.5972277E-01 -0.3189140E-03 -0.5380617E-01 -0.1643314E-03 -0.8757064E-01
6365000.  0.4987321E-01  0.9806121E-01 -0.3104190E-03 -0.5443241E-01 -0.1505941E-03 -0.8746856E-01
6364000.  0.4985481E-01  0.1364442E+00 -0.3018280E-03 -0.5502757E-01 -0.1368735E-03 -0.8735812E-01
6363000.  0.4983037E-01  0.1748652E+00 -0.2931461E-03 -0.5559144E-01 -0.1231709E-03 -0.8723934E-01
6362000.  0.4979991E-01  0.2133181E+00 -0.2843783E-03 -0.5612380E-01 -0.1094875E-03 -0.8711223E-01
6361000.  0.4976341E-01  0.2517963E+00 -0.2755293E-03 -0.5662447E-01 -0.9582483E-04 -0.8697680E-01
6360000.  0.4972086E-01  0.2902934E+00 -0.2666042E-03 -0.5709327E-01 -0.8218401E-04 -0.8683306E-01
6359000.  0.4967228E-01  0.3288031E+00 -0.2576081E-03 -0.5753003E-01 -0.6856641E-04 -0.8668101E-01
6358000.  0.4961764E-01  0.3673189E+00 -0.2485460E-03 -0.5793459E-01 -0.5497333E-04 -0.8652066E-01
6357000.  0.4955697E-01  0.4058343E+00 -0.2394229E-03 -0.5830682E-01 -0.4140606E-04 -0.8635204E-01
6356000.  0.4949025E-01  0.4443428E+00 -0.2302439E-03 -0.5864658E-01 -0.2786592E-04 -0.8617514E-01
6356000.  0.4949025E-01  0.2680421E+00 -0.2302439E-03 -0.5515475E-01 -0.2786592E-04 -0.9694364E-01
6355000.  0.4944596E-01  0.2962350E+00 -0.2215706E-03 -0.5535642E-01 -0.1266091E-04 -0.9679756E-01
6354000.  0.4939725E-01  0.3244271E+00 -0.2128673E-03 -0.5553788E-01  0.2520701E-05 -0.9664557E-01
6353000.  0.4934411E-01  0.3526149E+00 -0.2041371E-03 -0.5569907E-01  0.1767800E-04 -0.9648769E-01
6352000.  0.4928656E-01  0.3807949E+00 -0.1953831E-03 -0.5583996E-01  0.3281005E-04 -0.9632391E-01
6351000.  0.4922458E-01  0.4089634E+00 -0.1866087E-03 -0.5596051E-01  0.4791593E-04 -0.9615427E-01
6350000.  0.4915817E-01  0.4371169E+00 -0.1778170E-03 -0.5606071E-01  0.6299472E-04 -0.9597873E-01
6349000.  0.4908736E-01  0.4652518E+00 -0.1690111E-03 -0.5614053E-01  0.7804550E-04 -0.9579734E-01
6348000.  0.4901212E-01  0.4933646E+00 -0.1601942E-03 -0.5619995E-01  0.9306735E-04 -0.9561009E-01
6347000.  0.4893248E-01  0.5214517E+00 -0.1513697E-03 -0.5623896E-01  0.1080594E-03 -0.9541699E-01
6346600.  0.4889939E-01  0.5326785E+00 -0.1478384E-03 -0.5624885E-01  0.1140476E-03 -0.9533811E-01
6346600.  0.4889939E-01  0.2917461E+00 -0.1478384E-03 -0.5397060E-01  0.1140476E-03 -0.1123886E+00
6318800.  0.4635985E-01  0.8687413E+00  0.8002015E-04 -0.4852877E-01  0.5934085E-03 -0.1067946E+00
6291000.  0.4138331E-01  0.1400835E+01  0.2597224E-03 -0.3217556E-01  0.1041501E-02 -0.9807814E-01
6291000.  0.4138331E-01  0.1419952E+01  0.2597224E-03 -0.3186195E-01  0.1041501E-02 -0.9807814E-01
6263000.  0.3411172E-01  0.1869810E+01  0.3451837E-03 -0.5854201E-02  0.1447269E-02 -0.8608986E-01
6235000.  0.2514349E-01  0.2186744E+01  0.3041606E-03  0.2491632E-01  0.1794223E-02 -0.7138008E-01
6207000.  0.1512125E-01  0.2346852E+01  0.1264945E-03  0.5546387E-01  0.2071375E-02 -0.5441219E-01
6179000.  0.4755479E-02  0.2343468E+01 -0.1755220E-03  0.8068444E-01  0.2270028E-02 -0.3576168E-01
6151000. -0.5253523E-02  0.2187798E+01 -0.5682922E-03  0.9610911E-01  0.2384217E-02 -0.1609121E-01
6151000. -0.5253523E-02  0.1734965E+01 -0.5682922E-03  0.8510857E-01  0.2384217E-02 -0.1580056E-01
6128500. -0.1100998E-01  0.1517943E+01 -0.8742338E-03  0.8699532E-01  0.2417785E-02 -0.3224465E-02
6106000. -0.1593589E-01  0.1267684E+01 -0.1174509E-02  0.8189043E-01  0.2407219E-02  0.9158964E-02
6083500. -0.1994675E-01  0.1002821E+01 -0.1444665E-02  0.7002342E-01  0.2353551E-02  0.2115365E-01
6061000. -0.2302326E-01  0.7414527E+00 -0.1662024E-02  0.5215964E-01  0.2258478E-02  0.3257816E-01
6038500. -0.2520726E-01  0.4998618E+00 -0.1807453E-02  0.2952610E-01  0.2124310E-02  0.4326683E-01
6016000. -0.2659312E-01  0.2913863E+00 -0.1866811E-02  0.3702478E-02  0.1953915E-02  0.5307123E-01
5993500. -0.2731593E-01  0.1256114E+00 -0.1831966E-02 -0.2351044E-01  0.1750648E-02  0.6186194E-01
5971000. -0.2753718E-01  0.7869625E-02 -0.1701329E-02 -0.5023441E-01  0.1518293E-02  0.6952789E-01
5971000. -0.2753718E-01 -0.2861580E-01 -0.1701329E-02 -0.4166333E-01  0.1518293E-02  0.7313274E-01
5937667. -0.2707264E-01 -0.1324370E+00 -0.1403538E-02 -0.7088507E-01  0.1108526E-02  0.8308412E-01
5904333. -0.2630608E-01 -0.1477989E+00 -0.9752533E-03 -0.9117360E-01  0.6533088E-03  0.9050357E-01
5871000. -0.2563470E-01 -0.1009470E+00 -0.4675625E-03 -0.1011500E+00  0.1658166E-03  0.9544145E-01
5837667. -0.2530545E-01 -0.2210332E-01  0.6540602E-04 -0.1009773E+00 -0.3412623E-03  0.9801532E-01
5804333. -0.2540818E-01  0.5964423E-01  0.5737487E-03 -0.9204260E-01 -0.8560061E-03  0.9839879E-01
5771000. -0.2589218E-01  0.1201803E+00  0.1017087E-02 -0.7654618E-01 -0.1367485E-02  0.9681378E-01
5771000. -0.2589218E-01  0.1202183E+00  0.1017087E-02 -0.7654271E-01 -0.1367485E-02  0.9681378E-01
5701000. -0.2730864E-01  0.1021733E+00  0.1659670E-02 -0.3815228E-01 -0.2381885E-02  0.8670452E-01
5701000. -0.2730864E-01  0.1421814E+00  0.1659670E-02 -0.2341038E-01 -0.2381885E-02  0.9440184E-01
5667333. -0.2778470E-01  0.3095045E-01  0.1737498E-02 -0.6466679E-02 -0.2861019E-02  0.8677819E-01
5633667. -0.2757284E-01 -0.1161677E+00  0.1733462E-02  0.7400410E-02 -0.3297555E-02  0.7832488E-01
5600000. -0.2651769E-01 -0.2857773E+00  0.1666110E-02  0.1740806E-01 -0.3687777E-02  0.6928525E-01
5600000. -0.2651769E-01 -0.2857405E+00  0.1666110E-02  0.1740735E-01 -0.3687777E-02  0.6928525E-01
5563518. -0.2435047E-01 -0.4718732E+00  0.1546901E-02  0.2351435E-01 -0.4055626E-02  0.5916725E-01
5527037. -0.2112221E-01 -0.6534653E+00  0.1405091E-02  0.2530063E-01 -0.4365280E-02  0.4899533E-01
5490556. -0.1690819E-01 -0.8134202E+00  0.1265025E-02  0.2297610E-01 -0.4616985E-02  0.3895628E-01
5454074. -0.1187757E-01 -0.9362854E+00  0.1148666E-02  0.1714940E-01 -0.4811994E-02  0.2921720E-01
5417593. -0.6280074E-02 -0.1009745E+01  0.1073562E-02  0.8741665E-02 -0.4952442E-02  0.1992299E-01
5381111. -0.4234855E-03 -0.1025797E+01  0.1051344E-02 -0.1125168E-02 -0.5041235E-02  0.1119163E-01
5344630.  0.5352128E-02 -0.9814578E+00  0.1086933E-02 -0.1124811E-01 -0.5081866E-02  0.3115450E-02
5308148.  0.1070519E-01 -0.8789528E+00  0.1178424E-02 -0.2046498E-01 -0.5078289E-02 -0.4240658E-02
5271667.  0.1532062E-01 -0.7254438E+00  0.1317620E-02 -0.2775947E-01 -0.5034755E-02 -0.1083620E-01
5235185.  0.1893738E-01 -0.5322926E+00  0.1491154E-02 -0.3234903E-01 -0.4955674E-02 -0.1665426E-01
5198704.  0.2136865E-01 -0.3140255E+00  0.1681971E-02 -0.3374169E-01 -0.4845504E-02 -0.2169747E-01
5162222.  0.2251700E-01 -0.8698786E-01  0.1871125E-02 -0.3176489E-01 -0.4708628E-02 -0.2598541E-01
5125741.  0.2238035E-01  0.1320316E+00  0.2039579E-02 -0.2656255E-01 -0.4549290E-02 -0.2955075E-01
5089259.  0.2105065E-01  0.3272210E+00  0.2169977E-02 -0.1856429E-01 -0.4371501E-02 -0.3243574E-01
5052778.  0.1870471E-01  0.4849752E+00  0.2248105E-02 -0.8433235E-02 -0.4179030E-02 -0.3468896E-01
5016296.  0.1558814E-01  0.5949394E+00  0.2264057E-02  0.3005228E-02 -0.3975336E-02 -0.3636255E-01
4979815.  0.1199514E-01  0.6507021E+00  0.2212933E-02  0.1484002E-01 -0.3763597E-02 -0.3750952E-01
4943333.  0.8243927E-02  0.6501778E+00  0.2095096E-02  0.2615715E-01 -0.3546668E-02 -0.3818237E-01
4906852.  0.4652614E-02  0.5956095E+00  0.1915982E-02  0.3611270E-01 -0.3327128E-02 -0.3843097E-01
4870370.  0.1514402E-02  0.4932290E+00  0.1685481E-02  0.4399920E-01 -0.3107262E-02 -0.3830228E-01
4833889. -0.9228330E-03  0.3526403E+00  0.1417053E-02  0.4929195E-01 -0.2889113E-02 -0.3783987E-01
4797407. -0.2474171E-02  0.1859661E+00  0.1126526E-02  0.5168253E-01 -0.2674466E-02 -0.3708383E-01
4760926. -0.3028776E-02  0.6859335E-02  0.8308779E-03  0.5108833E-01 -0.2464905E-02 -0.3607102E-01
4724444. -0.2555867E-02 -0.1705881E+00  0.5468925E-03  0.4764642E-01 -0.2261792E-02 -0.3483559E-01
4687963. -0.1104231E-02 -0.3328439E+00  0.2900211E-03  0.4169106E-01 -0.2066319E-02 -0.3340958E-01
4651482.  0.1203912E-02 -0.4679231E+00  0.7329948E-04  0.3371638E-01 -0.1879484E-02 -0.3182330E-01
4615000.  0.4184062E-02 -0.5661479E+00 -0.9341356E-04  0.2433095E-01 -0.1702117E-02 -0.3010588E-01
4578518.  0.7604181E-02 -0.6207227E+00 -0.2039422E-03  0.1420762E-01 -0.1534892E-02 -0.2828568E-01
4542037.  0.1120245E-01 -0.6280900E+00 -0.2560277E-03  0.4031733E-02 -0.1378323E-02 -0.2639037E-01
4505556.  0.1470642E-01 -0.5880226E+00 -0.2512575E-03 -0.5548078E-02 -0.1232756E-02 -0.2444693E-01
4469074.  0.1785158E-01 -0.5034828E+00 -0.1947221E-03 -0.1396142E-01 -0.1098390E-02 -0.2248147E-01
4432593.  0.2039853E-01 -0.3802884E+00 -0.9447992E-04 -0.2074855E-01 -0.9752840E-03 -0.2051934E-01
4396111.  0.2214839E-01 -0.2265802E+00  0.3916512E-04 -0.2558476E-01 -0.8633438E-03 -0.1858416E-01
4359630.  0.2295392E-01 -0.5221035E-01  0.1944494E-03 -0.2829036E-01 -0.7623589E-03 -0.1669736E-01
4323148.  0.2272751E-01  0.1320013E+00  0.3590187E-03 -0.2883256E-01 -0.6719898E-03 -0.1487843E-01
4286667.  0.2144465E-01  0.3149577E+00  0.5207121E-03 -0.2731541E-01 -0.5918055E-03 -0.1314327E-01
4250185.  0.1914328E-01  0.4860183E+00  0.6683346E-03 -0.2396253E-01 -0.5212838E-03 -0.1150466E-01
4213704.  0.1591977E-01  0.6355855E+00  0.7922418E-03 -0.1909329E-01 -0.4598484E-03 -0.9971334E-02
4177222.  0.1192080E-01  0.7556516E+00  0.8848390E-03 -0.1309430E-01 -0.4068791E-03 -0.8547517E-02
4140741.  0.7333876E-02  0.8401530E+00  0.9408579E-03 -0.6390546E-02 -0.3617496E-03 -0.7233102E-02
4104259.  0.2374531E-02  0.8852268E+00  0.9575077E-03  0.5852202E-03 -0.3238440E-03 -0.6022743E-02
4067778. -0.2725544E-02  0.8892786E+00  0.9344328E-03  0.7417969E-02 -0.2925950E-03 -0.4906299E-02
4031296. -0.7732516E-02  0.8529426E+00  0.8735424E-03  0.1373511E-01 -0.2675055E-03 -0.3868057E-02
3994815. -0.1242159E-01  0.7788957E+00  0.7787217E-03  0.1922319E-01 -0.2481873E-03 -0.2886687E-02
3958333. -0.1658903E-01  0.6715709E+00  0.6554380E-03  0.2364179E-01 -0.2343899E-03 -0.1934483E-02
3921852. -0.2006019E-01  0.5368088E+00  0.5103237E-03  0.2682909E-01 -0.2260420E-03 -0.9770431E-03
3885370. -0.2269732E-01  0.3814343E+00  0.3506918E-03  0.2870389E-01 -0.2232916E-03  0.2848152E-04
3848889. -0.2440329E-01  0.2128585E+00  0.1841162E-03  0.2926103E-01 -0.2265594E-03  0.1134709E-02
3812407. -0.2512423E-01  0.3862574E-01  0.1798211E-04  0.2856368E-01 -0.2366027E-03  0.2407036E-02
3775926. -0.2484889E-01 -0.1339305E+00 -0.1408371E-03  0.2673166E-01 -0.2545964E-03  0.3926766E-02
3739444. -0.2360654E-01 -0.2980551E+00 -0.2863010E-03  0.2392749E-01 -0.2822403E-03  0.5796682E-02
3702963. -0.2146300E-01 -0.4477989E+00 -0.4133719E-03  0.2034208E-01 -0.3218987E-03  0.8148124E-02
3666482. -0.1851521E-01 -0.5782351E+00 -0.5181605E-03  0.1617896E-01 -0.3767938E-03  0.1115068E-01
3630000. -0.1488509E-01 -0.6855466E+00 -0.5979430E-03  0.1164006E-01 -0.4512637E-03  0.1502671E-01
3630000. -0.1488509E-01 -0.6855425E+00 -0.5979430E-03  0.1164021E-01 -0.4512637E-03  0.1502671E-01
3592500. -0.1058464E-01 -0.7709639E+00 -0.6519187E-03  0.6664874E-02 -0.5542755E-03  0.2020292E-01
3555000. -0.5867220E-02 -0.8268821E+00 -0.6761315E-03  0.1550134E-02 -0.6922061E-03  0.2696985E-01
3517500. -0.9117331E-03 -0.8516478E+00 -0.6701329E-03 -0.3583691E-02 -0.8759553E-03  0.3587789E-01
3480000.  0.4095466E-02 -0.8443509E+00 -0.6340637E-03 -0.8658573E-02 -0.1120218E-02  0.4767678E-01
3480000.  0.4095466E-02 -0.7788696E-01  0.6333516E-03  0.6327022E-02 -0.1120218E-02  0.3479412E-01
3409422.  0.4643317E-02 -0.2321493E-01  0.5550650E-03  0.7632804E-02 -0.1332945E-02  0.6196794E-02
3338844.  0.4662998E-02  0.1716847E-01  0.4677062E-03  0.8001638E-02 -0.1304783E-02 -0.9547425E-02
3268266.  0.4317115E-02  0.4295217E-01  0.3803584E-03  0.7672540E-02 -0.1152484E-02 -0.1683721E-01
3197688.  0.3758397E-02  0.5602918E-01  0.2993793E-03  0.6891191E-02 -0.9510646E-03 -0.1886204E-01
3127109.  0.3111744E-02  0.5935631E-01  0.2285404E-03  0.5874137E-02 -0.7456045E-03 -0.1787560E-01
3056531.  0.2467605E-02  0.5608566E-01  0.1694703E-03  0.4790472E-02 -0.5604147E-03 -0.1540716E-01
2985953.  0.1883030E-02  0.4902414E-01  0.1222103E-03  0.3757286E-02 -0.4060501E-03 -0.1243603E-01
2915375.  0.1387231E-02  0.4036732E-01  0.8577508E-04  0.2844335E-02 -0.2845764E-03 -0.9538339E-02
2844797.  0.9888429E-03  0.3163799E-01  0.5862639E-04  0.2083423E-02 -0.1933361E-03 -0.7008956E-02
2774219.  0.6830792E-03  0.2375391E-01  0.3903417E-04  0.1479168E-02 -0.1275032E-03 -0.4958710E-02
2703641.  0.4577599E-03  0.1715619E-01  0.2532047E-04  0.1019091E-02 -0.8169271E-04 -0.3388141E-02
2633062.  0.2977909E-03  0.1195277E-01  0.1600110E-04  0.6818586E-03 -0.5087214E-04 -0.2240136E-02
2562484.  0.1881244E-03  0.8047921E-02  0.9848993E-05  0.4432564E-03 -0.3079389E-04 -0.1434919E-02
2491906.  0.1154161E-03  0.5242915E-02  0.5902473E-05  0.2799988E-03 -0.1811627E-04 -0.8910399E-03
2421328.  0.6875479E-04  0.3306955E-02  0.3442314E-05  0.1718525E-03 -0.1035453E-04 -0.5365164E-03
2350750.  0.3975459E-04  0.2020071E-02  0.1952312E-05  0.1024520E-03 -0.5746430E-05 -0.3132134E-03
2280172.  0.2229786E-04  0.1194977E-02  0.1075897E-05  0.5929571E-04 -0.3094124E-05 -0.1772159E-03
2209594.  0.1212237E-04  0.6843085E-03  0.5755534E-06  0.3329296E-04 -0.1614847E-05 -0.9711647E-04
2139016.  0.6381589E-05  0.3791142E-03  0.2985318E-06  0.1811792E-04 -0.8159758E-06 -0.5150261E-04
2068438.  0.3249114E-05  0.2030151E-03  0.1499350E-06  0.9545603E-05 -0.3986437E-06 -0.2640143E-04
1997859.  0.1597618E-05  0.1049604E-03  0.7280276E-07  0.4862415E-05 -0.1880030E-06 -0.1306456E-04
1927281.  0.7574255E-06  0.5231857E-04  0.3411677E-07  0.2390996E-05 -0.8543544E-07 -0.6230771E-05
1856703.  0.3455619E-06  0.2510051E-04  0.1539872E-07  0.1132890E-05 -0.3733343E-07 -0.2858556E-05
1786125.  0.1513798E-06  0.1156748E-04  0.6678857E-08  0.5161353E-06 -0.1564996E-07 -0.1258817E-05
1715547.  0.6351308E-07  0.5108695E-05  0.2776406E-08  0.2255563E-06 -0.6276335E-08 -0.5307585E-06
1644969.  0.2544835E-07  0.2156259E-05  0.1102846E-08  0.9429115E-07 -0.2400629E-08 -0.2136467E-06
1574391.  0.9708415E-08  0.8667161E-06  0.4170327E-09  0.3759945E-07 -0.8725364E-09 -0.8183709E-07
1503812.  0.3523920E-08  0.3293567E-06  0.1490712E-09  0.1429810E-07 -0.2998839E-09 -0.2973521E-07
1433234.  0.1251336E-08  0.1133086E-06  0.4851314E-10  0.5346941E-08 -0.9637298E-10 -0.1025466E-07
1362656.  0.5816738E-09  0.1675893E-07  0.8083757E-11  0.2681813E-08 -0.2719602E-10 -0.3459484E-08
1292078.  0.8945931E-09 -0.8645745E-07 -0.2675289E-10  0.4542825E-08 -0.3062351E-11 -0.1312896E-08
1221500.  0.3372671E-08 -0.4486406E-06 -0.1330333E-09  0.1828379E-07  0.5086914E-11  0.5335464E-10
1221500.  0.3372671E-08 -0.8918899E-07 -0.3401107E-10 -0.1776830E-07  0.5086914E-11 -0.1407700E-08
1183328.  0.3242263E-08  0.9782726E-07  0.2959029E-10 -0.5160700E-08  0.7932616E-11  0.1237424E-09
1145156.  0.2485701E-08  0.1394883E-06  0.4245553E-10  0.2247140E-10  0.5998011E-11  0.4143176E-09
1106984.  0.1684753E-08  0.1226354E-06  0.3630362E-10  0.1649648E-08  0.3654025E-11  0.3437178E-09
1068812.  0.1046819E-08  0.8964265E-07  0.2564107E-10  0.1763913E-08  0.1976407E-11  0.2177514E-09
1030641.  0.6059301E-09  0.5857744E-07  0.1614241E-10  0.1371079E-08  0.9829923E-12  0.1204686E-09
 992469.  0.3292283E-09  0.3518071E-07  0.9321858E-11  0.9136195E-09  0.4566378E-12  0.6081056E-10
 954297.  0.1684999E-09  0.1966416E-07  0.5001532E-11  0.5484825E-09  0.1996134E-12  0.2853592E-10
 916125.  0.8131547E-10  0.1028830E-07  0.2507808E-11  0.3027182E-09  0.8237800E-13  0.1255855E-10
 877953.  0.3697979E-10  0.5049613E-08  0.1177604E-11  0.1549950E-09  0.3211621E-13  0.5202506E-11
 839781.  0.1581973E-10  0.2324913E-08  0.5177933E-12  0.7388671E-10  0.1181601E-13  0.2030314E-11
 801609.  0.6348368E-11  0.1002550E-08  0.2128196E-12  0.3281186E-10  0.4092567E-14  0.7455647E-12
 763438.  0.2380868E-11  0.4037659E-09  0.8151803E-13  0.1355361E-10  0.1329579E-14  0.2569219E-12
 725266.  0.8305026E-12  0.1512595E-09  0.2897508E-13  0.5191181E-11  0.4031960E-15  0.8273076E-13
 687094.  0.2678957E-12  0.5243788E-10  0.9505305E-14  0.1835204E-11  0.1134447E-15  0.2476268E-13
 648922.  0.7935022E-13  0.1671450E-10  0.2858473E-14  0.5952365E-12  0.2939340E-16  0.6840919E-14
 610750.  0.2139847E-13  0.4859791E-11  0.7814715E-15  0.1757801E-12  0.6950299E-17  0.1729611E-14
 572578.  0.5199653E-14  0.1276408E-11  0.1922552E-15  0.4681659E-13  0.1483377E-17  0.3960668E-15
 534406.  0.1124178E-14  0.2992363E-12  0.4203359E-16  0.1111387E-13  0.2819317E-18  0.8109310E-16
 496234.  0.2129134E-15  0.6169701E-13  0.8041768E-17  0.2317399E-14  0.4693670E-19  0.1461224E-16
 458062.  0.3464517E-16  0.1098243E-13  0.1320519E-17  0.4166942E-15  0.6705614E-20  0.2272178E-17
 419891.  0.4726064E-17  0.1648670E-14  0.1816112E-18  0.6312155E-16  0.8009478E-21  0.2974148E-18
 381719.  0.5237452E-18  0.2024568E-15  0.2026645E-19  0.7810751E-17  0.7743112E-22  0.3149479E-19
 343547.  0.0000000E+00  0.0000000E+00  0.0000000E+00  0.0000000E+00  0.0000000E+00  0.0000000E+00
 305375.  0.0000000E+00  0.0000000E+00  0.0000000E+00  0.0000000E+00  0.0000000E+00  0.0000000E+00
 267203.  0.0000000E+00  0.0000000E+00  0.0000000E+00  0.0000000E+00  0.0000000E+00  0.0000000E+00
 229031.  0.0000000E+00  0.0000000E+00  0.0000000E+00  0.0000000E+00  0.0000000E+00  0.0000000E+00
 190859.  0.0000000E+00  0.0000000E+00  0.0000000E+00  0.0000000E+00  0.0000000E+00  0.0000000E+00
 152688.  0.0000000E+00  0.0000000E+00  0.0000000E+00  0.0000000E+00  0.0000000E+00  0.0000000E+00
 114516.  0.0000000E+00  0.0000000E+00  0.0000000E+00  0.0000000E+00  0.0000000E+00  0.0000000E+00
  76344.  0.0000000E+00  0.0000000E+00  0.0000000E+00  0.0000000E+00  0.0000000E+00  0.0000000E+00
  38172.  0.0000000E+00  0.0000000E+00  0.0000000E+00  0.0000000E+00  0.0000000E+00  0.0000000E+00
      0.  0.0000000E+00  0.0000000E+00  0.0000000E+00  0.0000000E+00  0.0000000E+00  0.0000000E+00
