      11        1 S      529        271.43051         98.31903         15.16060        661.77570      185    7
6371000.  0.1031143E+00 -0.7052340E-01  0.1346614E-01 -0.8964813E-01  0.8299803E-11 -0.1944494E+00
6370000.  0.1031245E+00 -0.5995798E-01  0.1347987E-01 -0.8518721E-01  0.3052321E-04 -0.1944767E+00
6369000.  0.1031331E+00 -0.4938924E-01  0.1349288E-01 -0.8071664E-01  0.6105044E-04 -0.1945009E+00
6368000.  0.1031400E+00 -0.3881735E-01  0.1350520E-01 -0.7623664E-01  0.9158123E-04 -0.1945219E+00
6368000.  0.1031400E+00 -0.3881735E-01  0.1350520E-01 -0.7623664E-01  0.9158123E-04 -0.1945219E+00
6367000.  0.1031453E+00 -0.2824247E-01  0.1351682E-01 -0.7174743E-01  0.1221151E-03 -0.1945399E+00
6366000.  0.1031489E+00 -0.1766479E-01  0.1352773E-01 -0.6724926E-01  0.1526515E-03 -0.1945548E+00
6365000.  0.1031508E+00 -0.7084467E-02  0.1353793E-01 -0.6274235E-01  0.1831900E-03 -0.1945665E+00
6364000.  0.1031511E+00  0.3498327E-02  0.1354742E-01 -0.5822693E-01  0.2137302E-03 -0.1945752E+00
6363000.  0.1031497E+00  0.1408342E-01  0.1355621E-01 -0.5370324E-01  0.2442714E-03 -0.1945807E+00
6362000.  0.1031467E+00  0.2467064E-01  0.1356428E-01 -0.4917151E-01  0.2748132E-03 -0.1945831E+00
6361000.  0.1031420E+00  0.3525982E-01  0.1357164E-01 -0.4463197E-01  0.3053552E-03 -0.1945824E+00
6360000.  0.1031356E+00  0.4585079E-01  0.1357829E-01 -0.4008484E-01  0.3358969E-03 -0.1945786E+00
6359000.  0.1031276E+00  0.5644337E-01  0.1358422E-01 -0.3553038E-01  0.3664377E-03 -0.1945716E+00
6358000.  0.1031179E+00  0.6703740E-01  0.1358944E-01 -0.3096881E-01  0.3969771E-03 -0.1945615E+00
6357000.  0.1031065E+00  0.7763271E-01  0.1359395E-01 -0.2640037E-01  0.4275147E-03 -0.1945484E+00
6356000.  0.1030935E+00  0.8822913E-01  0.1359773E-01 -0.2182529E-01  0.4580500E-03 -0.1945321E+00
6356000.  0.1030935E+00  0.4182290E-01  0.1359773E-01 -0.4873390E-01  0.4580500E-03 -0.2169640E+00
6355000.  0.1030864E+00  0.4952344E-01  0.1360514E-01 -0.4564425E-01  0.4921046E-03 -0.2169581E+00
6354000.  0.1030780E+00  0.5722517E-01  0.1361206E-01 -0.4254955E-01  0.5261579E-03 -0.2169497E+00
6353000.  0.1030684E+00  0.6492803E-01  0.1361850E-01 -0.3944989E-01  0.5602098E-03 -0.2169388E+00
6352000.  0.1030576E+00  0.7263190E-01  0.1362444E-01 -0.3634538E-01  0.5942598E-03 -0.2169253E+00
6351000.  0.1030456E+00  0.8033670E-01  0.1362990E-01 -0.3323613E-01  0.6283074E-03 -0.2169093E+00
6350000.  0.1030324E+00  0.8804235E-01  0.1363488E-01 -0.3012225E-01  0.6623524E-03 -0.2168908E+00
6349000.  0.1030179E+00  0.9574874E-01  0.1363936E-01 -0.2700384E-01  0.6963942E-03 -0.2168698E+00
6348000.  0.1030023E+00  0.1034558E+00  0.1364335E-01 -0.2388101E-01  0.7304325E-03 -0.2168462E+00
6347000.  0.1029855E+00  0.1111634E+00  0.1364686E-01 -0.2075388E-01  0.7644669E-03 -0.2168202E+00
6346600.  0.1029784E+00  0.1142466E+00  0.1364812E-01 -0.1950184E-01  0.7780796E-03 -0.2168090E+00
6346600.  0.1029784E+00  0.3672025E-01  0.1364812E-01 -0.4229777E-01  0.7780796E-03 -0.2527161E+00
6318800.  0.1024798E+00  0.1922715E+00  0.1368147E-01  0.2734813E-01  0.1878929E-02 -0.2515786E+00
6291000.  0.1012971E+00  0.3501310E+00  0.1340757E-01  0.9828512E-01  0.2971200E-02 -0.2487798E+00
6291000.  0.1012971E+00  0.3542786E+00  0.1340757E-01  0.1058613E+00  0.2971200E-02 -0.2487798E+00
6263000.  0.9938255E-01  0.5170931E+00  0.1277915E-01  0.1799202E+00  0.4055142E-02 -0.2442010E+00
6235000.  0.9675165E-01  0.6800895E+00  0.1182904E-01  0.2519785E+00  0.5115130E-02 -0.2378779E+00
6207000.  0.9340610E-01  0.8421230E+00  0.1056959E-01  0.3204267E+00  0.6143494E-02 -0.2298115E+00
6179000.  0.8935267E-01  0.1002021E+01  0.9020089E-02  0.3837253E+00  0.7132598E-02 -0.2200153E+00
6151000.  0.8460341E-01  0.1158571E+01  0.7206376E-02  0.4404314E+00  0.8074898E-02 -0.2085180E+00
6151000.  0.8460341E-01  0.9203187E+00  0.7206376E-02  0.3760023E+00  0.8074898E-02 -0.2131987E+00
6128500.  0.8121412E-01  0.9982547E+00  0.5821961E-02  0.4072606E+00  0.8814904E-02 -0.2057462E+00
6106000.  0.7755859E-01  0.1071078E+01  0.4335262E-02  0.4338742E+00  0.9527250E-02 -0.1975409E+00
6083500.  0.7365507E-01  0.1138681E+01  0.2763198E-02  0.4555615E+00  0.1020934E-01 -0.1886181E+00
6061000.  0.6952215E-01  0.1200979E+01  0.1123577E-02  0.4721018E+00  0.1085871E-01 -0.1790165E+00
6038500.  0.6517866E-01  0.1257925E+01 -0.5651387E-03  0.4833450E+00  0.1147303E-01 -0.1687748E+00
6016000.  0.6064356E-01  0.1309482E+01 -0.2284076E-02  0.4892073E+00  0.1205010E-01 -0.1579332E+00
5993500.  0.5593593E-01  0.1355639E+01 -0.4014170E-02  0.4896656E+00  0.1258789E-01 -0.1465344E+00
5971000.  0.5107480E-01  0.1396416E+01 -0.5736399E-02  0.4847668E+00  0.1308451E-01 -0.1346205E+00
5971000.  0.5107480E-01  0.1259351E+01 -0.5736399E-02  0.4246836E+00  0.1308451E-01 -0.1413066E+00
5937667.  0.4444931E-01  0.1271595E+01 -0.7877612E-02  0.3927007E+00  0.1378081E-01 -0.1247579E+00
5904333.  0.3778553E-01  0.1274098E+01 -0.9835244E-02  0.3547360E+00  0.1438900E-01 -0.1076422E+00
5871000.  0.3113197E-01  0.1267936E+01 -0.1158176E-01  0.3122570E+00  0.1490644E-01 -0.9009413E-01
5837667.  0.2453111E-01  0.1254120E+01 -0.1309722E-01  0.2666328E+00  0.1533121E-01 -0.7223807E-01
5804333.  0.1802028E-01  0.1233599E+01 -0.1436854E-01  0.2191188E+00  0.1566201E-01 -0.5418933E-01
5771000.  0.1163265E-01  0.1207238E+01 -0.1538879E-01  0.1708432E+00  0.1589811E-01 -0.3605711E-01
5771000.  0.1163265E-01  0.1207252E+01 -0.1538879E-01  0.1708366E+00  0.1589811E-01 -0.3605711E-01
5701000. -0.1697924E-02  0.1214632E+01 -0.1676998E-01  0.7922462E-01  0.1608001E-01  0.3055609E-02
5701000. -0.1697924E-02  0.1002512E+01 -0.1676998E-01  0.5895812E-01  0.1608001E-01  0.3534192E-02
5667333. -0.6952741E-02  0.9855266E+00 -0.1696890E-01  0.1664874E-01  0.1601583E-01  0.2074055E-01
5633667. -0.1210682E-01  0.9644958E+00 -0.1694974E-01 -0.2350314E-01  0.1586108E-01  0.3779623E-01
5600000. -0.1713990E-01  0.9397246E+00 -0.1672505E-01 -0.6107664E-01  0.1561677E-01  0.5462306E-01
5600000. -0.1713990E-01  0.9397261E+00 -0.1672505E-01 -0.6107960E-01  0.1561677E-01  0.5462306E-01
5563518. -0.2245693E-01  0.9166698E+00 -0.1625994E-01 -0.1010960E+00  0.1525244E-01  0.7258204E-01
5527037. -0.2763016E-01  0.8895856E+00 -0.1557093E-01 -0.1391963E+00  0.1478612E-01  0.9023366E-01
5490556. -0.3263732E-01  0.8587096E+00 -0.1467054E-01 -0.1748375E+00  0.1421983E-01  0.1074883E+00
5454074. -0.3745754E-01  0.8242812E+00 -0.1357425E-01 -0.2075293E+00  0.1355605E-01  0.1242592E+00
5417593. -0.4207088E-01  0.7865362E+00 -0.1230031E-01 -0.2368358E+00  0.1279785E-01  0.1404628E+00
5381111. -0.4645927E-01  0.7457066E+00 -0.1086908E-01 -0.2623912E+00  0.1194865E-01  0.1560205E+00
5344630. -0.5060548E-01  0.7020293E+00 -0.9303052E-02 -0.2838919E+00  0.1101243E-01  0.1708563E+00
5308148. -0.5449410E-01  0.6557360E+00 -0.7626026E-02 -0.3011101E+00  0.9993455E-02  0.1849001E+00
5271667. -0.5811059E-01  0.6070557E+00 -0.5863123E-02 -0.3138820E+00  0.8896525E-02  0.1980850E+00
5235185. -0.6144213E-01  0.5562130E+00 -0.4039994E-02 -0.3221198E+00  0.7726669E-02  0.2103500E+00
5198704. -0.6447680E-01  0.5034364E+00 -0.2182785E-02 -0.3258051E+00  0.6489387E-02  0.2216378E+00
5162222. -0.6720434E-01  0.4489464E+00 -0.3173511E-03 -0.3249889E+00  0.5190357E-02  0.2318964E+00
5125741. -0.6961542E-01  0.3929651E+00  0.1530733E-02 -0.3197877E+00  0.3835679E-02  0.2410793E+00
5089259. -0.7170224E-01  0.3357091E+00  0.3336941E-02 -0.3103805E+00  0.2431563E-02  0.2491443E+00
5052778. -0.7345803E-01  0.2773979E+00  0.5077748E-02 -0.2970058E+00  0.9845932E-03  0.2560549E+00
5016296. -0.7487745E-01  0.2182431E+00  0.6731335E-02 -0.2799531E+00 -0.4986070E-03  0.2617796E+00
4979815. -0.7595621E-01  0.1584611E+00  0.8277498E-02 -0.2595614E+00 -0.2011087E-02  0.2662920E+00
4943333. -0.7669137E-01  0.9825975E-01  0.9698269E-02 -0.2362085E+00 -0.3545928E-02  0.2695721E+00
4906852. -0.7708111E-01  0.3785282E-01  0.1097779E-01 -0.2103116E+00 -0.5095938E-02  0.2716029E+00
4870370. -0.7712485E-01 -0.2255413E-01  0.1210282E-01 -0.1823117E+00 -0.6654020E-02  0.2723750E+00
4833889. -0.7682320E-01 -0.8275183E-01  0.1306256E-01 -0.1526711E+00 -0.8212863E-02  0.2718835E+00
4797407. -0.7617791E-01 -0.1425376E+00  0.1384904E-01 -0.1218675E+00 -0.9765312E-02  0.2701269E+00
4760926. -0.7519198E-01 -0.2017046E+00  0.1445694E-01 -0.9038536E-01 -0.1130405E-01  0.2671112E+00
4724444. -0.7386947E-01 -0.2600547E+00  0.1488378E-01 -0.5870413E-01 -0.1282198E-01  0.2628461E+00
4687963. -0.7221569E-01 -0.3173841E+00  0.1512977E-01 -0.2730083E-01 -0.1431190E-01  0.2573465E+00
4651482. -0.7023704E-01 -0.3734984E+00  0.1519784E-01  0.3365581E-02 -0.1576685E-01  0.2506321E+00
4615000. -0.6794094E-01 -0.4282044E+00  0.1509347E-01  0.3285667E-01 -0.1717996E-01  0.2427267E+00
4578518. -0.6533609E-01 -0.4813088E+00  0.1482459E-01  0.6075937E-01 -0.1854446E-01  0.2336596E+00
4542037. -0.6243225E-01 -0.5326245E+00  0.1440140E-01  0.8669286E-01 -0.1985376E-01  0.2234635E+00
4505556. -0.5924013E-01 -0.5819694E+00  0.1383618E-01  0.1103149E+00 -0.2110153E-01  0.2121756E+00
4469074. -0.5577143E-01 -0.6291678E+00  0.1314302E-01  0.1313245E+00 -0.2228166E-01  0.1998365E+00
4432593. -0.5203913E-01 -0.6740432E+00  0.1233768E-01  0.1494641E+00 -0.2338821E-01  0.1864922E+00
4396111. -0.4805681E-01 -0.7164315E+00  0.1143718E-01  0.1645263E+00 -0.2441561E-01  0.1721906E+00
4359630. -0.4383938E-01 -0.7561749E+00  0.1045965E-01  0.1763522E+00 -0.2535847E-01  0.1569835E+00
4323148. -0.3940218E-01 -0.7931224E+00  0.9423910E-02  0.1848355E+00 -0.2621182E-01  0.1409259E+00
4286667. -0.3476189E-01 -0.8271298E+00  0.8349332E-02  0.1899227E+00 -0.2697090E-01  0.1240758E+00
4250185. -0.2993548E-01 -0.8580654E+00  0.7255334E-02  0.1916121E+00 -0.2763138E-01  0.1064934E+00
4213704. -0.2494115E-01 -0.8858061E+00  0.6161312E-02  0.1899545E+00 -0.2818922E-01  0.8824237E-01
4177222. -0.1979725E-01 -0.9102405E+00  0.5086107E-02  0.1850503E+00 -0.2864081E-01  0.6938669E-01
4140741. -0.1452329E-01 -0.9312683E+00  0.4047961E-02  0.1770498E+00 -0.2898284E-01  0.4999446E-01
4104259. -0.9138733E-02 -0.9488035E+00  0.3064009E-02  0.1661481E+00 -0.2921246E-01  0.3013304E-01
4067778. -0.3664099E-02 -0.9627709E+00  0.2150258E-02  0.1525828E+00 -0.2932718E-01  0.9873600E-02
4031296.  0.1880304E-02 -0.9731112E+00  0.1321135E-02  0.1366302E+00 -0.2932491E-01 -0.1071400E-01
3994815.  0.7473271E-02 -0.9797798E+00  0.5894806E-03  0.1186019E+00 -0.2920399E-01 -0.3155675E-01
3958333.  0.1309398E-01 -0.9827431E+00 -0.3382090E-04  0.9883785E-01 -0.2896316E-01 -0.5258344E-01
3921852.  0.1872087E-01 -0.9819912E+00 -0.5398329E-03  0.7770391E-01 -0.2860158E-01 -0.7372013E-01
3885370.  0.2433296E-01 -0.9775232E+00 -0.9218291E-03  0.5558381E-01 -0.2811881E-01 -0.9489531E-01
3848889.  0.2990871E-01 -0.9693572E+00 -0.1175283E-02  0.3287801E-01 -0.2751487E-01 -0.1160353E+00
3812407.  0.3542734E-01 -0.9575247E+00 -0.1298013E-02  0.9991770E-02 -0.2679014E-01 -0.1370694E+00
3775926.  0.4086769E-01 -0.9420796E+00 -0.1290155E-02 -0.1266421E-01 -0.2594545E-01 -0.1579252E+00
3739444.  0.4620955E-01 -0.9230880E+00 -0.1154191E-02 -0.3468435E-01 -0.2498199E-01 -0.1785335E+00
3702963.  0.5143256E-01 -0.9006330E+00 -0.8949164E-03 -0.5566961E-01 -0.2390143E-01 -0.1988245E+00
3666482.  0.5651732E-01 -0.8748157E+00 -0.5193598E-03 -0.7523660E-01 -0.2270574E-01 -0.2187308E+00
3630000.  0.6144501E-01 -0.8457472E+00 -0.3668246E-04 -0.9302086E-01 -0.2139730E-01 -0.2381881E+00
3630000.  0.6144501E-01 -0.8457440E+00 -0.3668246E-04 -0.9302101E-01 -0.2139730E-01 -0.2381881E+00
3592500.  0.6633846E-01 -0.8163892E+00  0.5592182E-03 -0.1090748E+00 -0.1993766E-01 -0.2576965E+00
3555000.  0.7104857E-01 -0.7834623E+00  0.1242487E-02 -0.1226483E+00 -0.1836470E-01 -0.2766797E+00
3517500.  0.7555461E-01 -0.7470680E+00  0.1997506E-02 -0.1334001E+00 -0.1668174E-01 -0.2950628E+00
3480000.  0.7983653E-01 -0.7073323E+00  0.2806742E-02 -0.1410221E+00 -0.1489252E-01 -0.3127723E+00
3480000.  0.7983653E-01 -0.1214849E+01  0.5560350E-02  0.1358889E+00 -0.1489252E-01 -0.5639052E+00
3409422.  0.9168110E-01 -0.9188941E+00  0.3895237E-02  0.1639994E+00 -0.8112264E-02 -0.6565286E+00
3338844.  0.1001136E+00 -0.6007186E+00  0.1944517E-02  0.1873102E+00 -0.4327698E-03 -0.7258072E+00
3268266.  0.1049494E+00 -0.2713633E+00 -0.2341977E-03  0.2050436E+00  0.7874193E-02 -0.7695124E+00
3197688.  0.1061228E+00  0.5885227E-01 -0.2575506E-02  0.2165733E+00  0.1651703E-01 -0.7862927E+00
3127109.  0.1036773E+00  0.3804909E+00 -0.5007967E-02  0.2214280E+00  0.2519407E-01 -0.7756521E+00
3056531.  0.9775566E-01  0.6850968E+00 -0.7455658E-02  0.2192885E+00  0.3360235E-01 -0.7379110E+00
2985953.  0.8858850E-01  0.9652995E+00 -0.9840060E-02  0.2099866E+00  0.4144708E-01 -0.6741496E+00
2915375.  0.7648182E-01  0.1214843E+01 -0.1208158E-01  0.1935012E+00  0.4844919E-01 -0.5861359E+00
2844797.  0.6180461E-01  0.1428623E+01 -0.1410116E-01  0.1699480E+00  0.5435267E-01 -0.4762467E+00
2774219.  0.4497609E-01  0.1602669E+01 -0.1582175E-01  0.1395729E+00  0.5893080E-01 -0.3473811E+00
2703641.  0.2645319E-01  0.1734142E+01 -0.1716971E-01  0.1027471E+00  0.6199143E-01 -0.2028667E+00
2633062.  0.6717870E-02  0.1821305E+01 -0.1807617E-01  0.5995091E-01  0.6338122E-01 -0.4636011E-01
2562484. -0.1373357E-01  0.1863444E+01 -0.1847807E-01  0.1176239E-01  0.6298870E-01  0.1182400E+00
2491906. -0.3440331E-01  0.1860841E+01 -0.1831934E-01 -0.4114566E-01  0.6074648E-01  0.2869040E+00
2421328. -0.5480146E-01  0.1814686E+01 -0.1755178E-01 -0.9802317E-01  0.5663210E-01  0.4555564E+00
2350750. -0.7445614E-01  0.1727017E+01 -0.1613585E-01 -0.1580618E+00  0.5066809E-01  0.6201691E+00
2280172. -0.9292215E-01  0.1600607E+01 -0.1404128E-01 -0.2203959E+00  0.4292094E-01  0.7768486E+00
2209594. -0.1097888E+00  0.1438893E+01 -0.1124762E-01 -0.2841200E+00  0.3349915E-01  0.9219124E+00
2139016. -0.1246866E+00  0.1245872E+01 -0.7744622E-02 -0.3483014E+00  0.2255052E-01  0.1051962E+01
2068438. -0.1372932E+00  0.1026014E+01 -0.3532456E-02 -0.4119934E+00  0.1025861E-01  0.1163946E+01
1997859. -0.1473378E+00  0.7841386E+00  0.1378265E-02 -0.4742457E+00 -0.3161549E-02  0.1255216E+01
1927281. -0.1546042E+00  0.5253422E+00  0.6966197E-02 -0.5341123E+00 -0.1746747E-01  0.1323565E+01
1856703. -0.1589342E+00  0.2548680E+00  0.1319984E-01 -0.5906676E+00 -0.3239541E-01  0.1367268E+01
1786125. -0.1602276E+00 -0.2198708E-01  0.2003747E-01 -0.6430086E+00 -0.4766510E-01  0.1385104E+01
1715547. -0.1584429E+00 -0.2999741E+00  0.2742758E-01 -0.6902695E+00 -0.6298561E-01  0.1376366E+01
1644969. -0.1535960E+00 -0.5739924E+00  0.3530926E-01 -0.7316174E+00 -0.7806099E-01  0.1340861E+01
1574391. -0.1457581E+00 -0.8391904E+00  0.4361253E-01 -0.7662565E+00 -0.9259602E-01  0.1278905E+01
1503812. -0.1350519E+00 -0.1091074E+01  0.5225902E-01 -0.7934324E+00 -0.1063019E+00  0.1191296E+01
1433234. -0.1216483E+00 -0.1325592E+01  0.6116169E-01 -0.8124103E+00 -0.1189004E+00  0.1079287E+01
1362656. -0.1057592E+00 -0.1539267E+01  0.7022588E-01 -0.8224745E+00 -0.1301305E+00  0.9445333E+00
1292078. -0.8763162E-01 -0.1729306E+01  0.7934874E-01 -0.8228687E+00 -0.1397509E+00  0.7890400E+00
1221500. -0.6753932E-01 -0.1893738E+01  0.8841871E-01 -0.8127865E+00 -0.1475443E+00  0.6150872E+00
1221500. -0.6753932E-01 -0.2250749E+01  0.1962623E-01  0.4546310E+00 -0.1475443E+00  0.6443455E+00
1183328. -0.5349397E-01 -0.2431455E+01  0.1901652E-01 -0.2656980E+00 -0.1511441E+00  0.5567238E+00
1145156. -0.3848717E-01 -0.2569991E+01  0.2294375E-01 -0.1052775E+01 -0.1542093E+00  0.4659429E+00
1106984. -0.2280101E-01 -0.2656716E+01  0.3167698E-01 -0.1862297E+01 -0.1567220E+00  0.3724078E+00
1068812. -0.6771673E-02 -0.2683282E+01  0.4521107E-01 -0.2647439E+01 -0.1586672E+00  0.2765347E+00
1030641.  0.9219202E-02 -0.2643089E+01  0.6325846E-01 -0.3361346E+01 -0.1600319E+00  0.1787503E+00
 992469.  0.2475793E-01 -0.2531657E+01  0.8525871E-01 -0.3959711E+01 -0.1608061E+00  0.7947945E-01
 954297.  0.3940967E-01 -0.2346880E+01  0.1103977E+00 -0.4403021E+01 -0.1609822E+00 -0.2084125E-01
 916125.  0.5273530E-01 -0.2089311E+01  0.1376451E+00 -0.4658762E+01 -0.1605552E+00 -0.1217744E+00
 877953.  0.6430694E-01 -0.1762162E+01  0.1658014E+00 -0.4703256E+01 -0.1595226E+00 -0.2228832E+00
 839781.  0.7372416E-01 -0.1371371E+01  0.1935544E+00 -0.4522805E+01 -0.1578849E+00 -0.3237310E+00
 801609.  0.8062991E-01 -0.9254526E+00  0.2195431E+00 -0.4114767E+01 -0.1556447E+00 -0.4238830E+00
 763438.  0.8472529E-01 -0.4352919E+00  0.2424229E+00 -0.3487607E+01 -0.1528078E+00 -0.5229059E+00
 725266.  0.8578312E-01  0.8621839E-01  0.2609353E+00 -0.2660820E+01 -0.1493819E+00 -0.6203785E+00
 687094.  0.8365845E-01  0.6245022E+00  0.2739674E+00 -0.1664015E+01 -0.1453777E+00 -0.7158765E+00
 648922.  0.7829735E-01  0.1163860E+01  0.2806122E+00 -0.5357387E+00 -0.1408083E+00 -0.8089883E+00
 610750.  0.6974217E-01  0.1687948E+01  0.2802156E+00  0.6783124E+00 -0.1356891E+00 -0.8993074E+00
 572578.  0.5813365E-01  0.2180370E+01  0.2724138E+00  0.1927337E+01 -0.1300382E+00 -0.9864388E+00
 534406.  0.4370948E-01  0.2625253E+01  0.2571573E+00  0.3157738E+01 -0.1238757E+00 -0.1069998E+01
 496234.  0.2679944E-01  0.3007819E+01  0.2347196E+00  0.4315568E+01 -0.1172242E+00 -0.1149614E+01
 458062.  0.7817276E-02  0.3314911E+01  0.2056923E+00  0.5349011E+01 -0.1101085E+00 -0.1224929E+01
 419891. -0.1275007E-01  0.3535503E+01  0.1709664E+00  0.6210737E+01 -0.1025553E+00 -0.1295598E+01
 381719. -0.3435862E-01  0.3661109E+01  0.1316941E+00  0.6860188E+01 -0.9459335E-01 -0.1361302E+01
 343547. -0.5642042E-01  0.3686123E+01  0.8924902E-01  0.7265295E+01 -0.8625333E-01 -0.1421735E+01
 305375. -0.7832371E-01  0.3608051E+01  0.4516603E-01  0.7404185E+01 -0.7756773E-01 -0.1476614E+01
 267203. -0.9945142E-01  0.3427639E+01  0.1078338E-02  0.7266040E+01 -0.6857061E-01 -0.1525678E+01
 229031. -0.1192008E+00  0.3148906E+01 -0.4135126E-01  0.6851852E+01 -0.5929754E-01 -0.1568693E+01
 190859. -0.1370028E+00  0.2779011E+01 -0.8050095E-01  0.6174261E+01 -0.4978539E-01 -0.1605453E+01
 152688. -0.1523396E+00  0.2328104E+01 -0.1148581E+00  0.5257261E+01 -0.4007243E-01 -0.1635779E+01
 114516. -0.1647637E+00  0.1808927E+01 -0.1430876E+00  0.4135029E+01 -0.3019717E-01 -0.1659522E+01
  76344. -0.1739095E+00  0.1236481E+01 -0.1640839E+00  0.2850582E+01 -0.2019968E-01 -0.1676565E+01
  38172. -0.1795075E+00  0.6275310E+00 -0.1770219E+00  0.1453947E+01 -0.1012038E-01 -0.1686816E+01
      0. -0.1813874E+00  0.0000000E+00 -0.1813776E+00  0.0000000E+00  0.0000000E+00 -0.1690266E+01
