       9       17 S      489        135.19431         16.91964          6.10872        271.07590      185    7
6371000. -0.2317532E-01  0.4826191E+00  0.3861025E-02  0.2703635E-01 -0.4321856E-03  0.5148258E-01
6370000. -0.2325028E-01  0.4724813E+00  0.3856406E-02  0.3181826E-01 -0.4402519E-03  0.5129775E-01
6369000. -0.2332363E-01  0.4621511E+00  0.3851037E-02  0.3659187E-01 -0.4482890E-03  0.5111058E-01
6368000. -0.2339535E-01  0.4516295E+00  0.3844919E-02  0.4135621E-01 -0.4562965E-03  0.5092108E-01
6368000. -0.2339535E-01  0.4516295E+00  0.3844919E-02  0.4135621E-01 -0.4562965E-03  0.5092108E-01
6367000. -0.2346540E-01  0.4409173E+00  0.3838055E-02  0.4611031E-01 -0.4642741E-03  0.5072926E-01
6366000. -0.2353375E-01  0.4300155E+00  0.3830445E-02  0.5085320E-01 -0.4722214E-03  0.5053513E-01
6365000. -0.2360038E-01  0.4189250E+00  0.3822092E-02  0.5558394E-01 -0.4801381E-03  0.5033871E-01
6364000. -0.2366525E-01  0.4076469E+00  0.3812997E-02  0.6030156E-01 -0.4880238E-03  0.5014000E-01
6363000. -0.2372834E-01  0.3961822E+00  0.3803163E-02  0.6500512E-01 -0.4958780E-03  0.4993901E-01
6362000. -0.2378962E-01  0.3845321E+00  0.3792591E-02  0.6969365E-01 -0.5037006E-03  0.4973575E-01
6361000. -0.2384905E-01  0.3726976E+00  0.3781285E-02  0.7436622E-01 -0.5114911E-03  0.4953025E-01
6360000. -0.2390660E-01  0.3606801E+00  0.3769246E-02  0.7902186E-01 -0.5192492E-03  0.4932250E-01
6359000. -0.2396226E-01  0.3484807E+00  0.3756479E-02  0.8365964E-01 -0.5269744E-03  0.4911252E-01
6358000. -0.2401599E-01  0.3361007E+00  0.3742985E-02  0.8827864E-01 -0.5346666E-03  0.4890032E-01
6357000. -0.2406776E-01  0.3235415E+00  0.3728767E-02  0.9287789E-01 -0.5423253E-03  0.4868591E-01
6356000. -0.2411755E-01  0.3108044E+00  0.3713829E-02  0.9745649E-01 -0.5499501E-03  0.4846931E-01
6356000. -0.2411755E-01  0.3067938E+00  0.3713829E-02  0.6988283E-01 -0.5499501E-03  0.5371701E-01
6355000. -0.2416500E-01  0.2977429E+00  0.3702630E-02  0.7282238E-01 -0.5583621E-03  0.5346890E-01
6354000. -0.2421101E-01  0.2885808E+00  0.3690970E-02  0.7575104E-01 -0.5667350E-03  0.5321918E-01
6353000. -0.2425558E-01  0.2793082E+00  0.3678851E-02  0.7866842E-01 -0.5750687E-03  0.5296788E-01
6352000. -0.2429869E-01  0.2699259E+00  0.3666274E-02  0.8157413E-01 -0.5833628E-03  0.5271498E-01
6351000. -0.2434031E-01  0.2604345E+00  0.3653243E-02  0.8446780E-01 -0.5916171E-03  0.5246051E-01
6350000. -0.2438044E-01  0.2508349E+00  0.3639759E-02  0.8734901E-01 -0.5998312E-03  0.5220447E-01
6349000. -0.2441905E-01  0.2411278E+00  0.3625823E-02  0.9021741E-01 -0.6080052E-03  0.5194688E-01
6348000. -0.2445613E-01  0.2313139E+00  0.3611438E-02  0.9307260E-01 -0.6161385E-03  0.5168774E-01
6347000. -0.2449166E-01  0.2213942E+00  0.3596606E-02  0.9591422E-01 -0.6242310E-03  0.5142706E-01
6346600. -0.2450543E-01  0.2173968E+00  0.3590549E-02  0.9704697E-01 -0.6274565E-03  0.5132236E-01
6346600. -0.2450543E-01  0.3502306E+00  0.3590549E-02  0.7468276E-01 -0.6274565E-03  0.5986705E-01
6318800. -0.2554813E-01  0.1171486E+00  0.3143042E-02  0.1289221E+00 -0.8722292E-03  0.5218793E-01
6291000. -0.2544573E-01 -0.1721549E+00  0.2481498E-02  0.1721506E+00 -0.1081792E-02  0.4374542E-01
6291000. -0.2544573E-01 -0.1686121E+00  0.2481498E-02  0.1772169E+00 -0.1081792E-02  0.4374542E-01
6263000. -0.2396808E-01 -0.5088178E+00  0.1630433E-02  0.2072515E+00 -0.1254194E-02  0.3460470E-01
6235000. -0.2094799E-01 -0.8661907E+00  0.6860640E-03  0.2194044E+00 -0.1385133E-02  0.2489924E-01
6207000. -0.1636927E-01 -0.1213391E+01 -0.2705677E-03  0.2128211E+00 -0.1472436E-02  0.1477300E-01
6179000. -0.1033909E-01 -0.1522003E+01 -0.1158138E-02  0.1882277E+00 -0.1514613E-02  0.4393792E-02
6151000. -0.3087641E-02 -0.1764856E+01 -0.1901892E-02  0.1478665E+00 -0.1510971E-02 -0.6043515E-02
6151000. -0.3087641E-02 -0.1469993E+01 -0.1901892E-02  0.1300545E+00 -0.1510971E-02 -0.5872690E-02
6128500.  0.2272098E-02 -0.1557243E+01 -0.2298277E-02  0.9364541E-01 -0.1479901E-02 -0.1167056E-01
6106000.  0.7851635E-02 -0.1593861E+01 -0.2558999E-02  0.5355797E-01 -0.1428942E-02 -0.1712627E-01
6083500.  0.1346701E-01 -0.1577309E+01 -0.2674622E-02  0.1181510E-01 -0.1359401E-02 -0.2218564E-01
6061000.  0.1892934E-01 -0.1507338E+01 -0.2642908E-02 -0.2954399E-01 -0.1272760E-02 -0.2680263E-01
6038500.  0.2405291E-01 -0.1385988E+01 -0.2468713E-02 -0.6855846E-01 -0.1170653E-02 -0.3093917E-01
6016000.  0.2866307E-01 -0.1217454E+01 -0.2163545E-02 -0.1034340E+00 -0.1054831E-02 -0.3456525E-01
5993500.  0.3260351E-01 -0.1007878E+01 -0.1744844E-02 -0.1326185E+00 -0.9271366E-03 -0.3765941E-01
5971000.  0.3574264E-01 -0.7650706E+00 -0.1235009E-02 -0.1548647E+00 -0.7894768E-03 -0.4020701E-01
5971000.  0.3574264E-01 -0.7073913E+00 -0.1235009E-02 -0.1421504E+00 -0.7894768E-03 -0.4488602E-01
5937667.  0.3846186E-01 -0.3297765E+00 -0.4500854E-03 -0.1552077E+00 -0.5469362E-03 -0.4761973E-01
5904333.  0.3919448E-01  0.4737429E-01  0.3620173E-03 -0.1527741E+00 -0.2932289E-03 -0.4917768E-01
5871000.  0.3801249E-01  0.3981238E+00  0.1125000E-02 -0.1368565E+00 -0.3410172E-04 -0.4972250E-01
5837667.  0.3511182E-01  0.7012719E+00  0.1775486E-02 -0.1102914E+00  0.2255936E-03 -0.4942269E-01
5804333.  0.3078465E-01  0.9412698E+00  0.2266224E-02 -0.7634581E-01  0.4818728E-03 -0.4843970E-01
5771000.  0.2538934E-01  0.1108531E+01  0.2567368E-02 -0.3837202E-01  0.7315400E-03 -0.4692102E-01
5771000.  0.2538934E-01  0.1108583E+01  0.2567368E-02 -0.3837159E-01  0.7315400E-03 -0.4692102E-01
5701000.  0.1201949E-01  0.1269325E+01  0.2530289E-02  0.4539387E-01  0.1214920E-02 -0.4065429E-01
5701000.  0.1201949E-01  0.1088018E+01  0.2530289E-02  0.3365742E-01  0.1214920E-02 -0.4404215E-01
5667333.  0.6345884E-02  0.1049883E+01  0.2275047E-02  0.6227602E-01  0.1444774E-02 -0.4292521E-01
5633667.  0.1014166E-02  0.9600665E+00  0.1880206E-02  0.8631539E-01  0.1668333E-02 -0.4166696E-01
5600000. -0.3726187E-02  0.8276678E+00  0.1372406E-02  0.1049170E+00  0.1884921E-02 -0.4028576E-01
5600000. -0.3726187E-02  0.8276832E+00  0.1372406E-02  0.1049217E+00  0.1884921E-02 -0.4028576E-01
5563518. -0.7989219E-02  0.6546150E+00  0.7214434E-03  0.1213750E+00  0.2110821E-02 -0.3856001E-01
5527037. -0.1115837E-01  0.4477389E+00 -0.4753338E-05  0.1311006E+00  0.2325937E-02 -0.3652654E-01
5490556. -0.1307743E-01  0.2202770E+00 -0.7662922E-03  0.1336863E+00  0.2528602E-02 -0.3421589E-01
5454074. -0.1366854E-01 -0.1372941E-01 -0.1522151E-02  0.1291466E+00  0.2717315E-02 -0.3165672E-01
5417593. -0.1293466E-01 -0.2402176E+00 -0.2232504E-02  0.1179009E+00  0.2890724E-02 -0.2887670E-01
5381111. -0.1095728E-01 -0.4459383E+00 -0.2861067E-02  0.1007308E+00  0.3047653E-02 -0.2590352E-01
5344630. -0.7890021E-02 -0.6191105E+00 -0.3376852E-02  0.7871727E-01  0.3187068E-02 -0.2276623E-01
5308148. -0.3947866E-02 -0.7500745E+00 -0.3755800E-02  0.5316433E-01  0.3308123E-02 -0.1949523E-01
5271667.  0.6055685E-03 -0.8317022E+00 -0.3981715E-02  0.2551846E-01  0.3410141E-02 -0.1612337E-01
5235185.  0.5474438E-02 -0.8597421E+00 -0.4046915E-02 -0.2720008E-02  0.3492647E-02 -0.1268545E-01
5198704.  0.1034659E-01 -0.8329377E+00 -0.3952261E-02 -0.3007553E-01  0.3555364E-02 -0.9218836E-02
5162222.  0.1491178E-01 -0.7530102E+00 -0.3706785E-02 -0.5518008E-01  0.3598243E-02 -0.5762177E-02
5125741.  0.1887728E-01 -0.6244928E+00 -0.3326923E-02 -0.7683384E-01  0.3621451E-02 -0.2355945E-02
5089259.  0.2198404E-01 -0.4543914E+00 -0.2835315E-02 -0.9406438E-01  0.3625396E-02  0.9597366E-03
5052778.  0.2401892E-01 -0.2517927E+00 -0.2259484E-02 -0.1061608E+00  0.3610710E-02  0.4144646E-02
5016296.  0.2482571E-01 -0.2730293E-01 -0.1630148E-02 -0.1127000E+00  0.3578251E-02  0.7160681E-02
4979815.  0.2431191E-01  0.2074756E+00 -0.9796779E-03 -0.1135513E+00  0.3529094E-02  0.9971966E-02
4943333.  0.2245275E-01  0.4405941E+00 -0.3402962E-03 -0.1088693E+00  0.3464502E-02  0.1254622E-01
4906852.  0.1929174E-01  0.6603026E+00  0.2573559E-03 -0.9907220E-01  0.3385916E-02  0.1485594E-01
4870370.  0.1493730E-01  0.8556620E+00  0.7857716E-03 -0.8480603E-01  0.3294914E-02  0.1687848E-01
4833889.  0.9557515E-02  0.1016998E+01  0.1221638E-02 -0.6690369E-01  0.3193198E-02  0.1859691E-01
4797407.  0.3370550E-02  0.1136372E+01  0.1546879E-02 -0.4633382E-01  0.3082536E-02  0.2000092E-01
4760926. -0.3364997E-02  0.1207865E+01  0.1749190E-02 -0.2414968E-01  0.2964750E-02  0.2108601E-01
4724444. -0.1036375E-01  0.1227825E+01  0.1822430E-02 -0.1431582E-02  0.2841657E-02  0.2185417E-01
4687963. -0.1732542E-01  0.1194961E+01  0.1766597E-02  0.2076004E-01  0.2715059E-02  0.2231314E-01
4651482. -0.2394967E-01  0.1110347E+01  0.1587580E-02  0.4143723E-01  0.2586688E-02  0.2247633E-01
4615000. -0.2994884E-01  0.9773018E+00  0.1296614E-02  0.5972376E-01  0.2458183E-02  0.2236177E-01
4578518. -0.3505985E-01  0.8011925E+00  0.9095643E-03  0.7488789E-01  0.2331077E-02  0.2199168E-01
4542037. -0.3905567E-01  0.5891508E+00  0.4460149E-03  0.8636886E-01  0.2206767E-02  0.2139086E-01
4505556. -0.4175450E-01  0.3497001E+00 -0.7179366E-04  0.9379298E-01  0.2086493E-02  0.2058655E-01
4469074. -0.4302634E-01  0.9236582E-01 -0.6200342E-03  0.9697848E-01  0.1971338E-02  0.1960664E-01
4432593. -0.4279752E-01 -0.1727264E+00 -0.1174339E-02  0.9593309E-01  0.1862232E-02  0.1847932E-01
4396111. -0.4105297E-01 -0.4353317E+00 -0.1710964E-02  0.9084315E-01  0.1759936E-02  0.1723134E-01
4359630. -0.3783590E-01 -0.6854488E+00 -0.2207643E-02  0.8205570E-01  0.1665077E-02  0.1588647E-01
4323148. -0.3324468E-01 -0.9137654E+00 -0.2644552E-02  0.7005316E-01  0.1578141E-02  0.1446650E-01
4286667. -0.2742881E-01 -0.1111958E+01 -0.3004907E-02  0.5542730E-01  0.1499513E-02  0.1298783E-01
4250185. -0.2058120E-01 -0.1273017E+01 -0.3275587E-02  0.3884488E-01  0.1429488E-02  0.1146259E-01
4213704. -0.1293138E-01 -0.1391440E+01 -0.3447402E-02  0.2101908E-01  0.1368316E-02  0.9896847E-02
4177222. -0.4734816E-02 -0.1463411E+01 -0.3515314E-02  0.2673843E-02  0.1316224E-02  0.8289969E-02
4140741.  0.3735278E-02 -0.1486863E+01 -0.3478390E-02 -0.1548245E-01  0.1273468E-02  0.6634360E-02
4104259.  0.1219985E-01 -0.1461493E+01 -0.3339630E-02 -0.3278843E-01  0.1240367E-02  0.4914232E-02
4067778.  0.2038208E-01 -0.1388699E+01 -0.3105652E-02 -0.4864899E-01  0.1217357E-02  0.3105256E-02
4031296.  0.2801867E-01 -0.1271455E+01 -0.2786215E-02 -0.6255814E-01  0.1205037E-02  0.1173676E-02
3994815.  0.3486660E-01 -0.1114146E+01 -0.2393724E-02 -0.7410934E-01  0.1204233E-02 -0.9248407E-03
3958333.  0.4071223E-01 -0.9223312E+00 -0.1942559E-02 -0.8300734E-01  0.1216054E-02 -0.3246618E-02
3921852.  0.4537592E-01 -0.7025177E+00 -0.1448516E-02 -0.8906902E-01  0.1241970E-02 -0.5860549E-02
3885370.  0.4871782E-01 -0.4618627E+00 -0.9280637E-03 -0.9222398E-01  0.1283890E-02 -0.8851613E-02
3848889.  0.5063998E-01 -0.2079395E+00 -0.3978210E-03 -0.9250775E-01  0.1344255E-02 -0.1232231E-01
3812407.  0.5108847E-01  0.5159208E-01  0.1261348E-03 -0.9005248E-01  0.1426162E-02 -0.1639728E-01
3775926.  0.5005287E-01  0.3091852E+00  0.6286729E-03 -0.8507425E-01  0.1533480E-02 -0.2122642E-01
3739444.  0.4756492E-01  0.5576978E+00  0.1096159E-02 -0.7785748E-01  0.1671039E-02 -0.2699176E-01
3702963.  0.4369593E-01  0.7905429E+00  0.1516695E-02 -0.6873921E-01  0.1844805E-02 -0.3391435E-01
3666482.  0.3855258E-01  0.1001904E+01  0.1880453E-02 -0.5809044E-01  0.2062153E-02 -0.4226359E-01
3630000.  0.3227232E-01  0.1186838E+01  0.2179786E-02 -0.4629913E-01  0.2332175E-02 -0.5237099E-01
3630000.  0.3227232E-01  0.1186831E+01  0.2179786E-02 -0.4629920E-01  0.2332175E-02 -0.5237099E-01
3592500.  0.2479280E-01  0.1349047E+01  0.2414328E-02 -0.3326032E-01  0.2676328E-02 -0.6497493E-01
3555000.  0.1646066E-01  0.1475941E+01  0.2570100E-02 -0.1959379E-01  0.3102410E-02 -0.8030654E-01
3517500.  0.7493396E-02  0.1564426E+01  0.2644442E-02 -0.5647182E-02  0.3628337E-02 -0.9902386E-01
3480000. -0.1876225E-02  0.1612381E+01  0.2636657E-02  0.8261946E-02  0.4276382E-02 -0.1219554E+00
3480000. -0.1876225E-02  0.3780079E+00 -0.2101021E-02  0.4490036E-03  0.4276382E-02 -0.1160535E+00
3409422. -0.5553785E-02  0.2848508E+00 -0.2066173E-02 -0.6492105E-02  0.5206764E-02 -0.5478070E-01
3338844. -0.8183980E-02  0.1906657E+00 -0.1963033E-02 -0.1185536E-01  0.5549465E-02 -0.9578519E-02
3268266. -0.9807399E-02  0.1042818E+00 -0.1809564E-02 -0.1558303E-01  0.5469789E-02  0.2186788E-01
3197688. -0.1054408E-01  0.3124017E-01 -0.1623475E-02 -0.1777062E-01  0.5106978E-02  0.4193399E-01
3127109. -0.1055884E-01 -0.2582163E-01 -0.1420792E-02 -0.1861771E-01  0.4574084E-02  0.5295218E-01
3056531. -0.1003251E-01 -0.6654393E-01 -0.1214982E-02 -0.1838107E-01  0.3959076E-02  0.5710701E-01
2985953. -0.9140282E-02 -0.9219162E-01 -0.1016525E-02 -0.1733582E-01  0.3326916E-02  0.5635157E-01
2915375. -0.8037297E-02 -0.1050220E+00 -0.8328952E-03 -0.1574627E-01  0.2722496E-02  0.5235035E-01
2844797. -0.6850723E-02 -0.1077500E+00 -0.6687902E-03 -0.1384663E-01  0.2173998E-02  0.4645457E-01
2774219. -0.5677034E-02 -0.1031449E+00 -0.5265364E-03 -0.1182970E-01  0.1696366E-02  0.3970465E-01
2703641. -0.4583092E-02 -0.9374653E-01 -0.4065746E-03 -0.9842861E-02  0.1294643E-02  0.3285373E-01
2633062. -0.3609686E-02 -0.8170148E-01 -0.3079583E-03 -0.7989594E-02  0.9669423E-03  0.2640540E-01
2562484. -0.2776398E-02 -0.6869307E-01 -0.2288203E-03 -0.6334346E-02  0.7069872E-03  0.2065928E-01
2491906. -0.2086734E-02 -0.5593777E-01 -0.1667626E-03 -0.4908965E-02  0.5060853E-03  0.1575692E-01
2421328. -0.1533122E-02 -0.4423170E-01 -0.1191804E-03 -0.3720443E-02  0.3546494E-03  0.1172603E-01
2350750. -0.1101183E-02 -0.3402046E-01 -0.8349560E-04 -0.2758147E-02  0.2432367E-03  0.8518673E-02
2280172. -0.7731711E-03 -0.2547993E-01 -0.5731573E-04 -0.2000146E-02  0.1632070E-03  0.6042515E-02
2209594. -0.5305234E-03 -0.1859423E-01 -0.3852866E-04 -0.1418561E-02  0.1070752E-03  0.4184640E-02
2139016. -0.3555897E-03 -0.1322485E-01 -0.2534477E-04 -0.9836004E-03  0.6864002E-04  0.2828555E-02
2068438. -0.2326686E-03 -0.9166687E-02 -0.1630144E-04 -0.6664132E-03  0.4295730E-04  0.1865165E-02
1997859. -0.1484980E-03 -0.6190131E-02 -0.1024167E-04 -0.4408747E-03  0.2621976E-04  0.1198969E-02
1927281. -0.9235865E-04 -0.4070117E-02 -0.6278245E-05 -0.2845478E-03  0.1559009E-04  0.7506682E-03
1856703. -0.5591110E-04 -0.2603612E-02 -0.3750268E-05 -0.1789782E-03  0.9017859E-05  0.4572488E-03
1786125. -0.3289912E-04 -0.1618612E-02 -0.2179685E-05 -0.1095730E-03  0.5066543E-05  0.2706097E-03
1715547. -0.1878646E-04 -0.9766130E-03 -0.1230503E-05 -0.6519705E-04  0.2759868E-05  0.1553602E-03
1644969. -0.1039207E-04 -0.5709248E-03 -0.6733565E-06 -0.3764109E-04  0.1454535E-05  0.8636754E-04
1574391. -0.5558658E-05 -0.3226213E-03 -0.3562493E-06 -0.2105275E-04  0.7398549E-06  0.4639539E-04
1503812. -0.2872680E-05 -0.1754624E-03 -0.1814571E-06 -0.1140195E-04  0.3620827E-06  0.2402895E-04
1433234. -0.1442427E-05 -0.9063118E-04 -0.8797925E-07 -0.6021075E-05  0.1697236E-06  0.1197464E-04
1362656. -0.7333825E-06 -0.4158189E-04 -0.3851614E-07 -0.3248970E-05  0.7551041E-07  0.5737732E-05
1292078. -0.4621990E-06 -0.8461024E-05 -0.9618496E-08 -0.2231644E-05  0.3113778E-07  0.2639928E-05
1221500. -0.5664477E-06  0.3092294E-04  0.1747927E-07 -0.3045468E-05  0.1139998E-07  0.1077840E-05
1221500. -0.5664477E-06  0.1408262E-04  0.9171692E-08  0.3002269E-05  0.1139998E-07  0.1323228E-05
1183328. -0.5908237E-06 -0.4110183E-05 -0.3953192E-08  0.1491413E-05  0.5551541E-08  0.6910798E-06
1145156. -0.5353171E-06 -0.1319670E-04 -0.9844557E-08  0.5552457E-06  0.2549704E-08  0.3465393E-06
1106984. -0.4443787E-06 -0.1640059E-04 -0.1140684E-07  0.2108973E-07  0.1076761E-08  0.1649950E-06
1068812. -0.3457214E-06 -0.1610864E-04 -0.1063185E-07 -0.2441887E-06  0.3953789E-09  0.7318840E-07
1030641. -0.2549231E-06 -0.1400796E-04 -0.8816126E-08 -0.3405113E-06  0.1056234E-09  0.2912163E-07
 992469. -0.1792098E-06 -0.1121884E-04 -0.6743318E-08 -0.3399515E-06 -0.1531714E-11  0.9421226E-08
 954297. -0.1204781E-06 -0.8422930E-05 -0.4836263E-08 -0.2917542E-06 -0.3044420E-10  0.1524256E-08
 916125. -0.7755547E-07 -0.5980795E-05 -0.3278872E-08 -0.2272038E-06 -0.3020030E-10 -0.1053170E-08
 877953. -0.4781050E-07 -0.4034330E-05 -0.2109878E-08 -0.1642000E-06 -0.2200556E-10 -0.1479268E-08
 839781. -0.2820342E-07 -0.2590270E-05 -0.1290637E-08 -0.1112979E-06 -0.1383136E-10 -0.1196981E-08
 801609. -0.1589579E-07 -0.1583505E-05 -0.7505360E-09 -0.7111398E-07 -0.7874164E-11 -0.7950851E-09
 763438. -0.8540910E-08 -0.9209006E-06 -0.4144320E-09 -0.4291437E-07 -0.4140861E-11 -0.4692167E-09
 725266. -0.4361959E-08 -0.5085044E-06 -0.2168137E-09 -0.2445551E-07 -0.2028397E-11 -0.2531637E-09
 687094. -0.2109700E-08 -0.2658529E-06 -0.1071298E-09 -0.1313904E-07 -0.9280078E-12 -0.1264019E-09
 648922. -0.9619435E-09 -0.1311026E-06 -0.4978828E-10 -0.6635566E-08 -0.3962078E-12 -0.5861817E-10
 610750. -0.4112034E-09 -0.6068809E-07 -0.2165008E-10 -0.3136721E-08 -0.1573527E-12 -0.2524249E-10
 572578. -0.1636797E-09 -0.2621083E-07 -0.8751139E-11 -0.1380100E-08 -0.5781179E-13 -0.1005872E-10
 534406. -0.6016558E-10 -0.1048223E-07 -0.3261440E-11 -0.5610958E-09 -0.1949881E-13 -0.3685996E-11
 496234. -0.2021367E-10 -0.3845145E-08 -0.1109402E-11 -0.2088603E-09 -0.5976703E-14 -0.1231174E-11
 458062. -0.6127650E-11 -0.1278445E-08 -0.3400677E-12 -0.7035266E-10 -0.1643179E-14 -0.3704446E-12
 419891. -0.1648978E-11 -0.3794725E-09 -0.9242802E-13 -0.2112506E-10 -0.3983921E-15 -0.9884284E-13
 381719. -0.3856669E-12 -0.9859017E-10 -0.2180950E-13 -0.5544900E-11 -0.8331092E-16 -0.2291079E-13
 343547. -0.7624247E-13 -0.2184464E-10 -0.4345413E-14 -0.1239690E-11 -0.1459011E-16 -0.4487818E-14
 305375. -0.1226714E-13 -0.3984285E-11 -0.7039824E-15 -0.2278938E-12 -0.2055818E-17 -0.7154724E-15
 267203. -0.1523320E-14 -0.5691840E-12 -0.8794161E-16 -0.3277828E-13 -0.2202718E-18 -0.8805133E-16
 229031. -0.1350910E-15 -0.5920721E-13 -0.7837220E-17 -0.3428729E-14 -0.1653058E-19 -0.7706087E-17
 190859.  0.0000000E+00  0.0000000E+00  0.0000000E+00  0.0000000E+00  0.0000000E+00  0.0000000E+00
 152688.  0.0000000E+00  0.0000000E+00  0.0000000E+00  0.0000000E+00  0.0000000E+00  0.0000000E+00
 114516.  0.0000000E+00  0.0000000E+00  0.0000000E+00  0.0000000E+00  0.0000000E+00  0.0000000E+00
  76344.  0.0000000E+00  0.0000000E+00  0.0000000E+00  0.0000000E+00  0.0000000E+00  0.0000000E+00
  38172.  0.0000000E+00  0.0000000E+00  0.0000000E+00  0.0000000E+00  0.0000000E+00  0.0000000E+00
      0.  0.0000000E+00  0.0000000E+00  0.0000000E+00  0.0000000E+00  0.0000000E+00  0.0000000E+00
