      14        9 S      608        136.03960         30.97409         12.16147        528.22211      185    7
6371000. -0.3587626E-01 -0.1138315E+00 -0.4014975E-02  0.3186128E-01  0.2490906E-03  0.6516332E-01
6370000. -0.3585724E-01 -0.1285234E+00 -0.4019567E-02  0.2665140E-01  0.2388572E-03  0.6523027E-01
6369000. -0.3583591E-01 -0.1431605E+00 -0.4023341E-02  0.2142926E-01  0.2286136E-03  0.6529318E-01
6368000. -0.3581230E-01 -0.1577417E+00 -0.4026294E-02  0.1619594E-01  0.2183604E-03  0.6535204E-01
6368000. -0.3581230E-01 -0.1577417E+00 -0.4026294E-02  0.1619594E-01  0.2183604E-03  0.6535204E-01
6367000. -0.3578640E-01 -0.1722660E+00 -0.4028425E-02  0.1095252E-01  0.2080983E-03  0.6540687E-01
6366000. -0.3575822E-01 -0.1867322E+00 -0.4029731E-02  0.5700065E-02  0.1978280E-03  0.6545763E-01
6365000. -0.3572778E-01 -0.2011395E+00 -0.4030214E-02  0.4396572E-03  0.1875499E-03  0.6550435E-01
6364000. -0.3569508E-01 -0.2154868E+00 -0.4029869E-02 -0.4827624E-02  0.1772649E-03  0.6554700E-01
6363000. -0.3566014E-01 -0.2297730E+00 -0.4028698E-02 -0.1010070E-01  0.1669735E-03  0.6558560E-01
6362000. -0.3562295E-01 -0.2439973E+00 -0.4026698E-02 -0.1537847E-01  0.1566763E-03  0.6562012E-01
6361000. -0.3558354E-01 -0.2581587E+00 -0.4023870E-02 -0.2065987E-01  0.1463740E-03  0.6565057E-01
6360000. -0.3554192E-01 -0.2722561E+00 -0.4020212E-02 -0.2594380E-01  0.1360673E-03  0.6567696E-01
6359000. -0.3549808E-01 -0.2862886E+00 -0.4015725E-02 -0.3122918E-01  0.1257568E-03  0.6569926E-01
6358000. -0.3545205E-01 -0.3002555E+00 -0.4010409E-02 -0.3651492E-01  0.1154431E-03  0.6571749E-01
6357000. -0.3540383E-01 -0.3141556E+00 -0.4004262E-02 -0.4179992E-01  0.1051268E-03  0.6573163E-01
6356000. -0.3535343E-01 -0.3279883E+00 -0.3997287E-02 -0.4708309E-01  0.9480865E-04  0.6574169E-01
6356000. -0.3535343E-01 -0.2393508E+00 -0.3997287E-02 -0.1596010E-01  0.9480865E-04  0.7343419E-01
6355000. -0.3531506E-01 -0.2495214E+00 -0.3994506E-02 -0.1947172E-01  0.8327940E-04  0.7347097E-01
6354000. -0.3527510E-01 -0.2596503E+00 -0.3991174E-02 -0.2298506E-01  0.7174463E-04  0.7350453E-01
6353000. -0.3523356E-01 -0.2697370E+00 -0.3987291E-02 -0.2649962E-01  0.6020485E-04  0.7353487E-01
6352000. -0.3519043E-01 -0.2797811E+00 -0.3982855E-02 -0.3001492E-01  0.4866056E-04  0.7356197E-01
6351000. -0.3514573E-01 -0.2897821E+00 -0.3977868E-02 -0.3353049E-01  0.3711226E-04  0.7358585E-01
6350000. -0.3509946E-01 -0.2997395E+00 -0.3972329E-02 -0.3704583E-01  0.2556047E-04  0.7360650E-01
6349000. -0.3505164E-01 -0.3096528E+00 -0.3966239E-02 -0.4056046E-01  0.1400570E-04  0.7362391E-01
6348000. -0.3500226E-01 -0.3195216E+00 -0.3959597E-02 -0.4407390E-01  0.2448444E-05  0.7363809E-01
6347000. -0.3495133E-01 -0.3293453E+00 -0.3952403E-02 -0.4758565E-01 -0.9110782E-05  0.7364903E-01
6346600. -0.3493053E-01 -0.3332621E+00 -0.3949371E-02 -0.4898978E-01 -0.1373491E-04  0.7365250E-01
6346600. -0.3493053E-01 -0.2591870E+00 -0.3949371E-02 -0.2297185E-01 -0.1373491E-04  0.8583227E-01
6318800. -0.3338071E-01 -0.4469880E+00 -0.3685281E-02 -0.9763355E-01 -0.3889022E-03  0.8578023E-01
6291000. -0.3106931E-01 -0.6076002E+00 -0.3105598E-02 -0.1666177E+00 -0.7593254E-03  0.8365548E-01
6291000. -0.3106931E-01 -0.6177438E+00 -0.3105598E-02 -0.1734915E+00 -0.7593254E-03  0.8365548E-01
6263000. -0.2805405E-01 -0.7490458E+00 -0.2206076E-02 -0.2332832E+00 -0.1118199E-02  0.7930845E-01
6235000. -0.2453222E-01 -0.8484278E+00 -0.1081283E-02 -0.2752381E+00 -0.1453430E-02  0.7291350E-01
6207000. -0.2064036E-01 -0.9179497E+00  0.1814491E-03 -0.2955670E+00 -0.1756286E-02  0.6460168E-01
6179000. -0.1650170E-01 -0.9615096E+00  0.1482026E-02 -0.2922930E+00 -0.2018727E-02  0.5455682E-01
6151000. -0.1221942E-01 -0.9842280E+00  0.2715976E-02 -0.2654145E+00 -0.2233629E-02  0.4301039E-01
6151000. -0.1221942E-01 -0.7713622E+00  0.2715976E-02 -0.2312901E+00 -0.2233629E-02  0.4368643E-01
6128500. -0.9518394E-02 -0.7575959E+00  0.3473756E-02 -0.1962375E+00 -0.2373387E-02  0.3537135E-01
6106000. -0.6871480E-02 -0.7411692E+00  0.4091796E-02 -0.1524859E+00 -0.2482908E-02  0.2658195E-01
6083500. -0.4283529E-02 -0.7245765E+00  0.4543097E-02 -0.1021968E+00 -0.2560725E-02  0.1743792E-01
6061000. -0.1751479E-02 -0.7097924E+00  0.4808784E-02 -0.4778877E-01 -0.2605803E-02  0.8061608E-02
6038500.  0.7336749E-03 -0.6981926E+00  0.4878799E-02  0.8183724E-02 -0.2617538E-02 -0.1423935E-02
6016000.  0.3184630E-02 -0.6904872E+00  0.4752162E-02  0.6315600E-01 -0.2595761E-02 -0.1089627E-01
5993500.  0.5615405E-02 -0.6867185E+00  0.4436788E-02  0.1146735E+00 -0.2540732E-02 -0.2023519E-01
5971000.  0.8039042E-02 -0.6862960E+00  0.3948902E-02  0.1605032E+00 -0.2453129E-02 -0.2932415E-01
5971000.  0.8039042E-02 -0.6092728E+00  0.3948902E-02  0.1423403E+00 -0.2453129E-02 -0.3037653E-01
5937667.  0.1117207E-01 -0.5892237E+00  0.3079375E-02  0.1869286E+00 -0.2261081E-02 -0.4285752E-01
5904333.  0.1420951E-01 -0.5718642E+00  0.2026469E-02  0.2123069E+00 -0.2006752E-02 -0.5414123E-01
5871000.  0.1715191E-01 -0.5520697E+00  0.8910243E-03  0.2186700E+00 -0.1697013E-02 -0.6400947E-01
5837667.  0.1997345E-01 -0.5248817E+00 -0.2315709E-03  0.2078021E+00 -0.1339718E-02 -0.7229703E-01
5804333.  0.2262414E-01 -0.4861239E+00 -0.1258468E-02  0.1826369E+00 -0.9434449E-03 -0.7888980E-01
5771000.  0.2503491E-01 -0.4328175E+00 -0.2124104E-02  0.1468127E+00 -0.5172749E-03 -0.8372366E-01
5771000.  0.2503491E-01 -0.4328357E+00 -0.2124104E-02  0.1468070E+00 -0.5172749E-03 -0.8372366E-01
5701000.  0.2904096E-01 -0.2808229E+00 -0.3287278E-02  0.6067777E-01  0.4270596E-03 -0.8689960E-01
5701000.  0.2904096E-01 -0.2502525E+00 -0.3287278E-02  0.4038754E-01  0.4270596E-03 -0.9508520E-01
5667333.  0.3009508E-01 -0.1461482E+00 -0.3393118E-02  0.1270108E-03  0.9263589E-03 -0.9359791E-01
5633667.  0.3056226E-01 -0.2872844E-01 -0.3295424E-02 -0.3629131E-01  0.1413309E-02 -0.9043280E-01
5600000.  0.3038241E-01  0.9800893E-01 -0.3019594E-02 -0.6703444E-01  0.1879353E-02 -0.8570135E-01
5600000.  0.3038241E-01  0.9799819E-01 -0.3019594E-02 -0.6703583E-01  0.1879353E-02 -0.8570135E-01
5563518.  0.2941743E-01  0.2400557E+00 -0.2555117E-02 -0.9395730E-01  0.2351603E-02 -0.7898065E-01
5527037.  0.2762692E-01  0.3853866E+00 -0.1959056E-02 -0.1127828E+00  0.2781047E-02 -0.7078280E-01
5490556.  0.2500908E-01  0.5279938E+00 -0.1280876E-02 -0.1225299E+00  0.3159747E-02 -0.6128842E-01
5454074.  0.2159727E-01  0.6616305E+00 -0.5737981E-03 -0.1228688E+00  0.3480847E-02 -0.5069633E-01
5417593.  0.1746078E-01  0.7801502E+00  0.1088741E-03 -0.1141178E+00  0.3738653E-02 -0.3922047E-01
5381111.  0.1270245E-01  0.8778991E+00  0.7174938E-03 -0.9719773E-01  0.3928748E-02 -0.2708189E-01
5344630.  0.7455806E-02  0.9500316E+00  0.1209150E-02 -0.7354849E-01  0.4047974E-02 -0.1450688E-01
5308148.  0.1878508E-02  0.9928192E+00  0.1550454E-02 -0.4501425E-01  0.4094481E-02 -0.1719696E-02
5271667. -0.3853524E-02  0.1003849E+01  0.1719384E-02 -0.1371309E-01  0.4067687E-02  0.1105883E-01
5235185. -0.9555365E-02  0.9821920E+00  0.1706500E-02  0.1811210E-01  0.3968250E-02  0.2361784E-01
5198704. -0.1504054E-01  0.9284554E+00  0.1515221E-02  0.4823498E-01  0.3798011E-02  0.3575701E-01
5162222. -0.2013101E-01  0.8447551E+00  0.1161299E-02  0.7459234E-01  0.3559901E-02  0.4729180E-01
5125741. -0.2466437E-01  0.7346093E+00  0.6715786E-03  0.9540228E-01  0.3257886E-02  0.5805362E-01
5089259. -0.2850243E-01  0.6027442E+00  0.8199117E-04  0.1092726E+00  0.2896811E-02  0.6789316E-01
5052778. -0.3153656E-01  0.4548559E+00 -0.5647932E-03  0.1152719E+00  0.2482360E-02  0.7668024E-01
5016296. -0.3369306E-01  0.2972860E+00 -0.1222280E-02  0.1129771E+00  0.2020858E-02  0.8430602E-01
4979815. -0.3493546E-01  0.1367180E+00 -0.1842971E-02  0.1024858E+00  0.1519245E-02  0.9068175E-01
4943333. -0.3526577E-01 -0.2020243E-01 -0.2381452E-02  0.8439730E-01  0.9848513E-03  0.9574087E-01
4906852. -0.3472316E-01 -0.1671718E+00 -0.2797013E-02  0.5976818E-01  0.4253913E-03  0.9943586E-01
4870370. -0.3338104E-01 -0.2985771E+00 -0.3056176E-02  0.3003551E-01 -0.1512698E-03  0.1017406E+00
4833889. -0.3134251E-01 -0.4097353E+00 -0.3134545E-02 -0.3069561E-02 -0.7371100E-03  0.1026476E+00
4797407. -0.2873404E-01 -0.4971433E+00 -0.3018228E-02 -0.3763449E-01 -0.1324178E-02  0.1021671E+00
4760926. -0.2569872E-01 -0.5586004E+00 -0.2704555E-02 -0.7167180E-01 -0.1904569E-02  0.1003271E+00
4724444. -0.2238793E-01 -0.5933068E+00 -0.2202137E-02 -0.1032399E+00 -0.2470647E-02  0.9717085E-01
4687963. -0.1895401E-01 -0.6018552E+00 -0.1530370E-02 -0.1305454E+00 -0.3015003E-02  0.9275635E-01
4651482. -0.1554174E-01 -0.5861677E+00 -0.7182059E-03 -0.1520457E+00 -0.3530645E-02  0.8715457E-01
4615000. -0.1228143E-01 -0.5493501E+00  0.1974901E-03 -0.1665262E+00 -0.4011019E-02  0.8044787E-01
4578518. -0.9282880E-02 -0.4954969E+00  0.1173933E-02 -0.1731597E+00 -0.4450044E-02  0.7272931E-01
4542037. -0.6630135E-02 -0.4294490E+00  0.2164807E-02 -0.1715459E+00 -0.4842205E-02  0.6410071E-01
4505556. -0.4377928E-02 -0.3565018E+00  0.3122819E-02 -0.1617246E+00 -0.5182609E-02  0.5467092E-01
4469074. -0.2550090E-02 -0.2821146E+00  0.4002132E-02 -0.1441621E+00 -0.5467004E-02  0.4455458E-01
4432593. -0.1139588E-02 -0.2116111E+00  0.4760668E-02 -0.1197220E+00 -0.5691784E-02  0.3387166E-01
4396111. -0.1098378E-03 -0.1498821E+00  0.5362380E-02 -0.8960691E-01 -0.5854064E-02  0.2274392E-01
4359630.  0.6018002E-03 -0.1011426E+00  0.5778858E-02 -0.5529404E-01 -0.5951645E-02  0.1129587E-01
4323148.  0.1079674E-02 -0.6869372E-01  0.5990779E-02 -0.1844642E-01 -0.5983051E-02 -0.3492325E-03
4286667.  0.1423971E-02 -0.5476712E-01  0.5988652E-02  0.1916889E-01 -0.5947506E-02 -0.1206822E-01
4250185.  0.1744366E-02 -0.6041632E-01  0.5773165E-02  0.5578187E-01 -0.5844926E-02 -0.2374207E-01
4213704.  0.2153028E-02 -0.8546964E-01  0.5354973E-02  0.8970126E-01 -0.5675912E-02 -0.3525485E-01
4177222.  0.2757717E-02 -0.1285537E+00  0.4753933E-02  0.1194051E+00 -0.5441690E-02 -0.4649755E-01
4140741.  0.3655000E-02 -0.1871695E+00  0.3998027E-02  0.1436071E+00 -0.5144119E-02 -0.5736703E-01
4104259.  0.4924343E-02 -0.2578439E+00  0.3121697E-02  0.1613204E+00 -0.4785593E-02 -0.6776961E-01
4067778.  0.6622825E-02 -0.3363057E+00  0.2164182E-02  0.1718933E+00 -0.4369053E-02 -0.7762010E-01
4031296.  0.8781517E-02 -0.4177275E+00  0.1167312E-02  0.1750387E+00 -0.3897853E-02 -0.8684494E-01
3994815.  0.1140261E-01 -0.4969675E+00  0.1736268E-03  0.1708341E+00 -0.3375788E-02 -0.9538127E-01
3958333.  0.1445890E-01 -0.5688510E+00 -0.7759141E-03  0.1597106E+00 -0.2806921E-02 -0.1031796E+00
3921852.  0.1789375E-01 -0.6284299E+00 -0.1643653E-02  0.1424219E+00 -0.2195620E-02 -0.1102027E+00
3885370.  0.2162384E-01 -0.6712466E+00 -0.2397162E-02  0.1199975E+00 -0.1546363E-02 -0.1164277E+00
3848889.  0.2554187E-01 -0.6935598E+00 -0.3010490E-02  0.9369031E-01 -0.8637905E-03 -0.1218452E+00
3812407.  0.2952209E-01 -0.6925440E+00 -0.3465395E-02  0.6490269E-01 -0.1524797E-03 -0.1264605E+00
3775926.  0.3342512E-01 -0.6664369E+00 -0.3751888E-02  0.3512289E-01  0.5829849E-03 -0.1302927E+00
3739444.  0.3710520E-01 -0.6146408E+00 -0.3868598E-02  0.5846366E-02  0.1338248E-02 -0.1333752E+00
3702963.  0.4041621E-01 -0.5377680E+00 -0.3822558E-02 -0.2149016E-01  0.2109103E-02 -0.1357548E+00
3666482.  0.4321928E-01 -0.4376218E+00 -0.3628699E-02 -0.4557882E-01  0.2891712E-02 -0.1374917E+00
3630000.  0.4538905E-01 -0.3171297E+00 -0.3308931E-02 -0.6529526E-01  0.3682621E-02 -0.1386596E+00
3630000.  0.4538905E-01 -0.3171266E+00 -0.3308931E-02 -0.6529548E-01  0.3682621E-02 -0.1386596E+00
3592500.  0.4684670E-01 -0.1754729E+00 -0.2878290E-02 -0.8006805E-01  0.4501042E-02 -0.1393493E+00
3555000.  0.4742818E-01 -0.2032437E-01 -0.2378366E-02 -0.8873280E-01  0.5322190E-02 -0.1395992E+00
3517500.  0.4707089E-01  0.1424759E+00 -0.1846648E-02 -0.9081890E-01  0.6143721E-02 -0.1394950E+00
3480000.  0.4574852E-01  0.3064871E+00 -0.1322463E-02 -0.8617508E-01  0.6963832E-02 -0.1391335E+00
3480000.  0.4574852E-01  0.4421276E+00 -0.9898478E-03  0.8558508E-01  0.6963832E-02 -0.2830395E+00
3409422.  0.3825608E-01  0.8913710E+00 -0.1888668E-02  0.7503998E-01  0.9897530E-02 -0.2402017E+00
3338844.  0.2648903E-01  0.1208727E+01 -0.2619351E-02  0.5556365E-01  0.1216071E-01 -0.1636033E+00
3268266.  0.1203879E-01  0.1374218E+01 -0.3095409E-02  0.2951501E-01  0.1343775E-01 -0.6414565E-01
3197688. -0.3395700E-02  0.1387939E+01 -0.3259489E-02 -0.2661459E-03  0.1354276E-01  0.4592495E-01
3127109. -0.1821175E-01  0.1266415E+01 -0.3086696E-02 -0.3081570E-01  0.1242575E-01  0.1545480E+00
3056531. -0.3105882E-01  0.1037925E+01 -0.2584208E-02 -0.5935619E-01  0.1016342E-01  0.2511072E+00
2985953. -0.4094186E-01  0.7374153E+00 -0.1787741E-02 -0.8354580E-01  0.6937607E-02  0.3273466E+00
2915375. -0.4726739E-01  0.4017303E+00 -0.7557430E-03 -0.1016444E+00  0.3006035E-02  0.3778762E+00
2844797. -0.4984148E-01  0.6556191E-01  0.4378327E-03 -0.1126003E+00 -0.1330524E-02  0.4003090E+00
2774219. -0.4882795E-01 -0.2416113E+00  0.1711264E-02 -0.1160580E+00 -0.5760751E-02  0.3950728E+00
2703641. -0.4467880E-01 -0.4974787E+00  0.2982516E-02 -0.1123032E+00 -0.9991733E-02  0.3649735E+00
2633062. -0.3804876E-01 -0.6877946E+00  0.4175825E-02 -0.1021578E+00 -0.1377214E-01  0.3145955E+00
2562484. -0.2970599E-01 -0.8062981E+00  0.5226822E-02 -0.8684250E-01 -0.1690807E-01  0.2496359E+00
2491906. -0.2044681E-01 -0.8539340E+00  0.6086238E-02 -0.6782839E-01 -0.1927192E-01  0.1762329E+00
2421328. -0.1102331E-01 -0.8375046E+00  0.6721776E-02 -0.4668632E-01 -0.2080369E-01  0.1003688E+00
2350750. -0.2087104E-02 -0.7680627E+00  0.7118438E-02 -0.2494781E-01 -0.2150645E-01  0.2738302E-01
2280172.  0.5848091E-02 -0.6591649E+00  0.7277455E-02 -0.3995961E-02 -0.2143722E-01 -0.3837594E-01
2209594.  0.1242513E-01 -0.5252684E+00  0.7214156E-02  0.1502013E-01 -0.2069469E-01 -0.9375251E-01
2139016.  0.1744532E-01 -0.3803160E+00  0.6955039E-02  0.3123802E-01 -0.1940554E-01 -0.1368465E+00
2068438.  0.2085651E-01 -0.2366599E+00  0.6534456E-02  0.4410527E-01 -0.1771079E-01 -0.1669562E+00
1997859.  0.2273075E-01 -0.1042791E+00  0.5991158E-02  0.5337354E-01 -0.1575320E-01 -0.1844280E+00
1927281.  0.2323576E-01  0.9562465E-02  0.5365129E-02  0.5906824E-01 -0.1366695E-01 -0.1904415E+00
1856703.  0.2260400E-01  0.1004410E+00  0.4694704E-02  0.6144813E-01 -0.1156959E-01 -0.1867656E+00
1786125.  0.2110220E-01  0.1665309E+00  0.4014330E-02  0.6094879E-01 -0.9556986E-02 -0.1755069E+00
1715547.  0.1900464E-01  0.2082225E+00  0.3352913E-02  0.5812497E-01 -0.7700871E-02 -0.1588798E+00
1644969.  0.1657146E-01  0.2275689E+00  0.2732800E-02  0.5359868E-01 -0.6048792E-02 -0.1390087E+00
1574391.  0.1403383E-01  0.2276423E+00  0.2169285E-02  0.4801439E-01 -0.4625967E-02 -0.1177786E+00
1503812.  0.1158638E-01  0.2118321E+00  0.1670525E-02  0.4201294E-01 -0.3438554E-02 -0.9672876E-01
1433234.  0.9388193E-02  0.1830398E+00  0.1237618E-02  0.3623506E-01 -0.2477927E-02 -0.7699028E-01
1362656.  0.7573486E-02  0.1426241E+00  0.8643440E-03  0.3137204E-01 -0.1725349E-02 -0.5924106E-01
1292078.  0.6277370E-02  0.8868892E-01  0.5359381E-03  0.2831307E-01 -0.1157339E-02 -0.4364843E-01
1221500.  0.5688383E-02  0.1267728E-01  0.2252232E-03  0.2849586E-01 -0.7520368E-03 -0.2970990E-01
1221500.  0.5688383E-02 -0.8729379E-02  0.1788623E-03 -0.2873611E-01 -0.7520368E-03 -0.3217413E-01
1183328.  0.5454110E-02  0.8919235E-01  0.3581335E-03 -0.2997938E-01 -0.5792651E-03 -0.2569643E-01
1145156.  0.4609540E-02  0.1921273E+00  0.5254086E-03 -0.2490196E-01 -0.4418978E-03 -0.2032963E-01
1106984.  0.3175507E-02  0.2832853E+00  0.6468587E-03 -0.1500433E-01 -0.3337373E-03 -0.1592323E-01
1068812.  0.1267258E-02  0.3483807E+00  0.6999346E-03 -0.2476308E-02 -0.2494435E-03 -0.1234135E-01
1030641. -0.9276147E-03  0.3778674E+00  0.6760955E-03  0.1027698E-01 -0.1844517E-03 -0.9461190E-02
 992469. -0.3182090E-02  0.3681847E+00  0.5806854E-03  0.2109543E-01 -0.1348924E-03 -0.7171913E-02
 954297. -0.5266118E-02  0.3218679E+00  0.4303400E-03  0.2841755E-01 -0.9752934E-04 -0.5374420E-02
 916125. -0.6981076E-02  0.2466224E+00  0.2487180E-03  0.3147849E-01 -0.6968479E-04 -0.3980850E-02
 877953. -0.8185877E-02  0.1536185E+00  0.6157919E-04  0.3033132E-01 -0.4917487E-04 -0.2914107E-02
 839781. -0.8811525E-02  0.5538899E-01 -0.1077866E-03  0.2571461E-01 -0.3424554E-04 -0.2107834E-02
 801609. -0.8862947E-02 -0.3624736E-01 -0.2419868E-03  0.1881305E-01 -0.2350898E-04 -0.1506000E-02
 763438. -0.8409374E-02 -0.1118854E+00 -0.3313645E-03  0.1097788E-01 -0.1588437E-04 -0.1062113E-02
 725266. -0.7566236E-02 -0.1656150E+00 -0.3741866E-03  0.3460734E-02 -0.1054207E-04 -0.7385085E-03
 687094. -0.6472939E-02 -0.1953544E+00 -0.3754082E-03 -0.2780509E-02 -0.6854206E-05 -0.5054548E-03
 648922. -0.5270523E-02 -0.2025302E+00 -0.3445522E-03 -0.7189529E-02 -0.4351302E-05 -0.3395730E-03
 610750. -0.4083007E-02 -0.1912252E+00 -0.2932255E-03 -0.9621148E-02 -0.2686371E-05 -0.2231835E-03
 572578. -0.3004776E-02 -0.1670500E+00 -0.2328287E-03 -0.1027298E-01 -0.1604928E-05 -0.1428734E-03
 534406. -0.2094952E-02 -0.1359807E+00 -0.1728365E-03 -0.9568489E-02 -0.9224178E-06 -0.8858246E-04
 496234. -0.1378279E-02 -0.1033774E+00 -0.1198410E-03 -0.8025011E-02 -0.5064609E-06 -0.5283310E-04
 458062. -0.8509739E-03 -0.7332171E-01 -0.7735226E-04 -0.6136784E-02 -0.2634114E-06 -0.3007316E-04
 419891. -0.4894509E-03 -0.4832906E-01 -0.4620432E-04 -0.4293228E-02 -0.1284393E-06 -0.1617406E-04
 381719. -0.2596574E-03 -0.2940155E-01 -0.2531580E-04 -0.2740625E-02 -0.5795689E-07 -0.8121689E-05
 343547. -0.1253658E-03 -0.1633841E-01 -0.1256434E-04 -0.1584131E-02 -0.2380103E-07 -0.3748951E-05
 305375. -0.5407873E-04 -0.8168613E-02 -0.5548538E-05 -0.8181138E-03 -0.8701074E-08 -0.1559152E-05
 267203. -0.2030370E-04 -0.3593897E-02 -0.2124933E-05 -0.3696837E-03 -0.2745888E-08 -0.5682869E-06
 229031. -0.6383495E-05 -0.1346007E-02 -0.6792577E-06 -0.1415175E-03 -0.7155597E-09 -0.1744013E-06
 190859. -0.1582587E-05 -0.4073246E-03 -0.1707105E-06 -0.4358898E-04 -0.1438050E-09 -0.4240609E-07
 152688. -0.2796891E-06 -0.9121111E-04 -0.3049942E-07 -0.9897630E-05 -0.1987903E-10 -0.7378563E-08
 114516. -0.2914927E-07 -0.1280628E-04 -0.3205143E-08 -0.1404353E-05 -0.1526123E-11 -0.7593454E-09
  76344. -0.1170341E-08 -0.7768728E-06 -0.1294400E-09 -0.8582183E-07 -0.4028961E-13 -0.3018324E-10
  38172. -0.4650405E-11 -0.6200422E-08 -0.5161171E-12 -0.6879445E-09 -0.7926831E-16 -0.1189566E-12
      0.  0.0000000E+00  0.0000000E+00  0.0000000E+00  0.0000000E+00  0.0000000E+00  0.0000000E+00
