       2       30 S      194        160.91499          8.15626          6.34809        181.67059      185    7
6371000. -0.5575917E-01 -0.1583162E+01 -0.4450040E-02  0.5130912E-01  0.4140389E-02 -0.2320331E-01
6370000. -0.5550918E-01 -0.1602034E+01 -0.4457885E-02  0.4863918E-01  0.4144022E-02 -0.2309351E-01
6369000. -0.5525627E-01 -0.1620578E+01 -0.4465309E-02  0.4595864E-01  0.4147639E-02 -0.2298750E-01
6368000. -0.5500047E-01 -0.1638791E+01 -0.4472312E-02  0.4326782E-01  0.4151239E-02 -0.2288528E-01
6368000. -0.5500047E-01 -0.1638791E+01 -0.4472312E-02  0.4326782E-01  0.4151239E-02 -0.2288528E-01
6367000. -0.5474183E-01 -0.1656672E+01 -0.4478891E-02  0.4056704E-01  0.4154823E-02 -0.2278688E-01
6366000. -0.5448042E-01 -0.1674219E+01 -0.4485046E-02  0.3785662E-01  0.4158393E-02 -0.2269231E-01
6365000. -0.5421628E-01 -0.1691430E+01 -0.4490775E-02  0.3513686E-01  0.4161947E-02 -0.2260159E-01
6364000. -0.5394946E-01 -0.1708303E+01 -0.4496076E-02  0.3240810E-01  0.4165488E-02 -0.2251473E-01
6363000. -0.5368002E-01 -0.1724837E+01 -0.4500948E-02  0.2967065E-01  0.4169015E-02 -0.2243175E-01
6362000. -0.5340801E-01 -0.1741030E+01 -0.4505390E-02  0.2692484E-01  0.4172530E-02 -0.2235265E-01
6361000. -0.5313349E-01 -0.1756880E+01 -0.4509400E-02  0.2417099E-01  0.4176032E-02 -0.2227747E-01
6360000. -0.5285650E-01 -0.1772387E+01 -0.4512977E-02  0.2140943E-01  0.4179523E-02 -0.2220621E-01
6359000. -0.5257711E-01 -0.1787547E+01 -0.4516121E-02  0.1864047E-01  0.4183004E-02 -0.2213889E-01
6358000. -0.5229537E-01 -0.1802360E+01 -0.4518828E-02  0.1586446E-01  0.4186473E-02 -0.2207552E-01
6357000. -0.5201133E-01 -0.1816825E+01 -0.4521100E-02  0.1308171E-01  0.4189934E-02 -0.2201612E-01
6356000. -0.5172505E-01 -0.1830940E+01 -0.4522935E-02  0.1029255E-01  0.4193385E-02 -0.2196071E-01
6356000. -0.5172505E-01 -0.1554848E+01 -0.4522935E-02  0.2496782E-01  0.4193385E-02 -0.1070594E-01
6355000. -0.5148011E-01 -0.1566100E+01 -0.4526744E-02  0.2357281E-01  0.4195048E-02 -0.1048117E-01
6354000. -0.5123342E-01 -0.1577178E+01 -0.4530335E-02  0.2217367E-01  0.4196675E-02 -0.1025895E-01
6353000. -0.5098501E-01 -0.1588081E+01 -0.4533705E-02  0.2077049E-01  0.4198269E-02 -0.1003926E-01
6352000. -0.5073490E-01 -0.1598809E+01 -0.4536855E-02  0.1936338E-01  0.4199827E-02 -0.9822115E-02
6351000. -0.5048312E-01 -0.1609360E+01 -0.4539783E-02  0.1795242E-01  0.4201352E-02 -0.9607520E-02
6350000. -0.5022969E-01 -0.1619734E+01 -0.4542490E-02  0.1653773E-01  0.4202843E-02 -0.9395479E-02
6349000. -0.4997465E-01 -0.1629930E+01 -0.4544974E-02  0.1511940E-01  0.4204302E-02 -0.9185996E-02
6348000. -0.4971803E-01 -0.1639948E+01 -0.4547236E-02  0.1369752E-01  0.4205727E-02 -0.8979075E-02
6347000. -0.4945985E-01 -0.1649786E+01 -0.4549274E-02  0.1227221E-01  0.4207120E-02 -0.8774720E-02
6346600. -0.4935614E-01 -0.1653671E+01 -0.4550027E-02  0.1170115E-01  0.4207669E-02 -0.8693698E-02
6346600. -0.4935614E-01 -0.1797922E+01 -0.4550027E-02  0.2251154E-01  0.4207669E-02  0.8516069E-02
6318800. -0.4103601E-01 -0.2002993E+01 -0.4607284E-02  0.3419936E-02  0.4154080E-02  0.1586059E-01
6291000. -0.3199303E-01 -0.2127691E+01 -0.4577726E-02 -0.1714504E-01  0.4070778E-02  0.2215623E-01
6291000. -0.3199303E-01 -0.2190604E+01 -0.4577726E-02 -0.1878502E-01  0.4070778E-02  0.2215623E-01
6263000. -0.2226281E-01 -0.2220511E+01 -0.4443289E-02 -0.4241193E-01  0.3962719E-02  0.2686467E-01
6235000. -0.1262584E-01 -0.2147837E+01 -0.4205551E-02 -0.6561705E-01  0.3835908E-02  0.3070907E-01
6207000. -0.3533684E-02 -0.1973035E+01 -0.3868692E-02 -0.8734556E-01  0.3693884E-02  0.3380740E-01
6179000.  0.4574535E-02 -0.1701329E+01 -0.3441443E-02 -0.1065892E+00  0.3539667E-02  0.3627739E-01
6151000.  0.1129307E-01 -0.1342655E+01 -0.2936778E-02 -0.1224337E+00  0.3375764E-02  0.3823397E-01
6151000.  0.1129307E-01 -0.1307902E+01 -0.2936778E-02 -0.1092906E+00  0.3375764E-02  0.3760917E-01
6128500.  0.1542427E-01 -0.1028003E+01 -0.2541283E-02 -0.1143045E+00  0.3239844E-02  0.3931085E-01
6106000.  0.1853151E-01 -0.7292667E+00 -0.2132109E-02 -0.1170340E+00  0.3098452E-02  0.4071442E-01
6083500.  0.2056172E-01 -0.4193172E+00 -0.1717320E-02 -0.1174911E+00  0.2952579E-02  0.4185300E-01
6061000.  0.2148873E-01 -0.1057420E+00 -0.1304840E-02 -0.1157414E+00  0.2803109E-02  0.4275664E-01
6038500.  0.2131286E-01  0.2040780E+00 -0.9022739E-03 -0.1118999E+00  0.2650821E-02  0.4345382E-01
6016000.  0.2005988E-01  0.5031247E+00 -0.5167397E-03 -0.1061254E+00  0.2496395E-02  0.4397151E-01
5993500.  0.1777950E-01  0.7848936E+00 -0.1547312E-03 -0.9861234E-01  0.2340420E-02  0.4433519E-01
5971000.  0.1454328E-01  0.1043524E+01  0.1780028E-03 -0.8958641E-01  0.2183395E-02  0.4457050E-01
5971000.  0.1454328E-01  0.9486342E+00  0.1780028E-03 -0.8140557E-01  0.2183395E-02  0.4266667E-01
5937667.  0.8849194E-02  0.1216249E+01  0.5640683E-03 -0.6605763E-01  0.1962448E-02  0.4171454E-01
5904333.  0.1940303E-02  0.1412790E+01  0.8688279E-03 -0.5046875E-01  0.1747688E-02  0.4030416E-01
5871000. -0.5812502E-02  0.1539419E+01  0.1093134E-02 -0.3541974E-01  0.1541437E-02  0.3847136E-01
5837667. -0.1405412E-01  0.1600610E+01  0.1241421E-02 -0.2149019E-01  0.1345781E-02  0.3626243E-01
5804333. -0.2245943E-01  0.1603170E+01  0.1320654E-02 -0.9072508E-02  0.1162543E-02  0.3373178E-01
5771000. -0.3074227E-01  0.1555352E+01  0.1339397E-02  0.1606549E-02  0.9932612E-03  0.3094018E-01
5771000. -0.3074227E-01  0.1555440E+01  0.1339397E-02  0.1607652E-02  0.9932612E-03  0.3094018E-01
5701000. -0.4707380E-01  0.1389614E+01  0.1230740E-02  0.1736366E-01  0.6951977E-03  0.2333642E-01
5701000. -0.4707380E-01  0.1212067E+01  0.1230740E-02  0.2505079E-01  0.6951977E-03  0.3660483E-01
5667333. -0.5307783E-01  0.1058793E+01  0.1091687E-02  0.2739676E-01  0.5171293E-03  0.3088214E-01
5633667. -0.5825561E-01  0.9003342E+00  0.9429093E-03  0.2876639E-01  0.3678485E-03  0.2570692E-01
5600000. -0.6259347E-01  0.7416048E+00  0.7890235E-03  0.2936267E-01  0.2445053E-03  0.2106289E-01
5600000. -0.6259347E-01  0.7416341E+00  0.7890235E-03  0.2936062E-01  0.2445053E-03  0.2106289E-01
5563518. -0.6639348E-01  0.5860651E+00  0.6236120E-03  0.2834219E-01  0.1366738E-03  0.1673409E-01
5527037. -0.6931280E-01  0.4344880E+00  0.4651806E-03  0.2693543E-01  0.5144805E-04  0.1314615E-01
5490556. -0.7138135E-01  0.2892584E+00  0.3157529E-03  0.2520894E-01 -0.1506040E-04  0.1017810E-01
5454074. -0.7264129E-01  0.1523432E+00  0.1769571E-03  0.2323211E-01 -0.6610264E-04  0.7728342E-02
5417593. -0.7314492E-01  0.2533099E-01  0.5003726E-04  0.2107336E-01 -0.1043984E-03  0.5713811E-02
5381111. -0.7295255E-01 -0.9058313E-01 -0.6415734E-04  0.1879670E-01 -0.1322343E-03  0.4063981E-02
5344630. -0.7213034E-01 -0.1945563E+00 -0.1651194E-03  0.1646204E-01 -0.1515242E-03  0.2720159E-02
5308148. -0.7074818E-01 -0.2860961E+00 -0.2526772E-03  0.1412239E-01 -0.1638755E-03  0.1632864E-02
5271667. -0.6887802E-01 -0.3650066E+00 -0.3269367E-03  0.1182546E-01 -0.1706360E-03  0.7612301E-03
5235185. -0.6659198E-01 -0.4313765E+00 -0.3882647E-03  0.9611100E-02 -0.1729376E-03  0.7018234E-04
5198704. -0.6396115E-01 -0.4855239E+00 -0.4372281E-03  0.7512270E-02 -0.1717293E-03 -0.4692490E-03
5162222. -0.6105397E-01 -0.5279723E+00 -0.4745683E-03  0.5554755E-02 -0.1678037E-03 -0.8826661E-03
5125741. -0.5793573E-01 -0.5594006E+00 -0.5011510E-03  0.3757974E-02 -0.1618228E-03 -0.1190375E-02
5089259. -0.5466708E-01 -0.5806178E+00 -0.5179380E-03  0.2134807E-02 -0.1543371E-03 -0.1410992E-02
5052778. -0.5130414E-01 -0.5925201E+00 -0.5259460E-03  0.6926117E-03 -0.1458015E-03 -0.1559507E-02
5016296. -0.4789735E-01 -0.5960634E+00 -0.5262206E-03 -0.5662659E-03 -0.1365895E-03 -0.1649169E-02
4979815. -0.4449195E-01 -0.5922335E+00 -0.5198078E-03 -0.1643779E-02 -0.1270055E-03 -0.1691199E-02
4943333. -0.4112713E-01 -0.5820200E+00 -0.5077317E-03 -0.2545462E-02 -0.1172954E-03 -0.1694593E-02
4906852. -0.3783683E-01 -0.5663989E+00 -0.4909758E-03 -0.3280101E-02 -0.1076554E-03 -0.1668116E-02
4870370. -0.3464912E-01 -0.5463074E+00 -0.4704651E-03 -0.3858653E-02 -0.9823647E-04 -0.1618202E-02
4833889. -0.3158721E-01 -0.5226339E+00 -0.4470605E-03 -0.4293257E-02 -0.8915737E-04 -0.1550480E-02
4797407. -0.2866903E-01 -0.4962080E+00 -0.4215454E-03 -0.4597992E-02 -0.8050338E-04 -0.1470394E-02
4760926. -0.2590830E-01 -0.4677896E+00 -0.3946238E-03 -0.4787108E-02 -0.7233465E-04 -0.1381650E-02
4724444. -0.2331428E-01 -0.4380608E+00 -0.3669155E-03 -0.4874898E-02 -0.6469023E-04 -0.1287721E-02
4687963. -0.2089284E-01 -0.4076318E+00 -0.3389608E-03 -0.4875754E-02 -0.5759181E-04 -0.1191423E-02
4651482. -0.1864637E-01 -0.3770314E+00 -0.3112172E-03 -0.4803441E-02 -0.5104637E-04 -0.1094910E-02
4615000. -0.1657444E-01 -0.3467123E+00 -0.2840650E-03 -0.4671050E-02 -0.4504945E-04 -0.1000034E-02
4578518. -0.1467440E-01 -0.3170547E+00 -0.2578137E-03 -0.4490703E-02 -0.3958794E-04 -0.9081221E-03
4542037. -0.1294159E-01 -0.2883690E+00 -0.2327063E-03 -0.4273520E-02 -0.3464137E-04 -0.8203853E-03
4505556. -0.1136964E-01 -0.2608995E+00 -0.2089237E-03 -0.4029558E-02 -0.3018348E-04 -0.7375418E-03
4469074. -0.9951022E-02 -0.2348300E+00 -0.1865928E-03 -0.3767637E-02 -0.2618439E-04 -0.6601751E-03
4432593. -0.8677376E-02 -0.2102938E+00 -0.1657949E-03 -0.3495518E-02 -0.2261192E-04 -0.5885960E-03
4396111. -0.7539598E-02 -0.1873730E+00 -0.1465679E-03 -0.3219780E-02 -0.1943229E-04 -0.5229832E-03
4359630. -0.6528359E-02 -0.1661110E+00 -0.1289171E-03 -0.2945997E-02 -0.1661070E-04 -0.4635667E-03
4323148. -0.5634075E-02 -0.1465126E+00 -0.1128171E-03 -0.2678630E-02 -0.1411187E-04 -0.4102215E-03
4286667. -0.4847320E-02 -0.1285555E+00 -0.9822111E-04 -0.2421393E-02 -0.1190100E-04 -0.3630069E-03
4250185. -0.4158786E-02 -0.1121892E+00 -0.8506203E-04 -0.2177004E-02 -0.9943179E-05 -0.3217968E-03
4213704. -0.3559588E-02 -0.9734583E-01 -0.7326077E-04 -0.1947551E-02 -0.8204329E-05 -0.2865417E-03
4177222. -0.3041214E-02 -0.8393916E-01 -0.6272696E-04 -0.1734384E-02 -0.6650302E-05 -0.2572222E-03
4140741. -0.2595733E-02 -0.7187318E-01 -0.5336524E-04 -0.1538368E-02 -0.5247214E-05 -0.2338505E-03
4104259. -0.2215747E-02 -0.6104142E-01 -0.4507569E-04 -0.1359834E-02 -0.3960543E-05 -0.2165761E-03
4067778. -0.1894525E-02 -0.5133282E-01 -0.3775874E-04 -0.1198691E-02 -0.2754895E-05 -0.2056146E-03
4031296. -0.1625947E-02 -0.4263221E-01 -0.3131555E-04 -0.1054482E-02 -0.1592927E-05 -0.2013941E-03
3994815. -0.1404585E-02 -0.3482430E-01 -0.2565165E-04 -0.9264016E-03 -0.4344678E-06 -0.2045188E-03
3958333. -0.1225646E-02 -0.2779416E-01 -0.2067750E-04 -0.8132936E-03  0.7649359E-06 -0.2158543E-03
3921852. -0.1085005E-02 -0.2143107E-01 -0.1631188E-04 -0.7136080E-03  0.2055500E-05 -0.2365979E-03
3885370. -0.9791399E-03 -0.1562986E-01 -0.1248327E-04 -0.6253050E-03  0.3495449E-05 -0.2683141E-03
3848889. -0.9051160E-03 -0.1029588E-01 -0.9133973E-05 -0.5457144E-03  0.5153104E-05 -0.3130316E-03
3812407. -0.8604919E-03 -0.5349025E-02 -0.6223793E-05 -0.4711996E-03  0.7110085E-05 -0.3733216E-03
3775926. -0.8432277E-03 -0.7331654E-03 -0.3737350E-05 -0.3967618E-03  0.9464286E-05 -0.4523793E-03
3739444. -0.8515072E-03  0.3572334E-02 -0.1693029E-05 -0.3153675E-03  0.1233413E-04 -0.5541054E-03
3702963. -0.8834841E-03  0.7532062E-02 -0.1578581E-06 -0.2169441E-03  0.1586212E-04 -0.6831156E-03
3666482. -0.9368829E-03  0.1102506E-01  0.7315037E-06 -0.8688453E-04  0.2021953E-04 -0.8447400E-03
3630000. -0.1008384E-02  0.1379749E-01  0.7366152E-06  0.9618229E-04  0.2560975E-04 -0.1044796E-02
3630000. -0.1008384E-02  0.1379744E-01  0.7366152E-06  0.9620073E-04  0.2560975E-04 -0.1044796E-02
3592500. -0.1095369E-02  0.1550344E-01 -0.5668865E-06  0.3654242E-03  0.3247503E-04 -0.1296025E-02
3555000. -0.1186928E-02  0.1517173E-01 -0.3840382E-05  0.7757407E-03  0.4096701E-04 -0.1598294E-02
3517500. -0.1267283E-02  0.1140383E-01 -0.1012159E-04  0.1402703E-02  0.5139596E-04 -0.1954209E-02
3480000. -0.1310110E-02  0.1953475E-02 -0.2099764E-04  0.2360039E-02  0.6407050E-04 -0.2359853E-02
3480000. -0.1310110E-02 -0.5724733E-01 -0.5133294E-04 -0.2303634E-02  0.6407050E-04  0.1761215E-02
3409422. -0.8000634E-03 -0.3627434E-01 -0.3096064E-04 -0.1436824E-02  0.4543318E-04  0.1551047E-02
3338844. -0.4797808E-03 -0.2254082E-01 -0.1835798E-04 -0.8803272E-03  0.3027695E-04  0.1178207E-02
3268266. -0.2825164E-03 -0.1373938E-01 -0.1069937E-04 -0.5298243E-03  0.1925373E-04  0.8219012E-03
3197688. -0.1633300E-03 -0.8215417E-02 -0.6127686E-05 -0.3131971E-03  0.1178386E-04  0.5406039E-03
3127109. -0.9268447E-04 -0.4818806E-02 -0.3447401E-05 -0.1818075E-03  0.6976659E-05  0.3398051E-03
3056531. -0.5161028E-04 -0.2772286E-02 -0.1904480E-05 -0.1036091E-03  0.4008516E-05  0.2056746E-03
2985953. -0.2818887E-04 -0.1563907E-02 -0.1032622E-05 -0.5794456E-04  0.2239546E-05  0.1204255E-03
2915375. -0.1509465E-04 -0.8647791E-03 -0.5492250E-06 -0.3178779E-04  0.1218163E-05  0.6840292E-04
2844797. -0.7920054E-05 -0.4685170E-03 -0.2863750E-06 -0.1709666E-04  0.6455246E-06  0.3775776E-04
2774219. -0.4069229E-05 -0.2485623E-03 -0.1462830E-06 -0.9009474E-05  0.3333501E-06  0.2027473E-04
2703641. -0.2045769E-05 -0.1290497E-03 -0.7314586E-07 -0.4648581E-05  0.1677460E-06  0.1059590E-04
2633062. -0.1005538E-05 -0.6551882E-04 -0.3577205E-07 -0.2346538E-05  0.8223107E-07  0.5390099E-05
2562484. -0.4827766E-06 -0.3250175E-04 -0.1709426E-07 -0.1157836E-05  0.3924994E-07  0.2668417E-05
2491906. -0.2261771E-06 -0.1573849E-04 -0.7973434E-08 -0.5578862E-06  0.1822844E-07  0.1285009E-05
2421328. -0.1032787E-06 -0.7431468E-05 -0.3625963E-08 -0.2622086E-06  0.8229621E-08  0.6015270E-06
2350750. -0.4590745E-07 -0.3417639E-05 -0.1605556E-08 -0.1200672E-06  0.3607979E-08  0.2734705E-06
2280172. -0.1983617E-07 -0.1528774E-05 -0.6912487E-09 -0.5349238E-07  0.1534114E-08  0.1206132E-06
2209594. -0.8318798E-08 -0.6641829E-06 -0.2889139E-09 -0.2315267E-07  0.6317327E-09  0.5153966E-07
2139016. -0.3380218E-08 -0.2798003E-06 -0.1170237E-09 -0.9719223E-08  0.2515231E-09  0.2130560E-07
2068438. -0.1328253E-08 -0.1140864E-06 -0.4584748E-10 -0.3949888E-08  0.9664582E-10  0.8505445E-08
1997859. -0.5036643E-09 -0.4493210E-07 -0.1733642E-10 -0.1550837E-08  0.3576282E-10  0.3272559E-08
1927281. -0.1838696E-09 -0.1705468E-07 -0.6312268E-11 -0.5869428E-09  0.1271480E-10  0.1210888E-08
1856703. -0.6445158E-10 -0.6222825E-08 -0.2207166E-11 -0.2135802E-09  0.4331655E-11  0.4297726E-09
1786125. -0.2162844E-10 -0.2176466E-08 -0.7389546E-12 -0.7451106E-10  0.1409813E-11  0.1458968E-09
1715547. -0.6925289E-11 -0.7273521E-09 -0.2360927E-12 -0.2484152E-10  0.4368766E-12  0.4721864E-10
1644969. -0.2107845E-11 -0.2314154E-09 -0.7171194E-13 -0.7886017E-11  0.1284029E-12  0.1451572E-10
1574391. -0.6072767E-12 -0.6980644E-10 -0.2061939E-13 -0.2374019E-11  0.3563644E-13  0.4220964E-11
1503812. -0.1648778E-12 -0.1986042E-10 -0.5582347E-14 -0.6748777E-12  0.9287139E-14  0.1156119E-11
1433234.  0.0000000E+00  0.0000000E+00  0.0000000E+00  0.0000000E+00  0.0000000E+00  0.0000000E+00
1362656.  0.0000000E+00  0.0000000E+00  0.0000000E+00  0.0000000E+00  0.0000000E+00  0.0000000E+00
1292078.  0.0000000E+00  0.0000000E+00  0.0000000E+00  0.0000000E+00  0.0000000E+00  0.0000000E+00
1221500.  0.0000000E+00  0.0000000E+00  0.0000000E+00  0.0000000E+00  0.0000000E+00  0.0000000E+00
1221500.  0.0000000E+00  0.0000000E+00  0.0000000E+00  0.0000000E+00  0.0000000E+00  0.0000000E+00
1183328.  0.0000000E+00  0.0000000E+00  0.0000000E+00  0.0000000E+00  0.0000000E+00  0.0000000E+00
1145156.  0.0000000E+00  0.0000000E+00  0.0000000E+00  0.0000000E+00  0.0000000E+00  0.0000000E+00
1106984.  0.0000000E+00  0.0000000E+00  0.0000000E+00  0.0000000E+00  0.0000000E+00  0.0000000E+00
1068812.  0.0000000E+00  0.0000000E+00  0.0000000E+00  0.0000000E+00  0.0000000E+00  0.0000000E+00
1030641.  0.0000000E+00  0.0000000E+00  0.0000000E+00  0.0000000E+00  0.0000000E+00  0.0000000E+00
 992469.  0.0000000E+00  0.0000000E+00  0.0000000E+00  0.0000000E+00  0.0000000E+00  0.0000000E+00
 954297.  0.0000000E+00  0.0000000E+00  0.0000000E+00  0.0000000E+00  0.0000000E+00  0.0000000E+00
 916125.  0.0000000E+00  0.0000000E+00  0.0000000E+00  0.0000000E+00  0.0000000E+00  0.0000000E+00
 877953.  0.0000000E+00  0.0000000E+00  0.0000000E+00  0.0000000E+00  0.0000000E+00  0.0000000E+00
 839781.  0.0000000E+00  0.0000000E+00  0.0000000E+00  0.0000000E+00  0.0000000E+00  0.0000000E+00
 801609.  0.0000000E+00  0.0000000E+00  0.0000000E+00  0.0000000E+00  0.0000000E+00  0.0000000E+00
 763438.  0.0000000E+00  0.0000000E+00  0.0000000E+00  0.0000000E+00  0.0000000E+00  0.0000000E+00
 725266.  0.0000000E+00  0.0000000E+00  0.0000000E+00  0.0000000E+00  0.0000000E+00  0.0000000E+00
 687094.  0.0000000E+00  0.0000000E+00  0.0000000E+00  0.0000000E+00  0.0000000E+00  0.0000000E+00
 648922.  0.0000000E+00  0.0000000E+00  0.0000000E+00  0.0000000E+00  0.0000000E+00  0.0000000E+00
 610750.  0.0000000E+00  0.0000000E+00  0.0000000E+00  0.0000000E+00  0.0000000E+00  0.0000000E+00
 572578.  0.0000000E+00  0.0000000E+00  0.0000000E+00  0.0000000E+00  0.0000000E+00  0.0000000E+00
 534406.  0.0000000E+00  0.0000000E+00  0.0000000E+00  0.0000000E+00  0.0000000E+00  0.0000000E+00
 496234.  0.0000000E+00  0.0000000E+00  0.0000000E+00  0.0000000E+00  0.0000000E+00  0.0000000E+00
 458062.  0.0000000E+00  0.0000000E+00  0.0000000E+00  0.0000000E+00  0.0000000E+00  0.0000000E+00
 419891.  0.0000000E+00  0.0000000E+00  0.0000000E+00  0.0000000E+00  0.0000000E+00  0.0000000E+00
 381719.  0.0000000E+00  0.0000000E+00  0.0000000E+00  0.0000000E+00  0.0000000E+00  0.0000000E+00
 343547.  0.0000000E+00  0.0000000E+00  0.0000000E+00  0.0000000E+00  0.0000000E+00  0.0000000E+00
 305375.  0.0000000E+00  0.0000000E+00  0.0000000E+00  0.0000000E+00  0.0000000E+00  0.0000000E+00
 267203.  0.0000000E+00  0.0000000E+00  0.0000000E+00  0.0000000E+00  0.0000000E+00  0.0000000E+00
 229031.  0.0000000E+00  0.0000000E+00  0.0000000E+00  0.0000000E+00  0.0000000E+00  0.0000000E+00
 190859.  0.0000000E+00  0.0000000E+00  0.0000000E+00  0.0000000E+00  0.0000000E+00  0.0000000E+00
 152688.  0.0000000E+00  0.0000000E+00  0.0000000E+00  0.0000000E+00  0.0000000E+00  0.0000000E+00
 114516.  0.0000000E+00  0.0000000E+00  0.0000000E+00  0.0000000E+00  0.0000000E+00  0.0000000E+00
  76344.  0.0000000E+00  0.0000000E+00  0.0000000E+00  0.0000000E+00  0.0000000E+00  0.0000000E+00
  38172.  0.0000000E+00  0.0000000E+00  0.0000000E+00  0.0000000E+00  0.0000000E+00  0.0000000E+00
      0.  0.0000000E+00  0.0000000E+00  0.0000000E+00  0.0000000E+00  0.0000000E+00  0.0000000E+00
