       6       36 S      397        106.11460         10.33521          6.70460        249.04060      185    7
6371000. -0.3073866E-01  0.8469769E+00  0.1571930E-02  0.3231059E-01 -0.3083901E-03  0.6937635E-01
6370000. -0.3086977E-01  0.8235859E+00  0.1566649E-02  0.3497912E-01 -0.3192558E-03  0.6907395E-01
6369000. -0.3099717E-01  0.7997227E+00  0.1560950E-02  0.3763144E-01 -0.3300738E-03  0.6876873E-01
6368000. -0.3112079E-01  0.7753918E+00  0.1554837E-02  0.4026673E-01 -0.3408437E-03  0.6846073E-01
6368000. -0.3112079E-01  0.7753918E+00  0.1554837E-02  0.4026673E-01 -0.3408437E-03  0.6846073E-01
6367000. -0.3124056E-01  0.7505977E+00  0.1548311E-02  0.4288421E-01 -0.3515651E-03  0.6814995E-01
6366000. -0.3135640E-01  0.7253453E+00  0.1541375E-02  0.4548308E-01 -0.3622374E-03  0.6783642E-01
6365000. -0.3146824E-01  0.6996395E+00  0.1534033E-02  0.4806256E-01 -0.3728603E-03  0.6752016E-01
6364000. -0.3157601E-01  0.6734854E+00  0.1526288E-02  0.5062187E-01 -0.3834333E-03  0.6720118E-01
6363000. -0.3167964E-01  0.6468883E+00  0.1518143E-02  0.5316025E-01 -0.3939561E-03  0.6687952E-01
6362000. -0.3177906E-01  0.6198536E+00  0.1509601E-02  0.5567693E-01 -0.4044282E-03  0.6655518E-01
6361000. -0.3187420E-01  0.5923868E+00  0.1500666E-02  0.5817116E-01 -0.4148491E-03  0.6622818E-01
6360000. -0.3196500E-01  0.5644937E+00  0.1491341E-02  0.6064218E-01 -0.4252186E-03  0.6589856E-01
6359000. -0.3205139E-01  0.5361801E+00  0.1481630E-02  0.6308927E-01 -0.4355360E-03  0.6556632E-01
6358000. -0.3213330E-01  0.5074521E+00  0.1471537E-02  0.6551167E-01 -0.4458012E-03  0.6523150E-01
6357000. -0.3221067E-01  0.4783159E+00  0.1461066E-02  0.6790867E-01 -0.4560135E-03  0.6489411E-01
6356000. -0.3228343E-01  0.4487778E+00  0.1450221E-02  0.7027955E-01 -0.4661728E-03  0.6455418E-01
6356000. -0.3228343E-01  0.4680100E+00  0.1450221E-02  0.5582416E-01 -0.4661728E-03  0.7157867E-01
6355000. -0.3235522E-01  0.4467504E+00  0.1441351E-02  0.5718737E-01 -0.4773775E-03  0.7119253E-01
6354000. -0.3242366E-01  0.4252636E+00  0.1432269E-02  0.5853633E-01 -0.4885216E-03  0.7080539E-01
6353000. -0.3248871E-01  0.4035528E+00  0.1422976E-02  0.5987081E-01 -0.4996049E-03  0.7041728E-01
6352000. -0.3255033E-01  0.3816214E+00  0.1413475E-02  0.6119053E-01 -0.5106272E-03  0.7002819E-01
6351000. -0.3260850E-01  0.3594728E+00  0.1403768E-02  0.6249526E-01 -0.5215883E-03  0.6963816E-01
6350000. -0.3266317E-01  0.3371104E+00  0.1393857E-02  0.6378476E-01 -0.5324881E-03  0.6924718E-01
6349000. -0.3271431E-01  0.3145377E+00  0.1383745E-02  0.6505878E-01 -0.5433265E-03  0.6885527E-01
6348000. -0.3276190E-01  0.2917584E+00  0.1373435E-02  0.6631708E-01 -0.5541032E-03  0.6846244E-01
6347000. -0.3280589E-01  0.2687759E+00  0.1362928E-02  0.6755945E-01 -0.5648183E-03  0.6806869E-01
6346600. -0.3282248E-01  0.2595268E+00  0.1358670E-02  0.6805188E-01 -0.5690870E-03  0.6791094E-01
6346600. -0.3282248E-01  0.5132334E+00  0.1358670E-02  0.5709137E-01 -0.5690870E-03  0.7935566E-01
6318800. -0.3392820E-01 -0.2189954E-01  0.1069085E-02  0.7414628E-01 -0.8921687E-03  0.6875781E-01
6291000. -0.3253675E-01 -0.6217374E+00  0.7256982E-03  0.8154015E-01 -0.1169361E-02  0.5831309E-01
6291000. -0.3253675E-01 -0.6228210E+00  0.7256982E-03  0.8313897E-01 -0.1169361E-02  0.5831309E-01
6263000. -0.2842010E-01 -0.1245391E+01  0.3629430E-03  0.8008321E-01 -0.1402662E-02  0.4786236E-01
6235000. -0.2168708E-01 -0.1801830E+01  0.3741352E-04  0.6640008E-01 -0.1590135E-02  0.3746209E-01
6207000. -0.1277650E-01 -0.2226165E+01 -0.2077648E-03  0.4392242E-01 -0.1732093E-02  0.2716337E-01
6179000. -0.2392045E-02 -0.2465113E+01 -0.3400158E-03  0.1557140E-01 -0.1829198E-02  0.1707301E-01
6151000.  0.8569228E-02 -0.2484961E+01 -0.3413891E-03 -0.1498458E-01 -0.1882703E-02  0.7353566E-02
6151000.  0.8569228E-02 -0.2042764E+01 -0.3413891E-03 -0.1429006E-01 -0.1882703E-02  0.6879469E-02
6128500.  0.1553471E-01 -0.1884527E+01 -0.2559953E-03 -0.3373463E-01 -0.1899864E-02  0.2922722E-02
6106000.  0.2176401E-01 -0.1628051E+01 -0.1062228E-03 -0.5054559E-01 -0.1903946E-02 -0.5259998E-03
6083500.  0.2693687E-01 -0.1289345E+01  0.9662355E-04 -0.6363109E-01 -0.1896752E-02 -0.3462257E-02
6061000.  0.3079844E-01 -0.8892313E+00  0.3378697E-03 -0.7218312E-01 -0.1880093E-02 -0.5886845E-02
6038500.  0.3317384E-01 -0.4519265E+00  0.6005497E-03 -0.7571639E-01 -0.1855771E-02 -0.7803101E-02
6016000.  0.3397735E-01 -0.3418906E-02  0.8665792E-03 -0.7408343E-01 -0.1825571E-02 -0.9215375E-02
5993500.  0.3321574E-01  0.4301563E+00  0.1117942E-02 -0.6746724E-01 -0.1791268E-02 -0.1012775E-01
5971000.  0.3098599E-01  0.8241001E+00  0.1337815E-02 -0.5635468E-01 -0.1754625E-02 -0.1054023E-01
5971000.  0.3098599E-01  0.8039852E+00  0.1337815E-02 -0.5363132E-01 -0.1754625E-02 -0.1459656E-01
5937667.  0.2559168E-01  0.1231983E+01  0.1568795E-02 -0.3401070E-01 -0.1674215E-02 -0.1604455E-01
5904333.  0.1838543E-01  0.1493631E+01  0.1689501E-02 -0.1197031E-01 -0.1587555E-02 -0.1701929E-01
5871000.  0.1026481E-01  0.1582168E+01  0.1694687E-02  0.9726239E-02 -0.1496636E-02 -0.1769877E-01
5837667.  0.2110994E-02  0.1509657E+01  0.1592213E-02  0.2887189E-01 -0.1402654E-02 -0.1820576E-01
5804333. -0.5296789E-02  0.1302133E+01  0.1399703E-02  0.4394847E-01 -0.1306303E-02 -0.1861171E-01
5771000. -0.1133993E-01  0.9943363E+00  0.1140886E-02  0.5414067E-01 -0.1208023E-02 -0.1894596E-01
5771000. -0.1133993E-01  0.9944285E+00  0.1140886E-02  0.5413935E-01 -0.1208023E-02 -0.1894596E-01
5701000. -0.1792131E-01  0.1716975E+00  0.4775077E-03  0.6327121E-01 -0.9946086E-03 -0.1978535E-01
5701000. -0.1792131E-01  0.1762165E+00  0.4775077E-03  0.5434012E-01 -0.9946086E-03 -0.1473398E-01
5667333. -0.1790814E-01 -0.1768744E+00  0.1991779E-03  0.5055035E-01 -0.9149123E-03 -0.1537270E-01
5633667. -0.1611559E-01 -0.4941411E+00 -0.5266173E-04  0.4444464E-01 -0.8327619E-03 -0.1565813E-01
5600000. -0.1277611E-01 -0.7602158E+00 -0.2678127E-03  0.3678863E-01 -0.7501086E-03 -0.1555620E-01
5600000. -0.1277611E-01 -0.7602279E+00 -0.2678127E-03  0.3678972E-01 -0.7501086E-03 -0.1555620E-01
5563518. -0.7722158E-02 -0.9938423E+00 -0.4535070E-03  0.2787407E-01 -0.6622752E-03 -0.1507354E-01
5527037. -0.1531905E-02 -0.1155611E+01 -0.5854311E-03  0.1811626E-01 -0.5779641E-03 -0.1433760E-01
5490556.  0.5361718E-02 -0.1238838E+01 -0.6605665E-03  0.8140758E-02 -0.4984477E-03 -0.1340801E-01
5454074.  0.1250237E-01 -0.1241987E+01 -0.6793632E-03 -0.1470064E-02 -0.4246831E-03 -0.1233587E-01
5417593.  0.1943835E-01 -0.1168336E+01 -0.6454045E-03 -0.1020850E-01 -0.3573593E-03 -0.1116612E-01
5381111.  0.2574985E-01 -0.1025363E+01 -0.5649015E-03 -0.1766745E-01 -0.2969154E-03 -0.9938557E-02
5344630.  0.3106931E-01 -0.8239383E+00 -0.4460823E-03 -0.2355337E-01 -0.2435817E-03 -0.8688878E-02
5308148.  0.3509946E-01 -0.5773571E+00 -0.2985010E-03 -0.2769290E-01 -0.1973894E-03 -0.7448737E-02
5271667.  0.3762332E-01 -0.3003893E+00 -0.1323836E-03 -0.3002871E-01 -0.1582038E-03 -0.6246321E-02
5235185.  0.3851066E-01 -0.8275163E-02  0.4204345E-04 -0.3060978E-01 -0.1257370E-03 -0.5105359E-02
5198704.  0.3771767E-01  0.2841080E+00  0.2150833E-03 -0.2957570E-01 -0.9957935E-04 -0.4045886E-02
5162222.  0.3528268E-01  0.5630727E+00  0.3780722E-03 -0.2713771E-01 -0.7921788E-04 -0.3082874E-02
5125741.  0.3131782E-01  0.8166694E+00  0.5236940E-03 -0.2355807E-01 -0.6406617E-04 -0.2227896E-02
5089259.  0.2599706E-01  0.1035191E+01  0.6462451E-03 -0.1912851E-01 -0.5348447E-04 -0.1487311E-02
5052778.  0.1954352E-01  0.1211389E+01  0.7417166E-03 -0.1415100E-01 -0.4680837E-04 -0.8639764E-03
5016296.  0.1221373E-01  0.1340619E+01  0.8078240E-03 -0.8919154E-02 -0.4336778E-04 -0.3566870E-03
4979815.  0.4284277E-02  0.1420763E+01  0.8438986E-03 -0.3704490E-02 -0.4250962E-04  0.3894712E-04
4943333. -0.3963863E-02  0.1452076E+01  0.8507374E-03  0.1256088E-02 -0.4361365E-04  0.3300600E-03
4906852. -0.1225642E-01  0.1436905E+01  0.8303763E-03  0.5767019E-02 -0.4610730E-04  0.5260262E-03
4870370. -0.2033865E-01  0.1379338E+01  0.7858372E-03  0.9679620E-02 -0.4947696E-04  0.6379851E-03
4833889. -0.2798235E-01  0.1284811E+01  0.7208621E-03  0.1289226E-01 -0.5327613E-04  0.6780821E-03
4797407. -0.3499424E-01  0.1159713E+01  0.6396360E-03  0.1534931E-01 -0.5712781E-04  0.6583587E-03
4760926. -0.4121858E-01  0.1010980E+01  0.5465478E-03  0.1703721E-01 -0.6072599E-04  0.5916729E-03
4724444. -0.4654067E-01  0.8457066E+00  0.4459455E-03  0.1797943E-01 -0.6383646E-04  0.4898499E-03
4687963. -0.5088558E-01  0.6708490E+00  0.3419649E-03  0.1822913E-01 -0.6628968E-04  0.3639290E-03
4651482. -0.5421746E-01  0.4929129E+00  0.2383590E-03  0.1786286E-01 -0.6797772E-04  0.2241480E-03
4615000. -0.5653587E-01  0.3177510E+00  0.1383936E-03  0.1697295E-01 -0.6884642E-04  0.7909482E-04
4578518. -0.5787147E-01  0.1504141E+00  0.4478182E-04  0.1566107E-01 -0.6888822E-04 -0.6358939E-04
4542037. -0.5828136E-01 -0.4956401E-02 -0.4035731E-04  0.1403191E-01 -0.6813287E-04 -0.1985080E-03
4505556. -0.5784367E-01 -0.1451781E+00 -0.1155042E-03  0.1218762E-01 -0.6663900E-04 -0.3208747E-03
4469074. -0.5665196E-01 -0.2680126E+00 -0.1797072E-03  0.1022404E-01 -0.6448790E-04 -0.4276331E-03
4432593. -0.5481014E-01 -0.3721102E+00 -0.2325312E-03  0.8227150E-02 -0.6177600E-04 -0.5164277E-03
4396111. -0.5242724E-01 -0.4569542E+00 -0.2740058E-03  0.6270809E-02 -0.5861058E-04 -0.5860380E-03
4359630. -0.4961340E-01 -0.5227359E+00 -0.3045411E-03  0.4415668E-02 -0.5509954E-04 -0.6371795E-03
4323148. -0.4647560E-01 -0.5702573E+00 -0.3248601E-03  0.2708941E-02 -0.5134991E-04 -0.6694549E-03
4286667. -0.4311509E-01 -0.6007984E+00 -0.3359128E-03  0.1183889E-02 -0.4746515E-04 -0.6846781E-03
4250185. -0.3962438E-01 -0.6159980E+00 -0.3388072E-03 -0.1380502E-03 -0.4353988E-04 -0.6837430E-03
4213704. -0.3608620E-01 -0.6177390E+00 -0.3347395E-03 -0.1246966E-02 -0.3966255E-04 -0.6682920E-03
4177222. -0.3257170E-01 -0.6080384E+00 -0.3249353E-03 -0.2142193E-02 -0.3591094E-04 -0.6400164E-03
4140741. -0.2914066E-01 -0.5889610E+00 -0.3106007E-03 -0.2831251E-02 -0.3235525E-04 -0.6001433E-03
4104259. -0.2584078E-01 -0.5625321E+00 -0.2928790E-03 -0.3327670E-02 -0.2905722E-04 -0.5501392E-03
4067778. -0.2270872E-01 -0.5306816E+00 -0.2728256E-03 -0.3649141E-02 -0.2607372E-04 -0.4903781E-03
4031296. -0.1977020E-01 -0.4951934E+00 -0.2513822E-03 -0.3816580E-02 -0.2345915E-04 -0.4212461E-03
3994815. -0.1704149E-01 -0.4576757E+00 -0.2293686E-03 -0.3852266E-02 -0.2126881E-04 -0.3420203E-03
3958333. -0.1452994E-01 -0.4195364E+00 -0.2074726E-03 -0.3779127E-02 -0.1956468E-04 -0.2510723E-03
3921852. -0.1223571E-01 -0.3819795E+00 -0.1862537E-03 -0.3619657E-02 -0.1842080E-04 -0.1457758E-03
3885370. -0.1015239E-01 -0.3459979E+00 -0.1661424E-03 -0.3395660E-02 -0.1793102E-04 -0.2172167E-04
3848889. -0.8268704E-02 -0.3123849E+00 -0.1474484E-03 -0.3128283E-02 -0.1821977E-04  0.1273876E-03
3812407. -0.6569216E-02 -0.2817273E+00 -0.1303603E-03 -0.2837964E-02 -0.1945468E-04  0.3104806E-03
3775926. -0.5035880E-02 -0.2544152E+00 -0.1149513E-03 -0.2545533E-02 -0.2186349E-04  0.5397840E-03
3739444. -0.3648849E-02 -0.2306234E+00 -0.1011690E-03 -0.2273763E-02 -0.2575614E-04  0.8319208E-03
3702963. -0.2388108E-02 -0.2102822E+00 -0.8882077E-04 -0.2049807E-02 -0.3155309E-04  0.1209227E-02
3666482. -0.1234795E-02 -0.1930049E+00 -0.7753623E-04 -0.1909134E-02 -0.3982318E-04  0.1701414E-02
3630000. -0.1734570E-03 -0.1779620E+00 -0.6670423E-04 -0.1901573E-02 -0.5133197E-04  0.2347790E-02
3630000. -0.1734570E-03 -0.1779609E+00 -0.6670423E-04 -0.1901550E-02 -0.5133197E-04  0.2347790E-02
3592500.  0.8323554E-03 -0.1637162E+00 -0.5498962E-04 -0.2125855E-02 -0.6760330E-04  0.3220390E-02
3555000.  0.1749537E-02 -0.1472292E+00 -0.4098954E-04 -0.2703615E-02 -0.8977979E-04  0.4367286E-02
3517500.  0.2551911E-02 -0.1236950E+00 -0.2209590E-04 -0.3828600E-02 -0.1197225E-03  0.5875182E-02
3480000.  0.3176735E-02 -0.8524738E-01  0.5740902E-05 -0.5805289E-02 -0.1598547E-03  0.7848258E-02
3480000.  0.3176735E-02  0.1403687E+00  0.1196662E-03  0.5594636E-02 -0.1598547E-03 -0.2144443E-02
3409422.  0.1918941E-02  0.8981316E-01  0.7038092E-04  0.3453470E-02 -0.1241864E-03 -0.3741972E-02
3338844.  0.1126554E-02  0.5558646E-01  0.4035257E-04  0.2072326E-02 -0.8419763E-04 -0.3310132E-02
3268266.  0.6432299E-03  0.3333682E-01  0.2255917E-04  0.1209813E-02 -0.5253084E-04 -0.2391834E-02
3197688.  0.3573635E-03  0.1939763E-01  0.1229837E-04  0.6874807E-03 -0.3086420E-04 -0.1552683E-02
3127109.  0.1932378E-03  0.1096007E-01  0.6537583E-05  0.3803743E-03 -0.1728216E-04 -0.9382671E-03
3056531.  0.1017067E-03  0.6016734E-02  0.3388132E-05  0.2049395E-03 -0.9285073E-05 -0.5367901E-03
2985953.  0.5209998E-04  0.3210041E-02  0.1711353E-05  0.1075162E-03 -0.4805725E-05 -0.2934116E-03
2915375.  0.2596850E-04  0.1664523E-02  0.8421142E-06  0.5491137E-04 -0.2401969E-05 -0.1540414E-03
2844797.  0.1258944E-04  0.8387631E-03  0.4034782E-06  0.2729200E-04 -0.1160961E-05 -0.7791983E-04
2774219.  0.5933141E-05  0.4106043E-03  0.1881057E-06  0.1319404E-04 -0.5430212E-06 -0.3804567E-04
2703641.  0.2716381E-05  0.1951792E-03  0.8526679E-07  0.6200322E-05 -0.2458413E-06 -0.1794869E-04
2633062.  0.1207173E-05  0.9002994E-04  0.3754574E-07  0.2830132E-05 -0.1077084E-06 -0.8184380E-05
2562484.  0.5202599E-06  0.4026680E-04  0.1604390E-07  0.1253640E-05 -0.4564560E-07 -0.3606934E-05
2491906.  0.2172022E-06  0.1744590E-04  0.6645379E-08  0.5383343E-06 -0.1869684E-07 -0.1535650E-05
2421328.  0.8773257E-07  0.7313744E-05  0.2664556E-08  0.2238328E-06 -0.7394721E-08 -0.6311329E-06
2350750.  0.3423727E-07  0.2962960E-05  0.1032743E-08  0.8999102E-07 -0.2820485E-08 -0.2501366E-06
2280172.  0.1288816E-07  0.1158275E-05  0.3862915E-09  0.3493121E-07 -0.1035950E-08 -0.9547807E-07
2209594.  0.4671589E-08  0.4361874E-06  0.1391889E-09  0.1306834E-07 -0.3657878E-09 -0.3504539E-07
2139016.  0.1627257E-08  0.1579401E-06  0.4821492E-10  0.4703086E-08 -0.1239229E-09 -0.1234746E-07
2068438.  0.5434989E-09  0.5487186E-07  0.1602014E-10  0.1624669E-08 -0.4019265E-10 -0.4167189E-08
1997859.  0.1736213E-09  0.1824753E-07  0.5092819E-11  0.5374164E-09 -0.1244868E-10 -0.1343983E-08
1927281.  0.5290185E-10  0.5793039E-08  0.1544716E-11  0.1697691E-09 -0.3671744E-11 -0.4131196E-09
1856703.  0.1532624E-10  0.1750421E-08  0.4456170E-12  0.5106020E-10 -0.1028032E-11 -0.1206591E-09
1786125.  0.4206959E-11  0.5016921E-09  0.1218313E-12  0.1457133E-10 -0.2722500E-12 -0.3336948E-10
1715547.  0.1089818E-11  0.1358668E-09  0.3144099E-13  0.3930474E-11 -0.6791762E-13 -0.8704765E-11
1644969.  0.2653695E-12  0.3459824E-10  0.7620961E-14  0.9982691E-12 -0.1587905E-13 -0.2133472E-11
1574391.  0.0000000E+00  0.0000000E+00  0.0000000E+00  0.0000000E+00  0.0000000E+00  0.0000000E+00
1503812.  0.0000000E+00  0.0000000E+00  0.0000000E+00  0.0000000E+00  0.0000000E+00  0.0000000E+00
1433234.  0.0000000E+00  0.0000000E+00  0.0000000E+00  0.0000000E+00  0.0000000E+00  0.0000000E+00
1362656.  0.0000000E+00  0.0000000E+00  0.0000000E+00  0.0000000E+00  0.0000000E+00  0.0000000E+00
1292078.  0.0000000E+00  0.0000000E+00  0.0000000E+00  0.0000000E+00  0.0000000E+00  0.0000000E+00
1221500.  0.0000000E+00  0.0000000E+00  0.0000000E+00  0.0000000E+00  0.0000000E+00  0.0000000E+00
1221500.  0.0000000E+00  0.0000000E+00  0.0000000E+00  0.0000000E+00  0.0000000E+00  0.0000000E+00
1183328.  0.0000000E+00  0.0000000E+00  0.0000000E+00  0.0000000E+00  0.0000000E+00  0.0000000E+00
1145156.  0.0000000E+00  0.0000000E+00  0.0000000E+00  0.0000000E+00  0.0000000E+00  0.0000000E+00
1106984.  0.0000000E+00  0.0000000E+00  0.0000000E+00  0.0000000E+00  0.0000000E+00  0.0000000E+00
1068812.  0.0000000E+00  0.0000000E+00  0.0000000E+00  0.0000000E+00  0.0000000E+00  0.0000000E+00
1030641.  0.0000000E+00  0.0000000E+00  0.0000000E+00  0.0000000E+00  0.0000000E+00  0.0000000E+00
 992469.  0.0000000E+00  0.0000000E+00  0.0000000E+00  0.0000000E+00  0.0000000E+00  0.0000000E+00
 954297.  0.0000000E+00  0.0000000E+00  0.0000000E+00  0.0000000E+00  0.0000000E+00  0.0000000E+00
 916125.  0.0000000E+00  0.0000000E+00  0.0000000E+00  0.0000000E+00  0.0000000E+00  0.0000000E+00
 877953.  0.0000000E+00  0.0000000E+00  0.0000000E+00  0.0000000E+00  0.0000000E+00  0.0000000E+00
 839781.  0.0000000E+00  0.0000000E+00  0.0000000E+00  0.0000000E+00  0.0000000E+00  0.0000000E+00
 801609.  0.0000000E+00  0.0000000E+00  0.0000000E+00  0.0000000E+00  0.0000000E+00  0.0000000E+00
 763438.  0.0000000E+00  0.0000000E+00  0.0000000E+00  0.0000000E+00  0.0000000E+00  0.0000000E+00
 725266.  0.0000000E+00  0.0000000E+00  0.0000000E+00  0.0000000E+00  0.0000000E+00  0.0000000E+00
 687094.  0.0000000E+00  0.0000000E+00  0.0000000E+00  0.0000000E+00  0.0000000E+00  0.0000000E+00
 648922.  0.0000000E+00  0.0000000E+00  0.0000000E+00  0.0000000E+00  0.0000000E+00  0.0000000E+00
 610750.  0.0000000E+00  0.0000000E+00  0.0000000E+00  0.0000000E+00  0.0000000E+00  0.0000000E+00
 572578.  0.0000000E+00  0.0000000E+00  0.0000000E+00  0.0000000E+00  0.0000000E+00  0.0000000E+00
 534406.  0.0000000E+00  0.0000000E+00  0.0000000E+00  0.0000000E+00  0.0000000E+00  0.0000000E+00
 496234.  0.0000000E+00  0.0000000E+00  0.0000000E+00  0.0000000E+00  0.0000000E+00  0.0000000E+00
 458062.  0.0000000E+00  0.0000000E+00  0.0000000E+00  0.0000000E+00  0.0000000E+00  0.0000000E+00
 419891.  0.0000000E+00  0.0000000E+00  0.0000000E+00  0.0000000E+00  0.0000000E+00  0.0000000E+00
 381719.  0.0000000E+00  0.0000000E+00  0.0000000E+00  0.0000000E+00  0.0000000E+00  0.0000000E+00
 343547.  0.0000000E+00  0.0000000E+00  0.0000000E+00  0.0000000E+00  0.0000000E+00  0.0000000E+00
 305375.  0.0000000E+00  0.0000000E+00  0.0000000E+00  0.0000000E+00  0.0000000E+00  0.0000000E+00
 267203.  0.0000000E+00  0.0000000E+00  0.0000000E+00  0.0000000E+00  0.0000000E+00  0.0000000E+00
 229031.  0.0000000E+00  0.0000000E+00  0.0000000E+00  0.0000000E+00  0.0000000E+00  0.0000000E+00
 190859.  0.0000000E+00  0.0000000E+00  0.0000000E+00  0.0000000E+00  0.0000000E+00  0.0000000E+00
 152688.  0.0000000E+00  0.0000000E+00  0.0000000E+00  0.0000000E+00  0.0000000E+00  0.0000000E+00
 114516.  0.0000000E+00  0.0000000E+00  0.0000000E+00  0.0000000E+00  0.0000000E+00  0.0000000E+00
  76344.  0.0000000E+00  0.0000000E+00  0.0000000E+00  0.0000000E+00  0.0000000E+00  0.0000000E+00
  38172.  0.0000000E+00  0.0000000E+00  0.0000000E+00  0.0000000E+00  0.0000000E+00  0.0000000E+00
      0.  0.0000000E+00  0.0000000E+00  0.0000000E+00  0.0000000E+00  0.0000000E+00  0.0000000E+00
