       5       28 S      344        134.26230         10.46137          6.46251        252.97009      185    7
6371000. -0.1981188E-01  0.9840024E+00  0.3034211E-02  0.2284609E-01 -0.9611226E-03  0.6523313E-01
6370000. -0.1996558E-01  0.9744002E+00  0.3030371E-02  0.2608550E-01 -0.9713376E-03  0.6492593E-01
6369000. -0.2011775E-01  0.9644502E+00  0.3026023E-02  0.2931818E-01 -0.9815043E-03  0.6461786E-01
6368000. -0.2026832E-01  0.9541534E+00  0.3021168E-02  0.3254350E-01 -0.9916226E-03  0.6430894E-01
6368000. -0.2026832E-01  0.9541534E+00  0.3021168E-02  0.3254350E-01 -0.9916226E-03  0.6430894E-01
6367000. -0.2041726E-01  0.9435109E+00  0.3015807E-02  0.3576085E-01 -0.1001692E-02  0.6399918E-01
6366000. -0.2056450E-01  0.9325239E+00  0.3009942E-02  0.3896965E-01 -0.1011713E-02  0.6368858E-01
6365000. -0.2070998E-01  0.9211938E+00  0.3003574E-02  0.4216928E-01 -0.1021686E-02  0.6337718E-01
6364000. -0.2085366E-01  0.9095218E+00  0.2996704E-02  0.4535913E-01 -0.1031609E-02  0.6306498E-01
6363000. -0.2099548E-01  0.8975094E+00  0.2989335E-02  0.4853861E-01 -0.1041483E-02  0.6275199E-01
6362000. -0.2113539E-01  0.8851581E+00  0.2981468E-02  0.5170712E-01 -0.1051308E-02  0.6243825E-01
6361000. -0.2127334E-01  0.8724695E+00  0.2973104E-02  0.5486407E-01 -0.1061084E-02  0.6212375E-01
6360000. -0.2140926E-01  0.8594452E+00  0.2964245E-02  0.5800885E-01 -0.1070810E-02  0.6180851E-01
6359000. -0.2154312E-01  0.8460870E+00  0.2954894E-02  0.6114088E-01 -0.1080487E-02  0.6149256E-01
6358000. -0.2167485E-01  0.8323966E+00  0.2945052E-02  0.6425957E-01 -0.1090114E-02  0.6117590E-01
6357000. -0.2180441E-01  0.8183759E+00  0.2934722E-02  0.6736433E-01 -0.1099691E-02  0.6085856E-01
6356000. -0.2193174E-01  0.8040269E+00  0.2923906E-02  0.7045458E-01 -0.1109219E-02  0.6054055E-01
6356000. -0.2193174E-01  0.7368679E+00  0.2923906E-02  0.5240221E-01 -0.1109219E-02  0.6531264E-01
6355000. -0.2204661E-01  0.7267699E+00  0.2915540E-02  0.5420090E-01 -0.1119439E-02  0.6491828E-01
6354000. -0.2215988E-01  0.7164844E+00  0.2906892E-02  0.5599200E-01 -0.1129598E-02  0.6452387E-01
6353000. -0.2227152E-01  0.7060127E+00  0.2897963E-02  0.5777529E-01 -0.1139695E-02  0.6412941E-01
6352000. -0.2238150E-01  0.6953555E+00  0.2888755E-02  0.5955056E-01 -0.1149730E-02  0.6373493E-01
6351000. -0.2248980E-01  0.6845141E+00  0.2879269E-02  0.6131760E-01 -0.1159703E-02  0.6334041E-01
6350000. -0.2259638E-01  0.6734894E+00  0.2869507E-02  0.6307622E-01 -0.1169614E-02  0.6294589E-01
6349000. -0.2270121E-01  0.6622825E+00  0.2859468E-02  0.6482620E-01 -0.1179463E-02  0.6255135E-01
6348000. -0.2280428E-01  0.6508946E+00  0.2849157E-02  0.6656733E-01 -0.1189250E-02  0.6215682E-01
6347000. -0.2290553E-01  0.6393266E+00  0.2838572E-02  0.6829942E-01 -0.1198975E-02  0.6176230E-01
6346600. -0.2294553E-01  0.6346494E+00  0.2834262E-02  0.6898967E-01 -0.1202848E-02  0.6160449E-01
6346600. -0.2294553E-01  0.8333961E+00  0.2834262E-02  0.5498477E-01 -0.1202848E-02  0.6960526E-01
6318800. -0.2599420E-01  0.5484088E+00  0.2531163E-02  0.8305703E-01 -0.1481896E-02  0.5835931E-01
6291000. -0.2760915E-01  0.1795441E+00  0.2118400E-02  0.1049696E+00 -0.1712689E-02  0.4748264E-01
6291000. -0.2760915E-01  0.1951025E+00  0.2118400E-02  0.1076020E+00 -0.1712689E-02  0.4748264E-01
6263000. -0.2750280E-01 -0.2520128E+00  0.1608683E-02  0.1228715E+00 -0.1898276E-02  0.3702294E-01
6235000. -0.2534327E-01 -0.7335886E+00  0.1052042E-02  0.1288388E+00 -0.2038543E-02  0.2685578E-01
6207000. -0.2105625E-01 -0.1214031E+01  0.4903751E-03  0.1251626E+00 -0.2134749E-02  0.1697238E-01
6179000. -0.1472825E-01 -0.1656216E+01 -0.3451942E-04  0.1122292E+00 -0.2188157E-02  0.7383435E-02
6151000. -0.6607184E-02 -0.2024280E+01 -0.4841056E-03  0.9112944E-01 -0.2200132E-02 -0.1874166E-02
6151000. -0.6607184E-02 -0.1663067E+01 -0.4841056E-03  0.8083232E-01 -0.2200132E-02 -0.1508621E-02
6128500. -0.4395658E-03 -0.1820081E+01 -0.7376291E-03  0.6234359E-01 -0.2187417E-02 -0.5607502E-02
6106000.  0.6176147E-02 -0.1915921E+01 -0.9221862E-03  0.4192884E-01 -0.2161127E-02 -0.9195376E-02
6083500.  0.1301576E-01 -0.1946410E+01 -0.1032614E-02  0.2051993E-01 -0.2123079E-02 -0.1226498E-01
6061000.  0.1984507E-01 -0.1910071E+01 -0.1067056E-02 -0.9489163E-03 -0.2075111E-02 -0.1481313E-01
6038500.  0.2642945E-01 -0.1808129E+01 -0.1026903E-02 -0.2157854E-01 -0.2019064E-02 -0.1684002E-01
6016000.  0.3254320E-01 -0.1644372E+01 -0.9166097E-03 -0.4053997E-01 -0.1956776E-02 -0.1834876E-01
5993500.  0.3797819E-01 -0.1424933E+01 -0.7433872E-03 -0.5710397E-01 -0.1890065E-02 -0.1934544E-01
5971000.  0.4255168E-01 -0.1158003E+01 -0.5168112E-03 -0.7066508E-01 -0.1820729E-02 -0.1983681E-01
5971000.  0.4255168E-01 -0.1064725E+01 -0.5168112E-03 -0.6794270E-01 -0.1820729E-02 -0.2540718E-01
5937667.  0.4696694E-01 -0.6173362E+00 -0.1298214E-03 -0.7871199E-01 -0.1688160E-02 -0.2510450E-01
5904333.  0.4898153E-01 -0.1525848E+00  0.2939106E-03 -0.8208430E-01 -0.1559568E-02 -0.2392085E-01
5871000.  0.4858835E-01  0.2981897E+00  0.7176687E-03 -0.7890236E-01 -0.1439021E-02 -0.2206482E-01
5837667.  0.4593164E-01  0.7087902E+00  0.1110184E-02 -0.7036009E-01 -0.1329520E-02 -0.1972737E-01
5804333.  0.4127676E-01  0.1059139E+01  0.1446960E-02 -0.5782533E-01 -0.1233146E-02 -0.1707067E-01
5771000.  0.3497780E-01  0.1335568E+01  0.1710754E-02 -0.4269420E-01 -0.1151220E-02 -0.1422369E-01
5771000.  0.3497780E-01  0.1335654E+01  0.1710754E-02 -0.4269401E-01 -0.1151220E-02 -0.1422369E-01
5701000.  0.1791674E-01  0.1708666E+01  0.1981232E-02 -0.5421768E-02 -0.1041444E-02 -0.5467059E-02
5701000.  0.1791674E-01  0.1493205E+01  0.1981232E-02 -0.8017643E-02 -0.1041444E-02 -0.1051714E-01
5667333.  0.9913126E-02  0.1525832E+01  0.1992604E-02  0.3560815E-02 -0.9876506E-03 -0.9879505E-02
5633667.  0.1889182E-02  0.1501990E+01  0.1945579E-02  0.1401749E-01 -0.9365932E-03 -0.9491113E-02
5600000. -0.5874518E-02  0.1428510E+01  0.1847012E-02  0.2302530E-01 -0.8868324E-03 -0.9393211E-02
5600000. -0.5874518E-02  0.1428562E+01  0.1847012E-02  0.2302598E-01 -0.8868324E-03 -0.9393211E-02
5563518. -0.1378190E-01  0.1324924E+01  0.1689737E-02  0.3170140E-01 -0.8329576E-03 -0.9409173E-02
5527037. -0.2095784E-01  0.1174243E+01  0.1486567E-02  0.3901283E-01 -0.7792033E-03 -0.9357084E-02
5490556. -0.2715324E-01  0.9837446E+00  0.1245991E-02  0.4473668E-01 -0.7258759E-03 -0.9263679E-02
5454074. -0.3216365E-01  0.7617513E+00  0.9775227E-03  0.4873695E-01 -0.6731571E-03 -0.9146149E-02
5417593. -0.3583405E-01  0.5172922E+00  0.6912328E-03  0.5096203E-01 -0.6211591E-03 -0.9013430E-02
5381111. -0.3806257E-01  0.2596559E+00  0.3972282E-03  0.5143922E-01 -0.5699535E-03 -0.8869144E-02
5344630. -0.3880012E-01 -0.1955077E-02  0.1052888E-03  0.5026470E-01 -0.5196091E-03 -0.8712820E-02
5308148. -0.3804924E-01 -0.2588175E+00 -0.1755594E-03  0.4759242E-01 -0.4701996E-03 -0.8541477E-02
5271667. -0.3586050E-01 -0.5029267E+00 -0.4372768E-03  0.4362167E-01 -0.4218266E-03 -0.8350483E-02
5235185. -0.3232734E-01 -0.7272858E+00 -0.6730921E-03  0.3858364E-01 -0.3746134E-03 -0.8135167E-02
5198704. -0.2758044E-01 -0.9260289E+00 -0.8775931E-03  0.3272923E-01 -0.3287153E-03 -0.7890989E-02
5162222. -0.2177994E-01 -0.1094580E+01 -0.1046853E-02  0.2631587E-01 -0.2843043E-03 -0.7614843E-02
5125741. -0.1510904E-01 -0.1229662E+01 -0.1178393E-02  0.1959774E-01 -0.2415736E-03 -0.7304340E-02
5089259. -0.7765216E-02 -0.1329332E+01 -0.1271171E-02  0.1281490E-01 -0.2007193E-03 -0.6959075E-02
5052778.  0.4578484E-04 -0.1392897E+01 -0.1325453E-02  0.6186902E-02 -0.1619410E-03 -0.6579960E-02
5016296.  0.8118518E-02 -0.1420844E+01 -0.1342690E-02 -0.9465207E-04 -0.1254239E-03 -0.6169423E-02
4979815.  0.1625250E-01 -0.1414702E+01 -0.1325341E-02 -0.5868773E-02 -0.9133996E-04 -0.5731211E-02
4943333.  0.2425953E-01 -0.1376892E+01 -0.1276691E-02 -0.1100891E-01 -0.5983189E-04 -0.5270303E-02
4906852.  0.3196656E-01 -0.1310574E+01 -0.1200654E-02 -0.1542232E-01 -0.3101618E-04 -0.4792101E-02
4870370.  0.3922117E-01 -0.1219453E+01 -0.1101570E-02 -0.1905074E-01 -0.4971984E-05 -0.4303210E-02
4833889.  0.4589248E-01 -0.1107616E+01 -0.9840303E-03 -0.2186759E-01  0.1825818E-04 -0.3810492E-02
4797407.  0.5187451E-01 -0.9793658E+00 -0.8526817E-03 -0.2387514E-01  0.3867031E-04 -0.3319805E-02
4760926.  0.5708545E-01 -0.8390667E+00 -0.7120974E-03 -0.2510128E-01  0.5629518E-04 -0.2838291E-02
4724444.  0.6146885E-01 -0.6909822E+00 -0.5666113E-03 -0.2559557E-01  0.7120380E-04 -0.2371828E-02
4687963.  0.6499171E-01 -0.5391906E+00 -0.4202398E-03 -0.2542414E-01  0.8349712E-04 -0.1925867E-02
4651482.  0.6764383E-01 -0.3874494E+00 -0.2765695E-03 -0.2466605E-01  0.9330810E-04 -0.1505538E-02
4615000.  0.6943542E-01 -0.2391317E+00 -0.1387091E-03 -0.2340857E-01  0.1007952E-03 -0.1114749E-02
4578518.  0.7039464E-01 -0.9717643E-01 -0.9260554E-05 -0.2174356E-01  0.1061383E-03 -0.7571724E-03
4542037.  0.7056519E-01  0.3595582E-01  0.1097053E-03 -0.1976370E-01  0.1095333E-03 -0.4346522E-03
4505556.  0.7000346E-01  0.1583055E+00  0.2166486E-03 -0.1755904E-01  0.1111870E-03 -0.1491925E-03
4469074.  0.6877562E-01  0.2684052E+00  0.3105320E-03 -0.1521498E-01  0.1113141E-03  0.9843909E-04
4432593.  0.6695494E-01  0.3652552E+00  0.3907804E-03 -0.1280988E-01  0.1101333E-03  0.3075252E-03
4396111.  0.6461895E-01  0.4483146E+00  0.4572526E-03 -0.1041344E-01  0.1078663E-03  0.4780266E-03
4359630.  0.6184734E-01  0.5174419E+00  0.5101715E-03 -0.8085913E-02  0.1047289E-03  0.6116393E-03
4323148.  0.5871923E-01  0.5728648E+00  0.5500841E-03 -0.5877701E-02  0.1009330E-03  0.7081302E-03
4286667.  0.5531188E-01  0.6151193E+00  0.5777892E-03 -0.3828276E-02  0.9668589E-04  0.7695350E-03
4250185.  0.5169834E-01  0.6450012E+00  0.5942887E-03 -0.1967878E-02  0.9218648E-04  0.7962825E-03
4213704.  0.4794687E-01  0.6635110E+00  0.6007266E-03 -0.3168145E-03  0.8763101E-04  0.7893541E-03
4177222.  0.4411913E-01  0.6718023E+00  0.5983402E-03  0.1112958E-02  0.8320958E-04  0.7494190E-03
4140741.  0.4027030E-01  0.6711342E+00  0.5884111E-03  0.2317759E-02  0.7911231E-04  0.6761494E-03
4104259.  0.3644770E-01  0.6628229E+00  0.5722206E-03  0.3300710E-02  0.7553044E-04  0.5691268E-03
4067778.  0.3269151E-01  0.6482017E+00  0.5510180E-03  0.4070459E-02  0.7266372E-04  0.4259618E-03
4031296.  0.2903385E-01  0.6285866E+00  0.5259849E-03  0.4641119E-02  0.7072670E-04  0.2437502E-03
3994815.  0.2549986E-01  0.6052441E+00  0.4982128E-03  0.5030624E-02  0.6995654E-04  0.1738181E-04
3958333.  0.2210727E-01  0.5793617E+00  0.4686773E-03  0.5260664E-02  0.7062570E-04 -0.2603187E-03
3921852.  0.1886761E-01  0.5520269E+00  0.4382240E-03  0.5355761E-02  0.7305374E-04 -0.5988288E-03
3885370.  0.1578623E-01  0.5242003E+00  0.4075466E-03  0.5343572E-02  0.7762481E-04 -0.1011279E-02
3848889.  0.1286369E-01  0.4966991E+00  0.3771732E-03  0.5255362E-02  0.8480868E-04 -0.1514700E-02
3812407.  0.1009605E-01  0.4701577E+00  0.3474389E-03  0.5126392E-02  0.9518756E-04 -0.2131308E-02
3775926.  0.7476648E-02  0.4450010E+00  0.3184640E-03  0.4997859E-02  0.1094870E-03 -0.2889489E-02
3739444.  0.4996812E-02  0.4213867E+00  0.2901067E-03  0.4919617E-02  0.1286181E-03 -0.3825502E-02
3702963.  0.2648184E-02  0.3991320E+00  0.2619094E-03  0.4953948E-02  0.1537243E-03 -0.4985206E-02
3666482.  0.4244894E-03  0.3775973E+00  0.2330062E-03  0.5181508E-02  0.1862460E-03 -0.6426340E-02
3630000. -0.1675178E-02  0.3555174E+00  0.2019976E-03  0.5709783E-02  0.2279955E-03 -0.8221250E-02
3630000. -0.1675178E-02  0.3555154E+00  0.2019976E-03  0.5709756E-02  0.2279955E-03 -0.8221250E-02
3592500. -0.3697965E-02  0.3310410E+00  0.1656355E-03  0.6744820E-02  0.2828964E-03 -0.1051626E-01
3555000. -0.5558922E-02  0.2997295E+00  0.1211890E-03  0.8500691E-02  0.3528929E-03 -0.1337218E-01
3517500. -0.7201472E-02  0.2556183E+00  0.6353665E-04  0.1129474E-01  0.4416937E-03 -0.1693167E-01
3480000. -0.8525611E-02  0.1897196E+00 -0.1468922E-04  0.1558135E-01  0.5539247E-03 -0.2136395E-01
3480000. -0.8525611E-02 -0.2837037E+00 -0.4140545E-03 -0.1484304E-01  0.5539247E-03  0.5454115E-02
3409422. -0.5828610E-02 -0.2061422E+00 -0.2755911E-03 -0.1037338E-01  0.4627507E-03  0.9932998E-02
3338844. -0.3895161E-02 -0.1456306E+00 -0.1798486E-03 -0.7088006E-02  0.3499450E-03  0.9975026E-02
3268266. -0.2546195E-02 -0.1002150E+00 -0.1150961E-03 -0.4738598E-02  0.2479072E-03  0.8303359E-02
3197688. -0.1628760E-02 -0.6726482E-01 -0.7223598E-04 -0.3101071E-02  0.1672703E-03  0.6256764E-02
3127109. -0.1019846E-02 -0.4407882E-01 -0.4445946E-04 -0.1987209E-02  0.1084812E-03  0.4414457E-02
3056531. -0.6251388E-03 -0.2821909E-01 -0.2683101E-04 -0.1247147E-02  0.6799258E-04  0.2964513E-02
2985953. -0.3751183E-03 -0.1765617E-01 -0.1587328E-04 -0.7665439E-03  0.4132377E-04  0.1912013E-02
2915375. -0.2203146E-03 -0.1079878E-01 -0.9202625E-05 -0.4613714E-03  0.2440544E-04  0.1190712E-02
2844797. -0.1266147E-03 -0.6456312E-02 -0.5226269E-05 -0.2718682E-03  0.1402437E-04  0.7183308E-03
2774219. -0.7117456E-04 -0.3772804E-02 -0.2905946E-05 -0.1567875E-03  0.7847035E-05  0.4206529E-03
2703641. -0.3911578E-04 -0.2154221E-02 -0.1581031E-05 -0.8845300E-04  0.4276489E-05  0.2394011E-03
2633062. -0.2100396E-04 -0.1201369E-02 -0.8410994E-06 -0.4878821E-04  0.2269966E-05  0.1324948E-03
2562484. -0.1101214E-04 -0.6540195E-03 -0.4371942E-06 -0.2629282E-04  0.1173247E-05  0.7132399E-04
2491906. -0.5632501E-05 -0.3473228E-03 -0.2218350E-06 -0.1383361E-04  0.5901697E-06  0.3734001E-04
2421328. -0.2807888E-05 -0.1797842E-03 -0.1097689E-06 -0.7099366E-05  0.2887187E-06  0.1900356E-04
2350750. -0.1362829E-05 -0.9062178E-04 -0.5290959E-07 -0.3550150E-05  0.1372445E-06  0.9395753E-05
2280172. -0.6432213E-06 -0.4443259E-04 -0.2481135E-07 -0.1727884E-05  0.6332371E-07  0.4509021E-05
2209594. -0.2948125E-06 -0.2116493E-04 -0.1130368E-07 -0.8174437E-06  0.2832283E-07  0.2098027E-05
2139016. -0.1310193E-06 -0.9780561E-05 -0.4995335E-08 -0.3753542E-06  0.1226215E-07  0.9452543E-06
2068438. -0.5636206E-07 -0.4377727E-05 -0.2137618E-08 -0.1670142E-06  0.5130109E-08  0.4117455E-06
1997859. -0.2342410E-07 -0.1894453E-05 -0.8840306E-09 -0.7187727E-07  0.2070049E-08  0.1730925E-06
1927281. -0.9385179E-08 -0.7910390E-06 -0.3525691E-09 -0.2985862E-07  0.8038961E-09  0.7008546E-07
1856703. -0.3616378E-08 -0.3179746E-06 -0.1352696E-09 -0.1194477E-07  0.2997202E-09  0.2726906E-07
1786125. -0.1336530E-08 -0.1227287E-06 -0.4979075E-10 -0.4589690E-08  0.1069859E-09  0.1016868E-07
1715547. -0.4723118E-09 -0.4535130E-07 -0.1752886E-10 -0.1688917E-08  0.3644758E-10  0.3623386E-08
1644969. -0.1590448E-09 -0.1599137E-07 -0.5881719E-11 -0.5932064E-09  0.1180853E-10  0.1229539E-08
1574391. -0.5083238E-10 -0.5360377E-08 -0.1873631E-11 -0.1981210E-09  0.3623648E-11  0.3957874E-09
1503812. -0.1535086E-10 -0.1700743E-08 -0.5640618E-12 -0.6264647E-10  0.1048323E-11  0.1203189E-09
1433234. -0.4357927E-11 -0.5082377E-09 -0.1596580E-12 -0.1866264E-10  0.2844008E-12  0.3436863E-10
1362656. -0.1156565E-11 -0.1421629E-09 -0.4221838E-13 -0.5210233E-11  0.7187335E-13  0.9174402E-11
1292078.  0.0000000E+00  0.0000000E+00  0.0000000E+00  0.0000000E+00  0.0000000E+00  0.0000000E+00
1221500.  0.0000000E+00  0.0000000E+00  0.0000000E+00  0.0000000E+00  0.0000000E+00  0.0000000E+00
1221500.  0.0000000E+00  0.0000000E+00  0.0000000E+00  0.0000000E+00  0.0000000E+00  0.0000000E+00
1183328.  0.0000000E+00  0.0000000E+00  0.0000000E+00  0.0000000E+00  0.0000000E+00  0.0000000E+00
1145156.  0.0000000E+00  0.0000000E+00  0.0000000E+00  0.0000000E+00  0.0000000E+00  0.0000000E+00
1106984.  0.0000000E+00  0.0000000E+00  0.0000000E+00  0.0000000E+00  0.0000000E+00  0.0000000E+00
1068812.  0.0000000E+00  0.0000000E+00  0.0000000E+00  0.0000000E+00  0.0000000E+00  0.0000000E+00
1030641.  0.0000000E+00  0.0000000E+00  0.0000000E+00  0.0000000E+00  0.0000000E+00  0.0000000E+00
 992469.  0.0000000E+00  0.0000000E+00  0.0000000E+00  0.0000000E+00  0.0000000E+00  0.0000000E+00
 954297.  0.0000000E+00  0.0000000E+00  0.0000000E+00  0.0000000E+00  0.0000000E+00  0.0000000E+00
 916125.  0.0000000E+00  0.0000000E+00  0.0000000E+00  0.0000000E+00  0.0000000E+00  0.0000000E+00
 877953.  0.0000000E+00  0.0000000E+00  0.0000000E+00  0.0000000E+00  0.0000000E+00  0.0000000E+00
 839781.  0.0000000E+00  0.0000000E+00  0.0000000E+00  0.0000000E+00  0.0000000E+00  0.0000000E+00
 801609.  0.0000000E+00  0.0000000E+00  0.0000000E+00  0.0000000E+00  0.0000000E+00  0.0000000E+00
 763438.  0.0000000E+00  0.0000000E+00  0.0000000E+00  0.0000000E+00  0.0000000E+00  0.0000000E+00
 725266.  0.0000000E+00  0.0000000E+00  0.0000000E+00  0.0000000E+00  0.0000000E+00  0.0000000E+00
 687094.  0.0000000E+00  0.0000000E+00  0.0000000E+00  0.0000000E+00  0.0000000E+00  0.0000000E+00
 648922.  0.0000000E+00  0.0000000E+00  0.0000000E+00  0.0000000E+00  0.0000000E+00  0.0000000E+00
 610750.  0.0000000E+00  0.0000000E+00  0.0000000E+00  0.0000000E+00  0.0000000E+00  0.0000000E+00
 572578.  0.0000000E+00  0.0000000E+00  0.0000000E+00  0.0000000E+00  0.0000000E+00  0.0000000E+00
 534406.  0.0000000E+00  0.0000000E+00  0.0000000E+00  0.0000000E+00  0.0000000E+00  0.0000000E+00
 496234.  0.0000000E+00  0.0000000E+00  0.0000000E+00  0.0000000E+00  0.0000000E+00  0.0000000E+00
 458062.  0.0000000E+00  0.0000000E+00  0.0000000E+00  0.0000000E+00  0.0000000E+00  0.0000000E+00
 419891.  0.0000000E+00  0.0000000E+00  0.0000000E+00  0.0000000E+00  0.0000000E+00  0.0000000E+00
 381719.  0.0000000E+00  0.0000000E+00  0.0000000E+00  0.0000000E+00  0.0000000E+00  0.0000000E+00
 343547.  0.0000000E+00  0.0000000E+00  0.0000000E+00  0.0000000E+00  0.0000000E+00  0.0000000E+00
 305375.  0.0000000E+00  0.0000000E+00  0.0000000E+00  0.0000000E+00  0.0000000E+00  0.0000000E+00
 267203.  0.0000000E+00  0.0000000E+00  0.0000000E+00  0.0000000E+00  0.0000000E+00  0.0000000E+00
 229031.  0.0000000E+00  0.0000000E+00  0.0000000E+00  0.0000000E+00  0.0000000E+00  0.0000000E+00
 190859.  0.0000000E+00  0.0000000E+00  0.0000000E+00  0.0000000E+00  0.0000000E+00  0.0000000E+00
 152688.  0.0000000E+00  0.0000000E+00  0.0000000E+00  0.0000000E+00  0.0000000E+00  0.0000000E+00
 114516.  0.0000000E+00  0.0000000E+00  0.0000000E+00  0.0000000E+00  0.0000000E+00  0.0000000E+00
  76344.  0.0000000E+00  0.0000000E+00  0.0000000E+00  0.0000000E+00  0.0000000E+00  0.0000000E+00
  38172.  0.0000000E+00  0.0000000E+00  0.0000000E+00  0.0000000E+00  0.0000000E+00  0.0000000E+00
      0.  0.0000000E+00  0.0000000E+00  0.0000000E+00  0.0000000E+00  0.0000000E+00  0.0000000E+00
