      11       12 S      540        139.95171         22.88228         10.09299        368.04031      185    7
6371000. -0.2681882E-01  0.2814114E+00  0.4245340E-02  0.3106417E-01 -0.2452180E-03  0.5376187E-01
6370000. -0.2686216E-01  0.2707741E+00  0.4240063E-02  0.3617874E-01 -0.2536481E-03  0.5365475E-01
6369000. -0.2690382E-01  0.2600304E+00  0.4233983E-02  0.4128427E-01 -0.2620613E-03  0.5354484E-01
6368000. -0.2694379E-01  0.2491810E+00  0.4227104E-02  0.4637978E-01 -0.2704569E-03  0.5343216E-01
6368000. -0.2694379E-01  0.2491810E+00  0.4227104E-02  0.4637978E-01 -0.2704569E-03  0.5343216E-01
6367000. -0.2698204E-01  0.2382267E+00  0.4219424E-02  0.5146429E-01 -0.2788347E-03  0.5331670E-01
6366000. -0.2701857E-01  0.2271683E+00  0.4210948E-02  0.5653679E-01 -0.2871941E-03  0.5319848E-01
6365000. -0.2705335E-01  0.2160066E+00  0.4201677E-02  0.6159633E-01 -0.2955347E-03  0.5307750E-01
6364000. -0.2708637E-01  0.2047424E+00  0.4191613E-02  0.6664191E-01 -0.3038562E-03  0.5295376E-01
6363000. -0.2711762E-01  0.1933767E+00  0.4180757E-02  0.7167256E-01 -0.3121580E-03  0.5282728E-01
6362000. -0.2714707E-01  0.1819102E+00  0.4169114E-02  0.7668731E-01 -0.3204397E-03  0.5269805E-01
6361000. -0.2717472E-01  0.1703440E+00  0.4156685E-02  0.8168519E-01 -0.3287009E-03  0.5256609E-01
6360000. -0.2720054E-01  0.1586788E+00  0.4143472E-02  0.8666523E-01 -0.3369412E-03  0.5243140E-01
6359000. -0.2722452E-01  0.1469158E+00  0.4129479E-02  0.9162647E-01 -0.3451602E-03  0.5229399E-01
6358000. -0.2724665E-01  0.1350558E+00  0.4114709E-02  0.9656795E-01 -0.3533573E-03  0.5215387E-01
6357000. -0.2726692E-01  0.1230999E+00  0.4099166E-02  0.1014887E+00 -0.3615323E-03  0.5201104E-01
6356000. -0.2728529E-01  0.1110490E+00  0.4082851E-02  0.1063878E+00 -0.3696847E-03  0.5186551E-01
6356000. -0.2728529E-01  0.1331743E+00  0.4082851E-02  0.7667903E-01 -0.3696847E-03  0.5780248E-01
6355000. -0.2730552E-01  0.1245283E+00  0.4070563E-02  0.7989110E-01 -0.3787450E-03  0.5764385E-01
6354000. -0.2732438E-01  0.1158213E+00  0.4057772E-02  0.8309159E-01 -0.3877802E-03  0.5748313E-01
6353000. -0.2734187E-01  0.1070539E+00  0.4044480E-02  0.8628009E-01 -0.3967901E-03  0.5732033E-01
6352000. -0.2735799E-01  0.9822645E-01  0.4030687E-02  0.8945617E-01 -0.4057743E-03  0.5715546E-01
6351000. -0.2737271E-01  0.8933965E-01  0.4016398E-02  0.9261946E-01 -0.4147324E-03  0.5698851E-01
6350000. -0.2738603E-01  0.8039403E-01  0.4001613E-02  0.9576951E-01 -0.4236641E-03  0.5681951E-01
6349000. -0.2739794E-01  0.7139014E-01  0.3986334E-02  0.9890594E-01 -0.4325692E-03  0.5664844E-01
6348000. -0.2740844E-01  0.6232855E-01  0.3970564E-02  0.1020284E+00 -0.4414472E-03  0.5647532E-01
6347000. -0.2741751E-01  0.5320987E-01  0.3954306E-02  0.1051363E+00 -0.4502980E-03  0.5630016E-01
6346600. -0.2742073E-01  0.4954655E-01  0.3947666E-02  0.1063754E+00 -0.4538305E-03  0.5622953E-01
6346600. -0.2742073E-01  0.1569088E+00  0.3947666E-02  0.8204792E-01 -0.4538305E-03  0.6579074E-01
6318800. -0.2767687E-01 -0.4552653E-01  0.3452652E-02  0.1431935E+00 -0.7297659E-03  0.6048042E-01
6291000. -0.2697757E-01 -0.2793682E+00  0.2715588E-02  0.1922858E+00 -0.9799328E-03  0.5399317E-01
6291000. -0.2697757E-01 -0.2797807E+00  0.2715588E-02  0.1980401E+00 -0.9799328E-03  0.5399317E-01
6263000. -0.2517691E-01 -0.5420049E+00  0.1762468E-02  0.2325883E+00 -0.1200816E-02  0.4634637E-01
6235000. -0.2220440E-01 -0.8103406E+00  0.7001324E-03  0.2474258E+00 -0.1385838E-02  0.3769595E-01
6207000. -0.1807014E-01 -0.1067752E+01 -0.3818543E-03  0.2414957E+00 -0.1530903E-02  0.2819014E-01
6179000. -0.1286096E-01 -0.1296578E+01 -0.1393007E-02  0.2154380E+00 -0.1632630E-02  0.1800676E-01
6151000. -0.6740297E-02 -0.1479839E+01 -0.2249296E-02  0.1715306E+00 -0.1688490E-02  0.7354056E-02
6151000. -0.6740297E-02 -0.1220594E+01 -0.2249296E-02  0.1512410E+00 -0.1688490E-02  0.7726966E-02
6128500. -0.2303699E-02 -0.1286486E+01 -0.2713247E-02  0.1105601E+00 -0.1704250E-02  0.1210040E-02
6106000.  0.2306209E-02 -0.1318360E+01 -0.3024834E-02  0.6531616E-01 -0.1697167E-02 -0.5196613E-02
6083500.  0.6965988E-02 -0.1314567E+01 -0.3171831E-02  0.1772801E-01 -0.1667764E-02 -0.1141812E-01
6061000.  0.1154874E-01 -0.1274802E+01 -0.3149962E-02 -0.2993849E-01 -0.1616818E-02 -0.1738503E-01
6038500.  0.1592890E-01 -0.1200122E+01 -0.2962884E-02 -0.7547348E-01 -0.1545344E-02 -0.2303378E-01
6016000.  0.1998695E-01 -0.1092879E+01 -0.2621813E-02 -0.1168210E+00 -0.1454567E-02 -0.2830724E-01
5993500.  0.2361381E-01 -0.9566123E+00 -0.2144828E-02 -0.1521644E+00 -0.1345903E-02 -0.3315551E-01
5971000.  0.2671481E-01 -0.7959075E+00 -0.1555890E-02 -0.1800005E+00 -0.1220933E-02 -0.3753520E-01
5971000.  0.2671481E-01 -0.7300704E+00 -0.1555890E-02 -0.1634936E+00 -0.1220933E-02 -0.4103240E-01
5937667.  0.2985604E-01 -0.4682446E+00 -0.6446608E-03 -0.1818196E+00 -0.9916851E-03 -0.4639137E-01
5904333.  0.3160465E-01 -0.2006480E+00  0.3159232E-03 -0.1825487E+00 -0.7376515E-03 -0.5051043E-01
5871000.  0.3197483E-01  0.5606572E-01  0.1238017E-02 -0.1675223E+00 -0.4652087E-03 -0.5344265E-01
5837667.  0.3106171E-01  0.2878040E+00  0.2046357E-02 -0.1396053E+00 -0.1803659E-03 -0.5526458E-01
5804333.  0.2902594E-01  0.4836541E+00  0.2682418E-02 -0.1022668E+00  0.1113068E-03 -0.5606590E-01
5771000.  0.2607643E-01  0.6361672E+00  0.3106515E-02 -0.5920312E-01  0.4047040E-03 -0.5594348E-01
5771000.  0.2607643E-01  0.6361978E+00  0.3106515E-02 -0.5920202E-01  0.4047040E-03 -0.5594348E-01
5701000.  0.1778008E-01  0.8403132E+00  0.3228954E-02  0.3799809E-01  0.9980544E-03 -0.5140264E-01
5701000.  0.1778008E-01  0.7188104E+00  0.3228954E-02  0.2662240E-01  0.9980544E-03 -0.5641421E-01
5667333.  0.1391360E-01  0.7381613E+00  0.2991178E-02  0.6269219E-01  0.1292137E-02 -0.5478742E-01
5633667.  0.1004166E-01  0.7215899E+00  0.2574984E-02  0.9389509E-01  0.1576068E-02 -0.5258360E-01
5600000.  0.6342054E-02  0.6737853E+00  0.2009704E-02  0.1189396E+00  0.1846944E-02 -0.4985145E-01
5600000.  0.6342054E-02  0.6737962E+00  0.2009704E-02  0.1189455E+00  0.1846944E-02 -0.4985145E-01
5563518.  0.2681954E-02  0.5994263E+00  0.1259166E-02  0.1419289E+00  0.2122482E-02 -0.4626947E-01
5527037. -0.4704459E-03  0.4977144E+00  0.3998690E-03  0.1567652E+00  0.2375581E-02 -0.4202810E-01
5490556. -0.2980729E-02  0.3765468E+00 -0.5190694E-03  0.1626757E+00  0.2602668E-02 -0.3719543E-01
5454074. -0.4762290E-02  0.2446670E+00 -0.1445635E-02  0.1594266E+00  0.2800564E-02 -0.3184291E-01
5417593. -0.5779651E-02  0.1111506E+00 -0.2327945E-02  0.1473211E+00  0.2966495E-02 -0.2604541E-01
5381111. -0.6049048E-02 -0.1515678E-01 -0.3117412E-02  0.1271639E+00  0.3098142E-02 -0.1987985E-01
5344630. -0.5635513E-02 -0.1261119E+00 -0.3771249E-02  0.1001944E+00  0.3193616E-02 -0.1342602E-01
5308148. -0.4647513E-02 -0.2147547E+00 -0.4254881E-02  0.6799882E-01  0.3251504E-02 -0.6764714E-02
5271667. -0.3229241E-02 -0.2756460E+00 -0.4543515E-02  0.3241057E-01  0.3270851E-02  0.2147085E-04
5235185. -0.1550817E-02 -0.3051607E+00 -0.4623331E-02 -0.4604646E-02  0.3251176E-02  0.6850250E-02
5198704.  0.2022807E-03 -0.3016348E+00 -0.4491868E-02 -0.4105590E-01  0.3192476E-02  0.1363904E-01
5162222.  0.1841005E-02 -0.2654209E+00 -0.4157854E-02 -0.7504397E-01  0.3095206E-02  0.2030734E-01
5125741.  0.3183805E-02 -0.1988295E+00 -0.3640435E-02 -0.1048530E+00  0.2960290E-02  0.2677633E-01
5089259.  0.4067718E-02 -0.1059491E+00 -0.2967785E-02 -0.1290426E+00  0.2789076E-02  0.3297142E-01
5052778.  0.4357621E-02  0.7591492E-02 -0.2175453E-02 -0.1465086E+00  0.2583348E-02  0.3882194E-01
5016296.  0.3954242E-02  0.1349825E+00 -0.1304144E-02 -0.1565333E+00  0.2345253E-02  0.4426365E-01
4979815.  0.2799854E-02  0.2685935E+00 -0.3976012E-03 -0.1588056E+00  0.2077316E-02  0.4923853E-01
4943333.  0.8816040E-03  0.4004241E+00  0.4999225E-03 -0.1534245E+00  0.1782342E-02  0.5369690E-01
4906852. -0.1767280E-02  0.5225100E+00  0.1345777E-02 -0.1408797E+00  0.1463426E-02  0.5759725E-01
4870370. -0.5069411E-02  0.6273726E+00  0.2101234E-02 -0.1220096E+00  0.1123843E-02  0.6090781E-01
4833889. -0.8906498E-02  0.7083784E+00  0.2733156E-02 -0.9794883E-01  0.7670576E-03  0.6360624E-01
4797407. -0.1312598E-01  0.7601072E+00  0.3215660E-02 -0.7005911E-01  0.3965940E-03  0.6568040E-01
4760926. -0.1754789E-01  0.7785983E+00  0.3531079E-02 -0.3985459E-01  0.1605840E-04  0.6712822E-01
4724444. -0.2197475E-01  0.7615545E+00  0.3670687E-02 -0.8916433E-02 -0.3710013E-03  0.6795748E-01
4687963. -0.2620047E-01  0.7084519E+00  0.3634808E-02  0.2118075E-01 -0.7610662E-03  0.6818523E-01
4651482. -0.3002148E-01  0.6205513E+00  0.3432569E-02  0.4895274E-01 -0.1150773E-02  0.6783748E-01
4615000. -0.3324633E-01  0.5008305E+00  0.3081167E-02  0.7307187E-01 -0.1536931E-02  0.6694790E-01
4578518. -0.3570505E-01  0.3538423E+00  0.2604827E-02  0.9242472E-01 -0.1916539E-02  0.6555728E-01
4542037. -0.3725778E-01  0.1854897E+00  0.2033429E-02  0.1061600E+00 -0.2286847E-02  0.6371164E-01
4505556. -0.3780174E-01  0.2733591E-02  0.1400866E-02  0.1137209E+00 -0.2645406E-02  0.6146185E-01
4469074. -0.3727621E-01 -0.1867310E+00  0.7433345E-03  0.1148592E+00 -0.2990061E-02  0.5886156E-01
4432593. -0.3566588E-01 -0.3748094E+00  0.9761534E-04  0.1096372E+00 -0.3318948E-02  0.5596678E-01
4396111. -0.3300185E-01 -0.5534155E+00 -0.5007974E-03  0.9841365E-01 -0.3630558E-02  0.5283356E-01
4359630. -0.2936093E-01 -0.7147951E+00 -0.1019186E-02  0.8181752E-01 -0.3923667E-02  0.4951683E-01
4323148. -0.2486217E-01 -0.8518983E+00 -0.1429172E-02  0.6070728E-01 -0.4197395E-02  0.4607033E-01
4286667. -0.1966274E-01 -0.9586582E+00 -0.1707799E-02  0.3612721E-01 -0.4451130E-02  0.4254407E-01
4250185. -0.1395050E-01 -0.1030268E+01 -0.1838518E-02  0.9248159E-02 -0.4684562E-02  0.3898450E-01
4213704. -0.7937413E-02 -0.1063362E+01 -0.1811704E-02 -0.1868432E-01 -0.4897611E-02  0.3543333E-01
4177222. -0.1849583E-02 -0.1056153E+01 -0.1624926E-02 -0.4641416E-01 -0.5090442E-02  0.3192658E-01
4140741.  0.4080658E-02 -0.1008490E+01 -0.1282869E-02 -0.7272585E-01 -0.5263390E-02  0.2849493E-01
4104259.  0.9625445E-02 -0.9218454E+00 -0.7968890E-03 -0.9650239E-01 -0.5416966E-02  0.2516253E-01
4067778.  0.1456920E-01 -0.7992411E+00 -0.1844098E-03 -0.1167650E+00 -0.5551785E-02  0.2194756E-01
4031296.  0.1871830E-01 -0.6450918E+00  0.5321065E-03 -0.1327168E+00 -0.5668564E-02  0.1886173E-01
3994815.  0.2190750E-01 -0.4650314E+00  0.1326137E-02 -0.1437656E+00 -0.5768055E-02  0.1591069E-01
3958333.  0.2400703E-01 -0.2656314E+00  0.2168493E-02 -0.1495460E+00 -0.5851035E-02  0.1309362E-01
3921852.  0.2492660E-01 -0.5417395E-01  0.3028464E-02 -0.1499235E+00 -0.5918253E-02  0.1040443E-01
3885370.  0.2461901E-01  0.1617032E+00  0.3875326E-02 -0.1449937E+00 -0.5970411E-02  0.7830659E-02
3848889.  0.2308113E-01  0.3742671E+00  0.4679442E-02 -0.1350704E+00 -0.6008119E-02  0.5354708E-02
3812407.  0.2035345E-01  0.5760347E+00  0.5413629E-02 -0.1206619E+00 -0.6031876E-02  0.2953098E-02
3775926.  0.1651828E-01  0.7600126E+00  0.6054032E-02 -0.1024458E+00 -0.6042026E-02  0.5970990E-03
3739444.  0.1169541E-01  0.9200146E+00  0.6581149E-02 -0.8123333E-01 -0.6038735E-02 -0.1748081E-02
3702963.  0.6037838E-02  0.1050835E+01  0.6980362E-02 -0.5793419E-01 -0.6021950E-02 -0.4123338E-02
3666482. -0.2754095E-03  0.1148466E+01  0.7242484E-02 -0.3351438E-01 -0.5991365E-02 -0.6576642E-02
3630000. -0.7046092E-02  0.1210209E+01  0.7363920E-02 -0.8957936E-02 -0.5946375E-02 -0.9164216E-02
3630000. -0.7046092E-02  0.1210199E+01  0.7363920E-02 -0.8957559E-02 -0.5946375E-02 -0.9164216E-02
3592500. -0.1426445E-01  0.1235901E+01  0.7344318E-02  0.1545866E-01 -0.5884137E-02 -0.1202152E-01
3555000. -0.2151701E-01  0.1221844E+01  0.7184787E-02  0.3842599E-01 -0.5804319E-02 -0.1515303E-01
3517500. -0.2857170E-01  0.1168950E+01  0.6896656E-02  0.5900540E-01 -0.5705009E-02 -0.1866433E-01
3480000. -0.3520648E-01  0.1079709E+01  0.6496530E-02  0.7634767E-01 -0.5583607E-02 -0.2268313E-01
3480000. -0.3520648E-01  0.3027350E+00 -0.5347465E-03 -0.6346671E-01 -0.5583607E-02  0.8806197E-01
3409422. -0.3697934E-01  0.2147435E-01  0.2066996E-03 -0.6949078E-01 -0.6863482E-02  0.1381754E+00
3338844. -0.3581678E-01 -0.2236626E+00  0.9853262E-03 -0.7023188E-01 -0.8543454E-02  0.1608398E+00
3268266. -0.3222032E-01 -0.4158920E+00  0.1745159E-02 -0.6621825E-01 -0.1034034E-01  0.1600581E+00
3197688. -0.2682836E-01 -0.5471460E+00  0.2438068E-02 -0.5831376E-01 -0.1202175E-01  0.1408896E+00
3127109. -0.2032549E-01 -0.6168949E+00  0.3026697E-02 -0.4757572E-01 -0.1341433E-01  0.1088311E+00
3056531. -0.1336819E-01 -0.6304875E+00  0.3485846E-02 -0.3512481E-01 -0.1440542E-01  0.6927562E-01
2985953. -0.6529476E-02 -0.5972814E+00  0.3802582E-02 -0.2203553E-01 -0.1493956E-01  0.2708151E-01
2915375. -0.2650589E-03 -0.5288245E+00  0.3975227E-02 -0.9254628E-02 -0.1501072E-01 -0.1371749E-01
2844797.  0.5102019E-02 -0.4372840E+00  0.4011612E-02  0.2454306E-02 -0.1465218E-01 -0.5007008E-01
2774219.  0.9380874E-02 -0.3341714E+00  0.3926882E-02  0.1253700E-01 -0.1392540E-01 -0.7994489E-01
2703641.  0.1250031E-01 -0.2294676E+00  0.3741137E-02  0.2065078E-01 -0.1290890E-01 -0.1022709E+00
2633062.  0.1448865E-01 -0.1310927E+00  0.3477163E-02  0.2665132E-01 -0.1168831E-01 -0.1168089E+00
2562484.  0.1544932E-01 -0.4469007E-01  0.3158373E-02  0.3056415E-01 -0.1034812E-01 -0.1239805E+00
2491906.  0.1553589E-01  0.2631882E-01  0.2807121E-02  0.3254703E-01 -0.8965322E-02 -0.1246818E+00
2421328.  0.1492854E-01  0.8049815E-01  0.2443461E-02  0.3285239E-01 -0.7605202E-02 -0.1200983E+00
2350750.  0.1381398E-01  0.1180354E+00  0.2084296E-02  0.3179008E-01 -0.6319091E-02 -0.1115419E+00
2280172.  0.1236969E-01  0.1403404E+00  0.1742945E-02  0.2969154E-01 -0.5143721E-02 -0.1003160E+00
2209594.  0.1075273E-01  0.1496227E+00  0.1429070E-02  0.2688230E-01 -0.4101919E-02 -0.8761332E-01
2139016.  0.9093035E-02  0.1485123E+00  0.1148859E-02  0.2366036E-01 -0.3204234E-02 -0.7444960E-01
2068438.  0.7490579E-02  0.1397373E+00  0.9054228E-03  0.2028184E-01 -0.2451120E-02 -0.6162841E-01
1997859.  0.6015712E-02  0.1258816E+00  0.6993029E-03  0.1695269E-01 -0.1835342E-02 -0.4973279E-01
1927281.  0.4711866E-02  0.1092106E+00  0.5290603E-03  0.1382643E-01 -0.1344405E-02 -0.3913781E-01
1856703.  0.3599536E-02  0.9157742E-01  0.3918280E-03  0.1100636E-01 -0.9626716E-03 -0.3003607E-01
1786125.  0.2681197E-02  0.7438415E-01  0.2838518E-03  0.8551002E-02 -0.6732304E-03 -0.2247282E-01
1715547.  0.1946239E-02  0.5859702E-01  0.2009437E-03  0.6481439E-02 -0.4593130E-03 -0.1638313E-01
1644969.  0.1375557E-02  0.4479310E-01  0.1388506E-03  0.4789854E-02 -0.3053127E-03 -0.1162791E-01
1574391.  0.9455048E-03  0.3322802E-01  0.9352743E-04  0.3447769E-02 -0.1974240E-03 -0.8026022E-02
1503812.  0.6310215E-03  0.2391350E-01  0.6132310E-04  0.2413703E-02 -0.1239564E-03 -0.5380410E-02
1433234.  0.4079202E-03  0.1669516E-01  0.3908854E-04  0.1639659E-02 -0.7539801E-04 -0.3498115E-02
1362656.  0.2542971E-03  0.1132448E-01  0.2421871E-04  0.1075824E-02 -0.4428418E-04 -0.2203797E-02
1292078.  0.1512086E-03  0.7527686E-02  0.1465668E-04  0.6733977E-03 -0.2495268E-04 -0.1348722E-02
1221500.  0.8254715E-04  0.5081010E-02  0.8879960E-05  0.3842900E-03 -0.1321298E-04 -0.8169371E-03
1221500.  0.8254715E-04 -0.7071349E-02 -0.8088951E-05 -0.4727324E-03 -0.1321298E-04 -0.8526968E-03
1183328.  0.1199879E-03 -0.5378880E-02 -0.5210540E-05 -0.4807952E-03 -0.8918256E-05 -0.5949572E-03
1145156.  0.1466219E-03 -0.3495714E-02 -0.2411500E-05 -0.4470222E-03 -0.5938267E-05 -0.4101728E-03
1106984.  0.1618765E-03 -0.1611214E-02  0.7774421E-07 -0.3791161E-03 -0.3896132E-05 -0.2791194E-03
1068812.  0.1662695E-03  0.1043654E-03  0.2087158E-05 -0.2890590E-03 -0.2515525E-05 -0.1872604E-03
1030641.  0.1612260E-03  0.1521322E-02  0.3524194E-05 -0.1902911E-03 -0.1595885E-05 -0.1236935E-03
 992469.  0.1487938E-03  0.2562382E-02  0.4374957E-05 -0.9522786E-04 -0.9931457E-06 -0.8031668E-04
 954297.  0.1313209E-03  0.3204345E-02  0.4692172E-05 -0.1350345E-04 -0.6051220E-06 -0.5117644E-04
 916125.  0.1111460E-03  0.3471776E-02  0.4575461E-05  0.4895645E-04 -0.3602138E-06 -0.3193340E-04
 877953.  0.9034749E-04  0.3424730E-02  0.4148381E-05  0.9004191E-04 -0.2089864E-06 -0.1946925E-04
 839781.  0.7057439E-04  0.3143842E-02  0.3537040E-05  0.1108759E-03 -0.1178471E-06 -0.1156797E-04
 801609.  0.5296807E-04  0.2715664E-02  0.2853374E-05  0.1148900E-03 -0.6438697E-07 -0.6678275E-05
 763438.  0.3816555E-04  0.2220392E-02  0.2184665E-05  0.1067049E-03 -0.3396247E-07 -0.3733487E-05
 725266.  0.2636331E-04  0.1723415E-02  0.1589384E-05  0.9115204E-04 -0.1722128E-07 -0.2013321E-05
 687094.  0.1742307E-04  0.1271123E-02  0.1098490E-05  0.7249635E-04 -0.8353322E-08 -0.1042248E-05
 648922.  0.1098701E-04  0.8904880E-03  0.7202535E-06  0.5399390E-04 -0.3853320E-08 -0.5152971E-06
 610750.  0.6588243E-05  0.5915376E-03  0.4469092E-06  0.3773686E-04 -0.1678137E-08 -0.2416944E-06
 572578.  0.3740325E-05  0.3715423E-03  0.2614752E-06  0.2474002E-04 -0.6838421E-09 -0.1066763E-06
 534406.  0.1999564E-05  0.2197450E-03  0.1435493E-06  0.1517688E-04 -0.2577771E-09 -0.4386466E-07
 496234.  0.9997249E-06  0.1217024E-03  0.7347814E-07  0.8673767E-05 -0.8850216E-10 -0.1658485E-07
 458062.  0.4634398E-06  0.6265608E-04  0.3477801E-07  0.4588421E-05 -0.2707099E-10 -0.5659893E-08
 419891.  0.1970097E-06  0.2969882E-04  0.1505842E-07  0.2226663E-05 -0.7128190E-11 -0.1698349E-08
 381719.  0.7570306E-07  0.1279654E-04  0.5880773E-08  0.9791794E-06 -0.1515834E-11 -0.4284204E-09
 343547.  0.2580010E-07  0.4927653E-05  0.2032833E-08  0.3837632E-06 -0.2216958E-12 -0.8313019E-10
 305375.  0.7599276E-08  0.1656782E-05  0.6061955E-09  0.1310008E-06 -0.6332840E-14 -0.9292579E-11
 267203.  0.1865339E-08  0.4706237E-06  0.1503879E-09  0.3769636E-07  0.7564299E-14  0.7549582E-12
 229031.  0.3617241E-09  0.1076074E-06  0.2942726E-10  0.8713609E-08  0.2431182E-14  0.6163051E-12
 190859.  0.5100482E-10  0.1836864E-07  0.4180606E-11  0.1500860E-08  0.3924729E-15  0.1388193E-12
 152688.  0.4550939E-11  0.2063235E-08  0.3752777E-12  0.1698029E-09  0.3362328E-16  0.1585480E-13
 114516.  0.1979538E-12  0.1203022E-09  0.1639857E-13  0.9954993E-11  0.1222224E-17  0.7766893E-15
  76344.  0.0000000E+00  0.0000000E+00  0.0000000E+00  0.0000000E+00  0.0000000E+00  0.0000000E+00
  38172.  0.0000000E+00  0.0000000E+00  0.0000000E+00  0.0000000E+00  0.0000000E+00  0.0000000E+00
      0.  0.0000000E+00  0.0000000E+00  0.0000000E+00  0.0000000E+00  0.0000000E+00  0.0000000E+00
