       3       35 S      255        132.07829          8.53744          8.65971        424.35300      185    7
6371000. -0.1832145E-03 -0.1107178E-01 -0.2264653E-04  0.1605680E-03  0.1647001E-04 -0.2474208E-03
6370000. -0.1814697E-03 -0.1116082E-01 -0.2267007E-04  0.1392845E-03  0.1650871E-04 -0.2457070E-03
6369000. -0.1797111E-03 -0.1124629E-01 -0.2269026E-04  0.1179502E-03  0.1654715E-04 -0.2440167E-03
6368000. -0.1779394E-03 -0.1132819E-01 -0.2270709E-04  0.9656911E-04  0.1658532E-04 -0.2423500E-03
6368000. -0.1779394E-03 -0.1132819E-01 -0.2270709E-04  0.9656911E-04  0.1658532E-04 -0.2423500E-03
6367000. -0.1761551E-03 -0.1140651E-01 -0.2272057E-04  0.7514490E-04  0.1662323E-04 -0.2407070E-03
6366000. -0.1743588E-03 -0.1148123E-01 -0.2273068E-04  0.5368148E-04  0.1666088E-04 -0.2390880E-03
6365000. -0.1725511E-03 -0.1155234E-01 -0.2273742E-04  0.3218268E-04  0.1669828E-04 -0.2374929E-03
6364000. -0.1707325E-03 -0.1161983E-01 -0.2274078E-04  0.1065239E-04  0.1673544E-04 -0.2359221E-03
6363000. -0.1689035E-03 -0.1168370E-01 -0.2274076E-04 -0.1090555E-04  0.1677235E-04 -0.2343755E-03
6362000. -0.1670649E-03 -0.1174393E-01 -0.2273736E-04 -0.3248725E-04  0.1680902E-04 -0.2328534E-03
6361000. -0.1652170E-03 -0.1180052E-01 -0.2273056E-04 -0.5408883E-04  0.1684545E-04 -0.2313560E-03
6360000. -0.1633606E-03 -0.1185346E-01 -0.2272037E-04 -0.7570641E-04  0.1688164E-04 -0.2298833E-03
6359000. -0.1614962E-03 -0.1190273E-01 -0.2270679E-04 -0.9733610E-04  0.1691761E-04 -0.2284355E-03
6358000. -0.1596243E-03 -0.1194835E-01 -0.2268982E-04 -0.1189740E-03  0.1695336E-04 -0.2270128E-03
6357000. -0.1577455E-03 -0.1199029E-01 -0.2266945E-04 -0.1406162E-03  0.1698888E-04 -0.2256153E-03
6356000. -0.1558604E-03 -0.1202856E-01 -0.2264568E-04 -0.1622589E-03  0.1702418E-04 -0.2242431E-03
6356000. -0.1558604E-03 -0.1032529E-01 -0.2264568E-04 -0.4500722E-04  0.1702418E-04 -0.1903297E-03
6355000. -0.1542370E-03 -0.1036003E-01 -0.2263773E-04 -0.5626914E-04  0.1705386E-04 -0.1878511E-03
6354000. -0.1526083E-03 -0.1039287E-01 -0.2262801E-04 -0.6753818E-04  0.1708316E-04 -0.1853910E-03
6353000. -0.1509746E-03 -0.1042382E-01 -0.2261653E-04 -0.7881313E-04  0.1711206E-04 -0.1829494E-03
6352000. -0.1493361E-03 -0.1045286E-01 -0.2260327E-04 -0.9009276E-04  0.1714059E-04 -0.1805264E-03
6351000. -0.1476933E-03 -0.1048000E-01 -0.2258824E-04 -0.1013759E-03  0.1716874E-04 -0.1781219E-03
6350000. -0.1460463E-03 -0.1050523E-01 -0.2257145E-04 -0.1126612E-03  0.1719651E-04 -0.1757361E-03
6349000. -0.1443956E-03 -0.1052855E-01 -0.2255288E-04 -0.1239476E-03  0.1722390E-04 -0.1733689E-03
6348000. -0.1427413E-03 -0.1054996E-01 -0.2253253E-04 -0.1352337E-03  0.1725093E-04 -0.1710204E-03
6347000. -0.1410838E-03 -0.1056945E-01 -0.2251042E-04 -0.1465184E-03  0.1727759E-04 -0.1686907E-03
6346600. -0.1404200E-03 -0.1057672E-01 -0.2250108E-04 -0.1510317E-03  0.1728815E-04 -0.1677640E-03
6346600. -0.1404200E-03 -0.1180707E-01 -0.2250108E-04 -0.6351353E-04  0.1728815E-04 -0.1188016E-03
6318800. -0.8821346E-04 -0.1197807E-01 -0.2187693E-04 -0.2224854E-03  0.1764389E-04 -0.4593084E-04
6291000. -0.3715081E-04 -0.1128211E-01 -0.2056729E-04 -0.3760676E-03  0.1770265E-04  0.1755069E-04
6291000. -0.3715081E-04 -0.1162893E-01 -0.2056729E-04 -0.3898339E-03  0.1770265E-04  0.1755069E-04
6263000.  0.1065441E-04 -0.9976907E-02 -0.1851077E-04 -0.5423166E-03  0.1750839E-04  0.6957985E-04
6235000.  0.4931484E-04 -0.7488395E-02 -0.1584035E-04 -0.6676018E-03  0.1710132E-04  0.1146014E-03
6207000.  0.7547694E-04 -0.4320111E-02 -0.1269528E-04 -0.7570545E-03  0.1650956E-04  0.1538180E-03
6179000.  0.8659803E-04 -0.6825117E-03 -0.9247829E-05 -0.8043772E-03  0.1575615E-04  0.1883407E-03
6151000.  0.8115534E-04  0.3173201E-02 -0.5691899E-05 -0.8060991E-03  0.1485952E-04  0.2191438E-03
6151000.  0.8115534E-04  0.1956213E-02 -0.5691899E-05 -0.7191642E-03  0.1485952E-04  0.2146538E-03
6128500.  0.6986714E-04  0.4414303E-02 -0.3210451E-05 -0.6827038E-03  0.1407879E-04  0.2269509E-03
6106000.  0.5018428E-04  0.6695622E-02 -0.8924466E-06 -0.6270156E-03  0.1326014E-04  0.2361607E-03
6083500.  0.2288099E-04  0.8717132E-02  0.1198903E-05 -0.5548463E-03  0.1241412E-04  0.2424832E-03
6061000. -0.1099665E-04  0.1040829E-01  0.3010943E-05 -0.4694063E-03  0.1155060E-04  0.2461012E-03
6038500. -0.5017867E-04  0.1171315E-01  0.4502981E-05 -0.3742338E-03  0.1067883E-04  0.2471844E-03
6016000. -0.9322535E-04  0.1259167E-01  0.5647173E-05 -0.2730423E-03  0.9807480E-05  0.2458893E-03
5993500. -0.1385847E-03  0.1302043E-01  0.6428879E-05 -0.1695742E-03  0.8944683E-05  0.2423619E-03
5971000. -0.1846520E-03  0.1299289E-01  0.6846546E-05 -0.6747393E-04  0.8098093E-05  0.2367328E-03
5971000. -0.1846520E-03  0.1205975E-01  0.6846546E-05 -0.3753049E-04  0.8098093E-05  0.2609053E-03
5937667. -0.2451925E-03  0.1096159E-01  0.6714542E-05  0.8394582E-04  0.6782775E-05  0.2411519E-03
5904333. -0.2982470E-03  0.9227292E-02  0.6013629E-05  0.1794214E-03  0.5581581E-05  0.2174215E-03
5871000. -0.3409615E-03  0.7040822E-02  0.4885432E-05  0.2472372E-03  0.4512963E-05  0.1906374E-03
5837667. -0.3714563E-03  0.4586063E-02  0.3473520E-05  0.2881717E-03  0.3590563E-05  0.1616630E-03
5804333. -0.3887817E-03  0.2033246E-02  0.1912488E-05  0.3047568E-03  0.2823828E-05  0.1312342E-03
5771000. -0.3928212E-03 -0.4700988E-03  0.3206336E-06  0.3006423E-03  0.2218826E-05  0.9992630E-04
5771000. -0.3928212E-03 -0.4700444E-03  0.3206336E-06  0.3006467E-03  0.2218826E-05  0.9992630E-04
5701000. -0.3604566E-03 -0.5264257E-02 -0.2648610E-05  0.2287632E-03  0.1610999E-05  0.8907371E-05
5701000. -0.3604566E-03 -0.4487300E-02 -0.2648610E-05  0.2646145E-03  0.1610999E-05  0.1105071E-03
5667333. -0.3318377E-03 -0.6299498E-02 -0.3967829E-05  0.2340833E-03  0.1109039E-05  0.8037907E-04
5633667. -0.2943559E-03 -0.7839897E-02 -0.5118796E-05  0.2014101E-03  0.7518400E-06  0.5574076E-04
5600000. -0.2494594E-03 -0.9106263E-02 -0.6097141E-05  0.1691205E-03  0.5100488E-06  0.3672573E-04
5600000. -0.2494594E-03 -0.9106512E-02 -0.6097141E-05  0.1691153E-03  0.5100488E-06  0.3672573E-04
5563518. -0.1936552E-03 -0.1033874E-01 -0.6959860E-05  0.1321842E-03  0.3459162E-06  0.2124485E-04
5527037. -0.1315844E-03 -0.1129571E-01 -0.7612009E-05  0.9578720E-04  0.2600041E-06  0.9295784E-05
5490556. -0.6481505E-04 -0.1198130E-01 -0.8060116E-05  0.6109566E-04  0.2338818E-06  0.2682895E-06
5454074.  0.5133349E-05 -0.1240817E-01 -0.8316824E-05  0.2907763E-04  0.2523374E-06 -0.6352615E-05
5417593.  0.7682957E-04 -0.1259634E-01 -0.8399708E-05  0.4940797E-06  0.3028636E-06 -0.1099982E-04
5381111.  0.1489829E-03 -0.1257189E-01 -0.8330113E-05 -0.2410406E-04  0.3752430E-06 -0.1404104E-04
5344630.  0.2204574E-03 -0.1236531E-01 -0.8131977E-05 -0.4435881E-04  0.4611910E-06 -0.1578722E-04
5308148.  0.2903093E-03 -0.1201023E-01 -0.7830757E-05 -0.6008953E-04  0.5540693E-06 -0.1650103E-04
5271667.  0.3577849E-03 -0.1154196E-01 -0.7452515E-05 -0.7127021E-04  0.6486179E-06 -0.1640499E-04
5235185.  0.4223429E-03 -0.1099655E-01 -0.7023057E-05 -0.7799937E-04  0.7407426E-06 -0.1568134E-04
5198704.  0.4836410E-03 -0.1040987E-01 -0.6567377E-05 -0.8047295E-04  0.8272973E-06 -0.1448235E-04
5162222.  0.5415467E-03 -0.9816801E-02 -0.6109080E-05 -0.7895679E-04  0.9059040E-06 -0.1292187E-04
5125741.  0.5961171E-03 -0.9250892E-02 -0.5670172E-05 -0.7375873E-04  0.9747766E-06 -0.1109601E-04
5089259.  0.6476025E-03 -0.8743957E-02 -0.5270791E-05 -0.6520006E-04  0.1032574E-05 -0.9060102E-05
5052778.  0.6964252E-03 -0.8326180E-02 -0.4929303E-05 -0.5359238E-04  0.1078205E-05 -0.6851182E-05
5016296.  0.7431806E-03 -0.8026148E-02 -0.4662323E-05 -0.3921575E-04  0.1110709E-05 -0.4472017E-05
4979815.  0.7886197E-03 -0.7871346E-02 -0.4485044E-05 -0.2229723E-04  0.1129042E-05 -0.1896529E-05
4943333.  0.8336535E-03 -0.7888634E-02 -0.4411521E-05 -0.2993826E-05  0.1131963E-05  0.9242063E-06
4906852.  0.8793423E-03 -0.8105129E-02 -0.4455187E-05  0.1863116E-04  0.1117781E-05  0.4097203E-05
4870370.  0.9269095E-03 -0.8549150E-02 -0.4629402E-05  0.4261691E-04  0.1084124E-05  0.7750334E-05
4833889.  0.9777416E-03 -0.9251272E-02 -0.4948032E-05  0.6911109E-04  0.1027758E-05  0.1206779E-04
4797407.  0.1033416E-02 -0.1024606E-01 -0.5426266E-05  0.9842179E-04  0.9441304E-06  0.1732028E-04
4760926.  0.1095716E-02 -0.1157349E-01 -0.6081420E-05  0.1309976E-03  0.8270083E-06  0.2382932E-04
4724444.  0.1166684E-02 -0.1328113E-01 -0.6933918E-05  0.1674621E-03  0.6679882E-06  0.3203718E-04
4687963.  0.1248650E-02 -0.1542641E-01 -0.8008267E-05  0.2086502E-03  0.4557761E-06  0.4251704E-04
4651482.  0.1344317E-02 -0.1807968E-01 -0.9334464E-05  0.2556259E-03  0.1753371E-06  0.5600830E-04
4615000.  0.1456837E-02 -0.2132763E-01 -0.1094939E-04  0.3097302E-03 -0.1932510E-06  0.7348520E-04
4578518.  0.1589908E-02 -0.2527728E-01 -0.1289841E-04  0.3726145E-03 -0.6762405E-06  0.9620547E-04
4542037.  0.1747909E-02 -0.3006115E-01 -0.1523733E-04  0.4463084E-03 -0.1308199E-05  0.1258360E-03
4505556.  0.1936075E-02 -0.3584387E-01 -0.1803499E-04  0.5332968E-03 -0.2134611E-05  0.1645336E-03
4469074.  0.2160696E-02 -0.4282964E-01 -0.2137594E-04  0.6365843E-03 -0.3215192E-05  0.2151404E-03
4432593.  0.2429346E-02 -0.5127105E-01 -0.2536340E-04  0.7598045E-03 -0.4628217E-05  0.2813616E-03
4396111.  0.2751240E-02 -0.6148202E-01 -0.3012389E-04  0.9073372E-03 -0.6476480E-05  0.3680762E-03
4359630.  0.3137565E-02 -0.7385027E-01 -0.3581094E-04  0.1084425E-02 -0.8894915E-05  0.4817488E-03
4323148.  0.3602023E-02 -0.8885665E-01 -0.4261142E-04  0.1297302E-02 -0.1206101E-04  0.6307979E-03
4286667.  0.4161334E-02 -0.1070945E+00 -0.5075058E-04  0.1553391E-02 -0.1620775E-04  0.8264247E-03
4250185.  0.4836059E-02 -0.1292976E+00 -0.6050037E-04  0.1861318E-02 -0.2164221E-04  0.1083314E-02
4213704.  0.5651360E-02 -0.1563676E+00 -0.7218506E-04  0.2231071E-02 -0.2876787E-04  0.1420883E-02
4177222.  0.6638221E-02 -0.1894148E+00 -0.8619096E-04  0.2673904E-02 -0.3811728E-04  0.1864819E-02
4140741.  0.7834565E-02 -0.2297948E+00 -0.1029708E-03  0.3202196E-02 -0.5039133E-04  0.2448943E-02
4104259.  0.9287034E-02 -0.2791628E+00 -0.1230517E-03  0.3828858E-02 -0.6651595E-04  0.3218114E-02
4067778.  0.1105255E-01 -0.3395135E+00 -0.1470316E-03  0.4566113E-02 -0.8771080E-04  0.4231274E-02
4031296.  0.1320076E-01 -0.4132432E+00 -0.1755751E-03  0.5423791E-02 -0.1155876E-03  0.5566554E-02
3994815.  0.1581601E-01 -0.5031739E+00 -0.2093844E-03  0.6405495E-02 -0.1522696E-03  0.7326584E-02
3958333.  0.1900041E-01 -0.6125858E+00 -0.2491563E-03  0.7503178E-02 -0.2005608E-03  0.9646600E-02
3921852.  0.2287570E-01 -0.7451597E+00 -0.2954809E-03  0.8687154E-02 -0.2641501E-03  0.1270410E-01
3885370.  0.2758601E-01 -0.9048711E+00 -0.3486877E-03  0.9891323E-02 -0.3478998E-03  0.1673136E-01
3848889.  0.3329789E-01 -0.1095667E+01 -0.4085629E-03  0.1098872E-01 -0.4581856E-03  0.2203054E-01
3812407.  0.4019975E-01 -0.1320904E+01 -0.4739082E-03  0.1175229E-01 -0.6033704E-03  0.2899311E-01
3775926.  0.4849435E-01 -0.1582240E+01 -0.5417941E-03  0.1179443E-01 -0.7943494E-03  0.3812110E-01
3739444.  0.5838583E-01 -0.1877820E+01 -0.6064042E-03  0.1047204E-01 -0.1045290E-02  0.5005270E-01
3702963.  0.7004931E-01 -0.2199027E+01 -0.6571581E-03  0.6736096E-02 -0.1374429E-02  0.6558357E-01
3666482.  0.8358021E-01 -0.2525241E+01 -0.6757824E-03 -0.1101648E-02 -0.1805085E-02  0.8568783E-01
3630000.  0.9890182E-01 -0.2815059E+01 -0.6316685E-03 -0.1573536E-01 -0.2366672E-02  0.1115142E+00
3630000.  0.9890182E-01 -0.2815046E+01 -0.6316685E-03 -0.1573711E-01 -0.2366672E-02  0.1115142E+00
3592500.  0.1161241E+00 -0.3008388E+01 -0.4699578E-03 -0.4170166E-01 -0.3118500E-02  0.1452629E+00
3555000.  0.1338124E+00 -0.2941225E+01 -0.1032998E-03 -0.8689962E-01 -0.4093592E-02  0.1876001E+00
3517500.  0.1497444E+00 -0.2356557E+01  0.6133182E-03 -0.1630517E+00 -0.5345999E-02  0.2396176E+00
3480000.  0.1597016E+00 -0.8182242E+00  0.1912900E-02 -0.2888713E+00 -0.6933728E-02  0.3014197E+00
3480000.  0.1597016E+00  0.7998034E+01  0.5484779E-02  0.2822381E+00 -0.6933728E-02 -0.2009360E+00
3409422.  0.9068706E-01  0.4723106E+01  0.3069737E-02  0.1636899E+00 -0.4750650E-02 -0.1828907E+00
3338844.  0.5037132E-01  0.2723741E+01  0.1682867E-02  0.9289216E-01 -0.2989373E-02 -0.1338567E+00
3268266.  0.2736744E-01  0.1534453E+01  0.9035163E-03  0.5158385E-01 -0.1771520E-02 -0.8769014E-01
3197688.  0.1454305E-01  0.8446311E+00  0.4749535E-03  0.2802823E-01 -0.1001441E-02 -0.5344963E-01
3127109.  0.7557032E-02  0.4542651E+00  0.2443674E-03  0.1489848E-01 -0.5439633E-03 -0.3086814E-01
3056531.  0.3838750E-02  0.2386890E+00  0.1230083E-03  0.7745237E-02 -0.2851507E-03 -0.1705689E-01
2985953.  0.1905386E-02  0.1224953E+00  0.6054755E-04  0.3936398E-02 -0.1446403E-03 -0.9069336E-02
2915375.  0.9236404E-03  0.6137687E-01  0.2912508E-04  0.1954876E-02 -0.7110583E-04 -0.4656071E-02
2844797.  0.4369958E-03  0.3001038E-01  0.1368185E-04  0.9480633E-03 -0.3390799E-04 -0.2312711E-02
2774219.  0.2016459E-03  0.1431043E-01  0.6271734E-05  0.4486954E-03 -0.1569053E-04 -0.1112714E-02
2703641.  0.9067277E-04  0.6650133E-02  0.2802920E-05  0.2070684E-03 -0.7045317E-05 -0.5188482E-03
2633062.  0.3969392E-04  0.3009063E-02  0.1220056E-05  0.9309461E-04 -0.3068595E-05 -0.2344876E-03
2562484.  0.1689973E-04  0.1324474E-02  0.5166863E-06  0.4073340E-04 -0.1295702E-05 -0.1026857E-03
2491906.  0.6989146E-05  0.5664796E-03  0.2126262E-06  0.1732564E-04 -0.5299445E-06 -0.4354661E-04
2421328.  0.2804034E-05  0.2351346E-03  0.8491081E-07  0.7154613E-05 -0.2097293E-06 -0.1786839E-04
2350750.  0.1089732E-05  0.9458861E-04  0.3285615E-07  0.2864348E-05 -0.8021271E-07 -0.7086479E-05
2280172.  0.4095679E-06  0.3681964E-04  0.1229872E-07  0.1110001E-05 -0.2960349E-07 -0.2712794E-05
2209594.  0.1485994E-06  0.1384491E-04  0.4445281E-08  0.4156419E-06 -0.1052502E-07 -0.1000848E-05
2139016.  0.5194246E-07  0.5019234E-05  0.1548299E-08  0.1500961E-06 -0.3597872E-08 -0.3552251E-06
2068438.  0.1745317E-07  0.1750622E-05  0.5185047E-09  0.5215988E-07 -0.1179955E-08 -0.1210403E-06
1997859.  0.5623260E-08  0.5860200E-06  0.1665335E-09  0.1740083E-07 -0.3703464E-09 -0.3950266E-07
1927281.  0.1732516E-08  0.1877817E-06  0.5115743E-10  0.5557996E-08 -0.1109398E-09 -0.1231568E-07
1856703.  0.5088541E-09  0.5742645E-07  0.1498369E-10  0.1694628E-08 -0.3161860E-10 -0.3656986E-08
1786125.  0.1419856E-09  0.1670394E-07  0.4169733E-11  0.4915784E-09 -0.8543465E-11 -0.1030792E-08
1715547.  0.3751162E-10  0.4601365E-08  0.1097628E-11  0.1352299E-09 -0.2178541E-11 -0.2749317E-09
1644969.  0.0000000E+00  0.0000000E+00  0.0000000E+00  0.0000000E+00  0.0000000E+00  0.0000000E+00
1574391.  0.0000000E+00  0.0000000E+00  0.0000000E+00  0.0000000E+00  0.0000000E+00  0.0000000E+00
1503812.  0.0000000E+00  0.0000000E+00  0.0000000E+00  0.0000000E+00  0.0000000E+00  0.0000000E+00
1433234.  0.0000000E+00  0.0000000E+00  0.0000000E+00  0.0000000E+00  0.0000000E+00  0.0000000E+00
1362656.  0.0000000E+00  0.0000000E+00  0.0000000E+00  0.0000000E+00  0.0000000E+00  0.0000000E+00
1292078.  0.0000000E+00  0.0000000E+00  0.0000000E+00  0.0000000E+00  0.0000000E+00  0.0000000E+00
1221500.  0.0000000E+00  0.0000000E+00  0.0000000E+00  0.0000000E+00  0.0000000E+00  0.0000000E+00
1221500.  0.0000000E+00  0.0000000E+00  0.0000000E+00  0.0000000E+00  0.0000000E+00  0.0000000E+00
1183328.  0.0000000E+00  0.0000000E+00  0.0000000E+00  0.0000000E+00  0.0000000E+00  0.0000000E+00
1145156.  0.0000000E+00  0.0000000E+00  0.0000000E+00  0.0000000E+00  0.0000000E+00  0.0000000E+00
1106984.  0.0000000E+00  0.0000000E+00  0.0000000E+00  0.0000000E+00  0.0000000E+00  0.0000000E+00
1068812.  0.0000000E+00  0.0000000E+00  0.0000000E+00  0.0000000E+00  0.0000000E+00  0.0000000E+00
1030641.  0.0000000E+00  0.0000000E+00  0.0000000E+00  0.0000000E+00  0.0000000E+00  0.0000000E+00
 992469.  0.0000000E+00  0.0000000E+00  0.0000000E+00  0.0000000E+00  0.0000000E+00  0.0000000E+00
 954297.  0.0000000E+00  0.0000000E+00  0.0000000E+00  0.0000000E+00  0.0000000E+00  0.0000000E+00
 916125.  0.0000000E+00  0.0000000E+00  0.0000000E+00  0.0000000E+00  0.0000000E+00  0.0000000E+00
 877953.  0.0000000E+00  0.0000000E+00  0.0000000E+00  0.0000000E+00  0.0000000E+00  0.0000000E+00
 839781.  0.0000000E+00  0.0000000E+00  0.0000000E+00  0.0000000E+00  0.0000000E+00  0.0000000E+00
 801609.  0.0000000E+00  0.0000000E+00  0.0000000E+00  0.0000000E+00  0.0000000E+00  0.0000000E+00
 763438.  0.0000000E+00  0.0000000E+00  0.0000000E+00  0.0000000E+00  0.0000000E+00  0.0000000E+00
 725266.  0.0000000E+00  0.0000000E+00  0.0000000E+00  0.0000000E+00  0.0000000E+00  0.0000000E+00
 687094.  0.0000000E+00  0.0000000E+00  0.0000000E+00  0.0000000E+00  0.0000000E+00  0.0000000E+00
 648922.  0.0000000E+00  0.0000000E+00  0.0000000E+00  0.0000000E+00  0.0000000E+00  0.0000000E+00
 610750.  0.0000000E+00  0.0000000E+00  0.0000000E+00  0.0000000E+00  0.0000000E+00  0.0000000E+00
 572578.  0.0000000E+00  0.0000000E+00  0.0000000E+00  0.0000000E+00  0.0000000E+00  0.0000000E+00
 534406.  0.0000000E+00  0.0000000E+00  0.0000000E+00  0.0000000E+00  0.0000000E+00  0.0000000E+00
 496234.  0.0000000E+00  0.0000000E+00  0.0000000E+00  0.0000000E+00  0.0000000E+00  0.0000000E+00
 458062.  0.0000000E+00  0.0000000E+00  0.0000000E+00  0.0000000E+00  0.0000000E+00  0.0000000E+00
 419891.  0.0000000E+00  0.0000000E+00  0.0000000E+00  0.0000000E+00  0.0000000E+00  0.0000000E+00
 381719.  0.0000000E+00  0.0000000E+00  0.0000000E+00  0.0000000E+00  0.0000000E+00  0.0000000E+00
 343547.  0.0000000E+00  0.0000000E+00  0.0000000E+00  0.0000000E+00  0.0000000E+00  0.0000000E+00
 305375.  0.0000000E+00  0.0000000E+00  0.0000000E+00  0.0000000E+00  0.0000000E+00  0.0000000E+00
 267203.  0.0000000E+00  0.0000000E+00  0.0000000E+00  0.0000000E+00  0.0000000E+00  0.0000000E+00
 229031.  0.0000000E+00  0.0000000E+00  0.0000000E+00  0.0000000E+00  0.0000000E+00  0.0000000E+00
 190859.  0.0000000E+00  0.0000000E+00  0.0000000E+00  0.0000000E+00  0.0000000E+00  0.0000000E+00
 152688.  0.0000000E+00  0.0000000E+00  0.0000000E+00  0.0000000E+00  0.0000000E+00  0.0000000E+00
 114516.  0.0000000E+00  0.0000000E+00  0.0000000E+00  0.0000000E+00  0.0000000E+00  0.0000000E+00
  76344.  0.0000000E+00  0.0000000E+00  0.0000000E+00  0.0000000E+00  0.0000000E+00  0.0000000E+00
  38172.  0.0000000E+00  0.0000000E+00  0.0000000E+00  0.0000000E+00  0.0000000E+00  0.0000000E+00
      0.  0.0000000E+00  0.0000000E+00  0.0000000E+00  0.0000000E+00  0.0000000E+00  0.0000000E+00
