       4       10 S      279        258.99420         14.72001          5.95272        301.53189      185    7
6371000. -0.8010836E-01  0.5446559E+00  0.1113237E-01  0.9124073E-01 -0.4302937E-03  0.1557989E+00
6370000. -0.8019309E-01  0.5349923E+00  0.1111776E-01  0.9492384E-01 -0.4547329E-03  0.1556055E+00
6369000. -0.8027630E-01  0.5252726E+00  0.1110257E-01  0.9859981E-01 -0.4791416E-03  0.1554099E+00
6368000. -0.8035798E-01  0.5154970E+00  0.1108681E-01  0.1022684E+00 -0.5035194E-03  0.1552123E+00
6368000. -0.8035798E-01  0.5154970E+00  0.1108681E-01  0.1022684E+00 -0.5035194E-03  0.1552123E+00
6367000. -0.8043813E-01  0.5056657E+00  0.1107047E-01  0.1059295E+00 -0.5278661E-03  0.1550125E+00
6366000. -0.8051672E-01  0.4957788E+00  0.1105355E-01  0.1095829E+00 -0.5521813E-03  0.1548106E+00
6365000. -0.8059376E-01  0.4858368E+00  0.1103607E-01  0.1132283E+00 -0.5764646E-03  0.1546066E+00
6364000. -0.8066923E-01  0.4758398E+00  0.1101801E-01  0.1168655E+00 -0.6007156E-03  0.1544005E+00
6363000. -0.8074313E-01  0.4657880E+00  0.1099938E-01  0.1204945E+00 -0.6249342E-03  0.1541923E+00
6362000. -0.8081545E-01  0.4556817E+00  0.1098018E-01  0.1241148E+00 -0.6491200E-03  0.1539819E+00
6361000. -0.8088618E-01  0.4455211E+00  0.1096042E-01  0.1277265E+00 -0.6732725E-03  0.1537695E+00
6360000. -0.8095531E-01  0.4353066E+00  0.1094009E-01  0.1313291E+00 -0.6973916E-03  0.1535549E+00
6359000. -0.8102283E-01  0.4250383E+00  0.1091919E-01  0.1349227E+00 -0.7214767E-03  0.1533383E+00
6358000. -0.8108874E-01  0.4147165E+00  0.1089773E-01  0.1385069E+00 -0.7455278E-03  0.1531195E+00
6357000. -0.8115301E-01  0.4043414E+00  0.1087571E-01  0.1420815E+00 -0.7695443E-03  0.1528987E+00
6356000. -0.8121566E-01  0.3939134E+00  0.1085313E-01  0.1456465E+00 -0.7935260E-03  0.1526757E+00
6356000. -0.8121566E-01  0.3762039E+00  0.1085313E-01  0.1244942E+00 -0.7935260E-03  0.1703473E+00
6355000. -0.8127412E-01  0.3686674E+00  0.1083341E-01  0.1267442E+00 -0.8202437E-03  0.1700893E+00
6354000. -0.8133139E-01  0.3610980E+00  0.1081334E-01  0.1289885E+00 -0.8469208E-03  0.1698298E+00
6353000. -0.8138748E-01  0.3534958E+00  0.1079292E-01  0.1312268E+00 -0.8735570E-03  0.1695689E+00
6352000. -0.8144236E-01  0.3458610E+00  0.1077215E-01  0.1334593E+00 -0.9001521E-03  0.1693064E+00
6351000. -0.8149605E-01  0.3381937E+00  0.1075103E-01  0.1356857E+00 -0.9267060E-03  0.1690425E+00
6350000. -0.8154853E-01  0.3304940E+00  0.1072955E-01  0.1379060E+00 -0.9532183E-03  0.1687771E+00
6349000. -0.8159979E-01  0.3227622E+00  0.1070773E-01  0.1401201E+00 -0.9796888E-03  0.1685103E+00
6348000. -0.8164985E-01  0.3149983E+00  0.1068557E-01  0.1423280E+00 -0.1006117E-02  0.1682419E+00
6347000. -0.8169868E-01  0.3072025E+00  0.1066306E-01  0.1445295E+00 -0.1032504E-02  0.1679721E+00
6346600. -0.8171787E-01  0.3040752E+00  0.1065395E-01  0.1454083E+00 -0.1043046E-02  0.1678638E+00
6346600. -0.8171787E-01  0.4391405E+00  0.1065395E-01  0.1282943E+00 -0.1043046E-02  0.1963576E+00
6318800. -0.8327452E-01  0.2708336E+00  0.1000058E-01  0.1704963E+00 -0.1882723E-02  0.1883768E+00
6291000. -0.8405216E-01  0.8242074E-01  0.9172582E-02  0.2081933E+00 -0.2685908E-02  0.1796324E+00
6291000. -0.8405216E-01  0.9356130E-01  0.9172582E-02  0.2127556E+00 -0.2685908E-02  0.1796324E+00
6263000. -0.8400138E-01 -0.1195991E+00  0.8160113E-02  0.2469658E+00 -0.3454855E-02  0.1701601E+00
6235000. -0.8297740E-01 -0.3487618E+00  0.7011326E-02  0.2746752E+00 -0.4180420E-02  0.1598915E+00
6207000. -0.8091755E-01 -0.5903636E+00  0.5756194E-02  0.2952714E+00 -0.4859118E-02  0.1488338E+00
6179000. -0.7777584E-01 -0.8403856E+00  0.4427024E-02  0.3083077E+00 -0.5487503E-02  0.1369984E+00
6151000. -0.7352484E-01 -0.1094402E+01  0.3057708E-02  0.3135103E+00 -0.6062198E-02  0.1244040E+00
6151000. -0.7352484E-01 -0.8418202E+00  0.3057708E-02  0.2845633E+00 -0.6062198E-02  0.1284718E+00
6128500. -0.7029291E-01 -0.9877281E+00  0.2056632E-02  0.2816850E+00 -0.6502337E-02  0.1207566E+00
6106000. -0.6655443E-01 -0.1128444E+01  0.1072749E-02  0.2748542E+00 -0.6914959E-02  0.1128937E+00
6083500. -0.6233037E-01 -0.1262488E+01  0.1196929E-03  0.2642637E+00 -0.7299593E-02  0.1049112E+00
6061000. -0.5764678E-01 -0.1388457E+01 -0.7896605E-03  0.2501469E+00 -0.7655866E-02  0.9683759E-01
6038500. -0.5253452E-01 -0.1505050E+01 -0.1643328E-02  0.2327767E+00 -0.7983506E-02  0.8869924E-01
6016000. -0.4702886E-01 -0.1611062E+01 -0.2430352E-02  0.2124588E+00 -0.8282326E-02  0.8052141E-01
5993500. -0.4116911E-01 -0.1705407E+01 -0.3140900E-02  0.1895252E+00 -0.8552233E-02  0.7232931E-01
5971000. -0.3499819E-01 -0.1787143E+01 -0.3766357E-02  0.1643322E+00 -0.8793216E-02  0.6414547E-01
5971000. -0.3499819E-01 -0.1628452E+01 -0.3766357E-02  0.1498994E+00 -0.8793216E-02  0.6872702E-01
5937667. -0.2634667E-01 -0.1674000E+01 -0.4448312E-02  0.1107215E+00 -0.9126474E-02  0.5875022E-01
5904333. -0.1752884E-01 -0.1692132E+01 -0.4925259E-02  0.7170992E-01 -0.9408922E-02  0.4930992E-01
5871000. -0.8685044E-02 -0.1684306E+01 -0.5200742E-02  0.3386467E-01 -0.9643480E-02  0.4045377E-01
5837667.  0.5384294E-04 -0.1652365E+01 -0.5283063E-02 -0.2010305E-02 -0.9833301E-02  0.3221216E-01
5804333.  0.8567415E-02 -0.1598453E+01 -0.5184233E-02 -0.3529230E-01 -0.9981651E-02  0.2460055E-01
5771000.  0.1674622E-01 -0.1524896E+01 -0.4919094E-02 -0.6552193E-01 -0.1009183E-01  0.1762186E-01
5771000.  0.1674622E-01 -0.1524946E+01 -0.4919094E-02 -0.6552057E-01 -0.1009183E-01  0.1762186E-01
5701000.  0.3285324E-01 -0.1391997E+01 -0.3867507E-02 -0.1243753E+00 -0.1021600E-01  0.5224067E-02
5701000.  0.3285324E-01 -0.1175538E+01 -0.3867507E-02 -0.1068018E+00 -0.1021600E-01 -0.4036080E-02
5667333.  0.3882167E-01 -0.1081444E+01 -0.3257467E-02 -0.1235912E+00 -0.1018544E-01 -0.7447971E-02
5633667.  0.4426622E-01 -0.9776813E+00 -0.2566435E-02 -0.1374734E+00 -0.1013811E-01 -0.1039012E-01
5600000.  0.4914144E-01 -0.8662433E+00 -0.1809521E-02 -0.1485363E+00 -0.1007640E-01 -0.1289582E-01
5600000.  0.4914144E-01 -0.8662544E+00 -0.1809521E-02 -0.1485406E+00 -0.1007640E-01 -0.1289582E-01
5563518.  0.5376441E-01 -0.7467403E+00 -0.9246413E-03 -0.1600857E+00 -0.9995691E-02 -0.1524709E-01
5527037.  0.5767568E-01 -0.6180025E+00  0.1878062E-04 -0.1689833E+00 -0.9902308E-02 -0.1732477E-01
5490556.  0.6082758E-01 -0.4818078E+00  0.1005426E-02 -0.1751770E+00 -0.9797782E-02 -0.1914176E-01
5454074.  0.6318270E-01 -0.3399844E+00  0.2019784E-02 -0.1786545E+00 -0.9683562E-02 -0.2071146E-01
5417593.  0.6471403E-01 -0.1944045E+00  0.3046310E-02 -0.1794448E+00 -0.9561028E-02 -0.2204951E-01
5381111.  0.6540548E-01 -0.4693312E-01  0.4069854E-02 -0.1776179E+00 -0.9431455E-02 -0.2317145E-01
5344630.  0.6525153E-01  0.1005632E+00  0.5075659E-02 -0.1732793E+00 -0.9296043E-02 -0.2409308E-01
5308148.  0.6425724E-01  0.2462774E+00  0.6049781E-02 -0.1665679E+00 -0.9155884E-02 -0.2483030E-01
5271667.  0.6243794E-01  0.3884470E+00  0.6979043E-02 -0.1576503E+00 -0.9011998E-02 -0.2539931E-01
5235185.  0.5981863E-01  0.5254101E+00  0.7851402E-02 -0.1467183E+00 -0.8865294E-02 -0.2581542E-01
5198704.  0.5643384E-01  0.6555908E+00  0.8655877E-02 -0.1339851E+00 -0.8716613E-02 -0.2609376E-01
5162222.  0.5232640E-01  0.7775464E+00  0.9382845E-02 -0.1196791E+00 -0.8566696E-02 -0.2624780E-01
5125741.  0.4754749E-01  0.8899544E+00  0.1002395E-01 -0.1040423E+00 -0.8416223E-02 -0.2629129E-01
5089259.  0.4215494E-01  0.9916479E+00  0.1057231E-01 -0.8732342E-01 -0.8265787E-02 -0.2623568E-01
5052778.  0.3621338E-01  0.1081605E+01  0.1102243E-01 -0.6977708E-01 -0.8115930E-02 -0.2609199E-01
5016296.  0.2979222E-01  0.1158974E+01  0.1137032E-01 -0.5165641E-01 -0.7967122E-02 -0.2586958E-01
4979815.  0.2296595E-01  0.1223060E+01  0.1161341E-01 -0.3321352E-01 -0.7819797E-02 -0.2557657E-01
4943333.  0.1581183E-01  0.1273346E+01  0.1175055E-01 -0.1469205E-01 -0.7674330E-02 -0.2521999E-01
4906852.  0.8410351E-02  0.1309482E+01  0.1178197E-01  0.3671654E-02 -0.7531079E-02 -0.2480489E-01
4870370.  0.8427181E-03  0.1331290E+01  0.1170922E-01  0.2165563E-01 -0.7390359E-02 -0.2433521E-01
4833889. -0.6808457E-02  0.1338744E+01  0.1153509E-01  0.3905029E-01 -0.7252482E-02 -0.2381343E-01
4797407. -0.1446175E-01  0.1331995E+01  0.1126350E-01  0.5566461E-01 -0.7117736E-02 -0.2324057E-01
4760926. -0.2203620E-01  0.1311336E+01  0.1089943E-01  0.7132418E-01 -0.6986421E-02 -0.2261604E-01
4724444. -0.2945374E-01  0.1277201E+01  0.1044878E-01  0.8587573E-01 -0.6858830E-02 -0.2193801E-01
4687963. -0.3663837E-01  0.1230165E+01  0.9918323E-02  0.9918517E-01 -0.6735286E-02 -0.2120328E-01
4651482. -0.4351836E-01  0.1170918E+01  0.9315480E-02  0.1111409E+00 -0.6616123E-02 -0.2040702E-01
4615000. -0.5002621E-01  0.1100263E+01  0.8648253E-02  0.1216530E+00 -0.6501706E-02 -0.1954328E-01
4578518. -0.5609893E-01  0.1019098E+01  0.7925136E-02  0.1306524E+00 -0.6392446E-02 -0.1860441E-01
4542037. -0.6167898E-01  0.9284071E+00  0.7154956E-02  0.1380917E+00 -0.6288799E-02 -0.1758217E-01
4505556. -0.6671494E-01  0.8292402E+00  0.6346710E-02  0.1439450E+00 -0.6191270E-02 -0.1646619E-01
4469074. -0.7116154E-01  0.7226977E+00  0.5509485E-02  0.1482062E+00 -0.6100423E-02 -0.1524508E-01
4432593. -0.7497957E-01  0.6099326E+00  0.4652416E-02  0.1508880E+00 -0.6016903E-02 -0.1390553E-01
4396111. -0.7813696E-01  0.4921099E+00  0.3784419E-02  0.1520213E+00 -0.5941426E-02 -0.1243264E-01
4359630. -0.8060795E-01  0.3704192E+00  0.2914280E-02  0.1516532E+00 -0.5874802E-02 -0.1081159E-01
4323148. -0.8237392E-01  0.2460365E+00  0.2050380E-02  0.1498459E+00 -0.5817928E-02 -0.9022996E-02
4286667. -0.8342274E-01  0.1201405E+00  0.1200794E-02  0.1466750E+00 -0.5771821E-02 -0.7048510E-02
4250185. -0.8374905E-01 -0.6132848E-02  0.3730437E-03  0.1422269E+00 -0.5737605E-02 -0.4865240E-02
4213704. -0.8335391E-01 -0.1316684E+00 -0.4257868E-03  0.1365985E+00 -0.5716546E-02 -0.2449288E-02
4177222. -0.8224455E-01 -0.2554110E+00 -0.1189276E-02  0.1298937E+00 -0.5710050E-02  0.2259929E-03
4140741. -0.8043423E-01 -0.3763472E+00 -0.1911533E-02  0.1222229E+00 -0.5719686E-02  0.3190659E-02
4104259. -0.7794163E-01 -0.4935396E+00 -0.2587389E-02  0.1136998E+00 -0.5747205E-02  0.6477150E-02
4067778. -0.7479091E-01 -0.6061063E+00 -0.3212261E-02  0.1044410E+00 -0.5794552E-02  0.1012329E-01
4031296. -0.7101067E-01 -0.7132529E+00 -0.3782302E-02  0.9456242E-01 -0.5863904E-02  0.1416991E-01
3994815. -0.6663428E-01 -0.8142503E+00 -0.4294263E-02  0.8417954E-01 -0.5957684E-02  0.1866376E-01
3958333. -0.6169859E-01 -0.9084606E+00 -0.4745605E-02  0.7340339E-01 -0.6078604E-02  0.2365781E-01
3921852. -0.5624438E-01 -0.9953163E+00 -0.5134362E-02  0.6234144E-01 -0.6229687E-02  0.2921052E-01
3885370. -0.5031490E-01 -0.1074339E+01 -0.5459208E-02  0.5109362E-01 -0.6414330E-02  0.3538973E-01
3848889. -0.4395650E-01 -0.1145121E+01 -0.5719330E-02  0.3975295E-01 -0.6636322E-02  0.4227147E-01
3812407. -0.3721700E-01 -0.1207336E+01 -0.5914453E-02  0.2840207E-01 -0.6899946E-02  0.4994341E-01
3775926. -0.3014662E-01 -0.1260718E+01 -0.6044725E-02  0.1711442E-01 -0.7209989E-02  0.5850466E-01
3739444. -0.2279614E-01 -0.1305072E+01 -0.6110691E-02  0.5950171E-02 -0.7571879E-02  0.6806961E-01
3702963. -0.1521810E-01 -0.1340248E+01 -0.6113200E-02 -0.5042223E-02 -0.7991710E-02  0.7876872E-01
3666482. -0.7465172E-02 -0.1366146E+01 -0.6053340E-02 -0.1582943E-01 -0.8476405E-02  0.9075257E-01
3630000.  0.4095155E-03 -0.1382689E+01 -0.5932343E-02 -0.2639331E-01 -0.9033825E-02  0.1041951E+00
3630000.  0.4095155E-03 -0.1382681E+01 -0.5932343E-02 -0.2639315E-01 -0.9033825E-02  0.1041951E+00
3592500.  0.8586909E-02 -0.1394233E+01 -0.5745226E-02 -0.3717669E-01 -0.9691863E-02  0.1196918E+00
3555000.  0.1680251E-01 -0.1395616E+01 -0.5494792E-02 -0.4791180E-01 -0.1044657E-01  0.1370858E+00
3517500.  0.2499555E-01 -0.1386509E+01 -0.5181232E-02 -0.5863390E-01 -0.1130993E-01  0.1566644E+00
3480000.  0.3310325E-01 -0.1366551E+01 -0.4804466E-02 -0.6939944E-01 -0.1229578E-01  0.1787621E+00
3480000.  0.3310325E-01 -0.8999877E-01  0.7264283E-02  0.4717743E-01 -0.1229578E-01  0.7463292E-01
3409422.  0.3359961E-01 -0.2289283E-02  0.6723722E-02  0.5014154E-01 -0.1279950E-01  0.1875078E-01
3338844.  0.3321285E-01  0.6949158E-01  0.6158995E-02  0.5157606E-01 -0.1276151E-01 -0.2350991E-01
3268266.  0.3211667E-01  0.1259291E+00  0.5585860E-02  0.5169492E-01 -0.1232145E-01 -0.5416549E-01
3197688.  0.3047549E-01  0.1680977E+00  0.5017703E-02  0.5071363E-01 -0.1159724E-01 -0.7511368E-01
3127109.  0.2843975E-01  0.1974122E+00  0.4465517E-02  0.4884483E-01 -0.1068658E-01 -0.8810426E-01
3056531.  0.2614316E-01  0.2154734E+00  0.3938019E-02  0.4629019E-01 -0.9668713E-02 -0.9471931E-01
2985953.  0.2370105E-01  0.2239663E+00  0.3441757E-02  0.4323471E-01 -0.8606307E-02 -0.9636422E-01
2915375.  0.2121008E-01  0.2245711E+00  0.2981345E-02  0.3984393E-01 -0.7547477E-02 -0.9426292E-01
2844797.  0.1874863E-01  0.2188944E+00  0.2559673E-02  0.3626321E-01 -0.6527766E-02 -0.8946162E-01
2774219.  0.1637793E-01  0.2084257E+00  0.2178139E-02  0.3261623E-01 -0.5572077E-02 -0.8283683E-01
2703641.  0.1414348E-01  0.1945041E+00  0.1836894E-02  0.2900473E-01 -0.4696495E-02 -0.7510657E-01
2633062.  0.1207686E-01  0.1783010E+00  0.1535070E-02  0.2551042E-01 -0.3909953E-02 -0.6684407E-01
2562484.  0.1019773E-01  0.1608148E+00  0.1271012E-02  0.2219633E-01 -0.3215794E-02 -0.5849418E-01
2491906.  0.8515525E-02  0.1428694E+00  0.1042454E-02  0.1910755E-01 -0.2613041E-02 -0.5038865E-01
2421328.  0.7031550E-02  0.1251242E+00  0.8467208E-03  0.1627408E-01 -0.2097602E-02 -0.4276264E-01
2350750.  0.5740644E-02  0.1080854E+00  0.6808778E-03  0.1371307E-01 -0.1663241E-02 -0.3577073E-01
2280172.  0.4632822E-02  0.9212192E-01  0.5418651E-03  0.1143033E-01 -0.1302389E-02 -0.2950168E-01
2209594.  0.3694688E-02  0.7748254E-01  0.4266106E-03  0.9422684E-02 -0.1006793E-02 -0.2399199E-01
2139016.  0.2910676E-02  0.6431381E-01  0.3321175E-03  0.7679843E-02 -0.7680274E-03 -0.1923814E-01
2068438.  0.2264081E-02  0.5267791E-01  0.2555350E-03  0.6186221E-02 -0.5778798E-03 -0.1520730E-01
1997859.  0.1737888E-02  0.4256982E-01  0.1942057E-03  0.4922432E-02 -0.4286166E-03 -0.1184647E-01
1927281.  0.1315455E-02  0.3393376E-01  0.1457043E-03  0.3866665E-02 -0.3131736E-03 -0.9090245E-02
1856703.  0.9809531E-03  0.2667745E-01  0.1078529E-03  0.2995803E-02 -0.2252459E-03 -0.6866666E-02
1786125.  0.7197173E-03  0.2068602E-01  0.7873342E-04  0.2286301E-02 -0.1593402E-03 -0.5102279E-02
1715547.  0.5184231E-03  0.1583480E-01  0.5668832E-04  0.1714727E-02 -0.1107683E-03 -0.3725682E-02
1644969.  0.3651213E-03  0.1200237E-01  0.4031784E-04  0.1257988E-02 -0.7560937E-04 -0.2670085E-02
1574391.  0.2491194E-03  0.9086338E-02  0.2847773E-04  0.8928939E-03 -0.5064865E-04 -0.1875033E-02
1503812.  0.1606492E-03  0.7027099E-02  0.2028715E-04  0.5946979E-03 -0.3330087E-04 -0.1287416E-02
1433234.  0.9018175E-04  0.5851866E-02  0.1516325E-04  0.3335221E-03 -0.2152596E-04 -0.8621375E-03
1362656.  0.2701286E-04  0.5767078E-02  0.1291749E-04  0.6596090E-04 -0.1373578E-04 -0.5627223E-03
1292078. -0.4372694E-04  0.7370716E-02  0.1399908E-04 -0.2845517E-03 -0.8692061E-05 -0.3629496E-03
1221500. -0.1478403E-03  0.1216833E-01  0.2008815E-04 -0.8757171E-03 -0.5371050E-05 -0.2515810E-03
1221500. -0.1478403E-03  0.1089751E-02  0.1320764E-05  0.7779821E-03 -0.5371050E-05 -0.1875360E-03
1183328. -0.1485768E-03 -0.7234735E-03 -0.2395295E-05  0.4767938E-03 -0.4311057E-05 -0.1656485E-03
1145156. -0.1404590E-03 -0.1891174E-02 -0.4549735E-05  0.2542783E-03 -0.3390557E-05 -0.1414751E-03
1106984. -0.1269166E-03 -0.2556579E-02 -0.5571244E-05  0.9636665E-04 -0.2615360E-05 -0.1174663E-03
1068812. -0.1105752E-03 -0.2844774E-02 -0.5807697E-05 -0.9810263E-05 -0.1979569E-05 -0.9512829E-04
1030641. -0.9336690E-04 -0.2862317E-02 -0.5533926E-05 -0.7574440E-04 -0.1470414E-05 -0.7529215E-04
 992469. -0.7663899E-04 -0.2697513E-02 -0.4960293E-05 -0.1114436E-03 -0.1071633E-05 -0.5830792E-04
 954297. -0.6126356E-04 -0.2421298E-02 -0.4241815E-05 -0.1253795E-03 -0.7659380E-06 -0.4420468E-04
 916125. -0.4773594E-04 -0.2088634E-02 -0.3487285E-05 -0.1245181E-03 -0.5365059E-06 -0.3281017E-04
 877953. -0.3626573E-04 -0.1740224E-02 -0.2768064E-05 -0.1144047E-03 -0.3679370E-06 -0.2383392E-04
 839781. -0.2685661E-04 -0.1404463E-02 -0.2126289E-05 -0.9927263E-04 -0.2467559E-06 -0.1693289E-04
 801609. -0.1937373E-04 -0.1099521E-02 -0.1582234E-05 -0.8221463E-04 -0.1615901E-06 -0.1175378E-04
 763438. -0.1359913E-04 -0.8353726E-03 -0.1140677E-05 -0.6534324E-04 -0.1031445E-06 -0.7960604E-05
 725266. -0.9274284E-05 -0.6157394E-03 -0.7961667E-06 -0.4998060E-04 -0.6403663E-07 -0.5251432E-05
 687094. -0.6133029E-05 -0.4398734E-03 -0.5373017E-06 -0.3682927E-04 -0.3857123E-07 -0.3367187E-05
 648922. -0.3923093E-05 -0.3040705E-03 -0.3498998E-06 -0.2613770E-04 -0.2247162E-07 -0.2093004E-05
 610750. -0.2420029E-05 -0.2029342E-03 -0.2192889E-06 -0.1784261E-04 -0.1261737E-07 -0.1257253E-05
 572578. -0.1434247E-05 -0.1303691E-03 -0.1318050E-06 -0.1168879E-04 -0.6797771E-08 -0.7270353E-06
 534406. -0.8128874E-06 -0.8030966E-04 -0.7564461E-07 -0.7324154E-05 -0.3495573E-08 -0.4028264E-06
 496234. -0.4380730E-06 -0.4720790E-04 -0.4122289E-07 -0.4369878E-05 -0.1704471E-08 -0.2126089E-06
 458062. -0.2228666E-06 -0.2631567E-04 -0.2118110E-07 -0.2467935E-05 -0.7817164E-09 -0.1061196E-06
 419891. -0.1060618E-06 -0.1380083E-04 -0.1016933E-07 -0.1309147E-05 -0.3337655E-09 -0.4963199E-07
 381719. -0.4665828E-07 -0.6738366E-05 -0.4508705E-08 -0.6456289E-06 -0.1309159E-09 -0.2149337E-07
 343547. -0.1867951E-07 -0.3021133E-05 -0.1817486E-08 -0.2920004E-06 -0.4635753E-10 -0.8484164E-08
 305375. -0.6662516E-08 -0.1220634E-05 -0.6521536E-09 -0.1188720E-06 -0.1447237E-10 -0.2988335E-08
 267203. -0.2054865E-08 -0.4328179E-06 -0.2021832E-09 -0.4242411E-07 -0.3853147E-11 -0.9115607E-09
 229031. -0.5245557E-09 -0.1295568E-06 -0.5184051E-10 -0.1276875E-07 -0.8333088E-12 -0.2304884E-09
 190859. -0.1035549E-09 -0.3082145E-07 -0.1027173E-10 -0.3051516E-08 -0.1357458E-12 -0.4513630E-10
 152688. -0.1410973E-10 -0.5267286E-08 -0.1403714E-11 -0.5234043E-09 -0.1467791E-13 -0.6109430E-11
 114516. -0.1071876E-11 -0.5348677E-09 -0.1068725E-12 -0.5329436E-10 -0.8309747E-15 -0.4615664E-12
  76344.  0.0000000E+00  0.0000000E+00  0.0000000E+00  0.0000000E+00  0.0000000E+00  0.0000000E+00
  38172.  0.0000000E+00  0.0000000E+00  0.0000000E+00  0.0000000E+00  0.0000000E+00  0.0000000E+00
      0.  0.0000000E+00  0.0000000E+00  0.0000000E+00  0.0000000E+00  0.0000000E+00  0.0000000E+00
