       9       23 S      495        110.74780         15.38099          6.47361        265.51361      185    7
6371000. -0.2530840E-01  0.5409527E+00  0.2401956E-02  0.2771036E-01 -0.2539115E-03  0.5381961E-01
6370000. -0.2539201E-01  0.5243583E+00  0.2397265E-02  0.3205461E-01 -0.2623426E-03  0.5360939E-01
6369000. -0.2547299E-01  0.5074488E+00  0.2391894E-02  0.3638531E-01 -0.2707405E-03  0.5339560E-01
6368000. -0.2555130E-01  0.4902266E+00  0.2385844E-02  0.4070117E-01 -0.2791045E-03  0.5317825E-01
6368000. -0.2555130E-01  0.4902266E+00  0.2385844E-02  0.4070117E-01 -0.2791045E-03  0.5317825E-01
6367000. -0.2562687E-01  0.4726940E+00  0.2379118E-02  0.4500091E-01 -0.2874342E-03  0.5295736E-01
6366000. -0.2569967E-01  0.4548535E+00  0.2371718E-02  0.4928324E-01 -0.2957289E-03  0.5273294E-01
6365000. -0.2576965E-01  0.4367078E+00  0.2363648E-02  0.5354688E-01 -0.3039880E-03  0.5250501E-01
6364000. -0.2583675E-01  0.4182594E+00  0.2354910E-02  0.5779056E-01 -0.3122112E-03  0.5227359E-01
6363000. -0.2590093E-01  0.3995112E+00  0.2345507E-02  0.6201302E-01 -0.3203977E-03  0.5203870E-01
6362000. -0.2596215E-01  0.3804661E+00  0.2335443E-02  0.6621299E-01 -0.3285471E-03  0.5180036E-01
6361000. -0.2602035E-01  0.3611271E+00  0.2324722E-02  0.7038923E-01 -0.3366588E-03  0.5155858E-01
6360000. -0.2607550E-01  0.3414972E+00  0.2313348E-02  0.7454050E-01 -0.3447323E-03  0.5131337E-01
6359000. -0.2612754E-01  0.3215798E+00  0.2301324E-02  0.7866554E-01 -0.3527671E-03  0.5106478E-01
6358000. -0.2617643E-01  0.3013781E+00  0.2288654E-02  0.8276314E-01 -0.3607625E-03  0.5081281E-01
6357000. -0.2622214E-01  0.2808955E+00  0.2275344E-02  0.8683209E-01 -0.3687182E-03  0.5055748E-01
6356000. -0.2626460E-01  0.2601356E+00  0.2261398E-02  0.9087116E-01 -0.3766335E-03  0.5029881E-01
6356000. -0.2626460E-01  0.2839047E+00  0.2261398E-02  0.6618395E-01 -0.3766335E-03  0.5601368E-01
6355000. -0.2630800E-01  0.2691017E+00  0.2250808E-02  0.6874458E-01 -0.3854029E-03  0.5572617E-01
6354000. -0.2634907E-01  0.2541271E+00  0.2239818E-02  0.7128929E-01 -0.3941270E-03  0.5543630E-01
6353000. -0.2638777E-01  0.2389828E+00  0.2228430E-02  0.7381757E-01 -0.4028055E-03  0.5514409E-01
6352000. -0.2642408E-01  0.2236707E+00  0.2216646E-02  0.7632892E-01 -0.4114379E-03  0.5484955E-01
6351000. -0.2645798E-01  0.2081926E+00  0.2204469E-02  0.7882287E-01 -0.4200239E-03  0.5455270E-01
6350000. -0.2648943E-01  0.1925505E+00  0.2191902E-02  0.8129892E-01 -0.4285631E-03  0.5425356E-01
6349000. -0.2651841E-01  0.1767463E+00  0.2178949E-02  0.8375660E-01 -0.4370552E-03  0.5395214E-01
6348000. -0.2654490E-01  0.1607822E+00  0.2165610E-02  0.8619543E-01 -0.4454998E-03  0.5364845E-01
6347000. -0.2656888E-01  0.1446600E+00  0.2151891E-02  0.8861493E-01 -0.4538965E-03  0.5334250E-01
6346600. -0.2657776E-01  0.1381675E+00  0.2146297E-02  0.8957723E-01 -0.4572417E-03  0.5321950E-01
6346600. -0.2657776E-01  0.3183601E+00  0.2146297E-02  0.6984443E-01 -0.4572417E-03  0.6248678E-01
6318800. -0.2717793E-01 -0.5800004E-01  0.1742923E-02  0.1129899E+00 -0.7109668E-03  0.5361824E-01
6291000. -0.2596834E-01 -0.5049613E+00  0.1181324E-02  0.1416901E+00 -0.9236339E-03  0.4369416E-01
6291000. -0.2596834E-01 -0.5067939E+00  0.1181324E-02  0.1455417E+00 -0.9236339E-03  0.4369416E-01
6263000. -0.2266163E-01 -0.9988437E+00  0.5093439E-03  0.1569299E+00 -0.1091964E-02  0.3276992E-01
6235000. -0.1722120E-01 -0.1468647E+01 -0.1685433E-03  0.1482519E+00 -0.1210630E-02  0.2113351E-01
6207000. -0.9864942E-02 -0.1861866E+01 -0.7662670E-03  0.1208818E+00 -0.1277064E-02  0.9048067E-02
6179000. -0.1040517E-02 -0.2129336E+01 -0.1209005E-02  0.7851062E-01 -0.1289958E-02 -0.3174385E-02
6151000.  0.8611082E-02 -0.2233215E+01 -0.1442461E-02  0.2669027E-01 -0.1249485E-02 -0.1517474E-01
6151000.  0.8611082E-02 -0.1867678E+01 -0.1442461E-02  0.2220759E-01 -0.1249485E-02 -0.1565115E-01
6128500.  0.1511439E-01 -0.1800344E+01 -0.1454084E-02 -0.1549503E-01 -0.1182848E-02 -0.2199744E-01
6106000.  0.2122402E-01 -0.1645628E+01 -0.1335524E-02 -0.5107486E-01 -0.1094784E-02 -0.2777333E-01
6083500.  0.2664408E-01 -0.1411601E+01 -0.1098791E-02 -0.8202931E-01 -0.9874246E-03 -0.3291531E-01
6061000.  0.3111598E-01 -0.1111176E+01 -0.7640787E-03 -0.1062503E+00 -0.8630985E-03 -0.3737513E-01
6038500.  0.3443402E-01 -0.7612212E+00 -0.3581344E-03 -0.1221535E+00 -0.7242789E-03 -0.4111840E-01
6016000.  0.3645736E-01 -0.3814039E+00  0.8775888E-04 -0.1287654E+00 -0.5735377E-03 -0.4412404E-01
5993500.  0.3711770E-01  0.7090774E-02  0.5400272E-03 -0.1257653E+00 -0.4134979E-03 -0.4638387E-01
5971000.  0.3642226E-01  0.3829099E+00  0.9651228E-03 -0.1134849E+00 -0.2467932E-03 -0.4789941E-01
5971000.  0.3642226E-01  0.3620272E+00  0.9651228E-03 -0.1051505E+00 -0.2467932E-03 -0.5266739E-01
5937667.  0.3332096E-01  0.8050829E+00  0.1438969E-02 -0.7407191E-01  0.3464520E-04 -0.5469846E-01
5904333.  0.2821754E-01  0.1122644E+01  0.1725221E-02 -0.3440081E-01  0.3235030E-03 -0.5553890E-01
5871000.  0.2182565E-01  0.1296109E+01  0.1793991E-02  0.8131046E-02  0.6141234E-03 -0.5541062E-01
5837667.  0.1490862E-01  0.1324594E+01  0.1644252E-02  0.4833961E-01  0.9019690E-03 -0.5450758E-01
5804333.  0.8193608E-02  0.1222221E+01  0.1299481E-02  0.8209802E-01  0.1183424E-02 -0.5298776E-01
5771000.  0.2303464E-02  0.1014284E+01  0.8013885E-03  0.1066035E+00  0.1455579E-02 -0.5097346E-01
5771000.  0.2303464E-02  0.1014320E+01  0.8013885E-03  0.1065999E+00  0.1455579E-02 -0.5097346E-01
5701000. -0.5689033E-02  0.4010996E+00 -0.5517714E-03  0.1316267E+00  0.1984702E-02 -0.4495646E-01
5701000. -0.5689033E-02  0.3169267E+00 -0.5517714E-03  0.1052922E+00  0.1984702E-02 -0.4335292E-01
5667333. -0.6649205E-02  0.4849395E-01 -0.1094584E-02  0.9898692E-01  0.2205119E-02 -0.4000955E-01
5633667. -0.6241412E-02 -0.1973668E+00 -0.1586928E-02  0.8644544E-01  0.2406917E-02 -0.3630630E-01
5600000. -0.4634607E-02 -0.4026949E+00 -0.2000040E-02  0.6927881E-01  0.2588176E-02 -0.3223233E-01
5600000. -0.4634607E-02 -0.4027314E+00 -0.2000040E-02  0.6928200E-01  0.2588176E-02 -0.3223233E-01
5563518. -0.1785801E-02 -0.5820189E+00 -0.2338909E-02  0.4843185E-01  0.2759352E-02 -0.2752742E-01
5527037.  0.1899981E-02 -0.6930556E+00 -0.2549157E-02  0.2468185E-01  0.2903187E-02 -0.2269553E-01
5490556.  0.6003231E-02 -0.7269094E+00 -0.2619801E-02  0.3627551E-05  0.3019157E-02 -0.1780681E-01
5454074.  0.1007284E-01 -0.6814929E+00 -0.2551169E-02 -0.2364741E-01  0.3107144E-02 -0.1293265E-01
5417593.  0.1366496E-01 -0.5614870E+00 -0.2354372E-02 -0.4448724E-01  0.3167432E-02 -0.8145109E-02
5381111.  0.1638093E-01 -0.3777052E+00 -0.2049892E-02 -0.6104087E-01  0.3200723E-02 -0.3514369E-02
5344630.  0.1789873E-01 -0.1460002E+00 -0.1665568E-02 -0.7223674E-01  0.3208108E-02  0.8919631E-03
5308148.  0.1799833E-01  0.1141977E+00 -0.1234020E-02 -0.7747088E-01  0.3191054E-02  0.5011987E-02
5271667.  0.1657729E-01  0.3814928E+00 -0.7899843E-03 -0.7662256E-01  0.3151362E-02  0.8790424E-02
5235185.  0.1365704E-01  0.6342940E+00 -0.3674886E-03 -0.7003713E-01  0.3091122E-02  0.1218174E-01
5198704.  0.9379528E-02  0.8524256E+00  0.2581351E-05 -0.5847199E-01  0.3012660E-02  0.1515063E-01
5162222.  0.3994103E-02  0.1018654E+01  0.2947077E-03 -0.4301405E-01  0.2918462E-02  0.1767420E-01
5125741. -0.2161890E-02  0.1119826E+01  0.4902750E-03 -0.2498188E-01  0.2811120E-02  0.1974157E-01
5089259. -0.8690329E-02  0.1147756E+01  0.5786367E-03 -0.5812410E-02  0.2693242E-02  0.2135473E-01
5052778. -0.1516079E-01  0.1099629E+01  0.5574421E-03  0.1304663E-01  0.2567400E-02  0.2252748E-01
5016296. -0.2114306E-01  0.9780545E+00  0.4324027E-03  0.3024482E-01  0.2436043E-02  0.2328462E-01
4979815. -0.2623598E-01  0.7907254E+00  0.2164843E-03  0.4461486E-01  0.2301465E-02  0.2366021E-01
4943333. -0.3009596E-01  0.5497068E+00 -0.7138907E-04  0.5524667E-01  0.2165726E-02  0.2369625E-01
4906852. -0.3245842E-01  0.2705243E+00 -0.4079020E-03  0.6153190E-01  0.2030647E-02  0.2343930E-01
4870370. -0.3315510E-01 -0.2903590E-01 -0.7672209E-03  0.6318926E-01  0.1897754E-02  0.2293985E-01
4833889. -0.3212308E-01 -0.3301072E+00 -0.1122798E-02  0.6026186E-01  0.1768296E-02  0.2224921E-01
4797407. -0.2940736E-01 -0.6140695E+00 -0.1449253E-02  0.5309526E-01  0.1643218E-02  0.2141671E-01
4760926. -0.2515639E-01 -0.8636653E+00 -0.1723918E-02  0.4229574E-01  0.1523204E-02  0.2048963E-01
4724444. -0.1961049E-01 -0.1064095E+01 -0.1928242E-02  0.2867317E-01  0.1408663E-02  0.1951015E-01
4687963. -0.1308627E-01 -0.1203807E+01 -0.2048718E-02  0.1317816E-01  0.1299796E-02  0.1851487E-01
4651482. -0.5955195E-02 -0.1275120E+01 -0.2077533E-02 -0.3170086E-02  0.1196599E-02  0.1753389E-01
4615000.  0.1379205E-02 -0.1274523E+01 -0.2012735E-02 -0.1935145E-01  0.1098919E-02  0.1659036E-01
4578518.  0.8505016E-02 -0.1202730E+01 -0.1858067E-02 -0.3440744E-01  0.1006494E-02  0.1570065E-01
4542037.  0.1502612E-01 -0.1064484E+01 -0.1622455E-02 -0.4749706E-01  0.9189868E-03  0.1487477E-01
4505556.  0.2058445E-01 -0.8681103E+00 -0.1319184E-02 -0.5794084E-01  0.8360147E-03  0.1411685E-01
4469074.  0.2487836E-01 -0.6248925E+00 -0.9648919E-03 -0.6524962E-01  0.7571864E-03  0.1342628E-01
4432593.  0.2767720E-01 -0.3483434E+00 -0.5784604E-03 -0.6914020E-01  0.6821316E-03  0.1279859E-01
4396111.  0.2883233E-01 -0.5331216E-01 -0.1797516E-03 -0.6953860E-01  0.6105058E-03  0.1222670E-01
4359630.  0.2828186E-01  0.2448249E+00  0.2114806E-03 -0.6656872E-01  0.5420148E-03  0.1170291E-01
4323148.  0.2605126E-01  0.5310709E+00  0.5767518E-03 -0.6053084E-01  0.4764052E-03  0.1121840E-01
4286667.  0.2224925E-01  0.7915233E+00  0.8996943E-03 -0.5187266E-01  0.4134755E-03  0.1076650E-01
4250185.  0.1705893E-01  0.1014094E+01  0.1166873E-02 -0.4115150E-01  0.3530517E-03  0.1034192E-01
4213704.  0.1072676E-01  0.1188984E+01  0.1368241E-02 -0.2899734E-01  0.2949878E-03  0.9942886E-02
4177222.  0.3547076E-02  0.1309094E+01  0.1497487E-02 -0.1607054E-01  0.2391300E-03  0.9571549E-02
4140741. -0.4152527E-02  0.1370193E+01  0.1552068E-02 -0.3026543E-02  0.1853058E-03  0.9234725E-02
4104259. -0.1202947E-01  0.1370979E+01  0.1533099E-02  0.9521348E-02  0.1332821E-03  0.8944675E-02
4067778. -0.1974094E-01  0.1312949E+01  0.1445022E-02  0.2102772E-01  0.8274428E-04  0.8719892E-02
4031296. -0.2696105E-01  0.1200154E+01  0.1295140E-02  0.3103991E-01  0.3324723E-04  0.8585477E-02
3994815. -0.3339276E-01  0.1038853E+01  0.1093066E-02  0.3921069E-01 -0.1581472E-04  0.8574668E-02
3958333. -0.3878087E-01  0.8370475E+00  0.8500502E-03  0.4530807E-01 -0.6526883E-04  0.8729815E-02
3921852. -0.4291926E-01  0.6040279E+00  0.5783715E-03  0.4921436E-01 -0.1162078E-03  0.9103555E-02
3885370. -0.4565788E-01  0.3498226E+00  0.2906329E-03  0.5092185E-01 -0.1700686E-03  0.9762098E-02
3848889. -0.4690481E-01  0.8474761E-01 -0.7742004E-06  0.5052107E-01 -0.2287060E-03  0.1078775E-01
3812407. -0.4662693E-01 -0.1811196E+00 -0.2842571E-03  0.4818643E-01 -0.2945103E-03  0.1228394E-01
3775926. -0.4484726E-01 -0.4382912E+00 -0.5493872E-03  0.4415801E-01 -0.3705297E-03  0.1438050E-01
3739444. -0.4164036E-01 -0.6782666E+00 -0.7872804E-03  0.3872118E-01 -0.4606593E-03  0.1724245E-01
3702963. -0.3712644E-01 -0.8937327E+00 -0.9907434E-03  0.3218746E-01 -0.5698567E-03  0.2108098E-01
3666482. -0.3146337E-01 -0.1078777E+01 -0.1154410E-02  0.2487348E-01 -0.7044608E-03  0.2616788E-01
3630000. -0.2483865E-01 -0.1228934E+01 -0.1274696E-02  0.1708295E-01 -0.8725933E-03  0.3285706E-01
3630000. -0.2483865E-01 -0.1228927E+01 -0.1274696E-02  0.1708322E-01 -0.8725933E-03  0.3285706E-01
3592500. -0.1723651E-01 -0.1347295E+01 -0.1350595E-02  0.8663101E-02 -0.1091268E-02  0.4184219E-01
3555000. -0.9062042E-02 -0.1422990E+01 -0.1376375E-02  0.8618566E-04 -0.1370504E-02  0.5355612E-01
3517500. -0.5726215E-03 -0.1454070E+01 -0.1351641E-02 -0.8477406E-02 -0.1728726E-02  0.6884245E-01
3480000.  0.7965655E-02 -0.1439472E+01 -0.1276821E-02 -0.1692064E-01 -0.2190123E-02  0.8883002E-01
3480000.  0.7965655E-02 -0.1324864E+00  0.1269718E-02  0.1223606E-01 -0.2190123E-02  0.6377335E-01
3409422.  0.8901874E-02 -0.4013402E-01  0.1119848E-02  0.1452836E-01 -0.2595649E-02  0.1364647E-01
3338844.  0.8941088E-02  0.2902858E-01  0.9536978E-03  0.1523379E-01 -0.2570655E-02 -0.1523887E-01
3268266.  0.8346406E-02  0.7455140E-01  0.7867825E-03  0.1473309E-01 -0.2311293E-02 -0.2964114E-01
3197688.  0.7366621E-02  0.9919544E-01  0.6302645E-03  0.1342036E-01 -0.1948487E-02 -0.3463890E-01
3127109.  0.6209484E-02  0.1073675E+00  0.4911185E-03  0.1165040E-01 -0.1564683E-02 -0.3395230E-01
3056531.  0.5030721E-02  0.1038937E+00  0.3727570E-03  0.9709592E-02 -0.1207418E-02 -0.3020809E-01
2985953.  0.3934091E-02  0.9322088E-01  0.2758454E-03  0.7806122E-02 -0.9000861E-03 -0.2517096E-01
2915375.  0.2978369E-02  0.7898060E-01  0.1991639E-03  0.6074003E-02 -0.6503579E-03 -0.1994788E-01
2844797.  0.2187407E-02  0.6383959E-01  0.1403668E-03  0.4584827E-02 -0.4564527E-03 -0.1516549E-01
2774219.  0.1560718E-02  0.4954455E-01  0.9659251E-04  0.3362656E-02 -0.3116106E-03 -0.1111817E-01
2703641.  0.1082898E-02  0.3707156E-01  0.6490666E-04  0.2399022E-02 -0.2070942E-03 -0.7885728E-02
2633062.  0.7311121E-03  0.2681796E-01  0.4258654E-04  0.1666062E-02 -0.1340465E-03 -0.5422230E-02
2562484.  0.4804619E-03  0.1879139E-01  0.2727763E-04  0.1126782E-02 -0.8451702E-04 -0.3619134E-02
2491906.  0.3073562E-03  0.1276902E-01  0.1705050E-04  0.7422401E-03 -0.5190234E-04 -0.2346594E-02
2421328.  0.1913684E-03  0.8420334E-02  0.1039567E-04  0.4761824E-03 -0.3103460E-04 -0.1478476E-02
2350750.  0.1159294E-03  0.5390299E-02  0.6178484E-05  0.2974476E-03 -0.1805927E-04 -0.9051634E-03
2280172.  0.6829360E-04  0.3349714E-02  0.3576785E-05  0.1808234E-03 -0.1021995E-04 -0.5383322E-03
2209594.  0.3909467E-04  0.2020190E-02  0.2015067E-05  0.1069116E-03 -0.5619706E-05 -0.3108495E-03
2139016.  0.2172766E-04  0.1181771E-02  0.1103591E-05  0.6142712E-04 -0.2999416E-05 -0.1741379E-03
2068438.  0.1171087E-04  0.6700269E-03  0.5868320E-06  0.3426247E-04 -0.1551955E-05 -0.9454707E-04
1997859.  0.6113324E-05  0.3678097E-03  0.3025422E-06  0.1852970E-04 -0.7773365E-06 -0.4969146E-04
1927281.  0.3086197E-05  0.1952469E-03  0.1509838E-06  0.9702733E-05 -0.3762818E-06 -0.2524468E-04
1856703.  0.1504020E-05  0.1000731E-03  0.7280255E-07  0.4910934E-05 -0.1756960E-06 -0.1237552E-04
1786125.  0.7060790E-06  0.4943966E-04  0.3384951E-07  0.2397780E-05 -0.7896278E-07 -0.5842343E-05
1715547.  0.3184338E-06  0.2350508E-04  0.1514577E-07  0.1126313E-05 -0.3407913E-07 -0.2649579E-05
1644969.  0.1372007E-06  0.1076265E-04  0.6521660E-08  0.5061256E-06 -0.1409749E-07 -0.1150316E-05
1574391.  0.5516283E-07  0.4839731E-05  0.2745212E-08  0.2121189E-06 -0.5603337E-08 -0.4743027E-06
1503812.  0.1707988E-07  0.2473471E-05  0.1280401E-08  0.6693842E-07 -0.2207700E-08 -0.1794497E-06
1433234. -0.8259854E-08  0.2515248E-05  0.1125168E-08 -0.4171435E-07 -0.1034771E-08 -0.4861206E-07
1362656. -0.5217342E-07  0.6418598E-05  0.2567504E-08 -0.2559252E-06 -0.9168939E-09  0.2237174E-07
1292078. -0.1951310E-06  0.2323668E-04  0.8640982E-08 -0.1004710E-05 -0.1445575E-08  0.6612407E-07
1221500. -0.7543098E-06  0.9468901E-04  0.3289319E-07 -0.4105588E-05 -0.1788443E-08 -0.7799428E-07
1221500. -0.7543098E-06  0.1801635E-04  0.7932551E-08  0.3975641E-05 -0.1788443E-08  0.2487757E-06
1183328. -0.7329092E-06 -0.1889823E-04 -0.6854322E-08  0.1290078E-05 -0.2202579E-08 -0.4833505E-07
1145156. -0.5809727E-06 -0.2884228E-04 -0.1045938E-07  0.8920233E-07 -0.1670568E-08 -0.1075113E-06
1106984. -0.4107822E-06 -0.2679352E-04 -0.9434525E-08 -0.3446972E-06 -0.1059007E-08 -0.9107876E-07
1068812. -0.2677330E-06 -0.2068881E-04 -0.7033734E-08 -0.4193350E-06 -0.6043271E-09 -0.6073747E-07
1030641. -0.1632738E-06 -0.1430635E-04 -0.4683900E-08 -0.3529259E-06 -0.3195371E-09 -0.3574257E-07
 992469. -0.9384539E-07 -0.9116121E-05 -0.2868956E-08 -0.2522448E-06 -0.1586478E-09 -0.1930541E-07
 954297. -0.5101263E-07 -0.5423040E-05 -0.1637926E-08 -0.1621711E-06 -0.7444592E-10 -0.9736596E-08
 916125. -0.2625446E-07 -0.3030478E-05 -0.8770253E-09 -0.9597117E-07 -0.3311162E-10 -0.4623407E-08
 877953. -0.1278864E-07 -0.1594894E-05 -0.4415321E-09 -0.5282716E-07 -0.1396700E-10 -0.2074348E-08
 839781. -0.5886866E-08 -0.7907911E-06 -0.2090487E-09 -0.2716906E-07 -0.5582000E-11 -0.8801436E-09
 801609. -0.2554526E-08 -0.3689726E-06 -0.9295827E-10 -0.1307185E-07 -0.2109023E-11 -0.3528336E-09
 763438. -0.1041484E-08 -0.1616192E-06 -0.3872245E-10 -0.5878290E-08 -0.7508241E-12 -0.1333206E-09
 725266. -0.3972208E-09 -0.6622454E-07 -0.1505317E-10 -0.2464366E-08 -0.2507500E-12 -0.4730339E-10
 687094. -0.1409825E-09 -0.2526819E-07 -0.5434589E-11 -0.9593801E-09 -0.7812739E-13 -0.1568540E-10
 648922. -0.4626607E-10 -0.8925550E-08 -0.1810984E-11 -0.3449757E-09 -0.2255539E-13 -0.4829815E-11
 610750. -0.1392967E-10 -0.2897876E-08 -0.5528209E-12 -0.1137964E-09 -0.5984265E-14 -0.1370474E-11
 572578. -0.3811446E-11 -0.8571771E-09 -0.1531583E-12 -0.3414180E-10 -0.1444461E-14 -0.3549775E-12
 534406. -0.9368882E-12 -0.2284977E-09 -0.3807330E-13 -0.9217730E-11 -0.3133190E-15 -0.8295398E-13
 496234. -0.2039592E-12 -0.5415753E-10 -0.8372977E-14 -0.2209810E-11 -0.6015749E-16 -0.1723906E-13
 458062. -0.3863045E-13 -0.1122204E-10 -0.1600408E-14 -0.4625989E-12 -0.1003318E-16 -0.3129324E-14
 419891. -0.6224268E-14 -0.1989894E-11 -0.2599763E-15 -0.8278159E-13 -0.1419199E-17 -0.4850568E-15
 381719. -0.8289515E-15 -0.2936681E-12 -0.3486464E-16 -0.1231102E-13 -0.1652708E-18 -0.6192837E-16
 343547.  0.0000000E+00  0.0000000E+00  0.0000000E+00  0.0000000E+00  0.0000000E+00  0.0000000E+00
 305375.  0.0000000E+00  0.0000000E+00  0.0000000E+00  0.0000000E+00  0.0000000E+00  0.0000000E+00
 267203.  0.0000000E+00  0.0000000E+00  0.0000000E+00  0.0000000E+00  0.0000000E+00  0.0000000E+00
 229031.  0.0000000E+00  0.0000000E+00  0.0000000E+00  0.0000000E+00  0.0000000E+00  0.0000000E+00
 190859.  0.0000000E+00  0.0000000E+00  0.0000000E+00  0.0000000E+00  0.0000000E+00  0.0000000E+00
 152688.  0.0000000E+00  0.0000000E+00  0.0000000E+00  0.0000000E+00  0.0000000E+00  0.0000000E+00
 114516.  0.0000000E+00  0.0000000E+00  0.0000000E+00  0.0000000E+00  0.0000000E+00  0.0000000E+00
  76344.  0.0000000E+00  0.0000000E+00  0.0000000E+00  0.0000000E+00  0.0000000E+00  0.0000000E+00
  38172.  0.0000000E+00  0.0000000E+00  0.0000000E+00  0.0000000E+00  0.0000000E+00  0.0000000E+00
      0.  0.0000000E+00  0.0000000E+00  0.0000000E+00  0.0000000E+00  0.0000000E+00  0.0000000E+00
