      10        1 S      503        294.63419         90.57600         25.69312         89.20856      185    7
6371000.  0.2334001E-01 -0.1532664E-01  0.3858595E-02 -0.1948141E-01  0.2768199E-11 -0.4401379E-01
6370000.  0.2334225E-01 -0.1329455E-01  0.3861567E-02 -0.1839606E-01  0.6908982E-05 -0.4402031E-01
6369000.  0.2334418E-01 -0.1126187E-01  0.3864370E-02 -0.1730883E-01  0.1381894E-04 -0.4402624E-01
6368000.  0.2334579E-01 -0.9228636E-02  0.3867001E-02 -0.1621975E-01  0.2072978E-04 -0.4403157E-01
6368000.  0.2334579E-01 -0.9228636E-02  0.3867001E-02 -0.1621975E-01  0.2072978E-04 -0.4403157E-01
6367000.  0.2334708E-01 -0.7194869E-02  0.3869461E-02 -0.1512888E-01  0.2764140E-04 -0.4403630E-01
6366000.  0.2334805E-01 -0.5160600E-02  0.3871750E-02 -0.1403627E-01  0.3455373E-04 -0.4404044E-01
6365000.  0.2334870E-01 -0.3125857E-02  0.3873867E-02 -0.1294196E-01  0.4146665E-04 -0.4404397E-01
6364000.  0.2334903E-01 -0.1090667E-02  0.3875813E-02 -0.1184599E-01  0.4838009E-04 -0.4404691E-01
6363000.  0.2334904E-01  0.9449419E-03  0.3877586E-02 -0.1074843E-01  0.5529394E-04 -0.4404925E-01
6362000.  0.2334873E-01  0.2980941E-02  0.3879187E-02 -0.9649317E-02  0.6220811E-04 -0.4405100E-01
6361000.  0.2334810E-01  0.5017304E-02  0.3880615E-02 -0.8548696E-02  0.6912251E-04 -0.4405214E-01
6360000.  0.2334716E-01  0.7054001E-02  0.3881870E-02 -0.7446616E-02  0.7603703E-04 -0.4405269E-01
6359000.  0.2334589E-01  0.9091006E-02  0.3882953E-02 -0.6343127E-02  0.8295160E-04 -0.4405263E-01
6358000.  0.2334430E-01  0.1112829E-01  0.3883861E-02 -0.5238277E-02  0.8986611E-04 -0.4405198E-01
6357000.  0.2334240E-01  0.1316583E-01  0.3884597E-02 -0.4132113E-02  0.9678047E-04 -0.4405073E-01
6356000.  0.2334017E-01  0.1520358E-01  0.3885159E-02 -0.3024686E-02  0.1036946E-03 -0.4404888E-01
6356000.  0.2334017E-01  0.6497371E-02  0.3885159E-02 -0.9555939E-02  0.1036946E-03 -0.4912743E-01
6355000.  0.2333903E-01  0.7978117E-02  0.3886600E-02 -0.8808334E-02  0.1114057E-03 -0.4912765E-01
6354000.  0.2333766E-01  0.9459094E-02  0.3887924E-02 -0.8059755E-02  0.1191168E-03 -0.4912740E-01
6353000.  0.2333606E-01  0.1094029E-01  0.3889130E-02 -0.7310222E-02  0.1268279E-03 -0.4912665E-01
6352000.  0.2333423E-01  0.1242168E-01  0.3890218E-02 -0.6559758E-02  0.1345388E-03 -0.4912543E-01
6351000.  0.2333216E-01  0.1390327E-01  0.3891189E-02 -0.5808385E-02  0.1422494E-03 -0.4912372E-01
6350000.  0.2332987E-01  0.1538502E-01  0.3892042E-02 -0.5056124E-02  0.1499598E-03 -0.4912153E-01
6349000.  0.2332733E-01  0.1686693E-01  0.3892777E-02 -0.4302999E-02  0.1576698E-03 -0.4911885E-01
6348000.  0.2332457E-01  0.1834899E-01  0.3893393E-02 -0.3549029E-02  0.1653793E-03 -0.4911568E-01
6347000.  0.2332157E-01  0.1983117E-01  0.3893890E-02 -0.2794239E-02  0.1730883E-03 -0.4911203E-01
6346600.  0.2332031E-01  0.2042408E-01  0.3894056E-02 -0.2492097E-02  0.1761717E-03 -0.4911043E-01
6346600.  0.2332031E-01  0.5260646E-02  0.3894056E-02 -0.8017563E-02  0.1761717E-03 -0.5724189E-01
6318800.  0.2323232E-01  0.3516036E-01  0.3892654E-02  0.8721103E-02  0.4256720E-03 -0.5706272E-01
6291000.  0.2301278E-01  0.6553063E-01  0.3817633E-02  0.2567558E-01  0.6736963E-03 -0.5656445E-01
6291000.  0.2301278E-01  0.6627154E-01  0.3817633E-02  0.2752849E-01  0.6736963E-03 -0.5656445E-01
6263000.  0.2265263E-01  0.9766030E-01  0.3657708E-02  0.4520052E-01  0.9205690E-03 -0.5572427E-01
6235000.  0.2215417E-01  0.1291788E+00  0.3420992E-02  0.6241937E-01  0.1163009E-02 -0.5454702E-01
6207000.  0.2151725E-01  0.1606425E+00  0.3110193E-02  0.7886028E-01  0.1399532E-02 -0.5303133E-01
6179000.  0.2074251E-01  0.1918622E+00  0.2729421E-02  0.9421162E-01  0.1628651E-02 -0.5117788E-01
6151000.  0.1983146E-01  0.2226407E+00  0.2284118E-02  0.1081789E+00  0.1848887E-02 -0.4898993E-01
6151000.  0.1983146E-01  0.1763972E+00  0.2284118E-02  0.9250716E-01  0.1848887E-02 -0.5008712E-01
6128500.  0.1918088E-01  0.1918920E+00  0.1943167E-02  0.1004177E+00  0.2023392E-02 -0.4871143E-01
6106000.  0.1847715E-01  0.2064884E+00  0.1576012E-02  0.1073352E+00  0.2192771E-02 -0.4718523E-01
6083500.  0.1772349E-01  0.2201693E+00  0.1186271E-02  0.1131990E+00  0.2356503E-02 -0.4551429E-01
6061000.  0.1692315E-01  0.2329213E+00  0.7777580E-03  0.1179593E+00  0.2514087E-02 -0.4370512E-01
6038500.  0.1607943E-01  0.2447372E+00  0.3544370E-03  0.1215798E+00  0.2665048E-02 -0.4176409E-01
6016000.  0.1519564E-01  0.2556114E+00 -0.7962059E-04  0.1240364E+00  0.2808930E-02 -0.3969783E-01
5993500.  0.1427512E-01  0.2655414E+00 -0.5202781E-03  0.1253164E+00  0.2945305E-02 -0.3751357E-01
5971000.  0.1332119E-01  0.2745314E+00 -0.9633773E-03  0.1254202E+00  0.3073768E-02 -0.3521824E-01
5971000.  0.1332119E-01  0.2473720E+00 -0.9633773E-03  0.1099240E+00  0.3073768E-02 -0.3696210E-01
5937667.  0.1201592E-01  0.2512661E+00 -0.1523296E-02  0.1038472E+00  0.3258983E-02 -0.3381404E-01
5904333.  0.1069501E-01  0.2533648E+00 -0.2047539E-02  0.9633102E-01  0.3427362E-02 -0.3052854E-01
5871000.  0.9367450E-02  0.2538581E+00 -0.2529326E-02  0.8767226E-01  0.3578240E-02 -0.2712954E-01
5837667.  0.8041115E-02  0.2529241E+00 -0.2963435E-02  0.7815008E-01  0.3711086E-02 -0.2363933E-01
5804333.  0.6722994E-02  0.2507299E+00 -0.3346045E-02  0.6802315E-01  0.3825482E-02 -0.2007861E-01
5771000.  0.5419357E-02  0.2474269E+00 -0.3674596E-02  0.5752678E-01  0.3921103E-02 -0.1646724E-01
5771000.  0.5419357E-02  0.2474293E+00 -0.3674596E-02  0.5752458E-01  0.3921103E-02 -0.1646724E-01
5701000.  0.2660052E-02  0.2540152E+00 -0.4205361E-02  0.3862330E-01  0.4057946E-02 -0.8389770E-02
5701000.  0.2660052E-02  0.2092634E+00 -0.4205361E-02  0.2884930E-01  0.4057946E-02 -0.9139543E-02
5667333.  0.1556632E-02  0.2082049E+00 -0.4332349E-02  0.1925547E-01  0.4096789E-02 -0.5557792E-02
5633667.  0.4608961E-03  0.2063758E+00 -0.4409424E-02  0.9976561E-02  0.4116659E-02 -0.1961326E-02
5600000. -0.6232753E-03  0.2038237E+00 -0.4438510E-02  0.1107325E-02  0.4117517E-02  0.1635172E-02
5600000. -0.6232753E-03  0.2038237E+00 -0.4438510E-02  0.1107587E-02  0.4117517E-02  0.1635172E-02
5563518. -0.1785307E-02  0.2019101E+00 -0.4418564E-02 -0.8050730E-02  0.4097003E-02  0.5530578E-02
5527037. -0.2934146E-02  0.1992329E+00 -0.4346694E-02 -0.1700881E-01  0.4054188E-02  0.9421629E-02
5490556. -0.4065550E-02  0.1958256E+00 -0.4224371E-02 -0.2565488E-01  0.3989145E-02  0.1329154E-01
5454074. -0.5175465E-02  0.1917224E+00 -0.4053680E-02 -0.3388429E-01  0.3902040E-02  0.1712386E-01
5417593. -0.6259942E-02  0.1869564E+00 -0.3837298E-02 -0.4159969E-01  0.3793139E-02  0.2090233E-01
5381111. -0.7315337E-02  0.1815602E+00 -0.3578411E-02 -0.4871424E-01  0.3662791E-02  0.2461149E-01
5344630. -0.8338079E-02  0.1755669E+00 -0.3280702E-02 -0.5514999E-01  0.3511442E-02  0.2823597E-01
5308148. -0.9324900E-02  0.1690094E+00 -0.2948235E-02 -0.6084113E-01  0.3339611E-02  0.3176132E-01
5271667. -0.1027260E-01  0.1619191E+00 -0.2585458E-02 -0.6573139E-01  0.3147916E-02  0.3517335E-01
5235185. -0.1117828E-01  0.1543274E+00 -0.2197067E-02 -0.6977727E-01  0.2937034E-02  0.3845873E-01
5198704. -0.1203911E-01  0.1462661E+00 -0.1788017E-02 -0.7294653E-01  0.2707740E-02  0.4160453E-01
5162222. -0.1285252E-01  0.1377658E+00 -0.1363368E-02 -0.7521923E-01  0.2460854E-02  0.4459859E-01
5125741. -0.1361606E-01  0.1288572E+00 -0.9283081E-03 -0.7658670E-01  0.2197292E-02  0.4742942E-01
5089259. -0.1432751E-01  0.1195706E+00 -0.4879921E-03 -0.7705220E-01  0.1918007E-02  0.5008622E-01
5052778. -0.1498475E-01  0.1099363E+00 -0.4757304E-04 -0.7663017E-01  0.1624039E-02  0.5255884E-01
5016296. -0.1558592E-01  0.9998389E-01  0.3879571E-03 -0.7534551E-01  0.1316453E-02  0.5483801E-01
4979815. -0.1612925E-01  0.8974388E-01  0.8137317E-03 -0.7323360E-01  0.9964004E-03  0.5691498E-01
4943333. -0.1661320E-01  0.7924538E-01  0.1225160E-02 -0.7033882E-01  0.6650423E-03  0.5878223E-01
4906852. -0.1703635E-01  0.6851894E-01  0.1617886E-02 -0.6671523E-01  0.3236198E-03  0.6043233E-01
4870370. -0.1739751E-01  0.5759390E-01  0.1987932E-02 -0.6242399E-01 -0.2662489E-04  0.6185932E-01
4833889. -0.1769561E-01  0.4650061E-01  0.2331643E-02 -0.5753294E-01 -0.3843791E-03  0.6305774E-01
4797407. -0.1792978E-01  0.3526887E-01  0.2645817E-02 -0.5211680E-01 -0.7483392E-03  0.6402269E-01
4760926. -0.1809931E-01  0.2392957E-01  0.2927653E-02 -0.4625493E-01 -0.1117137E-02  0.6475049E-01
4724444. -0.1820368E-01  0.1251245E-01  0.3174850E-02 -0.4002968E-01 -0.1489427E-02  0.6523808E-01
4687963. -0.1824252E-01  0.1049046E-02  0.3385560E-02 -0.3352747E-01 -0.1863805E-02  0.6548315E-01
4651482. -0.1821566E-01 -0.1043014E-01  0.3558452E-02 -0.2683558E-01 -0.2238888E-02  0.6548434E-01
4615000. -0.1812309E-01 -0.2189422E-01  0.3692696E-02 -0.2004197E-01 -0.2613288E-02  0.6524094E-01
4578518. -0.1796500E-01 -0.3331143E-01  0.3787956E-02 -0.1323437E-01 -0.2985594E-02  0.6475318E-01
4542037. -0.1774175E-01 -0.4465013E-01  0.3844399E-02 -0.6499090E-02 -0.3354400E-02  0.6402183E-01
4505556. -0.1745387E-01 -0.5587881E-01  0.3862683E-02  0.8038032E-04 -0.3718324E-02  0.6304862E-01
4469074. -0.1710207E-01 -0.6696620E-01  0.3843929E-02  0.6424172E-02 -0.4075998E-02  0.6183589E-01
4432593. -0.1668728E-01 -0.7787962E-01  0.3789707E-02  0.1245619E-01 -0.4426040E-02  0.6038696E-01
4396111. -0.1621056E-01 -0.8858782E-01  0.3702004E-02  0.1810629E-01 -0.4767128E-02  0.5870569E-01
4359630. -0.1567319E-01 -0.9905913E-01  0.3583201E-02  0.2330968E-01 -0.5097924E-02  0.5679649E-01
4323148. -0.1507661E-01 -0.1092624E+00  0.3436016E-02  0.2800884E-01 -0.5417157E-02  0.5466477E-01
4286667. -0.1442245E-01 -0.1191660E+00  0.3263494E-02  0.3215296E-01 -0.5723551E-02  0.5231629E-01
4250185. -0.1371251E-01 -0.1287397E+00  0.3068929E-02  0.3569949E-01 -0.6015901E-02  0.4975763E-01
4213704. -0.1294877E-01 -0.1379531E+00  0.2855858E-02  0.3861368E-01 -0.6293006E-02  0.4699600E-01
4177222. -0.1213336E-01 -0.1467771E+00  0.2627968E-02  0.4086955E-01 -0.6553742E-02  0.4403890E-01
4140741. -0.1126863E-01 -0.1551827E+00  0.2389096E-02  0.4244963E-01 -0.6796999E-02  0.4089477E-01
4104259. -0.1035701E-01 -0.1631427E+00  0.2143126E-02  0.4334546E-01 -0.7021743E-02  0.3757205E-01
4067778. -0.9401171E-02 -0.1706301E+00  0.1893994E-02  0.4355714E-01 -0.7226965E-02  0.3408026E-01
4031296. -0.8403846E-02 -0.1776200E+00  0.1645583E-02  0.4309370E-01 -0.7411737E-02  0.3042877E-01
3994815. -0.7368005E-02 -0.1840882E+00  0.1401725E-02  0.4197259E-01 -0.7575162E-02  0.2662785E-01
3958333. -0.6296646E-02 -0.1900121E+00  0.1166105E-02  0.4021953E-01 -0.7716423E-02  0.2268776E-01
3921852. -0.5193003E-02 -0.1953715E+00  0.9422593E-03  0.3786809E-01 -0.7834746E-02  0.1861938E-01
3885370. -0.4060302E-02 -0.2001475E+00  0.7334903E-03  0.3495912E-01 -0.7929434E-02  0.1443357E-01
3848889. -0.2901996E-02 -0.2043228E+00  0.5428669E-03  0.3154078E-01 -0.7999843E-02  0.1014184E-01
3812407. -0.1721507E-02 -0.2078824E+00  0.3731440E-03  0.2766690E-01 -0.8045401E-02  0.5755490E-02
3775926. -0.5224604E-03 -0.2108140E+00  0.2267705E-03  0.2339735E-01 -0.8065599E-02  0.1286431E-02
3739444.  0.6915833E-03 -0.2131073E+00  0.1058219E-03  0.1879655E-01 -0.8059997E-02 -0.3253762E-02
3702963.  0.1916877E-02 -0.2147541E+00  0.1200601E-04  0.1393340E-01 -0.8028224E-02 -0.7852924E-02
3666482.  0.3149738E-02 -0.2157494E+00 -0.5338258E-04  0.8879734E-02 -0.7969975E-02 -0.1249919E-01
3630000.  0.4386456E-02 -0.2160896E+00 -0.8946542E-04  0.3709781E-02 -0.7885011E-02 -0.1718075E-01
3630000.  0.4386456E-02 -0.2160889E+00 -0.8946542E-04  0.3709654E-02 -0.7885011E-02 -0.1718075E-01
3592500.  0.5661008E-02 -0.2168716E+00 -0.9566531E-04 -0.1609872E-02 -0.7769634E-02 -0.2203006E-01
3555000.  0.6938093E-02 -0.2169478E+00 -0.7051467E-04 -0.6928972E-02 -0.7625597E-02 -0.2691718E-01
3517500.  0.8213525E-02 -0.2163082E+00 -0.1426257E-04 -0.1216360E-01 -0.7452714E-02 -0.3182900E-01
3480000.  0.9483069E-02 -0.2149473E+00  0.7234357E-04 -0.1722866E-01 -0.7250880E-02 -0.3675222E-01
3480000.  0.9483069E-02 -0.3502412E+00  0.2115435E-02  0.1345111E-01 -0.7250880E-02 -0.6658206E-01
3409422.  0.1318784E-01 -0.3171685E+00  0.1924270E-02  0.2102500E-01 -0.6357967E-02 -0.9427804E-01
3338844.  0.1648108E-01 -0.2761955E+00  0.1650760E-02  0.2828632E-01 -0.5171122E-02 -0.1195216E+00
3268266.  0.1928367E-01 -0.2288407E+00  0.1299387E-02  0.3505270E-01 -0.3721519E-02 -0.1416073E+00
3197688.  0.2153330E-01 -0.1766171E+00  0.8765868E-03  0.4115478E-01 -0.2047550E-02 -0.1599377E+00
3127109.  0.2318430E-01 -0.1210004E+00  0.3905772E-03  0.4643873E-01 -0.1935747E-03 -0.1740296E+00
3056531.  0.2420694E-01 -0.6341095E-01 -0.1487838E-03  0.5076630E-01  0.1791259E-02 -0.1835161E+00
2985953.  0.2458691E-01 -0.5189797E-02 -0.7302188E-03  0.5401578E-01  0.3854473E-02 -0.1881484E+00
2915375.  0.2432422E-01  0.5241299E-01 -0.1341188E-02  0.5608237E-01  0.5941447E-02 -0.1877930E+00
2844797.  0.2343217E-01  0.1082518E+00 -0.1968085E-02  0.5687791E-01  0.7996705E-02 -0.1824278E+00
2774219.  0.2193614E-01  0.1612933E+00 -0.2596416E-02  0.5633058E-01  0.9965122E-02 -0.1721372E+00
2703641.  0.1987228E-01  0.2106245E+00 -0.3210982E-02  0.5438524E-01  0.1179306E-01 -0.1571045E+00
2633062.  0.1728612E-01  0.2554597E+00 -0.3796073E-02  0.5100189E-01  0.1342944E-01 -0.1376028E+00
2562484.  0.1423133E-01  0.2951377E+00 -0.4335580E-02  0.4615401E-01  0.1482661E-01 -0.1139875E+00
2491906.  0.1076805E-01  0.3291300E+00 -0.4813209E-02  0.3982973E-01  0.1594132E-01 -0.8668371E-01
2421328.  0.6961601E-02  0.3570387E+00 -0.5212596E-02  0.3202915E-01  0.1673534E-01 -0.5617588E-01
2350750.  0.2880954E-02  0.3785991E+00 -0.5517425E-02  0.2276048E-01  0.1717609E-01 -0.2299590E-01
2280172. -0.1402678E-02  0.3936727E+00 -0.5711520E-02  0.1204106E-01  0.1723706E-01  0.1228918E-01
2209594. -0.5817266E-02  0.4022508E+00 -0.5778933E-02 -0.1065767E-03  0.1689821E-01  0.4908988E-01
2139016. -0.1029138E-01  0.4044493E+00 -0.5703976E-02 -0.1365766E-01  0.1614604E-01  0.8680702E-01
2068438. -0.1475558E-01  0.4005117E+00 -0.5471234E-02 -0.2858992E-01  0.1497373E-01  0.1248448E+00
1997859. -0.1914385E-01  0.3907994E+00 -0.5065488E-02 -0.4488827E-01  0.1338091E-01  0.1626247E+00
1927281. -0.2339467E-01  0.3758012E+00 -0.4471658E-02 -0.6254824E-01  0.1137358E-01  0.1995964E+00
1856703. -0.2745282E-01  0.3561261E+00 -0.3674578E-02 -0.8158772E-01  0.8963508E-02  0.2352547E+00
1786125. -0.3127046E-01  0.3325144E+00 -0.2658733E-02 -0.1020546E+00  0.6167787E-02  0.2691514E+00
1715547. -0.3480870E-01  0.3058432E+00 -0.1407854E-02 -0.1240400E+00  0.3008086E-02  0.3009110E+00
1644969. -0.3803921E-01  0.2771442E+00  0.9566208E-04 -0.1476970E+00 -0.4902379E-03  0.3302462E+00
1574391. -0.4094608E-01  0.2476317E+00  0.1871565E-02 -0.1732649E+00 -0.4299222E-02  0.3569771E+00
1503812. -0.4352806E-01  0.2187468E+00  0.3942919E-02 -0.2011040E+00 -0.8389665E-02  0.3810531E+00
1433234. -0.4580137E-01  0.1922293E+00  0.6337573E-02 -0.2317443E+00 -0.1273246E-01  0.4025794E+00
1362656. -0.4780370E-01  0.1702269E+00  0.9090614E-02 -0.2659610E+00 -0.1730088E-01  0.4218557E+00
1292078. -0.4959958E-01  0.1554734E+00  0.1224751E-01 -0.3048804E+00 -0.2207276E-01  0.4394252E+00
1221500. -0.5128829E-01  0.1515727E+00  0.1586892E-01 -0.3501543E+00 -0.2703363E-01  0.4561499E+00
1221500. -0.5128829E-01  0.3583356E+01  0.4307609E+00  0.2514233E+01 -0.2703363E-01  0.4783682E+00
1183328. -0.7314934E-01  0.3678582E+01  0.4048198E+00  0.6131921E+01 -0.2977658E-01  0.4370257E+00
1145156. -0.9492052E-01  0.3549178E+01  0.3576196E+00  0.9580618E+01 -0.3226811E-01  0.3944715E+00
1106984. -0.1151877E+00  0.3173569E+01  0.2907059E+00  0.1268369E+02 -0.3450146E-01  0.3508720E+00
1068812. -0.1324302E+00  0.2537910E+01  0.2066503E+00  0.1527666E+02 -0.3647092E-01  0.3064145E+00
1030641. -0.1450693E+00  0.1636935E+01  0.1089571E+00  0.1721474E+02 -0.3817189E-01  0.2613003E+00
 992469. -0.1515226E+00  0.4743976E+00  0.1914220E-02  0.1837952E+02 -0.3960116E-01  0.2157420E+00
 954297. -0.1502575E+00 -0.9365341E+00 -0.1095652E+00  0.1868406E+02 -0.4075671E-01  0.1699704E+00
 916125. -0.1398481E+00 -0.2573479E+01 -0.2201549E+00  0.1807717E+02 -0.4163796E-01  0.1242180E+00
 877953. -0.1190296E+00 -0.4405205E+01 -0.3243366E+00  0.1654613E+02 -0.4224575E-01  0.7872730E-01
 839781. -0.8674899E-01 -0.6392356E+01 -0.4166316E+00  0.1411701E+02 -0.4258236E-01  0.3374044E-01
 801609. -0.4221104E-01 -0.8488465E+01 -0.4918350E+00  0.1085470E+02 -0.4265153E-01 -0.1050420E-01
 763438.  0.1508116E-01 -0.1064112E+02 -0.5452374E+00  0.6859898E+01 -0.4245843E-01 -0.5377235E-01
 725266.  0.8530160E-01 -0.1279371E+02 -0.5728368E+00  0.2265663E+01 -0.4200956E-01 -0.9584413E-01
 687094.  0.1682710E+00 -0.1488670E+02 -0.5715084E+00 -0.2767670E+01 -0.4131273E-01 -0.1365089E+00
 648922.  0.2634511E+00 -0.1685961E+02 -0.5391560E+00 -0.8058657E+01 -0.4037695E-01 -0.1755770E+00
 610750.  0.3699429E+00 -0.1865283E+02 -0.4748161E+00 -0.1341190E+02 -0.3921231E-01 -0.2128733E+00
 572578.  0.4864973E+00 -0.2020939E+02 -0.3787190E+00 -0.1862561E+02 -0.3782991E-01 -0.2482458E+00
 534406.  0.6115364E+00 -0.2147675E+02 -0.2523037E+00 -0.2349940E+02 -0.3624165E-01 -0.2815686E+00
 496234.  0.7431849E+00 -0.2240847E+02 -0.9818589E-01 -0.2784214E+02 -0.3446015E-01 -0.3127365E+00
 458062.  0.8793111E+00 -0.2296570E+02  0.7991975E-01 -0.3147935E+02 -0.3249858E-01 -0.3416612E+00
 419891.  0.1017573E+01 -0.2311846E+02  0.2773151E+00 -0.3425998E+02 -0.3037064E-01 -0.3682863E+00
 381719.  0.1155490E+01 -0.2284668E+02  0.4884984E+00 -0.3606259E+02 -0.2809012E-01 -0.3925645E+00
 343547.  0.1290480E+01 -0.2214092E+02  0.7073242E+00 -0.3679953E+02 -0.2567123E-01 -0.4144789E+00
 305375.  0.1419942E+01 -0.2100293E+02  0.9272398E+00 -0.3642139E+02 -0.2312816E-01 -0.4340124E+00
 267203.  0.1541321E+01 -0.1944554E+02  0.1141513E+01 -0.3491794E+02 -0.2047515E-01 -0.4511791E+00
 229031.  0.1652170E+01 -0.1749271E+02  0.1343475E+01 -0.3231989E+02 -0.1772634E-01 -0.4659955E+00
 190859.  0.1750216E+01 -0.1517876E+02  0.1526755E+01 -0.2869683E+02 -0.1489578E-01 -0.4784716E+00
 152688.  0.1833422E+01 -0.1254782E+02  0.1685511E+01 -0.2415593E+02 -0.1199750E-01 -0.4886277E+00
 114516.  0.1900046E+01 -0.9652226E+01  0.1814657E+01 -0.1883711E+02 -0.9045159E-02 -0.4965006E+00
  76344.  0.1948675E+01 -0.6551638E+01  0.1910018E+01 -0.1290863E+02 -0.6052406E-02 -0.5021216E+00
  38172.  0.1978275E+01 -0.3311276E+01  0.1968504E+01 -0.6560984E+01 -0.3032580E-02 -0.5055822E+00
      0.  0.1988195E+01  0.0000000E+00  0.1988159E+01  0.0000000E+00  0.0000000E+00 -0.5064263E+00
