       7       36 S      437        100.02530         10.96440          7.12756        254.63370      185    7
6371000.  0.4966116E-01 -0.3023512E+00 -0.5030855E-03 -0.5016425E-01 -0.2653578E-03 -0.8383110E-01
6370000.  0.4970537E-01 -0.2609123E+00 -0.4951327E-03 -0.5116542E-01 -0.2522129E-03 -0.8366043E-01
6369000.  0.4974306E-01 -0.2192894E+00 -0.4870250E-03 -0.5213757E-01 -0.2390953E-03 -0.8348326E-01
6368000.  0.4977420E-01 -0.1774911E+00 -0.4787671E-03 -0.5308036E-01 -0.2260060E-03 -0.8329958E-01
6368000.  0.4977420E-01 -0.1774911E+00 -0.4787671E-03 -0.5308036E-01 -0.2260060E-03 -0.8329958E-01
6367000.  0.4979877E-01 -0.1355261E+00 -0.4703635E-03 -0.5399345E-01 -0.2129460E-03 -0.8310940E-01
6366000.  0.4981674E-01 -0.9340331E-01 -0.4618189E-03 -0.5487652E-01 -0.1999164E-03 -0.8291274E-01
6365000.  0.4982809E-01 -0.5113149E-01 -0.4531381E-03 -0.5572926E-01 -0.1869182E-03 -0.8270960E-01
6364000.  0.4983278E-01 -0.8719576E-02 -0.4443259E-03 -0.5655136E-01 -0.1739523E-03 -0.8249999E-01
6363000.  0.4983081E-01  0.3382344E-01 -0.4353870E-03 -0.5734255E-01 -0.1610199E-03 -0.8228391E-01
6362000.  0.4982216E-01  0.7648852E-01 -0.4263264E-03 -0.5810253E-01 -0.1481219E-03 -0.8206138E-01
6361000.  0.4980680E-01  0.1192666E+00 -0.4171489E-03 -0.5883106E-01 -0.1352593E-03 -0.8183240E-01
6360000.  0.4978471E-01  0.1621484E+00 -0.4078596E-03 -0.5952788E-01 -0.1224332E-03 -0.8159699E-01
6359000.  0.4975589E-01  0.2051249E+00 -0.3984635E-03 -0.6019273E-01 -0.1096445E-03 -0.8135515E-01
6358000.  0.4972031E-01  0.2481867E+00 -0.3889655E-03 -0.6082541E-01 -0.9689432E-04 -0.8110691E-01
6357000.  0.4967798E-01  0.2913245E+00 -0.3793707E-03 -0.6142568E-01 -0.8418358E-04 -0.8085226E-01
6356000.  0.4962886E-01  0.3345291E+00 -0.3696843E-03 -0.6199336E-01 -0.7151331E-04 -0.8059122E-01
6356000.  0.4962886E-01  0.1662933E+00 -0.3696843E-03 -0.5728533E-01 -0.7151331E-04 -0.9138989E-01
6355000.  0.4960026E-01  0.1980805E+00 -0.3606676E-03 -0.5760192E-01 -0.5718734E-04 -0.9115113E-01
6354000.  0.4956667E-01  0.2299063E+00 -0.3516028E-03 -0.5789906E-01 -0.4289912E-04 -0.9090877E-01
6353000.  0.4952809E-01  0.2617656E+00 -0.3424928E-03 -0.5817669E-01 -0.2864922E-04 -0.9066282E-01
6352000.  0.4948450E-01  0.2936531E+00 -0.3333408E-03 -0.5843474E-01 -0.1443821E-04 -0.9041329E-01
6351000.  0.4943590E-01  0.3255639E+00 -0.3241498E-03 -0.5867317E-01 -0.2666445E-06 -0.9016019E-01
6350000.  0.4938230E-01  0.3574928E+00 -0.3149230E-03 -0.5889191E-01  0.1386491E-04 -0.8990352E-01
6349000.  0.4932368E-01  0.3894347E+00 -0.3056634E-03 -0.5909094E-01  0.2795590E-04 -0.8964329E-01
6348000.  0.4926004E-01  0.4213843E+00 -0.2963741E-03 -0.5927021E-01  0.4200577E-04 -0.8937950E-01
6347000.  0.4919139E-01  0.4533366E+00 -0.2870582E-03 -0.5942968E-01  0.5601395E-04 -0.8911218E-01
6346600.  0.4916253E-01  0.4661171E+00 -0.2833251E-03 -0.5948792E-01  0.6160543E-04 -0.8900425E-01
6346600.  0.4916253E-01  0.1976393E+00 -0.2833251E-03 -0.5628742E-01  0.6160543E-04 -0.1061465E+00
6318800.  0.4681109E-01  0.8771573E+00 -0.4080585E-04 -0.5306315E-01  0.5107764E-03 -0.9953883E-01
6291000.  0.4158596E-01  0.1502891E+01  0.1646225E-03 -0.3948016E-01  0.9286137E-03 -0.9178422E-01
6291000.  0.4158596E-01  0.1523617E+01  0.1646225E-03 -0.3939879E-01  0.9286137E-03 -0.9178422E-01
6263000.  0.3370366E-01  0.2036422E+01  0.2894803E-03 -0.1616273E-01  0.1312193E-02 -0.8257339E-01
6235000.  0.2396236E-01  0.2361487E+01  0.2983740E-03  0.1272006E-01  0.1652782E-02 -0.7224707E-01
6207000.  0.1327595E-01  0.2462708E+01  0.1756323E-03  0.4298586E-01  0.1945887E-02 -0.6100485E-01
6179000.  0.2656879E-02  0.2331978E+01 -0.7478455E-04  0.7006841E-01  0.2188061E-02 -0.4912082E-01
6151000. -0.6912293E-02  0.1990964E+01 -0.4293417E-03  0.8973161E-01  0.2377194E-02 -0.3692638E-01
6151000. -0.6912293E-02  0.1559894E+01 -0.4293417E-03  0.7972949E-01  0.2377194E-02 -0.3654396E-01
6128500. -0.1179235E-01  0.1194429E+01 -0.7245013E-03  0.8646643E-01  0.2494680E-02 -0.3002421E-01
6106000. -0.1530020E-01  0.7877181E+00 -0.1033087E-02  0.8728199E-01  0.2589539E-02 -0.2373861E-01
6083500. -0.1734333E-01  0.3699979E+00 -0.1333921E-02  0.8210189E-01  0.2662690E-02 -0.1773970E-01
6061000. -0.1793617E-01 -0.2875495E-01 -0.1606358E-02  0.7129794E-01  0.2715232E-02 -0.1207535E-01
6038500. -0.1719543E-01 -0.3809523E+00 -0.1831793E-02  0.5564299E-01  0.2748428E-02 -0.6790733E-02
6016000. -0.1532816E-01 -0.6632962E+00 -0.1994955E-02  0.3623730E-01  0.2763695E-02 -0.1929627E-02
5993500. -0.1261389E-01 -0.8582442E+00 -0.2084898E-02  0.1441497E-01  0.2762606E-02  0.2464621E-02
5971000. -0.9382370E-02 -0.9550343E+00 -0.2095650E-02 -0.8360683E-02  0.2746889E-02  0.6347029E-02
5971000. -0.9382370E-02 -0.9582048E+00 -0.2095650E-02 -0.6583082E-02  0.2746889E-02  0.7575260E-02
5937667. -0.4353716E-02 -0.9333453E+00 -0.1989756E-02 -0.3302952E-01  0.2690211E-02  0.1392927E-01
5904333.  0.9821665E-04 -0.7447988E+00 -0.1761150E-02 -0.5313927E-01  0.2602810E-02  0.1932024E-01
5871000.  0.3239702E-02 -0.4414516E+00 -0.1447338E-02 -0.6547035E-01  0.2489713E-02  0.2375324E-01
5837667.  0.4614535E-02 -0.7883310E-01 -0.1090070E-02 -0.6980611E-01  0.2355924E-02  0.2723061E-01
5804333.  0.4055925E-02  0.2891106E+00 -0.7295262E-03 -0.6691137E-01  0.2206421E-02  0.2976108E-01
5771000.  0.1661404E-02  0.6161474E+00 -0.4000270E-03 -0.5822125E-01  0.2046112E-02  0.3136848E-01
5771000.  0.1661404E-02  0.6161284E+00 -0.4000270E-03 -0.5821942E-01  0.2046112E-02  0.3136848E-01
5701000. -0.8179925E-02  0.1107997E+01  0.1046006E-03 -0.3142776E-01  0.1693103E-02  0.3241271E-01
5701000. -0.8179925E-02  0.9246574E+00  0.1046006E-03 -0.2292467E-01  0.1693103E-02  0.3471833E-01
5667333. -0.1319022E-01  0.9568196E+00  0.1925622E-03 -0.1046458E-01  0.1514575E-02  0.3278900E-01
5633667. -0.1814334E-01  0.9044558E+00  0.2169987E-03  0.9817168E-03  0.1347144E-02  0.3053252E-01
5600000. -0.2261980E-01  0.7786084E+00  0.1851688E-03  0.1074257E-01  0.1192312E-02  0.2803512E-01
5600000. -0.2261980E-01  0.7786193E+00  0.1851688E-03  0.1074184E-01  0.1192312E-02  0.2803512E-01
5563518. -0.2655035E-01  0.5836223E+00  0.9956714E-04  0.1879084E-01  0.1039765E-02  0.2525068E-01
5527037. -0.2919975E-01  0.3343274E+00 -0.2546884E-04  0.2445799E-01  0.9030215E-03  0.2252414E-01
5490556. -0.3031408E-01  0.5102344E-01 -0.1755195E-03  0.2750711E-01  0.7816236E-03  0.1989736E-01
5454074. -0.2976097E-01 -0.2443867E+00 -0.3354474E-03  0.2792074E-01  0.6748870E-03  0.1740821E-01
5417593. -0.2753393E-01 -0.5301272E+00 -0.4905817E-03  0.2587920E-01  0.5819310E-03  0.1509011E-01
5381111. -0.2374664E-01 -0.7862060E+00 -0.6277878E-03  0.2172624E-01  0.5016931E-03  0.1296899E-01
5344630. -0.1861941E-01 -0.9956673E+00 -0.7362522E-03  0.1592671E-01  0.4329927E-03  0.1106345E-01
5308148. -0.1245790E-01 -0.1145627E+01 -0.8080691E-03  0.9018681E-02  0.3745586E-03  0.9383731E-02
5271667. -0.5629158E-02 -0.1227801E+01 -0.8385045E-03  0.1567951E-02  0.3250897E-03  0.7932425E-02
5235185.  0.1466909E-02 -0.1238757E+01 -0.8260416E-03 -0.5876483E-02  0.2832866E-03  0.6704381E-02
5198704.  0.8423543E-02 -0.1179746E+01 -0.7721726E-03 -0.1281770E-01  0.2479037E-03  0.5687973E-02
5162222.  0.1485428E-01 -0.1056242E+01 -0.6810080E-03 -0.1884073E-01  0.2177739E-03  0.4866047E-02
5125741.  0.2041383E-01 -0.8772680E+00 -0.5587650E-03 -0.2363010E-01  0.1918449E-03  0.4217200E-02
5089259.  0.2481725E-01 -0.6545117E+00 -0.4131410E-03 -0.2698087E-01  0.1691918E-03  0.3717538E-02
5052778.  0.2785151E-01 -0.4014198E+00 -0.2527045E-03 -0.2879838E-01  0.1490339E-03  0.3341581E-02
5016296.  0.2938358E-01 -0.1321938E+00 -0.8624577E-04 -0.2909227E-01  0.1307350E-03  0.3063953E-02
4979815.  0.2936164E-01  0.1390574E+00  0.7774993E-04 -0.2796319E-01  0.1138031E-03  0.2860360E-02
4943333.  0.2781237E-01  0.3991762E+00  0.2316124E-03 -0.2558571E-01  0.9787954E-04  0.2708095E-02
4906852.  0.2483372E-01  0.6365564E+00  0.3688192E-03 -0.2218869E-01  0.8272787E-04  0.2587940E-02
4870370.  0.2058404E-01  0.8416877E+00  0.4842790E-03 -0.1803433E-01  0.6821278E-04  0.2483092E-02
4833889.  0.1526989E-01  0.1007414E+01  0.5744382E-03 -0.1339900E-01  0.5428717E-04  0.2380337E-02
4797407.  0.9131013E-02  0.1129131E+01  0.6373309E-03 -0.8554176E-02  0.4096674E-04  0.2270263E-02
4760926.  0.2427001E-02  0.1204713E+01  0.6724888E-03 -0.3752168E-02  0.2831438E-04  0.2146313E-02
4724444. -0.4577933E-02  0.1234390E+01  0.6808073E-03  0.7866779E-03  0.1641997E-04  0.2005063E-02
4687963. -0.1162622E-01  0.1220463E+01  0.6643315E-03  0.4881304E-02  0.5386886E-05  0.1845641E-02
4651482. -0.1847919E-01  0.1166963E+01  0.6260170E-03  0.8395642E-02 -0.4684019E-05  0.1669354E-02
4615000. -0.2492522E-01  0.1079247E+01  0.5694648E-03  0.1123948E-01 -0.1370394E-04  0.1479068E-02
4578518. -0.3078582E-01  0.9635901E+00  0.4986674E-03  0.1336693E-01 -0.2160403E-04  0.1278964E-02
4542037. -0.3592012E-01  0.8267724E+00  0.4177622E-03  0.1477281E-01 -0.2834046E-04  0.1073491E-02
4505556. -0.4022690E-01  0.6756932E+00  0.3308088E-03  0.1548701E-01 -0.3389718E-04  0.8677561E-03
4469074. -0.4364389E-01  0.5170349E+00  0.2416099E-03  0.1556795E-01 -0.3828666E-04  0.6665300E-03
4432593. -0.4614557E-01  0.3570040E+00  0.1535773E-03  0.1509511E-01 -0.4154811E-04  0.4745917E-03
4396111. -0.4774028E-01  0.2010828E+00  0.6961444E-04  0.1416204E-01 -0.4374766E-04  0.2961161E-03
4359630. -0.4846520E-01  0.5391623E-01 -0.7924917E-05  0.1286938E-01 -0.4496955E-04  0.1336501E-03
4323148. -0.4838153E-01 -0.8080857E-01 -0.7727877E-04  0.1131907E-01 -0.4531569E-04 -0.9397842E-05
4286667. -0.4756879E-01 -0.2003580E+00 -0.1372496E-03  0.9608466E-02 -0.4490076E-04 -0.1319912E-03
4250185. -0.4611937E-01 -0.3029592E+00 -0.1871845E-03  0.7827324E-02 -0.4384644E-04 -0.2325049E-03
4213704. -0.4413334E-01 -0.3877131E+00 -0.2269071E-03  0.6054023E-02 -0.4228109E-04 -0.3105153E-03
4177222. -0.4171345E-01 -0.4545203E+00 -0.2566589E-03  0.4354292E-02 -0.4033310E-04 -0.3661198E-03
4140741. -0.3896125E-01 -0.5039520E+00 -0.2770143E-03  0.2779768E-02 -0.3813125E-04 -0.3992919E-03
4104259. -0.3597309E-01 -0.5371336E+00 -0.2888060E-03  0.1368302E-02 -0.3580163E-04 -0.4107599E-03
4067778. -0.3283794E-01 -0.5556060E+00 -0.2930451E-03  0.1449951E-03 -0.3346939E-04 -0.4002116E-03
4031296. -0.2963470E-01 -0.5612088E+00 -0.2908506E-03 -0.8775175E-03 -0.3126009E-04 -0.3677467E-03
3994815. -0.2643154E-01 -0.5559552E+00 -0.2833846E-03 -0.1696703E-02 -0.2930194E-04 -0.3122237E-03
3958333. -0.2328449E-01 -0.5419305E+00 -0.2717957E-03 -0.2319127E-02 -0.2773264E-04 -0.2314839E-03
3921852. -0.2023799E-01 -0.5212006E+00 -0.2571759E-03 -0.2758209E-02 -0.2670541E-04 -0.1221574E-03
3885370. -0.1732458E-01 -0.4957359E+00 -0.2405215E-03 -0.3033194E-02 -0.2639940E-04  0.2160630E-04
3848889. -0.1456623E-01 -0.4673534E+00 -0.2227067E-03 -0.3168053E-02 -0.2703480E-04  0.2083781E-03
3812407. -0.1197481E-01 -0.4376541E+00 -0.2044553E-03 -0.3190362E-02 -0.2889166E-04  0.4506826E-03
3775926. -0.9554012E-02 -0.4079852E+00 -0.1863249E-03 -0.3131559E-02 -0.3233548E-04  0.7661405E-03
3739444. -0.7300396E-02 -0.3793817E+00 -0.1686777E-03 -0.3028014E-02 -0.3785193E-04  0.1179360E-02
3702963. -0.5205904E-02 -0.3525008E+00 -0.1516508E-03 -0.2923021E-02 -0.4609269E-04  0.1724322E-02
3666482. -0.3259855E-02 -0.3275145E+00 -0.1351029E-03 -0.2870977E-02 -0.5793833E-04  0.2447468E-02
3630000. -0.1452360E-02 -0.3039430E+00 -0.1185344E-03 -0.2944096E-02 -0.7458184E-04  0.3412174E-02
3630000. -0.1452360E-02 -0.3039412E+00 -0.1185344E-03 -0.2944038E-02 -0.7458184E-04  0.3412174E-02
3592500.  0.2682491E-03 -0.2804426E+00 -0.1003429E-03 -0.3292148E-02 -0.9837229E-04  0.4734593E-02
3555000.  0.1842156E-02 -0.2533665E+00 -0.7895358E-04 -0.4063761E-02 -0.1311890E-03  0.6502212E-02
3517500.  0.3232778E-02 -0.2169349E+00 -0.5119491E-04 -0.5506938E-02 -0.1761000E-03  0.8874411E-02
3480000.  0.4359087E-02 -0.1615306E+00 -0.1207409E-04 -0.8002491E-02 -0.2372502E-03  0.1205941E-01
3480000.  0.4359087E-02  0.1782988E+00  0.1736443E-03  0.7659453E-02 -0.2372502E-03 -0.1652488E-02
3409422.  0.2726149E-02  0.1194396E+00  0.1050505E-03  0.4896656E-02 -0.1941093E-03 -0.5166912E-02
3338844.  0.1652028E-02  0.7698306E-01  0.6183362E-04  0.3033854E-02 -0.1359702E-03 -0.5002685E-02
3268266.  0.9711868E-03  0.4787714E-01  0.3542710E-04  0.1823979E-02 -0.8698809E-04 -0.3781543E-02
3197688.  0.5543204E-03  0.2878906E-01  0.1976266E-04  0.1065010E-02 -0.5220764E-04 -0.2532450E-02
3127109.  0.3073403E-03  0.1676151E-01  0.1073476E-04  0.6042904E-03 -0.2979234E-04 -0.1568866E-02
3056531.  0.1655821E-03  0.9458375E-02  0.5677536E-05  0.3333122E-03 -0.1628673E-04 -0.9169795E-03
2985953.  0.8669167E-04  0.5176122E-02  0.2923207E-05  0.1787403E-03 -0.8567155E-05 -0.5109364E-03
2915375.  0.4410314E-04  0.2748025E-02  0.1464700E-05  0.9318243E-04 -0.4347735E-05 -0.2730101E-03
2844797.  0.2179591E-04  0.1415469E-02  0.7138867E-06  0.4721589E-04 -0.2131983E-05 -0.1403832E-03
2774219.  0.1045948E-04  0.7072699E-03  0.3382580E-06  0.2324441E-04 -0.1010992E-05 -0.6960953E-04
2703641.  0.4871082E-05  0.3427128E-03  0.1557029E-06  0.1111198E-04 -0.4637401E-06 -0.3332153E-04
2633062.  0.2199893E-05  0.1609560E-03  0.6956746E-07  0.5154723E-05 -0.2057330E-06 -0.1540572E-04
2562484.  0.9626498E-06  0.7321914E-04  0.3014147E-07  0.2318511E-05 -0.8823687E-07 -0.6879298E-05
2491906.  0.4077314E-06  0.3223302E-04  0.1264977E-07  0.1010112E-05 -0.3655879E-07 -0.2965767E-05
2421328.  0.1669562E-06  0.1371778E-04  0.5135868E-08  0.4257852E-06 -0.1461856E-07 -0.1233535E-05
2350750.  0.6600298E-07  0.5636923E-05  0.2014376E-08  0.1734222E-06 -0.5634576E-08 -0.4944879E-06
2280172.  0.2515288E-07  0.2233372E-05  0.7620252E-09  0.6814996E-07 -0.2090427E-08 -0.1908114E-06
2209594.  0.9224014E-08  0.8518025E-06  0.2775395E-09  0.2579550E-07 -0.7452395E-09 -0.7076822E-07
2139016.  0.3248711E-08  0.3121602E-06  0.9712687E-10  0.9386812E-08 -0.2548038E-09 -0.2518173E-07
2068438.  0.1096498E-08  0.1096919E-06  0.3258696E-10  0.3276915E-08 -0.8337051E-10 -0.8579337E-08
1997859.  0.3537797E-09  0.3687271E-07  0.1045555E-10  0.1094818E-08 -0.2603931E-10 -0.2792004E-08
1927281.  0.1088176E-09  0.1182586E-07  0.3199251E-11  0.3491380E-09 -0.7741992E-11 -0.8656167E-09
1856703.  0.3180895E-10  0.3607918E-08  0.9306372E-12  0.1059534E-09 -0.2184237E-11 -0.2548938E-09
1786125.  0.8805692E-11  0.1043548E-08  0.2564553E-12  0.3049445E-10 -0.5826614E-12 -0.7104359E-10
1715547.  0.2299509E-11  0.2850574E-09  0.6668147E-13  0.8292005E-11 -0.1463636E-12 -0.1866986E-10
1644969.  0.5641935E-12  0.7318311E-10  0.1627810E-13  0.2122096E-11 -0.3444560E-13 -0.4607973E-11
1574391.  0.0000000E+00  0.0000000E+00  0.0000000E+00  0.0000000E+00  0.0000000E+00  0.0000000E+00
1503812.  0.0000000E+00  0.0000000E+00  0.0000000E+00  0.0000000E+00  0.0000000E+00  0.0000000E+00
1433234.  0.0000000E+00  0.0000000E+00  0.0000000E+00  0.0000000E+00  0.0000000E+00  0.0000000E+00
1362656.  0.0000000E+00  0.0000000E+00  0.0000000E+00  0.0000000E+00  0.0000000E+00  0.0000000E+00
1292078.  0.0000000E+00  0.0000000E+00  0.0000000E+00  0.0000000E+00  0.0000000E+00  0.0000000E+00
1221500.  0.0000000E+00  0.0000000E+00  0.0000000E+00  0.0000000E+00  0.0000000E+00  0.0000000E+00
1221500.  0.0000000E+00  0.0000000E+00  0.0000000E+00  0.0000000E+00  0.0000000E+00  0.0000000E+00
1183328.  0.0000000E+00  0.0000000E+00  0.0000000E+00  0.0000000E+00  0.0000000E+00  0.0000000E+00
1145156.  0.0000000E+00  0.0000000E+00  0.0000000E+00  0.0000000E+00  0.0000000E+00  0.0000000E+00
1106984.  0.0000000E+00  0.0000000E+00  0.0000000E+00  0.0000000E+00  0.0000000E+00  0.0000000E+00
1068812.  0.0000000E+00  0.0000000E+00  0.0000000E+00  0.0000000E+00  0.0000000E+00  0.0000000E+00
1030641.  0.0000000E+00  0.0000000E+00  0.0000000E+00  0.0000000E+00  0.0000000E+00  0.0000000E+00
 992469.  0.0000000E+00  0.0000000E+00  0.0000000E+00  0.0000000E+00  0.0000000E+00  0.0000000E+00
 954297.  0.0000000E+00  0.0000000E+00  0.0000000E+00  0.0000000E+00  0.0000000E+00  0.0000000E+00
 916125.  0.0000000E+00  0.0000000E+00  0.0000000E+00  0.0000000E+00  0.0000000E+00  0.0000000E+00
 877953.  0.0000000E+00  0.0000000E+00  0.0000000E+00  0.0000000E+00  0.0000000E+00  0.0000000E+00
 839781.  0.0000000E+00  0.0000000E+00  0.0000000E+00  0.0000000E+00  0.0000000E+00  0.0000000E+00
 801609.  0.0000000E+00  0.0000000E+00  0.0000000E+00  0.0000000E+00  0.0000000E+00  0.0000000E+00
 763438.  0.0000000E+00  0.0000000E+00  0.0000000E+00  0.0000000E+00  0.0000000E+00  0.0000000E+00
 725266.  0.0000000E+00  0.0000000E+00  0.0000000E+00  0.0000000E+00  0.0000000E+00  0.0000000E+00
 687094.  0.0000000E+00  0.0000000E+00  0.0000000E+00  0.0000000E+00  0.0000000E+00  0.0000000E+00
 648922.  0.0000000E+00  0.0000000E+00  0.0000000E+00  0.0000000E+00  0.0000000E+00  0.0000000E+00
 610750.  0.0000000E+00  0.0000000E+00  0.0000000E+00  0.0000000E+00  0.0000000E+00  0.0000000E+00
 572578.  0.0000000E+00  0.0000000E+00  0.0000000E+00  0.0000000E+00  0.0000000E+00  0.0000000E+00
 534406.  0.0000000E+00  0.0000000E+00  0.0000000E+00  0.0000000E+00  0.0000000E+00  0.0000000E+00
 496234.  0.0000000E+00  0.0000000E+00  0.0000000E+00  0.0000000E+00  0.0000000E+00  0.0000000E+00
 458062.  0.0000000E+00  0.0000000E+00  0.0000000E+00  0.0000000E+00  0.0000000E+00  0.0000000E+00
 419891.  0.0000000E+00  0.0000000E+00  0.0000000E+00  0.0000000E+00  0.0000000E+00  0.0000000E+00
 381719.  0.0000000E+00  0.0000000E+00  0.0000000E+00  0.0000000E+00  0.0000000E+00  0.0000000E+00
 343547.  0.0000000E+00  0.0000000E+00  0.0000000E+00  0.0000000E+00  0.0000000E+00  0.0000000E+00
 305375.  0.0000000E+00  0.0000000E+00  0.0000000E+00  0.0000000E+00  0.0000000E+00  0.0000000E+00
 267203.  0.0000000E+00  0.0000000E+00  0.0000000E+00  0.0000000E+00  0.0000000E+00  0.0000000E+00
 229031.  0.0000000E+00  0.0000000E+00  0.0000000E+00  0.0000000E+00  0.0000000E+00  0.0000000E+00
 190859.  0.0000000E+00  0.0000000E+00  0.0000000E+00  0.0000000E+00  0.0000000E+00  0.0000000E+00
 152688.  0.0000000E+00  0.0000000E+00  0.0000000E+00  0.0000000E+00  0.0000000E+00  0.0000000E+00
 114516.  0.0000000E+00  0.0000000E+00  0.0000000E+00  0.0000000E+00  0.0000000E+00  0.0000000E+00
  76344.  0.0000000E+00  0.0000000E+00  0.0000000E+00  0.0000000E+00  0.0000000E+00  0.0000000E+00
  38172.  0.0000000E+00  0.0000000E+00  0.0000000E+00  0.0000000E+00  0.0000000E+00  0.0000000E+00
      0.  0.0000000E+00  0.0000000E+00  0.0000000E+00  0.0000000E+00  0.0000000E+00  0.0000000E+00
