      12       19 S      573        107.28700         19.13400          6.83870        287.90820      185    7
6371000. -0.1094228E-01  0.4190021E+00  0.2748242E-02  0.1369052E-01 -0.2422787E-03  0.2548016E-01
6370000. -0.1100746E-01  0.4114023E+00  0.2745661E-02  0.1919582E-01 -0.2462648E-03  0.2531011E-01
6369000. -0.1107142E-01  0.4035306E+00  0.2742216E-02  0.2469405E-01 -0.2502240E-03  0.2513821E-01
6368000. -0.1113412E-01  0.3953881E+00  0.2737910E-02  0.3018342E-01 -0.2541561E-03  0.2496448E-01
6368000. -0.1113412E-01  0.3953881E+00  0.2737910E-02  0.3018342E-01 -0.2541561E-03  0.2496448E-01
6367000. -0.1119552E-01  0.3869758E+00  0.2732742E-02  0.3566215E-01 -0.2580608E-03  0.2478892E-01
6366000. -0.1125559E-01  0.3782949E+00  0.2726715E-02  0.4112847E-01 -0.2619378E-03  0.2461157E-01
6365000. -0.1131427E-01  0.3693468E+00  0.2719831E-02  0.4658061E-01 -0.2657869E-03  0.2443243E-01
6364000. -0.1137152E-01  0.3601327E+00  0.2712093E-02  0.5201680E-01 -0.2696076E-03  0.2425152E-01
6363000. -0.1142731E-01  0.3506543E+00  0.2703503E-02  0.5743527E-01 -0.2733999E-03  0.2406886E-01
6362000. -0.1148158E-01  0.3409131E+00  0.2694064E-02  0.6283428E-01 -0.2771633E-03  0.2388446E-01
6361000. -0.1153431E-01  0.3309107E+00  0.2683779E-02  0.6821206E-01 -0.2808976E-03  0.2369834E-01
6360000. -0.1158545E-01  0.3206490E+00  0.2672652E-02  0.7356689E-01 -0.2846026E-03  0.2351052E-01
6359000. -0.1163496E-01  0.3101299E+00  0.2660686E-02  0.7889701E-01 -0.2882780E-03  0.2332102E-01
6358000. -0.1168279E-01  0.2993553E+00  0.2647886E-02  0.8420070E-01 -0.2919236E-03  0.2312985E-01
6357000. -0.1172892E-01  0.2883273E+00  0.2634255E-02  0.8947625E-01 -0.2955389E-03  0.2293702E-01
6356000. -0.1177329E-01  0.2770481E+00  0.2619799E-02  0.9472193E-01 -0.2991239E-03  0.2274257E-01
6356000. -0.1177329E-01  0.2701973E+00  0.2619799E-02  0.6289270E-01 -0.2991239E-03  0.2530430E-01
6355000. -0.1181509E-01  0.2623212E+00  0.2609660E-02  0.6629275E-01 -0.3030782E-03  0.2508154E-01
6354000. -0.1185563E-01  0.2542874E+00  0.2598989E-02  0.6967805E-01 -0.3069975E-03  0.2485756E-01
6353000. -0.1189491E-01  0.2460969E+00  0.2587787E-02  0.7304785E-01 -0.3108815E-03  0.2463236E-01
6352000. -0.1193288E-01  0.2377508E+00  0.2576058E-02  0.7640144E-01 -0.3147301E-03  0.2440597E-01
6351000. -0.1196953E-01  0.2292504E+00  0.2563804E-02  0.7973811E-01 -0.3185430E-03  0.2417839E-01
6350000. -0.1200484E-01  0.2205967E+00  0.2551027E-02  0.8305714E-01 -0.3223202E-03  0.2394964E-01
6349000. -0.1203877E-01  0.2117911E+00  0.2537731E-02  0.8635781E-01 -0.3260613E-03  0.2371974E-01
6348000. -0.1207132E-01  0.2028348E+00  0.2523919E-02  0.8963943E-01 -0.3297663E-03  0.2348870E-01
6347000. -0.1210244E-01  0.1937292E+00  0.2509593E-02  0.9290127E-01 -0.3334349E-03  0.2325653E-01
6346600. -0.1211449E-01  0.1900455E+00  0.2503719E-02  0.9420034E-01 -0.3348921E-03  0.2316335E-01
6346600. -0.1211449E-01  0.3009164E+00  0.2503719E-02  0.6836566E-01 -0.3348921E-03  0.2738750E-01
6318800. -0.1296141E-01  0.7287002E-01  0.2065550E-02  0.1302261E+00 -0.4397937E-03  0.2059702E-01
6291000. -0.1264323E-01 -0.2284608E+00  0.1392053E-02  0.1750946E+00 -0.5139253E-03  0.1331329E-01
6291000. -0.1264323E-01 -0.2276331E+00  0.1392053E-02  0.1804827E+00 -0.5139253E-03  0.1331329E-01
6263000. -0.1087141E-01 -0.5821554E+00  0.5388922E-03  0.2033538E+00 -0.5557138E-03  0.5665116E-02
6235000. -0.7530465E-02 -0.9336436E+00 -0.3552957E-03  0.1989784E+00 -0.5635368E-03 -0.2107848E-02
6207000. -0.2741003E-02 -0.1233262E+01 -0.1171183E-02  0.1681622E+00 -0.5373335E-03 -0.9779425E-02
6179000.  0.3166386E-02 -0.1435390E+01 -0.1800901E-02  0.1152530E+00 -0.4780936E-03 -0.1709770E-01
6151000.  0.9679474E-02 -0.1503995E+01 -0.2162464E-02  0.4754810E-01 -0.3879693E-03 -0.2378628E-01
6151000.  0.9679474E-02 -0.1281977E+01 -0.2162464E-02  0.4032786E-01 -0.3879693E-03 -0.2432180E-01
6128500.  0.1412212E-01 -0.1221131E+01 -0.2213987E-02 -0.1112198E-01 -0.2965537E-03 -0.2734481E-01
6106000.  0.1821529E-01 -0.1084759E+01 -0.2086445E-02 -0.6042629E-01 -0.1955767E-03 -0.2973082E-01
6083500.  0.2170282E-01 -0.8797179E+00 -0.1794109E-02 -0.1038643E+00 -0.8733921E-04 -0.3145346E-01
6061000.  0.2436161E-01 -0.6177408E+00 -0.1363494E-02 -0.1382653E+00  0.2579346E-04 -0.3250258E-01
6038500.  0.2601734E-01 -0.3145611E+00 -0.8310099E-03 -0.1612266E+00  0.1414463E-03 -0.3288250E-01
6016000.  0.2655664E-01  0.1125740E-01 -0.2399624E-03 -0.1712646E+00  0.2572835E-03 -0.3261104E-01
5993500.  0.2593476E-01  0.3396585E+00  0.3628474E-03 -0.1678905E+00  0.3710549E-03 -0.3171844E-01
5971000.  0.2417829E-01  0.6505127E+00  0.9306663E-03 -0.1516144E+00  0.4806339E-03 -0.3024417E-01
5971000.  0.2417829E-01  0.5988391E+00  0.9306663E-03 -0.1376442E+00  0.4806339E-03 -0.3340931E-01
5937667.  0.2011286E-01  0.9369353E+00  0.1546246E-02 -0.9513963E-01  0.6502583E-03 -0.3128494E-01
5904333.  0.1458811E-01  0.1152841E+01  0.1907174E-02 -0.4172428E-01  0.8066839E-03 -0.2840314E-01
5871000.  0.8286572E-02  0.1233253E+01  0.1978618E-02  0.1415610E-01  0.9465537E-03 -0.2499314E-01
5837667.  0.1912883E-02  0.1182462E+01  0.1767931E-02  0.6500041E-01  0.1067622E-02 -0.2124352E-01
5804333. -0.3890383E-02  0.1019266E+01  0.1317396E-02  0.1050476E+00  0.1168509E-02 -0.1729791E-01
5771000. -0.8607293E-02  0.7727053E+00  0.6939793E-03  0.1306751E+00  0.1248467E-02 -0.1325781E-01
5771000. -0.8607293E-02  0.7727300E+00  0.6939793E-03  0.1306711E+00  0.1248467E-02 -0.1325781E-01
5701000. -0.1377682E-01  0.1481980E+00 -0.8681756E-03  0.1418908E+00  0.1348645E-02 -0.4912567E-02
5701000. -0.1377682E-01  0.1072352E+00 -0.8681756E-03  0.1152339E+00  0.1348645E-02 -0.1029377E-02
5667333. -0.1367686E-01 -0.1398275E+00 -0.1435352E-02  0.9790555E-01  0.1342738E-02  0.3267584E-02
5633667. -0.1237098E-01 -0.3461331E+00 -0.1889226E-02  0.7282200E-01  0.1314083E-02  0.7580820E-02
5600000. -0.1011683E-01 -0.4967344E+00 -0.2196441E-02  0.4289262E-01  0.1262594E-02  0.1190837E-01
5600000. -0.1011683E-01 -0.4967619E+00 -0.2196441E-02  0.4289426E-01  0.1262594E-02  0.1190837E-01
5563518. -0.6939377E-02 -0.6003278E+00 -0.2344109E-02  0.8269788E-02  0.1181181E-02  0.1648514E-01
5527037. -0.3393457E-02 -0.6247264E+00 -0.2289740E-02 -0.2709730E-01  0.1074343E-02  0.2077748E-01
5490556.  0.6248258E-04 -0.5695071E+00 -0.2038799E-02 -0.5985078E-01  0.9439122E-03  0.2471382E-01
5454074.  0.2990552E-02 -0.4422009E+00 -0.1615041E-02 -0.8700076E-01  0.7921192E-03  0.2822660E-01
5417593.  0.5016489E-02 -0.2573711E+00 -0.1057690E-02 -0.1061875E+00  0.6215781E-03  0.3125393E-01
5381111.  0.5866080E-02 -0.3499244E-01 -0.4171236E-03 -0.1158801E+00  0.4352167E-03  0.3374234E-01
5344630.  0.5390091E-02  0.2015693E+00  0.2500756E-03 -0.1154750E+00  0.2362611E-03  0.3564840E-01
5308148.  0.3577254E-02  0.4278887E+00  0.8866570E-03 -0.1053122E+00  0.2812900E-04  0.3694156E-01
5271667.  0.5539329E-03  0.6207377E+00  0.1439784E-02 -0.8659887E-01 -0.1856048E-03  0.3760558E-01
5235185. -0.3429465E-02  0.7602544E+00  0.1865740E-02 -0.6126108E-01 -0.4013411E-03  0.3764023E-01
5198704. -0.8022224E-02  0.8316513E+00  0.2133373E-02 -0.3174186E-01 -0.6155026E-03  0.3706171E-01
5162222. -0.1280712E-01  0.8264813E+00  0.2226457E-02 -0.7566795E-03 -0.8246752E-03  0.3590243E-01
5125741. -0.1733785E-01  0.7432643E+00  0.2144495E-02  0.2895088E-01 -0.1025652E-02  0.3421027E-01
5089259. -0.2118023E-01  0.5874958E+00  0.1902187E-02  0.5485452E-01 -0.1215561E-02  0.3204603E-01
5052778. -0.2394987E-01  0.3710745E+00  0.1527605E-02  0.7484686E-01 -0.1391891E-02  0.2948174E-01
5016296. -0.2534651E-01  0.1111418E+00  0.1059245E-02  0.8740533E-01 -0.1552584E-02  0.2659667E-01
4979815. -0.2517940E-01 -0.1714049E+00  0.5424463E-03  0.9169066E-01 -0.1696033E-02  0.2347470E-01
4943333. -0.2338381E-01 -0.4537756E+00  0.2522408E-04  0.8758920E-01 -0.1821134E-02  0.2020037E-01
4906852. -0.2002666E-01 -0.7131453E+00 -0.4457340E-03  0.7568984E-01 -0.1927241E-02  0.1685525E-01
4870370. -0.1530072E-01 -0.9285790E+00 -0.8289967E-03  0.5720304E-01 -0.2014176E-02  0.1351536E-01
4833889. -0.9509776E-02 -0.1082640E+01 -0.1091513E-02  0.3383739E-01 -0.2082164E-02  0.1024841E-01
4797407. -0.3043462E-02 -0.1162780E+01 -0.1211092E-02  0.7636891E-02 -0.2131793E-02  0.7111049E-02
4760926.  0.3652262E-02 -0.1162213E+01 -0.1177775E-02 -0.1919363E-01 -0.2163938E-02  0.4148740E-02
4724444.  0.1011102E-01 -0.1080378E+01 -0.9942468E-03 -0.4447485E-01 -0.2179703E-02  0.1394121E-02
4687963.  0.1588030E-01 -0.9228823E+00 -0.6752119E-03 -0.6621774E-01 -0.2180341E-02 -0.1132099E-02
4651482.  0.2055674E-01 -0.7009705E+00 -0.2458356E-03 -0.8277470E-01 -0.2167191E-02 -0.3421080E-02
4615000.  0.2381524E-01 -0.4305792E+00  0.2605388E-03 -0.9294911E-01 -0.2141613E-02 -0.5474131E-02
4578518.  0.2543228E-01 -0.1310961E+00  0.8051602E-03 -0.9606651E-01 -0.2104931E-02 -0.7301165E-02
4542037.  0.2530184E-01  0.1761310E+00  0.1346989E-02 -0.9200448E-01 -0.2058398E-02 -0.8918394E-02
4505556.  0.2344193E-01  0.4694052E+00  0.1845871E-02 -0.8117699E-01 -0.2003155E-02 -0.1034704E-01
4469074.  0.1999201E-01  0.7282198E+00  0.2265427E-02 -0.6447922E-01 -0.1940214E-02 -0.1161071E-01
4432593.  0.1520239E-01  0.9346756E+00  0.2575556E-02 -0.4320331E-01 -0.1870453E-02 -0.1273386E-01
4396111.  0.9414907E-02  0.1074723E+01  0.2754461E-02 -0.1892344E-01 -0.1794604E-02 -0.1374025E-01
4359630.  0.3039325E-02  0.1139014E+01  0.2789855E-02  0.6624894E-02 -0.1713276E-02 -0.1465137E-01
4323148. -0.3476647E-02  0.1123468E+01  0.2679536E-02  0.3167996E-01 -0.1626955E-02 -0.1548662E-01
4286667. -0.9676767E-02  0.1029424E+01  0.2431187E-02  0.5457344E-01 -0.1536031E-02 -0.1626236E-01
4250185. -0.1512819E-01  0.8634050E+00  0.2061471E-02  0.7384600E-01 -0.1440799E-02 -0.1699240E-01
4213704. -0.1944845E-01  0.6365931E+00  0.1594636E-02  0.8833296E-01 -0.1341492E-02 -0.1768876E-01
4177222. -0.2233090E-01  0.3639348E+00  0.1060541E-02  0.9723176E-01 -0.1238264E-02 -0.1836288E-01
4140741. -0.2356252E-01  0.6312979E-01  0.4925721E-03  0.1001355E+00 -0.1131214E-02 -0.1902671E-01
4104259. -0.2303670E-01 -0.2466404E+00 -0.7477272E-04  0.9704057E-01 -0.1020354E-02 -0.1969518E-01
4067778. -0.2075806E-01 -0.5459016E+00 -0.6080227E-03  0.8832520E-01 -0.9056129E-03 -0.2038718E-01
4031296. -0.1684030E-01 -0.8161779E+00 -0.1076923E-02  0.7470416E-01 -0.7867781E-03 -0.2112900E-01
3994815. -0.1149785E-01 -0.1041041E+01 -0.1456074E-02  0.5716570E-01 -0.6634748E-03 -0.2195578E-01
3958333. -0.5030447E-02 -0.1207102E+01 -0.1726374E-02  0.3689095E-01 -0.5350814E-03 -0.2291473E-01
3921852.  0.2195225E-02 -0.1304675E+01 -0.1875808E-02  0.1517203E-01 -0.4006779E-03 -0.2406789E-01
3885370.  0.9769577E-02 -0.1328261E+01 -0.1899882E-02 -0.6678313E-02 -0.2589252E-03 -0.2549537E-01
3848889.  0.1726316E-01 -0.1276708E+01 -0.1801483E-02 -0.2740438E-01 -0.1079796E-03 -0.2729918E-01
3812407.  0.2425304E-01 -0.1153117E+01 -0.1590334E-02 -0.4588460E-01  0.5467691E-04 -0.2960813E-01
3775926.  0.3034470E-01 -0.9645197E+00 -0.1282082E-02 -0.6118538E-01  0.2323712E-03 -0.3258291E-01
3739444.  0.3519455E-01 -0.7213075E+00 -0.8970358E-03 -0.7260787E-01  0.4294784E-03 -0.3642386E-01
3702963.  0.3852593E-01 -0.4365497E+00 -0.4588166E-03 -0.7970955E-01  0.6516344E-03 -0.4137984E-01
3666482.  0.4014302E-01 -0.1251300E+00  0.7213337E-05 -0.8231377E-01  0.9060820E-03 -0.4775998E-01
3630000.  0.3993824E-01  0.1971175E+00  0.4754205E-03 -0.8049871E-01  0.1202050E-02 -0.5595087E-01
3630000.  0.3993824E-01  0.1971163E+00  0.4754205E-03 -0.8049858E-01  0.1202050E-02 -0.5595087E-01
3592500.  0.3780892E-01  0.5243859E+00  0.9332414E-03 -0.7435969E-01  0.1561845E-02 -0.6675095E-01
3555000.  0.3380529E-01  0.8312362E+00  0.1342999E-02 -0.6425639E-01  0.1993778E-02 -0.8057889E-01
3517500.  0.2809471E-01  0.1101899E+01  0.1683103E-02 -0.5080850E-01  0.2517913E-02 -0.9822954E-01
3480000.  0.2093202E-01  0.1322533E+01  0.1936047E-02 -0.3477683E-01  0.3159634E-02 -0.1207263E+00
3480000.  0.2093202E-01  0.4368553E+00 -0.1033348E-02  0.4023182E-01  0.3159634E-02 -0.1865699E+00
3409422.  0.1544882E-01  0.5379128E+00 -0.1433432E-02  0.3156451E-01  0.4968598E-02 -0.1390817E+00
3338844.  0.9326567E-02  0.5546727E+00 -0.1726086E-02  0.2110349E-01  0.6230969E-02 -0.8882384E-01
3268266.  0.3402433E-02  0.5057730E+00 -0.1899939E-02  0.1034419E-01  0.6945670E-02 -0.4098454E-01
3197688. -0.1721348E-02  0.4140590E+00 -0.1958611E-02  0.4758573E-03  0.7162765E-02  0.4782759E-03
3127109. -0.5696148E-02  0.3018062E+00 -0.1916779E-02 -0.7700351E-02  0.6967722E-02  0.3314976E-01
3056531. -0.8401828E-02  0.1876405E+00 -0.1795814E-02 -0.1377234E-01  0.6464262E-02  0.5612332E-01
2985953. -0.9896693E-02  0.8498254E-01 -0.1619720E-02 -0.1766425E-01  0.5758896E-02  0.6974455E-01
2915375. -0.1035725E-01  0.1809886E-02 -0.1411862E-02 -0.1955258E-01  0.4949074E-02  0.7523807E-01
2844797. -0.1002095E-01 -0.5869554E-01 -0.1192674E-02 -0.1977480E-01  0.4115610E-02  0.7432097E-01
2774219. -0.9138926E-02 -0.9703854E-01 -0.9783601E-03 -0.1874370E-01  0.3319170E-02  0.6886307E-01
2703641. -0.7942174E-02 -0.1161383E+00 -0.7804635E-03 -0.1687834E-01  0.2600094E-02  0.6062935E-01
2633062. -0.6621457E-02 -0.1201601E+00 -0.6060785E-03 -0.1455625E-01  0.1980540E-02  0.5111549E-01
2562484. -0.5318989E-02 -0.1135797E+00 -0.4584920E-03 -0.1208528E-01  0.1468012E-02  0.4146951E-01
2491906. -0.4128797E-02 -0.1005254E+00 -0.3380193E-03 -0.9692236E-02  0.1059277E-02  0.3247985E-01
2421328. -0.3102969E-02 -0.8440203E-01 -0.2429063E-03 -0.7525562E-02  0.7442150E-03  0.2461150E-01
2350750. -0.2260663E-02 -0.6774094E-01 -0.1701431E-03 -0.5665750E-02  0.5090690E-03  0.1806783E-01
2280172. -0.1597801E-02 -0.5221922E-01 -0.1161382E-03 -0.4139861E-02  0.3389514E-03  0.1286126E-01
2209594. -0.1095938E-02 -0.3877863E-01 -0.7722365E-04 -0.2937245E-02  0.2195794E-03  0.8880720E-02
2139016. -0.7295047E-03 -0.2779371E-01 -0.4999109E-04 -0.2023863E-02  0.1383154E-03  0.5948730E-02
2068438. -0.4711099E-03 -0.1924656E-01 -0.3148313E-04 -0.1354057E-02  0.8464942E-04  0.3864574E-02
1997859. -0.2949992E-03 -0.1288283E-01 -0.1927074E-04 -0.8792500E-03  0.5028240E-04  0.2433584E-02
1927281. -0.1789663E-03 -0.8335162E-02 -0.1145175E-04 -0.5537376E-03  0.2895553E-04  0.1484282E-02
1856703. -0.1050748E-03 -0.5210383E-02 -0.6598058E-05 -0.3379014E-03  0.1614175E-04  0.8758816E-03
1786125. -0.5962287E-04 -0.3144279E-02 -0.3680028E-05 -0.1995423E-03  0.8696647E-05  0.4994025E-03
1715547. -0.3264366E-04 -0.1829587E-02 -0.1983284E-05 -0.1138626E-03  0.4519553E-05  0.2746776E-03
1644969. -0.1721100E-04 -0.1024912E-02 -0.1030615E-05 -0.6266744E-04  0.2260517E-05  0.1454504E-03
1574391. -0.8718534E-05 -0.5516389E-03 -0.5151158E-06 -0.3319698E-04  0.1085318E-05  0.7398220E-04
1503812. -0.4232699E-05 -0.2845171E-03 -0.2468767E-06 -0.1688676E-04  0.4986606E-06  0.3604934E-04
1433234. -0.1965648E-05 -0.1400055E-03 -0.1129432E-06 -0.8236009E-05  0.2184302E-06  0.1677825E-04
1362656. -0.8770928E-06 -0.6485200E-04 -0.4873848E-07 -0.3873130E-05  0.9071179E-07  0.7437964E-05
1292078. -0.3959117E-06 -0.2605543E-04 -0.1856970E-07 -0.1860712E-05  0.3530015E-07  0.3136132E-05
1221500. -0.2469531E-06 -0.1567905E-05 -0.2357006E-08 -0.1275760E-05  0.1247791E-07  0.1242311E-05
1221500. -0.2469531E-06  0.1276086E-04  0.6429566E-08  0.1321573E-05  0.1247791E-07  0.1349292E-05
1183328. -0.2893645E-06  0.2201718E-05  0.2919981E-09  0.7589373E-06  0.6451607E-08  0.7233249E-06
1145156. -0.2818244E-06 -0.4103489E-05 -0.3004074E-08  0.3665246E-06  0.3253231E-08  0.3790363E-06
1106984. -0.2465166E-06 -0.7238010E-05 -0.4369467E-08  0.1091631E-06  0.1595453E-08  0.1937166E-06
1068812. -0.1994896E-06 -0.8165042E-05 -0.4521339E-08 -0.4335178E-07  0.7583603E-09  0.9629262E-07
1030641. -0.1514300E-06 -0.7706924E-05 -0.4003858E-08 -0.1186850E-06  0.3478335E-09  0.4639211E-07
 992469. -0.1085836E-06 -0.6518742E-05 -0.3203216E-08 -0.1417261E-06  0.1530440E-09  0.2156463E-07
 954297. -0.7381056E-07 -0.5076616E-05 -0.2367720E-08 -0.1334285E-06  0.6407760E-10  0.9614810E-08
 916125. -0.4763555E-07 -0.3686831E-05 -0.1634378E-08 -0.1098840E-06  0.2522728E-10  0.4077750E-08
 877953. -0.2919271E-07 -0.2512802E-05 -0.1059052E-08 -0.8211656E-07  0.9162075E-11  0.1625497E-08
 839781. -0.1697414E-07 -0.1611983E-05 -0.6456243E-09 -0.5659147E-07  0.2961471E-11  0.5973795E-09
 801609. -0.9348621E-08 -0.9741354E-06 -0.3703959E-09 -0.3624310E-07  0.7819821E-12  0.1952456E-09
 763438. -0.4865226E-08 -0.5541762E-06 -0.1997551E-09 -0.2163974E-07  0.1182857E-12  0.5212556E-10
 725266. -0.2384737E-08 -0.2962234E-06 -0.1010350E-09 -0.1205214E-07 -0.3409716E-13  0.8034861E-11
 687094. -0.1096479E-08 -0.1483341E-06 -0.4776663E-10 -0.6252573E-08 -0.4281474E-13 -0.2227120E-11
 648922. -0.4705425E-09 -0.6929996E-07 -0.2101352E-10 -0.3012552E-08 -0.2558716E-13 -0.2844697E-11
 610750. -0.1873079E-09 -0.3004584E-07 -0.8552437E-11 -0.1341920E-08 -0.1185182E-13 -0.1699762E-11
 572578. -0.6864190E-10 -0.1200795E-07 -0.3197075E-11 -0.5492425E-09 -0.4647086E-14 -0.7818014E-12
 534406. -0.2294361E-10 -0.4386459E-08 -0.1087831E-11 -0.2049129E-09 -0.1582773E-14 -0.3022411E-12
 496234. -0.6914685E-11 -0.1449141E-08 -0.3331226E-12 -0.6897375E-10 -0.4705904E-15 -0.1006489E-12
 458062. -0.1852069E-11 -0.4272060E-09 -0.9050889E-13 -0.2067312E-10 -0.1214136E-15 -0.2896020E-13
 419891. -0.4328888E-12 -0.1104774E-09 -0.2142614E-13 -0.5425132E-11 -0.2680545E-16 -0.7132542E-14
 381719. -0.8622005E-13 -0.2450965E-10 -0.4316108E-14 -0.1219254E-11 -0.4956386E-17 -0.1476853E-14
 343547. -0.1418315E-13 -0.4529548E-11 -0.7171281E-15 -0.2279003E-12 -0.7440567E-18 -0.2499727E-15
 305375. -0.1846766E-14 -0.6699443E-12 -0.9419617E-16 -0.3404325E-13 -0.8682107E-19 -0.3322133E-16
 267203. -0.1793532E-15 -0.7495912E-13 -0.9215596E-17 -0.3840753E-14 -0.7414463E-20 -0.3218240E-17
 229031.  0.0000000E+00  0.0000000E+00  0.0000000E+00  0.0000000E+00  0.0000000E+00  0.0000000E+00
 190859.  0.0000000E+00  0.0000000E+00  0.0000000E+00  0.0000000E+00  0.0000000E+00  0.0000000E+00
 152688.  0.0000000E+00  0.0000000E+00  0.0000000E+00  0.0000000E+00  0.0000000E+00  0.0000000E+00
 114516.  0.0000000E+00  0.0000000E+00  0.0000000E+00  0.0000000E+00  0.0000000E+00  0.0000000E+00
  76344.  0.0000000E+00  0.0000000E+00  0.0000000E+00  0.0000000E+00  0.0000000E+00  0.0000000E+00
  38172.  0.0000000E+00  0.0000000E+00  0.0000000E+00  0.0000000E+00  0.0000000E+00  0.0000000E+00
      0.  0.0000000E+00  0.0000000E+00  0.0000000E+00  0.0000000E+00  0.0000000E+00  0.0000000E+00
