       4       16 S      285        211.37399         11.47762          6.06390        260.25201      185    7
6371000. -0.3112639E-01  0.8029225E+00  0.7277813E-02  0.3840421E-01 -0.1727308E-02  0.8806133E-01
6370000. -0.3125195E-01  0.7969474E+00  0.7271527E-02  0.4170240E-01 -0.1741109E-02  0.8779557E-01
6369000. -0.3137657E-01  0.7908530E+00  0.7264723E-02  0.4499647E-01 -0.1754869E-02  0.8752891E-01
6368000. -0.3150021E-01  0.7846397E+00  0.7257401E-02  0.4828618E-01 -0.1768587E-02  0.8726136E-01
6368000. -0.3150021E-01  0.7846397E+00  0.7257401E-02  0.4828618E-01 -0.1768587E-02  0.8726136E-01
6367000. -0.3162288E-01  0.7783076E+00  0.7249564E-02  0.5157126E-01 -0.1782262E-02  0.8699293E-01
6366000. -0.3174454E-01  0.7718570E+00  0.7241212E-02  0.5485145E-01 -0.1795896E-02  0.8672361E-01
6365000. -0.3186517E-01  0.7652882E+00  0.7232346E-02  0.5812651E-01 -0.1809487E-02  0.8645342E-01
6364000. -0.3198477E-01  0.7586013E+00  0.7222965E-02  0.6139616E-01 -0.1823035E-02  0.8618237E-01
6363000. -0.3210331E-01  0.7517968E+00  0.7213072E-02  0.6466017E-01 -0.1836541E-02  0.8591045E-01
6362000. -0.3222077E-01  0.7448748E+00  0.7202668E-02  0.6791827E-01 -0.1850004E-02  0.8563767E-01
6361000. -0.3233714E-01  0.7378356E+00  0.7191752E-02  0.7117021E-01 -0.1863425E-02  0.8536405E-01
6360000. -0.3245239E-01  0.7306797E+00  0.7180326E-02  0.7441573E-01 -0.1876802E-02  0.8508958E-01
6359000. -0.3256651E-01  0.7234072E+00  0.7168391E-02  0.7765459E-01 -0.1890136E-02  0.8481427E-01
6358000. -0.3267948E-01  0.7160185E+00  0.7155949E-02  0.8088652E-01 -0.1903427E-02  0.8453812E-01
6357000. -0.3279128E-01  0.7085140E+00  0.7142999E-02  0.8411128E-01 -0.1916675E-02  0.8426114E-01
6356000. -0.3290189E-01  0.7008939E+00  0.7129545E-02  0.8732862E-01 -0.1929878E-02  0.8398334E-01
6356000. -0.3290189E-01  0.6334432E+00  0.7129545E-02  0.6861725E-01 -0.1929878E-02  0.9114241E-01
6355000. -0.3300089E-01  0.6280522E+00  0.7118623E-02  0.7055298E-01 -0.1944157E-02  0.9079927E-01
6354000. -0.3309904E-01  0.6225932E+00  0.7107397E-02  0.7248461E-01 -0.1958382E-02  0.9045570E-01
6353000. -0.3319633E-01  0.6170663E+00  0.7095868E-02  0.7441204E-01 -0.1972554E-02  0.9011170E-01
6352000. -0.3329275E-01  0.6114717E+00  0.7084037E-02  0.7633518E-01 -0.1986671E-02  0.8976728E-01
6351000. -0.3338828E-01  0.6058095E+00  0.7071905E-02  0.7825393E-01 -0.2000733E-02  0.8942244E-01
6350000. -0.3348292E-01  0.6000801E+00  0.7059472E-02  0.8016820E-01 -0.2014742E-02  0.8907719E-01
6349000. -0.3357666E-01  0.5942835E+00  0.7046739E-02  0.8207789E-01 -0.2028697E-02  0.8873152E-01
6348000. -0.3366948E-01  0.5884200E+00  0.7033706E-02  0.8398291E-01 -0.2042597E-02  0.8838546E-01
6347000. -0.3376137E-01  0.5824897E+00  0.7020375E-02  0.8588316E-01 -0.2056443E-02  0.8803897E-01
6346600. -0.3379787E-01  0.5800990E+00  0.7014959E-02  0.8664191E-01 -0.2061966E-02  0.8790027E-01
6346600. -0.3379787E-01  0.7298908E+00  0.7014959E-02  0.7180492E-01 -0.2061966E-02  0.9968510E-01
6318800. -0.3669642E-01  0.5922454E+00  0.6626246E-02  0.1058694E+00 -0.2474775E-02  0.8951595E-01
6291000. -0.3891248E-01  0.4175724E+00  0.6096001E-02  0.1365208E+00 -0.2843107E-02  0.7929960E-01
6291000. -0.3891248E-01  0.4379326E+00  0.6096001E-02  0.1400279E+00 -0.2843107E-02  0.7929960E-01
6263000. -0.4037321E-01  0.2212298E+00  0.5417029E-02  0.1680989E+00 -0.3169388E-02  0.6917011E-01
6235000. -0.4081207E-01 -0.2608966E-01  0.4626539E-02  0.1906483E+00 -0.3450997E-02  0.5897023E-01
6207000. -0.4010871E-01 -0.2973563E+00  0.3750355E-02  0.2069983E+00 -0.3687618E-02  0.4869669E-01
6179000. -0.3817459E-01 -0.5848070E+00  0.2816858E-02  0.2166662E+00 -0.3878922E-02  0.3834746E-01
6151000. -0.3495731E-01 -0.8797798E+00  0.1856096E-02  0.2193792E+00 -0.4024578E-02  0.2792462E-01
6151000. -0.3495731E-01 -0.6616763E+00  0.1856096E-02  0.1970971E+00 -0.4024578E-02  0.2985865E-01
6128500. -0.3230587E-01 -0.8389111E+00  0.1165778E-02  0.1932665E+00 -0.4118921E-02  0.2360270E-01
6106000. -0.2904047E-01 -0.1008869E+01  0.4949194E-03  0.1861124E+00 -0.4191537E-02  0.1755706E-01
6083500. -0.2519216E-01 -0.1168545E+01 -0.1451412E-03  0.1758677E+00 -0.4243196E-02  0.1173638E-01
6061000. -0.2080225E-01 -0.1315148E+01 -0.7439658E-03  0.1628096E+00 -0.4274716E-02  0.6154228E-02
6038500. -0.1592146E-01 -0.1446152E+01 -0.1292168E-02  0.1472553E+00 -0.4286959E-02  0.8216832E-03
6016000. -0.1060891E-01 -0.1559320E+01 -0.1781539E-02  0.1295533E+00 -0.4280825E-02 -0.4252000E-02
5993500. -0.4931071E-02 -0.1652736E+01 -0.2205144E-02  0.1100748E+00 -0.4257240E-02 -0.9059252E-02
5971000.  0.1039456E-02 -0.1724849E+01 -0.2557393E-02  0.8920886E-01 -0.4217157E-02 -0.1359488E-01
5971000.  0.1039456E-02 -0.1584139E+01 -0.2557393E-02  0.7895821E-01 -0.4217157E-02 -0.1373096E-01
5937667.  0.9396285E-02 -0.1603010E+01 -0.2890117E-02  0.4839252E-01 -0.4132479E-02 -0.1848312E-01
5904333.  0.1773986E-01 -0.1579508E+01 -0.3066330E-02  0.1928386E-01 -0.4025345E-02 -0.2231902E-01
5871000.  0.2585721E-01 -0.1517321E+01 -0.3095883E-02 -0.7552831E-02 -0.3900462E-02 -0.2527684E-01
5837667.  0.3355766E-01 -0.1420944E+01 -0.2992282E-02 -0.3153753E-01 -0.3762285E-02 -0.2741124E-01
5804333.  0.4067546E-01 -0.1295381E+01 -0.2771498E-02 -0.5229932E-01 -0.3614947E-02 -0.2878906E-01
5771000.  0.4707117E-01 -0.1145887E+01 -0.2450977E-02 -0.6964788E-01 -0.3462217E-02 -0.2948766E-01
5771000.  0.4707117E-01 -0.1145942E+01 -0.2450977E-02 -0.6964739E-01 -0.3462217E-02 -0.2948766E-01
5701000.  0.5793184E-01 -0.8147860E+00 -0.1519773E-02 -0.9792905E-01 -0.3150378E-02 -0.2699904E-01
5701000.  0.5793184E-01 -0.7004725E+00 -0.1519773E-02 -0.9130136E-01 -0.3150378E-02 -0.4332795E-01
5667333.  0.6117485E-01 -0.5258845E+00 -0.1021160E-02 -0.9699272E-01 -0.2928019E-02 -0.4079606E-01
5633667.  0.6348348E-01 -0.3475029E+00 -0.4988646E-03 -0.1003136E+00 -0.2719485E-02 -0.3811161E-01
5600000.  0.6484725E-01 -0.1688306E+00  0.3532121E-04 -0.1015339E+00 -0.2525347E-02 -0.3536027E-01
5600000.  0.6484725E-01 -0.1688348E+00  0.3532121E-04 -0.1015352E+00 -0.2525347E-02 -0.3536027E-01
5563518.  0.6526742E-01  0.2232527E-01  0.6176343E-03 -0.1015076E+00 -0.2331342E-02 -0.3241283E-01
5527037.  0.6459198E-01  0.2132860E+00  0.1194041E-02 -0.9949972E-01 -0.2153976E-02 -0.2955319E-01
5490556.  0.6283146E-01  0.4007969E+00  0.1753624E-02 -0.9565818E-01 -0.1992694E-02 -0.2679726E-01
5454074.  0.6001440E-01  0.5818039E+00  0.2286384E-02 -0.9015694E-01 -0.1846860E-02 -0.2415864E-01
5417593.  0.5618640E-01  0.7534773E+00  0.2783340E-02 -0.8319197E-01 -0.1715770E-02 -0.2165089E-01
5381111.  0.5140807E-01  0.9132926E+00  0.3236738E-02 -0.7497478E-01 -0.1598636E-02 -0.1928441E-01
5344630.  0.4575414E-01  0.1059016E+01  0.3640015E-02 -0.6572774E-01 -0.1494631E-02 -0.1706794E-01
5308148.  0.3931050E-01  0.1188774E+01  0.3987943E-02 -0.5567727E-01 -0.1402869E-02 -0.1500776E-01
5271667.  0.3217354E-01  0.1301015E+01  0.4276554E-02 -0.4505043E-01 -0.1322448E-02 -0.1310860E-01
5235185.  0.2444672E-01  0.1394564E+01  0.4503200E-02 -0.3406875E-01 -0.1252433E-02 -0.1137251E-01
5198704.  0.1624002E-01  0.1468592E+01  0.4666456E-02 -0.2294615E-01 -0.1191893E-02 -0.9799918E-02
5162222.  0.7666274E-02  0.1522630E+01  0.4766103E-02 -0.1188309E-01 -0.1139892E-02 -0.8388715E-02
5125741. -0.1159005E-02  0.1556536E+01  0.4803019E-02 -0.1066064E-02 -0.1095520E-02 -0.7135468E-02
5089259. -0.1012141E-01  0.1570494E+01  0.4779103E-02  0.9337177E-02 -0.1057882E-02 -0.6034707E-02
5052778. -0.1910746E-01  0.1564985E+01  0.4697165E-02  0.1917711E-01 -0.1026129E-02 -0.5079574E-02
5016296. -0.2800821E-01  0.1540756E+01  0.4560801E-02  0.2832600E-01 -0.9994464E-03 -0.4261842E-02
4979815. -0.3671870E-01  0.1498802E+01  0.4374293E-02  0.3667643E-01 -0.9770752E-03 -0.3572249E-02
4943333. -0.4514125E-01  0.1440320E+01  0.4142457E-02  0.4414365E-01 -0.9583111E-03 -0.3000058E-02
4906852. -0.5318467E-01  0.1366698E+01  0.3870556E-02  0.5066348E-01 -0.9425123E-03 -0.2534872E-02
4870370. -0.6076699E-01  0.1279459E+01  0.3564131E-02  0.5619356E-01 -0.9290996E-03 -0.2164382E-02
4833889. -0.6781445E-01  0.1180234E+01  0.3228942E-02  0.6071103E-01 -0.9175677E-03 -0.1876136E-02
4797407. -0.7426368E-01  0.1070738E+01  0.2870789E-02  0.6421191E-01 -0.9074770E-03 -0.1658885E-02
4760926. -0.8006056E-01  0.9527348E+00  0.2495482E-02  0.6670942E-01 -0.8984595E-03 -0.1499181E-02
4724444. -0.8516174E-01  0.8279865E+00  0.2108669E-02  0.6823292E-01 -0.8902210E-03 -0.1384721E-02
4687963. -0.8953337E-01  0.6982607E+00  0.1715833E-02  0.6882494E-01 -0.8825378E-03 -0.1303204E-02
4651482. -0.9315204E-01  0.5652707E+00  0.1322146E-02  0.6854033E-01 -0.8752577E-03 -0.1241932E-02
4615000. -0.9600389E-01  0.4306668E+00  0.9324359E-03  0.6744359E-01 -0.8682983E-03 -0.1189067E-02
4578518. -0.9808413E-01  0.2960204E+00  0.5511594E-03  0.6560735E-01 -0.8616475E-03 -0.1132257E-02
4542037. -0.9939672E-01  0.1627997E+00  0.1823386E-03  0.6311018E-01 -0.8553588E-03 -0.1060806E-02
4505556. -0.9995381E-01  0.3234844E-01 -0.1704867E-03  0.6003442E-01 -0.8495495E-03 -0.9628960E-03
4469074. -0.9977477E-01 -0.9412072E-01 -0.5042544E-03  0.5646482E-01 -0.8444026E-03 -0.8275851E-03
4432593. -0.9888560E-01 -0.2155227E+00 -0.8163630E-03  0.5248671E-01 -0.8401653E-03 -0.6431945E-03
4396111. -0.9731797E-01 -0.3309315E+00 -0.1104731E-02  0.4818401E-01 -0.8371528E-03 -0.3981447E-03
4359630. -0.9510864E-01 -0.4395563E+00 -0.1367721E-02  0.4363839E-01 -0.8357393E-03 -0.8271218E-04
4323148. -0.9229820E-01 -0.5407650E+00 -0.1604180E-02  0.3892772E-01 -0.8363664E-03  0.3165708E-03
4286667. -0.8893076E-01 -0.6340618E+00 -0.1813359E-02  0.3412424E-01 -0.8395448E-03  0.8103851E-03
4250185. -0.8505251E-01 -0.7190996E+00 -0.1994934E-02  0.2929481E-01 -0.8458549E-03  0.1412792E-02
4213704. -0.8071163E-01 -0.7956577E+00 -0.2148919E-02  0.2449909E-01 -0.8559584E-03  0.2137694E-02
4177222. -0.7595677E-01 -0.8636453E+00 -0.2275671E-02  0.1978929E-01 -0.8705996E-03  0.3000394E-02
4140741. -0.7083726E-01 -0.9230809E+00 -0.2375802E-02  0.1520908E-01 -0.8906172E-03  0.4018643E-02
4104259. -0.6540148E-01 -0.9740878E+00 -0.2450165E-02  0.1079306E-01 -0.9169555E-03  0.5211366E-02
4067778. -0.5969745E-01 -0.1016867E+01 -0.2499774E-02  0.6567416E-02 -0.9506773E-03  0.6601830E-02
4031296. -0.5377121E-01 -0.1051696E+01 -0.2525771E-02  0.2547495E-02 -0.9929879E-03  0.8215370E-02
3994815. -0.4766770E-01 -0.1078896E+01 -0.2529355E-02 -0.1260736E-02 -0.1045246E-02  0.1008228E-01
3958333. -0.4142927E-01 -0.1098822E+01 -0.2511727E-02 -0.4862797E-02 -0.1109005E-02  0.1223794E-01
3921852. -0.3509689E-01 -0.1111832E+01 -0.2474029E-02 -0.8274768E-02 -0.1186028E-02  0.1472292E-01
3885370. -0.2870881E-01 -0.1118267E+01 -0.2417271E-02 -0.1152541E-01 -0.1278339E-02  0.1758584E-01
3848889. -0.2230217E-01 -0.1118420E+01 -0.2342266E-02 -0.1465678E-01 -0.1388256E-02  0.2088338E-01
3812407. -0.1591194E-01 -0.1112500E+01 -0.2249537E-02 -0.1772548E-01 -0.1518461E-02  0.2468283E-01
3775926. -0.9572923E-02 -0.1100596E+01 -0.2139250E-02 -0.2080425E-01 -0.1672041E-02  0.2906317E-01
3739444. -0.3319170E-02 -0.1082629E+01 -0.2011086E-02 -0.2398539E-01 -0.1852590E-02  0.3411825E-01
3702963.  0.2813519E-02 -0.1058298E+01 -0.1864151E-02 -0.2738299E-01 -0.2064273E-02  0.3995868E-01
3666482.  0.8787326E-02 -0.1027007E+01 -0.1696811E-02 -0.3113790E-01 -0.2311954E-02  0.4671591E-01
3630000.  0.1455996E-01 -0.9877798E+00 -0.1506539E-02 -0.3542298E-01 -0.2601327E-02  0.5454579E-01
3630000.  0.1455996E-01 -0.9877744E+00 -0.1506539E-02 -0.3542291E-01 -0.2601327E-02  0.5454579E-01
3592500.  0.2024123E-01 -0.9407951E+00 -0.1283055E-02 -0.4068110E-01 -0.2949155E-02  0.6386882E-01
3555000.  0.2561047E-01 -0.8812677E+00 -0.1025380E-02 -0.4709233E-01 -0.3356117E-02  0.7468190E-01
3517500.  0.3058434E-01 -0.8058009E+00 -0.7257352E-03 -0.5500732E-01 -0.3831790E-02  0.8726654E-01
3480000.  0.3505633E-01 -0.7098662E+00 -0.3740271E-03 -0.6486402E-01 -0.4387555E-02  0.1019570E+00
3480000.  0.3505633E-01  0.5305265E+00  0.3178517E-02  0.5830554E-01 -0.4387555E-02 -0.8315776E-02
3409422.  0.2940178E-01  0.4882656E+00  0.2578418E-02  0.5009321E-01 -0.4146253E-02 -0.3274980E-01
3338844.  0.2427226E-01  0.4367531E+00  0.2066884E-02  0.4235571E-01 -0.3707722E-02 -0.4474048E-01
3268266.  0.1973943E-01  0.3813055E+00  0.1637529E-02  0.3528036E-01 -0.3185120E-02 -0.4853142E-01
3197688.  0.1582391E-01  0.3258566E+00  0.1282378E-02  0.2897023E-01 -0.2651194E-02 -0.4721919E-01
3127109.  0.1250947E-01  0.2731450E+00  0.9926859E-03  0.2346390E-01 -0.2149565E-02 -0.4300234E-01
3056531.  0.9755403E-02  0.2249164E+00  0.7595700E-03  0.1875197E-01 -0.1703513E-02 -0.3739068E-01
2985953.  0.7506060E-02  0.1821275E+00  0.5744410E-03  0.1479107E-01 -0.1322575E-02 -0.3137697E-01
2915375.  0.5698701E-02  0.1451416E+00  0.4293233E-03  0.1151643E-01 -0.1007509E-02 -0.2557531E-01
2844797.  0.4269075E-02  0.1138942E+00  0.3170303E-03  0.8851639E-02 -0.7538485E-03 -0.2033076E-01
2774219.  0.3155341E-02  0.8803497E-01  0.2312529E-03  0.6715844E-02 -0.5543957E-03 -0.1580380E-01
2703641.  0.2300597E-02  0.6704001E-01  0.1665761E-03  0.5029154E-02 -0.4008945E-03 -0.1203395E-01
2633062.  0.1654281E-02  0.5029918E-01  0.1184463E-03  0.3716384E-02 -0.2850970E-03 -0.8986559E-02
2562484.  0.1172787E-02  0.3718026E-01  0.8310711E-04  0.2709369E-02 -0.1993950E-03 -0.6586208E-02
2491906.  0.8194052E-03  0.2707151E-01  0.5751150E-04  0.1947989E-02 -0.1371290E-03 -0.4739236E-02
2421328.  0.5639580E-03  0.1941083E-01  0.3923181E-04  0.1380685E-02 -0.9270766E-04 -0.3348700E-02
2350750.  0.3821442E-03  0.1370082E-01  0.2636491E-04  0.9642363E-03 -0.6158801E-04 -0.2323342E-02
2280172.  0.2547820E-03  0.9515192E-02  0.1744306E-04  0.6631408E-03 -0.4018295E-04 -0.1582399E-02
2209594.  0.1670172E-03  0.6498469E-02  0.1135264E-04  0.4488259E-03 -0.2573186E-04 -0.1057573E-02
2139016.  0.1075605E-03  0.4361503E-02  0.7262357E-05  0.2987283E-03 -0.1616030E-04 -0.6931954E-03
2068438.  0.6799008E-04  0.2874447E-02  0.4561964E-05  0.1953597E-03 -0.9944569E-05 -0.4452917E-03
1997859.  0.4213930E-04  0.1858541E-02  0.2810946E-05  0.1254113E-03 -0.5990001E-05 -0.2800931E-03
1927281.  0.2557866E-04  0.1177734E-02  0.1696940E-05  0.7894364E-04 -0.3527462E-05 -0.1723426E-03
1856703.  0.1518597E-04  0.7305775E-03  0.1002327E-05  0.4866805E-04 -0.2028152E-05 -0.1036084E-03
1786125.  0.8805116E-05  0.4430459E-03  0.5783991E-06  0.2934384E-04 -0.1136766E-05 -0.6077308E-04
1715547.  0.4977595E-05  0.2622632E-03  0.3255275E-06  0.1727625E-04 -0.6200285E-06 -0.3472565E-04
1644969.  0.2738060E-05  0.1512882E-03  0.1783519E-06  0.9913882E-05 -0.3284395E-06 -0.1929367E-04
1574391.  0.1462029E-05  0.8490092E-04  0.9493959E-07  0.5532243E-05 -0.1685861E-06 -0.1040115E-04
1503812.  0.7550736E-06  0.4630698E-04  0.4903056E-07  0.2991304E-05 -0.8364026E-07 -0.5426975E-05
1433234.  0.3740169E-06  0.2464490E-04  0.2462332E-07  0.1553201E-05 -0.4000499E-07 -0.2732294E-05
1362656.  0.1716886E-06  0.1319652E-04  0.1231017E-07  0.7452160E-06 -0.1840928E-07 -0.1322226E-05
1292078.  0.5776797E-07  0.8303005E-05  0.6961239E-08  0.2505587E-06 -0.8152592E-08 -0.6129912E-06
1221500. -0.3342472E-07  0.9292481E-05  0.6610360E-08 -0.2087633E-06 -0.3463038E-08 -0.2788214E-06
1221500. -0.3342472E-07  0.1281599E-06  0.1885639E-09  0.1753174E-06 -0.3463038E-08 -0.2643417E-06
1183328. -0.3133458E-07 -0.7051898E-06 -0.5066749E-09  0.6757292E-07 -0.2171927E-08 -0.1724969E-06
1145156. -0.2606699E-07 -0.9866129E-06 -0.7232665E-09  0.1129705E-07 -0.1336616E-08 -0.1104833E-06
1106984. -0.2008621E-07 -0.9771012E-06 -0.7025652E-09 -0.1442699E-07 -0.8063517E-09 -0.6940170E-07
1068812. -0.1461637E-07 -0.8360899E-06 -0.5840482E-09 -0.2312094E-07 -0.4763423E-09 -0.4271606E-07
1030641. -0.1014459E-07 -0.6549481E-06 -0.4425272E-09 -0.2317467E-07 -0.2752016E-09 -0.2573283E-07
 992469. -0.6751625E-08 -0.4811995E-06 -0.3135869E-09 -0.1952628E-07 -0.1552690E-09 -0.1515282E-07
 954297. -0.4321132E-08 -0.3355740E-06 -0.2104425E-09 -0.1487806E-07 -0.8541222E-10 -0.8709078E-08
 916125. -0.2662847E-08 -0.2235141E-06 -0.1346070E-09 -0.1054953E-07 -0.4572485E-10 -0.4877457E-08
 877953. -0.1580234E-08 -0.1426425E-06 -0.8232894E-10 -0.7055702E-08 -0.2377193E-10 -0.2656517E-08
 839781. -0.9024537E-09 -0.8733171E-07 -0.4820802E-10 -0.4480949E-08 -0.1197318E-10 -0.1403986E-08
 801609. -0.4952803E-09 -0.5129337E-07 -0.2702135E-10 -0.2710737E-08 -0.5826218E-11 -0.7181785E-09
 763438. -0.2606873E-09 -0.2887115E-07 -0.1448097E-10 -0.1563461E-08 -0.2730344E-11 -0.3545233E-09
 725266. -0.1312388E-09 -0.1554245E-07 -0.7403693E-11 -0.8591859E-09 -0.1227645E-11 -0.1683023E-09
 687094. -0.6299326E-10 -0.7979925E-08 -0.3600442E-11 -0.4489537E-09 -0.5273261E-12 -0.7652317E-10
 648922. -0.2872226E-10 -0.3895318E-08 -0.1660061E-11 -0.2219696E-09 -0.2154233E-12 -0.3311630E-10
 610750.  0.0000000E+00  0.0000000E+00  0.0000000E+00  0.0000000E+00  0.0000000E+00  0.0000000E+00
 572578.  0.0000000E+00  0.0000000E+00  0.0000000E+00  0.0000000E+00  0.0000000E+00  0.0000000E+00
 534406.  0.0000000E+00  0.0000000E+00  0.0000000E+00  0.0000000E+00  0.0000000E+00  0.0000000E+00
 496234.  0.0000000E+00  0.0000000E+00  0.0000000E+00  0.0000000E+00  0.0000000E+00  0.0000000E+00
 458062.  0.0000000E+00  0.0000000E+00  0.0000000E+00  0.0000000E+00  0.0000000E+00  0.0000000E+00
 419891.  0.0000000E+00  0.0000000E+00  0.0000000E+00  0.0000000E+00  0.0000000E+00  0.0000000E+00
 381719.  0.0000000E+00  0.0000000E+00  0.0000000E+00  0.0000000E+00  0.0000000E+00  0.0000000E+00
 343547.  0.0000000E+00  0.0000000E+00  0.0000000E+00  0.0000000E+00  0.0000000E+00  0.0000000E+00
 305375.  0.0000000E+00  0.0000000E+00  0.0000000E+00  0.0000000E+00  0.0000000E+00  0.0000000E+00
 267203.  0.0000000E+00  0.0000000E+00  0.0000000E+00  0.0000000E+00  0.0000000E+00  0.0000000E+00
 229031.  0.0000000E+00  0.0000000E+00  0.0000000E+00  0.0000000E+00  0.0000000E+00  0.0000000E+00
 190859.  0.0000000E+00  0.0000000E+00  0.0000000E+00  0.0000000E+00  0.0000000E+00  0.0000000E+00
 152688.  0.0000000E+00  0.0000000E+00  0.0000000E+00  0.0000000E+00  0.0000000E+00  0.0000000E+00
 114516.  0.0000000E+00  0.0000000E+00  0.0000000E+00  0.0000000E+00  0.0000000E+00  0.0000000E+00
  76344.  0.0000000E+00  0.0000000E+00  0.0000000E+00  0.0000000E+00  0.0000000E+00  0.0000000E+00
  38172.  0.0000000E+00  0.0000000E+00  0.0000000E+00  0.0000000E+00  0.0000000E+00  0.0000000E+00
      0.  0.0000000E+00  0.0000000E+00  0.0000000E+00  0.0000000E+00  0.0000000E+00  0.0000000E+00
