      14       14 S      613        111.38350         24.78555          8.32937        328.86981      185    7
6371000. -0.1859984E-01  0.3007865E+00  0.3467480E-02  0.2206732E-01 -0.1552129E-03  0.3740313E-01
6370000. -0.1864614E-01  0.2891556E+00  0.3463496E-02  0.2869961E-01 -0.1610742E-03  0.3728093E-01
6369000. -0.1869060E-01  0.2773420E+00  0.3458471E-02  0.3532119E-01 -0.1669161E-03  0.3715563E-01
6368000. -0.1873319E-01  0.2653469E+00  0.3452408E-02  0.4193002E-01 -0.1727380E-03  0.3702724E-01
6368000. -0.1873319E-01  0.2653469E+00  0.3452408E-02  0.4193002E-01 -0.1727380E-03  0.3702724E-01
6367000. -0.1877389E-01  0.2531717E+00  0.3445309E-02  0.4852410E-01 -0.1785396E-03  0.3689579E-01
6366000. -0.1881266E-01  0.2408177E+00  0.3437176E-02  0.5510139E-01 -0.1843203E-03  0.3676127E-01
6365000. -0.1884948E-01  0.2282866E+00  0.3428012E-02  0.6165989E-01 -0.1900796E-03  0.3662369E-01
6364000. -0.1888431E-01  0.2155797E+00  0.3417821E-02  0.6819760E-01 -0.1958171E-03  0.3648308E-01
6363000. -0.1891714E-01  0.2026988E+00  0.3406605E-02  0.7471251E-01 -0.2015323E-03  0.3633944E-01
6362000. -0.1894794E-01  0.1896455E+00  0.3394368E-02  0.8120263E-01 -0.2072247E-03  0.3619279E-01
6361000. -0.1897667E-01  0.1764214E+00  0.3381115E-02  0.8766598E-01 -0.2128939E-03  0.3604313E-01
6360000. -0.1900331E-01  0.1630285E+00  0.3366849E-02  0.9410056E-01 -0.2185393E-03  0.3589048E-01
6359000. -0.1902784E-01  0.1494685E+00  0.3351576E-02  0.1005044E+00 -0.2241606E-03  0.3573485E-01
6358000. -0.1905022E-01  0.1357434E+00  0.3335300E-02  0.1068756E+00 -0.2297571E-03  0.3557627E-01
6357000. -0.1907044E-01  0.1218551E+00  0.3318027E-02  0.1132121E+00 -0.2353286E-03  0.3541473E-01
6356000. -0.1908847E-01  0.1078057E+00  0.3299762E-02  0.1195121E+00 -0.2408745E-03  0.3525025E-01
6356000. -0.1908847E-01  0.1345166E+00  0.3299762E-02  0.8103273E-01 -0.2408745E-03  0.3940368E-01
6355000. -0.1910880E-01  0.1245142E+00  0.3286718E-02  0.8517396E-01 -0.2470453E-03  0.3922537E-01
6354000. -0.1912755E-01  0.1144084E+00  0.3273025E-02  0.8929659E-01 -0.2531881E-03  0.3904477E-01
6353000. -0.1914471E-01  0.1042002E+00  0.3258687E-02  0.9339978E-01 -0.2593023E-03  0.3886189E-01
6352000. -0.1916026E-01  0.9389054E-01  0.3243706E-02  0.9748270E-01 -0.2653876E-03  0.3867675E-01
6351000. -0.1917418E-01  0.8348066E-01  0.3228086E-02  0.1015445E+00 -0.2714436E-03  0.3848935E-01
6350000. -0.1918646E-01  0.7297162E-01  0.3211830E-02  0.1055844E+00 -0.2774701E-03  0.3829971E-01
6349000. -0.1919708E-01  0.6236458E-01  0.3194942E-02  0.1096015E+00 -0.2834667E-03  0.3810783E-01
6348000. -0.1920603E-01  0.5166070E-01  0.3177425E-02  0.1135950E+00 -0.2894329E-03  0.3791372E-01
6347000. -0.1921329E-01  0.4086118E-01  0.3159283E-02  0.1175642E+00 -0.2953685E-03  0.3771741E-01
6346600. -0.1921572E-01  0.3651486E-01  0.3151852E-02  0.1191448E+00 -0.2977341E-03  0.3763827E-01
6346600. -0.1921572E-01  0.1544381E+00  0.3151852E-02  0.8773385E-01 -0.2977341E-03  0.4433851E-01
6318800. -0.1937034E-01 -0.9315513E-01  0.2595850E-02  0.1643093E+00 -0.4787845E-03  0.3842850E-01
6291000. -0.1833403E-01 -0.3877247E+00  0.1748589E-02  0.2198857E+00 -0.6313265E-03  0.3129957E-01
6291000. -0.1833403E-01 -0.3900989E+00  0.1748589E-02  0.2266245E+00 -0.6313265E-03  0.3129957E-01
6263000. -0.1590439E-01 -0.7166312E+00  0.6778766E-03  0.2552420E+00 -0.7510876E-03  0.2304060E-01
6235000. -0.1205136E-01 -0.1031903E+01 -0.4460154E-03  0.2506047E+00 -0.8326292E-03  0.1395014E-01
6207000. -0.6903392E-02 -0.1299992E+01 -0.1477207E-02  0.2135547E+00 -0.8728993E-03  0.4309840E-02
6179000. -0.7433810E-03 -0.1487267E+01 -0.2282777E-02  0.1490809E+00 -0.8701815E-03 -0.5554657E-02
6151000.  0.6010844E-02 -0.1566636E+01 -0.2759734E-02  0.6566533E-01 -0.8242789E-03 -0.1527889E-01
6151000.  0.6010844E-02 -0.1311911E+01 -0.2759734E-02  0.5663298E-01 -0.8242789E-03 -0.1561145E-01
6128500.  0.1059244E-01 -0.1272468E+01 -0.2845689E-02 -0.8060008E-02 -0.7593906E-03 -0.2105856E-01
6106000.  0.1492684E-01 -0.1172354E+01 -0.2704910E-02 -0.7097358E-01 -0.6761360E-03 -0.2599749E-01
6083500.  0.1880656E-01 -0.1016011E+01 -0.2351901E-02 -0.1275227E+00 -0.5764603E-03 -0.3034548E-01
6061000.  0.2204604E-01 -0.8113602E+00 -0.1816427E-02 -0.1737009E+00 -0.4625735E-03 -0.3403546E-01
6038500.  0.2449311E-01 -0.5692654E+00 -0.1140977E-02 -0.2063480E+00 -0.3368953E-03 -0.3701574E-01
6016000.  0.2603806E-01 -0.3027905E+00 -0.3774071E-03 -0.2233456E+00 -0.2020006E-03 -0.3925030E-01
5993500.  0.2661998E-01 -0.2633656E-01  0.4169670E-03 -0.2237316E+00 -0.6056267E-04 -0.4071896E-01
5971000.  0.2622978E-01  0.2452931E+00  0.1183534E-02 -0.2077334E+00  0.8469812E-04 -0.4141534E-01
5971000.  0.2622978E-01  0.2285636E+00  0.1183534E-02 -0.1877922E+00  0.8469812E-04 -0.4484904E-01
5937667.  0.2415394E-01  0.5529753E+00  0.2045369E-02 -0.1381610E+00  0.3209300E-03 -0.4519714E-01
5904333.  0.2058902E-01  0.7942357E+00  0.2601366E-02 -0.7255670E-01  0.5551160E-03 -0.4409470E-01
5871000.  0.1601404E-01  0.9377620E+00  0.2794524E-02 -0.1138673E-02  0.7801403E-03 -0.4172946E-01
5837667.  0.1095097E-01  0.9814261E+00  0.2619700E-02  0.6665853E-01  0.9899006E-03 -0.3829091E-01
5804333.  0.5903622E-02  0.9339218E+00  0.2116832E-02  0.1231605E+00  0.1179265E-02 -0.3395972E-01
5771000.  0.1307898E-02  0.8122083E+00  0.1360054E-02  0.1630546E+00  0.1343996E-02 -0.2890339E-01
5771000.  0.1307898E-02  0.8122337E+00  0.1360054E-02  0.1630493E+00  0.1343996E-02 -0.2890339E-01
5701000. -0.5727260E-02  0.4411187E+00 -0.6932757E-03  0.1959078E+00  0.1593959E-02 -0.1617314E-01
5701000. -0.5727260E-02  0.3581194E+00 -0.6932757E-03  0.1560998E+00  0.1593959E-02 -0.1455883E-01
5667333. -0.7169727E-02  0.1891463E+00 -0.1481120E-02  0.1399612E+00  0.1654154E-02 -0.8177828E-02
5633667. -0.7753667E-02  0.3562133E-01 -0.2152683E-02  0.1126048E+00  0.1679993E-02 -0.1572295E-02
5600000. -0.7595557E-02 -0.8992159E-01 -0.2657225E-02  0.7732434E-01  0.1670548E-02  0.5159547E-02
5600000. -0.7595557E-02 -0.8993952E-01 -0.2657225E-02  0.7732778E-01  0.1670548E-02  0.5159547E-02
5563518. -0.6767531E-02 -0.1919773E+00 -0.2981164E-02  0.3492436E-01  0.1620139E-02  0.1241956E-01
5527037. -0.5488041E-02 -0.2465329E+00 -0.3051074E-02 -0.1068034E-01  0.1528786E-02  0.1943339E-01
5490556. -0.4042584E-02 -0.2497742E+00 -0.2860968E-02 -0.5518337E-01  0.1398365E-02  0.2603847E-01
5454074. -0.2722582E-02 -0.2034456E+00 -0.2429007E-02 -0.9451137E-01  0.1231654E-02  0.3208257E-01
5417593. -0.1794274E-02 -0.1145393E+00 -0.1795165E-02 -0.1251879E+00  0.1032281E-02  0.3742689E-01
5381111. -0.1470613E-02  0.5543469E-02 -0.1016801E-02 -0.1446407E+00  0.8045955E-03  0.4195031E-01
5344630. -0.1889526E-02  0.1422042E+00 -0.1630054E-03 -0.1513944E+00  0.5536129E-03  0.4555136E-01
5308148. -0.3099757E-02  0.2791533E+00  0.6921734E-03 -0.1451685E+00  0.2848358E-03  0.4815198E-01
5271667. -0.5055590E-02  0.3999861E+00  0.1476372E-02 -0.1268512E+00  0.4172237E-05  0.4969890E-01
5235185. -0.7621079E-02  0.4897846E+00  0.2125478E-02 -0.9837770E-01 -0.2822705E-03  0.5016562E-01
5198704. -0.1058220E-01  0.5364955E+00  0.2588903E-02 -0.6252034E-01 -0.5682801E-03  0.4955275E-01
5162222. -0.1366721E-01  0.5320581E+00  0.2833723E-02 -0.2260690E-01 -0.8477559E-03  0.4788758E-01
5125741. -0.1657110E-01  0.4731269E+00  0.2846903E-02  0.1778437E-01 -0.1114798E-02  0.4522341E-01
5089259. -0.1898438E-01  0.3613659E+00  0.2635840E-02  0.5515290E-01 -0.1363907E-02  0.4163634E-01
5052778. -0.2062091E-01  0.2033156E+00  0.2227063E-02  0.8636717E-01 -0.1590055E-02  0.3722352E-01
5016296. -0.2124483E-01  0.9794005E-02  0.1663301E-02  0.1089272E+00 -0.1788843E-02  0.3209820E-01
4979815. -0.2069232E-01 -0.2049991E+00  0.9993860E-03  0.1211483E+00 -0.1956537E-02  0.2638676E-01
4943333. -0.1888759E-01 -0.4247311E+00  0.2970948E-03  0.1222797E+00 -0.2090170E-02  0.2022334E-01
4906852. -0.1585150E-01 -0.6322653E+00 -0.3801839E-03  0.1125328E+00 -0.2187543E-02  0.1374577E-01
4870370. -0.1170152E-01 -0.8111300E+00 -0.9729991E-03  0.9303018E-01 -0.2247253E-02  0.7090902E-02
4833889. -0.6644812E-02 -0.9468259E+00 -0.1430590E-02  0.6568300E-01 -0.2268666E-02  0.3912260E-03
4797407. -0.9624255E-03 -0.1028043E+01 -0.1715024E-02  0.3300561E-01 -0.2251884E-02 -0.6230133E-02
4760926.  0.5010517E-02 -0.1047534E+01 -0.1803930E-02 -0.2106744E-02 -0.2197683E-02 -0.1266050E-01
4724444.  0.1091115E-01 -0.1002699E+01 -0.1692024E-02 -0.3663092E-01 -0.2107443E-02 -0.1880162E-01
4687963.  0.1637493E-01 -0.8957835E+00 -0.1391124E-02 -0.6765671E-01 -0.1983074E-02 -0.2456953E-01
4651482.  0.2106420E-01 -0.7336901E+00 -0.9288061E-03 -0.9262313E-01 -0.1826910E-02 -0.2989673E-01
4615000.  0.2469283E-01 -0.5274292E+00 -0.3458376E-03 -0.1095079E+00 -0.1641627E-02 -0.3473134E-01
4578518.  0.2704738E-01 -0.2912859E+00  0.3073012E-03 -0.1169704E+00 -0.1430160E-02 -0.3903658E-01
4542037.  0.2800309E-01 -0.4172721E-01  0.9746214E-03 -0.1144383E+00 -0.1195621E-02 -0.4278943E-01
4505556.  0.2753286E-01  0.2038570E+00  0.1599164E-02 -0.1021298E+00 -0.9412008E-03 -0.4598007E-01
4469074.  0.2570866E-01  0.4284269E+00  0.2127391E-02 -0.8101229E-01 -0.6701128E-03 -0.4860928E-01
4432593.  0.2269622E-01  0.6165213E+00  0.2513203E-02 -0.5271062E-01 -0.3855630E-03 -0.5068693E-01
4396111.  0.1874223E-01  0.7554065E+00  0.2721393E-02 -0.1936112E-01 -0.9064742E-04 -0.5223032E-01
4359630.  0.1415677E-01  0.8359314E+00  0.2730026E-02  0.1655686E-01  0.2116199E-03 -0.5326174E-01
4323148.  0.9289981E-02  0.8531739E+00  0.2531880E-02  0.5242114E-01  0.5184003E-03 -0.5380845E-01
4286667.  0.4507814E-02  0.8067363E+00  0.2134716E-02  0.8565712E-01  0.8269853E-03 -0.5390013E-01
4250185.  0.1650094E-03  0.7007158E+00  0.1560400E-02  0.1139300E+00  0.1134877E-02 -0.5356898E-01
4213704. -0.3418832E-02  0.5433818E+00  0.8431586E-03  0.1353010E+00  0.1439734E-02 -0.5284883E-01
4177222. -0.5982319E-02  0.3465185E+00  0.2678992E-04  0.1483586E+00  0.1739446E-02 -0.5177503E-01
4140741. -0.7339362E-02  0.1245985E+00 -0.8384555E-03  0.1523004E+00  0.2032076E-02 -0.5038465E-01
4104259. -0.7392081E-02 -0.1062972E+00 -0.1699676E-02  0.1469727E+00  0.2315939E-02 -0.4871666E-01
4067778. -0.6136672E-02 -0.3295568E+00 -0.2504835E-02  0.1328595E+00  0.2589546E-02 -0.4681246E-01
4031296. -0.3663028E-02 -0.5292301E+00 -0.3206470E-02  0.1110302E+00  0.2851686E-02 -0.4471636E-01
3994815. -0.1482344E-03 -0.6910541E+00 -0.3764629E-02  0.8304847E-01  0.3101379E-02 -0.4247629E-01
3958333.  0.4156536E-02 -0.8034428E+00 -0.4149500E-02  0.5084704E-01  0.3337963E-02 -0.4014401E-01
3921852.  0.8942699E-02 -0.8581829E+00 -0.4343024E-02  0.1659037E-01  0.3561054E-02 -0.3777590E-01
3885370.  0.1386616E-01 -0.8509780E+00 -0.4339851E-02 -0.1748272E-01  0.3770633E-02 -0.3543273E-01
3848889.  0.1856952E-01 -0.7816747E+00 -0.4147315E-02 -0.4920273E-01  0.3967016E-02 -0.3318037E-01
3812407.  0.2270683E-01 -0.6542143E+00 -0.3784604E-02 -0.7661549E-01  0.4150934E-02 -0.3108946E-01
3775926.  0.2596533E-01 -0.4763515E+00 -0.3281245E-02 -0.9809300E-01  0.4323515E-02 -0.2923547E-01
3739444.  0.2808675E-01 -0.2591041E+00 -0.2674864E-02 -0.1124310E+00  0.4486353E-02 -0.2769828E-01
3702963.  0.2888329E-01 -0.1605047E-01 -0.2008693E-02 -0.1189031E+00  0.4641492E-02 -0.2656285E-01
3666482.  0.2825029E-01  0.2375773E+00 -0.1328627E-02 -0.1172895E+00  0.4791492E-02 -0.2591826E-01
3630000.  0.2617272E-01  0.4858199E+00 -0.6803886E-03 -0.1078658E+00  0.4939436E-02 -0.2585945E-01
3630000.  0.2617272E-01  0.4858196E+00 -0.6803886E-03 -0.1078651E+00  0.4939436E-02 -0.2585945E-01
3592500.  0.2260042E-01  0.7231717E+00 -0.9150840E-04 -0.9105037E-01  0.5093102E-02 -0.2646863E-01
3555000.  0.1773190E-01  0.9236827E+00  0.3787839E-03 -0.6778513E-01  0.5252464E-02 -0.2781087E-01
3517500.  0.1182736E-01  0.1073018E+01  0.6966579E-03 -0.3953095E-01  0.5422134E-02 -0.2998959E-01
3480000.  0.5223524E-02  0.1159650E+01  0.8377640E-03 -0.8029218E-02  0.5607379E-02 -0.3312434E-01
3480000.  0.5223524E-02  0.1056981E+01 -0.1523004E-02  0.1237847E-01  0.5607379E-02 -0.4955539E-01
3409422. -0.6356600E-02  0.1007800E+01 -0.1542110E-02 -0.8977916E-02  0.5678103E-02  0.3639829E-01
3338844. -0.1660736E-01  0.8242384E+00 -0.1328560E-02 -0.2914400E-01  0.4831172E-02  0.1142643E+00
3268266. -0.2430078E-01  0.5547447E+00 -0.9102303E-03 -0.4559269E-01  0.3211579E-02  0.1746261E+00
3197688. -0.2877199E-01  0.2508503E+00 -0.3384338E-03 -0.5664986E-01  0.1047967E-02  0.2118824E+00
3127109. -0.2990288E-01 -0.4144322E-01  0.3221765E-03 -0.6157878E-01 -0.1391033E-02  0.2243696E+00
3056531. -0.2802742E-01 -0.2871803E+00  0.1003684E-02 -0.6051047E-01 -0.3837971E-02  0.2138603E+00
2985953. -0.2379279E-01 -0.4649417E+00  0.1643686E-02 -0.5426855E-01 -0.6060149E-02  0.1846661E+00
2915375. -0.1800837E-01 -0.5666603E+00  0.2191670E-02 -0.4413686E-01 -0.7881748E-02  0.1425709E+00
2844797. -0.1150766E-01 -0.5955882E+00  0.2612758E-02 -0.3161499E-01 -0.9194348E-02  0.9379748E-01
2774219. -0.5039639E-02 -0.5631637E+00  0.2888853E-02 -0.1819901E-01 -0.9956812E-02  0.4414507E-01
2703641.  0.8028393E-03 -0.4855715E+00  0.3017592E-02 -0.5210682E-02 -0.1018695E-01 -0.1621163E-02
2633062.  0.5617574E-02 -0.3805385E+00  0.3009738E-02  0.6316701E-02 -0.9947949E-02 -0.4010858E-01
2562484.  0.9194744E-02 -0.2647432E+00  0.2885631E-02  0.1569129E-01 -0.9332500E-02 -0.6937986E-01
2491906.  0.1149518E-01 -0.1520541E+00  0.2671361E-02  0.2256315E-01 -0.8447127E-02 -0.8884129E-01
2421328.  0.1261296E-01 -0.5258311E-01  0.2395161E-02  0.2688670E-01 -0.7398614E-02 -0.9899055E-01
2350750.  0.1273218E-01  0.2752102E-01  0.2084365E-02  0.2885800E-01 -0.6283634E-02 -0.1010999E+00
2280172.  0.1208433E-01  0.8575363E-01  0.1763148E-02  0.2883776E-01 -0.5182003E-02 -0.9688782E-01
2209594.  0.1091164E-01  0.1225485E+00  0.1451127E-02  0.2727686E-01 -0.4153414E-02 -0.8822375E-01
2139016.  0.9439160E-02  0.1404224E+00  0.1162734E-02  0.2464995E-01 -0.3237128E-02 -0.7689427E-01
2068438.  0.7856599E-02  0.1431024E+00  0.9072615E-03  0.2140355E-01 -0.2453847E-02 -0.6444227E-01
1997859.  0.6309208E-02  0.1347681E+00  0.6893779E-03  0.1792029E-01 -0.1808964E-02 -0.5207833E-01
1927281.  0.4896371E-02  0.1194503E+00  0.5099745E-03  0.1449946E-01 -0.1296474E-02 -0.4065486E-01
1856703.  0.3675473E-02  0.1006381E+00  0.3671086E-03  0.1135177E-01 -0.9028059E-03 -0.3068653E-01
1786125.  0.2669350E-02  0.8106207E-01  0.2569766E-03  0.8604624E-02 -0.6103342E-03 -0.2240306E-01
1715547.  0.1875100E-02  0.6264137E-01  0.1747702E-03  0.6314456E-02 -0.4001590E-03 -0.1581649E-01
1644969.  0.1272812E-02  0.4654368E-01  0.1153754E-03  0.4482830E-02 -0.2541289E-03 -0.1079100E-01
1574391.  0.8332142E-03  0.3331875E-01  0.7388874E-04  0.3072815E-02 -0.1561187E-03 -0.7106225E-02
1503812.  0.5235666E-03  0.2307260E-01  0.4596011E-04  0.2023515E-02 -0.9266862E-04 -0.4508618E-02
1433234.  0.3115368E-03  0.1566231E-01  0.2799708E-04  0.1260483E-02 -0.5313293E-04 -0.2749334E-02
1362656.  0.1667219E-03  0.1092373E-01  0.1728727E-04  0.6987494E-03 -0.2947178E-04 -0.1609825E-02
1292078.  0.5915384E-04  0.9021943E-02  0.1215846E-04  0.2317973E-03 -0.1580752E-04 -0.9218277E-03
1221500. -0.4796871E-04  0.1122260E-01  0.1242307E-04 -0.3148973E-03 -0.7724232E-05 -0.5971799E-03
1221500. -0.4796871E-04 -0.1307518E-01 -0.1253414E-04  0.1848168E-03 -0.7724232E-05 -0.5763996E-03
1183328.  0.3572448E-04 -0.1450993E-01 -0.1261275E-04 -0.1541848E-03 -0.4899198E-05 -0.3793074E-03
1145156.  0.1216858E-03 -0.1384611E-01 -0.1080717E-04 -0.4336013E-03 -0.3051607E-05 -0.2462397E-03
1106984.  0.1979972E-03 -0.1136633E-01 -0.7633910E-05 -0.6053695E-03 -0.1860538E-05 -0.1573974E-03
1068812.  0.2554338E-03 -0.7661046E-02 -0.3801475E-05 -0.6536437E-03 -0.1105377E-05 -0.9879446E-04
1030641.  0.2888110E-03 -0.3459305E-02 -0.2266436E-07 -0.5917313E-03 -0.6360056E-06 -0.6065794E-04
 992469.  0.2972999E-03  0.5409749E-03  0.3134856E-05 -0.4527925E-03 -0.3512751E-06 -0.3623313E-04
 954297.  0.2838195E-03  0.3802707E-02  0.5331825E-05 -0.2780254E-03 -0.1837573E-06 -0.2090143E-04
 916125.  0.2538335E-03  0.6020149E-02  0.6472213E-05 -0.1058053E-03 -0.8901097E-07 -0.1151502E-04
 877953.  0.2139131E-03  0.7125639E-02  0.6661639E-05  0.3582089E-04 -0.3817481E-07 -0.5957882E-05
 839781.  0.1704214E-03  0.7246088E-02  0.6134051E-05  0.1322326E-03 -0.1284202E-07 -0.2810671E-05
 801609.  0.1285545E-03  0.6630772E-02  0.5171721E-05  0.1815242E-03 -0.1587093E-08 -0.1133130E-05
 763438.  0.9184638E-04  0.5573290E-02  0.4038555E-05  0.1910353E-03  0.2433855E-08 -0.3155861E-06
 725266.  0.6210394E-04  0.4346402E-02  0.2937629E-05  0.1729569E-03  0.3126866E-08  0.2810437E-07
 687094.  0.3967614E-04  0.3160219E-02  0.1995122E-05  0.1401938E-03  0.2563007E-08  0.1334146E-06
 648922.  0.2388645E-04  0.2145834E-02  0.1265224E-05  0.1035100E-03  0.1732512E-08  0.1333642E-06
 610750.  0.1350226E-04  0.1359904E-02  0.7478587E-06  0.7014289E-04  0.1029633E-08  0.9889182E-07
 572578.  0.7132102E-05  0.8023857E-03  0.4106113E-06  0.4372418E-04  0.5497851E-09  0.6217745E-07
 534406.  0.3498766E-05  0.4389076E-03  0.2083351E-06  0.2504037E-04  0.2654992E-09  0.3445676E-07
 496234.  0.1581588E-05  0.2212063E-03  0.9699178E-07  0.1311953E-04  0.1158467E-09  0.1703980E-07
 458062.  0.6522350E-06  0.1018584E-03  0.4104422E-07  0.6244398E-05  0.4538124E-10  0.7528933E-08
 419891.  0.2422485E-06  0.4237317E-04  0.1559284E-07  0.2672418E-05  0.1578224E-10  0.2950480E-08
 381719.  0.7967787E-07  0.1568688E-04  0.5231015E-08  0.1013761E-05  0.4794101E-11  0.1012734E-08
 343547.  0.2269521E-07  0.5064678E-05  0.1515858E-08  0.3342230E-06  0.1242890E-11  0.2983570E-09
 305375.  0.5430129E-08  0.1386943E-05  0.3681342E-09  0.9317815E-07  0.2663680E-12  0.7329561E-10
 267203.  0.1045486E-08  0.3097094E-06  0.7178957E-10  0.2112546E-07  0.4506945E-13  0.1440026E-10
 229031.  0.1520788E-09  0.5321703E-07  0.1055609E-10  0.3676505E-08  0.5626765E-14  0.2124718E-11
 190859.  0.1515364E-10  0.6429058E-08  0.1061301E-11  0.4488358E-09  0.4666516E-15  0.2136918E-12
 152688.  0.8777079E-12  0.4693263E-09  0.6191516E-13  0.3304143E-10  0.2153461E-16  0.1243063E-13
 114516.  0.2171170E-13  0.1557665E-10  0.1539980E-14  0.1103617E-11  0.3968299E-18  0.3056302E-15
  76344.  0.0000000E+00  0.0000000E+00  0.0000000E+00  0.0000000E+00  0.0000000E+00  0.0000000E+00
  38172.  0.0000000E+00  0.0000000E+00  0.0000000E+00  0.0000000E+00  0.0000000E+00  0.0000000E+00
      0.  0.0000000E+00  0.0000000E+00  0.0000000E+00  0.0000000E+00  0.0000000E+00  0.0000000E+00
