       2       26 S      190        179.44630          8.41796          6.51955        193.22211      185    7
6371000. -0.4820294E-01 -0.1558256E+01 -0.5782980E-02  0.4241996E-01  0.4733332E-02 -0.3690048E-01
6370000. -0.4795734E-01 -0.1571129E+01 -0.5789411E-02  0.3952572E-01  0.4739109E-02 -0.3672320E-01
6369000. -0.4770974E-01 -0.1583734E+01 -0.5795388E-02  0.3662407E-01  0.4744860E-02 -0.3654882E-01
6368000. -0.4746019E-01 -0.1596070E+01 -0.5800908E-02  0.3371526E-01  0.4750583E-02 -0.3637734E-01
6368000. -0.4746019E-01 -0.1596070E+01 -0.5800908E-02  0.3371526E-01  0.4750583E-02 -0.3637734E-01
6367000. -0.4720872E-01 -0.1608136E+01 -0.5805972E-02  0.3079959E-01  0.4756280E-02 -0.3620879E-01
6366000. -0.4695537E-01 -0.1619931E+01 -0.5810576E-02  0.2787734E-01  0.4761950E-02 -0.3604317E-01
6365000. -0.4670019E-01 -0.1631454E+01 -0.5814722E-02  0.2494877E-01  0.4767594E-02 -0.3588049E-01
6364000. -0.4644324E-01 -0.1642703E+01 -0.5818408E-02  0.2201419E-01  0.4773214E-02 -0.3572077E-01
6363000. -0.4618453E-01 -0.1653678E+01 -0.5821633E-02  0.1907386E-01  0.4778808E-02 -0.3556402E-01
6362000. -0.4592412E-01 -0.1664379E+01 -0.5824396E-02  0.1612807E-01  0.4784378E-02 -0.3541025E-01
6361000. -0.4566206E-01 -0.1674804E+01 -0.5826695E-02  0.1317711E-01  0.4789924E-02 -0.3525948E-01
6360000. -0.4539838E-01 -0.1684952E+01 -0.5828532E-02  0.1022126E-01  0.4795447E-02 -0.3511170E-01
6359000. -0.4513313E-01 -0.1694822E+01 -0.5829904E-02  0.7260804E-02  0.4800947E-02 -0.3496695E-01
6358000. -0.4486635E-01 -0.1704415E+01 -0.5830811E-02  0.4296025E-02  0.4806424E-02 -0.3482522E-01
6357000. -0.4459809E-01 -0.1713728E+01 -0.5831253E-02  0.1327211E-02  0.4811880E-02 -0.3468654E-01
6356000. -0.4432839E-01 -0.1722762E+01 -0.5831228E-02 -0.1645351E-02  0.4817314E-02 -0.3455091E-01
6356000. -0.4432839E-01 -0.1475729E+01 -0.5831228E-02  0.1430333E-01  0.4817314E-02 -0.2490557E-01
6355000. -0.4409618E-01 -0.1483068E+01 -0.5833352E-02  0.1277207E-01  0.4821199E-02 -0.2460965E-01
6354000. -0.4386283E-01 -0.1490264E+01 -0.5835237E-02  0.1123825E-01  0.4825039E-02 -0.2431581E-01
6353000. -0.4362836E-01 -0.1497318E+01 -0.5836880E-02  0.9701928E-02  0.4828833E-02 -0.2402405E-01
6352000. -0.4339279E-01 -0.1504228E+01 -0.5838282E-02  0.8163213E-02  0.4832581E-02 -0.2373437E-01
6351000. -0.4315615E-01 -0.1510994E+01 -0.5839442E-02  0.6622187E-02  0.4836284E-02 -0.2344678E-01
6350000. -0.4291846E-01 -0.1517616E+01 -0.5840361E-02  0.5078940E-02  0.4839941E-02 -0.2316127E-01
6349000. -0.4267975E-01 -0.1524093E+01 -0.5841037E-02  0.3533561E-02  0.4843554E-02 -0.2287786E-01
6348000. -0.4244002E-01 -0.1530425E+01 -0.5841470E-02  0.1986141E-02  0.4847123E-02 -0.2259655E-01
6347000. -0.4219932E-01 -0.1536612E+01 -0.5841661E-02  0.4367665E-03  0.4850648E-02 -0.2231734E-01
6346600. -0.4210277E-01 -0.1539046E+01 -0.5841669E-02 -0.1835099E-03  0.4852046E-02 -0.2220624E-01
6346600. -0.4210277E-01 -0.1705459E+01 -0.5841669E-02  0.1170112E-01  0.4852046E-02 -0.7525619E-02
6318800. -0.3436253E-01 -0.1831575E+01 -0.5845523E-02 -0.1011803E-01  0.4864380E-02  0.1696008E-02
6291000. -0.2621571E-01 -0.1890977E+01 -0.5752295E-02 -0.3267385E-01  0.4838711E-02  0.9909441E-02
6291000. -0.2621571E-01 -0.1950128E+01 -0.5752295E-02 -0.3466744E-01  0.4838711E-02  0.9909441E-02
6263000. -0.1765545E-01 -0.1932151E+01 -0.5544846E-02 -0.5964991E-01  0.4780104E-02  0.1660921E-01
6235000. -0.9349924E-02 -0.1834217E+01 -0.5229408E-02 -0.8366011E-01  0.4693981E-02  0.2244717E-01
6207000. -0.1647949E-02 -0.1658014E+01 -0.4812213E-02 -0.1058122E+00  0.4583920E-02  0.2751871E-01
6179000.  0.5115844E-02 -0.1408313E+01 -0.4303283E-02 -0.1252735E+00  0.4453078E-02  0.3192020E-01
6151000.  0.1063447E-01 -0.1092906E+01 -0.3716123E-02 -0.1412968E+00  0.4304189E-02  0.3574678E-01
6151000.  0.1063447E-01 -0.1096211E+01 -0.3716123E-02 -0.1258217E+00  0.4304189E-02  0.3515842E-01
6128500.  0.1409147E-01 -0.8587600E+00 -0.3261848E-02 -0.1310691E+00  0.4174892E-02  0.3800172E-01
6106000.  0.1668249E-01 -0.6066847E+00 -0.2792976E-02 -0.1340870E+00  0.4036195E-02  0.4048650E-01
6083500.  0.1836556E-01 -0.3454836E+00 -0.2317361E-02 -0.1348951E+00  0.3889315E-02  0.4264042E-01
6061000.  0.1911816E-01 -0.8062361E-01 -0.1842709E-02 -0.1335551E+00  0.3735374E-02  0.4448904E-01
6038500.  0.1893682E-01  0.1825612E+00 -0.1376438E-02 -0.1301693E+00  0.3575407E-02  0.4605703E-01
6016000.  0.1783657E-01  0.4389589E+00 -0.9255391E-03 -0.1248747E+00  0.3410364E-02  0.4736796E-01
5993500.  0.1584993E-01  0.6837774E+00 -0.4964682E-03 -0.1178379E+00  0.3241111E-02  0.4844424E-01
5971000.  0.1302570E-01  0.9126273E+00 -0.9504442E-04 -0.1092517E+00  0.3068439E-02  0.4930837E-01
5971000.  0.1302570E-01  0.8224120E+00 -0.9504442E-04 -0.9875812E-01  0.3068439E-02  0.4760320E-01
5937667.  0.8067778E-02  0.1063882E+01  0.3808063E-03 -0.8298648E-01  0.2819066E-02  0.4762223E-01
5904333.  0.1988099E-02  0.1250895E+01  0.7724583E-03 -0.6670646E-01  0.2571133E-02  0.4705722E-01
5871000. -0.4926599E-02  0.1383342E+01  0.1079260E-02 -0.5066617E-01  0.2327590E-02  0.4595506E-01
5837667. -0.1239608E-01  0.1463511E+01  0.1304063E-02 -0.3544393E-01  0.2091100E-02  0.4437150E-01
5804333. -0.2015705E-01  0.1495467E+01  0.1452313E-02 -0.2145834E-01  0.1864011E-02  0.4236940E-01
5771000. -0.2797013E-01  0.1484473E+01  0.1531248E-02 -0.8983742E-02  0.1648350E-02  0.4001761E-01
5771000. -0.2797013E-01  0.1484551E+01  0.1531248E-02 -0.8982386E-02  0.1648350E-02  0.4001761E-01
5701000. -0.4401593E-01  0.1411021E+01  0.1518515E-02  0.1063776E-01  0.1245701E-02  0.3326165E-01
5701000. -0.4401593E-01  0.1225319E+01  0.1518515E-02  0.1909563E-01  0.1245701E-02  0.4566815E-01
5667333. -0.5021121E-01  0.1117181E+01  0.1405902E-02  0.2332885E-01  0.1018980E-02  0.4019310E-01
5633667. -0.5580608E-01  0.9989076E+00  0.1273895E-02  0.2646146E-01  0.8203340E-03  0.3504566E-01
5600000. -0.6075870E-01  0.8747066E+00  0.1127899E-02  0.2864953E-01  0.6480015E-03  0.3023421E-01
5600000. -0.6075870E-01  0.8747379E+00  0.1127899E-02  0.2864752E-01  0.6480015E-03  0.3023421E-01
5563518. -0.6541733E-01  0.7517856E+00  0.9620177E-03  0.2919264E-01  0.4886140E-03  0.2554448E-01
5527037. -0.6936342E-01  0.6263011E+00  0.7946383E-03  0.2918123E-01  0.3542847E-03  0.2146944E-01
5490556. -0.7258926E-01  0.5005794E+00  0.6287831E-03  0.2867020E-01  0.2417179E-03  0.1793117E-01
5454074. -0.7509962E-01  0.3766953E+00  0.4671331E-03  0.2772157E-01  0.1480374E-03  0.1486159E-01
5417593. -0.7691028E-01  0.2564948E+00  0.3120167E-03  0.2640061E-01  0.7073217E-04  0.1220363E-01
5381111. -0.7804709E-01  0.1415635E+00  0.1653707E-03  0.2477247E-01  0.7589269E-05  0.9906506E-02
5344630. -0.7854411E-01  0.3324006E-01  0.2877574E-04  0.2290196E-01 -0.4332568E-04  0.7926422E-02
5308148. -0.7844240E-01 -0.6740294E-01 -0.9656528E-04  0.2085057E-01 -0.8371778E-04  0.6224797E-02
5271667. -0.7778846E-01 -0.1595316E+00 -0.2097809E-03  0.1867747E-01 -0.1150830E-03  0.4768682E-02
5235185. -0.7663277E-01 -0.2425601E+00 -0.3103368E-03  0.1643639E-01 -0.1387417E-03  0.3528306E-02
5198704. -0.7502870E-01 -0.3161157E+00 -0.3979806E-03  0.1417613E-01 -0.1558539E-03  0.2478202E-02
5162222. -0.7303093E-01 -0.3800377E+00 -0.4727327E-03  0.1193961E-01 -0.1674401E-03  0.1594510E-02
5125741. -0.7069478E-01 -0.4343401E+00 -0.5348349E-03  0.9764210E-02 -0.1743958E-03  0.8577809E-03
5089259. -0.6807477E-01 -0.4792056E+00 -0.5847324E-03  0.7680984E-02 -0.1775076E-03  0.2489921E-03
5052778. -0.6522422E-01 -0.5149487E+00 -0.6230256E-03  0.5715296E-02 -0.1774615E-03 -0.2477245E-03
5016296. -0.6219403E-01 -0.5420035E+00 -0.6504486E-03  0.3886849E-02 -0.1748562E-03 -0.6472026E-03
4979815. -0.5903266E-01 -0.5608932E+00 -0.6678296E-03  0.2210100E-02 -0.1702100E-03 -0.9626048E-03
4943333. -0.5578500E-01 -0.5722146E+00 -0.6760680E-03  0.6946335E-03 -0.1639719E-03 -0.1205015E-02
4906852. -0.5249273E-01 -0.5766153E+00 -0.6761026E-03 -0.6547526E-03 -0.1565271E-03 -0.1385872E-02
4870370. -0.4919337E-01 -0.5747741E+00 -0.6688888E-03 -0.1837092E-02 -0.1482011E-03 -0.1514052E-02
4833889. -0.4592086E-01 -0.5673833E+00 -0.6553800E-03 -0.2854146E-02 -0.1392728E-03 -0.1597774E-02
4797407. -0.4270481E-01 -0.5551395E+00 -0.6365068E-03 -0.3711732E-02 -0.1299714E-03 -0.1645481E-02
4760926. -0.3957122E-01 -0.5387227E+00 -0.6131625E-03 -0.4417406E-02 -0.1204853E-03 -0.1663439E-02
4724444. -0.3654194E-01 -0.5187866E+00 -0.5861898E-03 -0.4980469E-02 -0.1109661E-03 -0.1657918E-02
4687963. -0.3363546E-01 -0.4959548E+00 -0.5563758E-03 -0.5412029E-02 -0.1015325E-03 -0.1634478E-02
4651482. -0.3086663E-01 -0.4708064E+00 -0.5244387E-03 -0.5724046E-02 -0.9227292E-04 -0.1597927E-02
4615000. -0.2824707E-01 -0.4438727E+00 -0.4910262E-03 -0.5929203E-02 -0.8324880E-04 -0.1552852E-02
4578518. -0.2578570E-01 -0.4156338E+00 -0.4567142E-03 -0.6040358E-02 -0.7449779E-04 -0.1503206E-02
4542037. -0.2348880E-01 -0.3865153E+00 -0.4220049E-03 -0.6070440E-02 -0.6603461E-04 -0.1453021E-02
4505556. -0.2136026E-01 -0.3568844E+00 -0.3873248E-03 -0.6032243E-02 -0.5785212E-04 -0.1405735E-02
4469074. -0.1940205E-01 -0.3270499E+00 -0.3530288E-03 -0.5937975E-02 -0.4992353E-04 -0.1364833E-02
4432593. -0.1761469E-01 -0.2972655E+00 -0.3194058E-03 -0.5799367E-02 -0.4220322E-04 -0.1333597E-02
4396111. -0.1599722E-01 -0.2677249E+00 -0.2866763E-03 -0.5627346E-02 -0.3462593E-04 -0.1315435E-02
4359630. -0.1454789E-01 -0.2385694E+00 -0.2550038E-03 -0.5432093E-02 -0.2710588E-04 -0.1314297E-02
4323148. -0.1326416E-01 -0.2098825E+00 -0.2244932E-03 -0.5222683E-02 -0.1953470E-04 -0.1333922E-02
4286667. -0.1214329E-01 -0.1817003E+00 -0.1952027E-03 -0.5007538E-02 -0.1178063E-04 -0.1379073E-02
4250185. -0.1118236E-01 -0.1540042E+00 -0.1671427E-03 -0.4793696E-02 -0.3682725E-05 -0.1454860E-02
4213704. -0.1037878E-01 -0.1267327E+00 -0.1402893E-03 -0.4587275E-02  0.4951135E-05 -0.1567484E-02
4177222. -0.9730377E-02 -0.9977608E-01 -0.1145846E-03 -0.4392943E-02  0.1435307E-04 -0.1724377E-02
4140741. -0.9235790E-02 -0.7298689E-01 -0.8995012E-04 -0.4214113E-02  0.2480049E-04 -0.1934380E-02
4104259. -0.8894552E-02 -0.4617715E-01 -0.6629030E-04 -0.4052387E-02  0.3662841E-04 -0.2208418E-02
4067778. -0.8707405E-02 -0.1913028E-01 -0.4350904E-04 -0.3907186E-02  0.5023893E-04 -0.2559525E-02
4031296. -0.8676386E-02  0.8396823E-02 -0.2151819E-04 -0.3775290E-02  0.6611880E-04 -0.3003860E-02
3994815. -0.8804965E-02  0.3665674E-01 -0.2605627E-06 -0.3649777E-02  0.8485503E-04 -0.3560909E-02
3958333. -0.9098072E-02  0.6590030E-01  0.2027050E-04 -0.3518846E-02  0.1071599E-03 -0.4254465E-02
3921852. -0.9561967E-02  0.9634477E-01  0.3999319E-04 -0.3363817E-02  0.1338940E-03 -0.5113443E-02
3885370. -0.1020403E-01  0.1281418E+00  0.5869538E-04 -0.3156590E-02  0.1661029E-03 -0.6172742E-02
3848889. -0.1103212E-01  0.1613144E+00  0.7596664E-04 -0.2855966E-02  0.2050482E-03 -0.7474242E-02
3812407. -0.1205375E-01  0.1956778E+00  0.9111181E-04 -0.2401917E-02  0.2522581E-03 -0.9067989E-02
3775926. -0.1327438E-01  0.2307068E+00  0.1030194E-03 -0.1708267E-02  0.3095679E-03 -0.1101302E-01
3739444. -0.1469520E-01  0.2653590E+00  0.1099866E-03 -0.6519316E-03  0.3791853E-03 -0.1337846E-01
3702963. -0.1630918E-01  0.2977942E+00  0.1094636E-03  0.9424203E-03  0.4637351E-03 -0.1624321E-01
3666482. -0.1809569E-01  0.3249855E+00  0.9769817E-04  0.3323936E-02  0.5663281E-03 -0.1969603E-01
3630000. -0.2001201E-01  0.3421335E+00  0.6922824E-04  0.6846324E-02  0.6906058E-03 -0.2383227E-01
3630000. -0.2001201E-01  0.3421320E+00  0.6922824E-04  0.6846636E-02  0.6906058E-03 -0.2383227E-01
3592500. -0.2204037E-01  0.3432550E+00  0.1460337E-04  0.1206530E-01  0.8453335E-03 -0.2888286E-01
3555000. -0.2399412E-01  0.3142470E+00 -0.7777397E-04  0.1982750E-01  0.1032366E-02 -0.3482362E-01
3517500. -0.2564429E-01  0.2362974E+00 -0.2259452E-03  0.3124352E-01  0.1257160E-02 -0.4171996E-01
3480000. -0.2662531E-01  0.8117548E-01 -0.4558315E-03  0.4790970E-01  0.1525374E-02 -0.4956870E-01
3480000. -0.2662531E-01 -0.9841562E+00 -0.1216354E-02 -0.4649684E-01  0.1525374E-02  0.3418357E-01
3409422. -0.1753603E-01 -0.6738822E+00 -0.7905230E-03 -0.3128234E-01  0.1150308E-02  0.3242855E-01
3338844. -0.1136413E-01 -0.4532917E+00 -0.5061463E-03 -0.2071491E-01  0.8213919E-03  0.2663490E-01
3268266. -0.7246288E-02 -0.2996361E+00 -0.3192142E-03 -0.1350203E-01  0.5625408E-03  0.2014240E-01
3197688. -0.4546078E-02 -0.1946778E+00 -0.1982635E-03 -0.8662185E-02  0.3722461E-03  0.1439589E-01
3127109. -0.2805616E-02 -0.1243287E+00 -0.1212376E-03 -0.5469032E-02  0.2390796E-03  0.9854412E-02
3056531. -0.1702911E-02 -0.7804467E-01 -0.7296720E-04 -0.3397545E-02  0.1494672E-03  0.6510308E-02
2985953. -0.1016223E-02 -0.4814633E-01 -0.4320549E-04 -0.2076186E-02  0.9112521E-04  0.4170250E-02
2915375. -0.5960058E-03 -0.2918265E-01 -0.2515778E-04 -0.1247550E-02  0.5424027E-04  0.2597627E-02
2844797. -0.3433809E-03 -0.1737328E-01 -0.1439797E-04 -0.7368076E-03  0.3154184E-04  0.1576318E-02
2774219. -0.1942371E-03 -0.1015429E-01 -0.8094118E-05 -0.4275009E-03  0.1792541E-04  0.9329347E-03
2703641. -0.1078082E-03 -0.5823795E-02 -0.4466734E-05 -0.2435307E-03  0.9955898E-05  0.5388497E-03
2633062. -0.5867171E-04 -0.3275569E-02 -0.2417909E-05 -0.1361177E-03  0.5402945E-05  0.3038037E-03
2562484. -0.3128462E-04 -0.1805503E-02 -0.1282838E-05 -0.7459439E-04  0.2863879E-05  0.1671900E-03
2491906. -0.1632959E-04 -0.9745292E-03 -0.6664830E-06 -0.4004634E-04  0.1481835E-05  0.8978129E-04
2421328. -0.8335656E-05 -0.5146249E-03 -0.3387332E-06 -0.2104173E-04  0.7479017E-06  0.4702133E-04
2350750. -0.4156761E-05 -0.2656151E-03 -0.1682281E-06 -0.1080974E-04  0.3678732E-06  0.2400097E-04
2280172. -0.2022557E-05 -0.1338431E-03 -0.8154201E-07 -0.5423341E-05  0.1761571E-06  0.1192887E-04
2209594. -0.9589570E-06 -0.6576260E-04 -0.3852304E-07 -0.2653895E-05  0.8201942E-07  0.5766834E-05
2139016. -0.4423944E-06 -0.3146287E-04 -0.1771200E-07 -0.1264888E-05  0.3707986E-07  0.2708280E-05
2068438. -0.1982532E-06 -0.1463462E-04 -0.7912330E-08 -0.5862600E-06  0.1625069E-07  0.1233762E-05
1997859. -0.8614564E-07 -0.6606501E-05 -0.3427892E-08 -0.2637757E-06  0.6891756E-08  0.5442758E-06
1927281. -0.3622229E-07 -0.2888940E-05 -0.1437333E-08 -0.1149867E-06  0.2822533E-08  0.2320803E-06
1856703. -0.1470468E-07 -0.1221061E-05 -0.5819670E-09 -0.4845941E-07  0.1113775E-08  0.9544297E-07
1786125. -0.5748636E-08 -0.4976355E-06 -0.2269540E-09 -0.1969537E-07  0.4223575E-09  0.3776331E-07
1715547. -0.2158033E-08 -0.1950161E-06 -0.8500146E-10 -0.7698571E-08  0.1534669E-09  0.1433530E-07
1644969. -0.7754046E-09 -0.7326047E-07 -0.3047569E-10 -0.2885139E-08  0.5325468E-10  0.5204482E-08
1574391. -0.2656926E-09 -0.2628941E-07 -0.1042125E-10 -0.1033005E-08  0.1758195E-10  0.1800587E-08
1503812. -0.8645407E-10 -0.8975393E-08 -0.3384498E-11 -0.3519370E-09  0.5498663E-11  0.5911731E-09
1433234. -0.2658810E-10 -0.2901934E-08 -0.1038938E-11 -0.1135742E-09  0.1620951E-11  0.1833354E-09
1362656. -0.7688795E-11 -0.8834121E-09 -0.2996488E-12 -0.3454870E-10  0.4475767E-12  0.5344008E-10
1292078.  0.0000000E+00  0.0000000E+00  0.0000000E+00  0.0000000E+00  0.0000000E+00  0.0000000E+00
1221500.  0.0000000E+00  0.0000000E+00  0.0000000E+00  0.0000000E+00  0.0000000E+00  0.0000000E+00
1221500.  0.0000000E+00  0.0000000E+00  0.0000000E+00  0.0000000E+00  0.0000000E+00  0.0000000E+00
1183328.  0.0000000E+00  0.0000000E+00  0.0000000E+00  0.0000000E+00  0.0000000E+00  0.0000000E+00
1145156.  0.0000000E+00  0.0000000E+00  0.0000000E+00  0.0000000E+00  0.0000000E+00  0.0000000E+00
1106984.  0.0000000E+00  0.0000000E+00  0.0000000E+00  0.0000000E+00  0.0000000E+00  0.0000000E+00
1068812.  0.0000000E+00  0.0000000E+00  0.0000000E+00  0.0000000E+00  0.0000000E+00  0.0000000E+00
1030641.  0.0000000E+00  0.0000000E+00  0.0000000E+00  0.0000000E+00  0.0000000E+00  0.0000000E+00
 992469.  0.0000000E+00  0.0000000E+00  0.0000000E+00  0.0000000E+00  0.0000000E+00  0.0000000E+00
 954297.  0.0000000E+00  0.0000000E+00  0.0000000E+00  0.0000000E+00  0.0000000E+00  0.0000000E+00
 916125.  0.0000000E+00  0.0000000E+00  0.0000000E+00  0.0000000E+00  0.0000000E+00  0.0000000E+00
 877953.  0.0000000E+00  0.0000000E+00  0.0000000E+00  0.0000000E+00  0.0000000E+00  0.0000000E+00
 839781.  0.0000000E+00  0.0000000E+00  0.0000000E+00  0.0000000E+00  0.0000000E+00  0.0000000E+00
 801609.  0.0000000E+00  0.0000000E+00  0.0000000E+00  0.0000000E+00  0.0000000E+00  0.0000000E+00
 763438.  0.0000000E+00  0.0000000E+00  0.0000000E+00  0.0000000E+00  0.0000000E+00  0.0000000E+00
 725266.  0.0000000E+00  0.0000000E+00  0.0000000E+00  0.0000000E+00  0.0000000E+00  0.0000000E+00
 687094.  0.0000000E+00  0.0000000E+00  0.0000000E+00  0.0000000E+00  0.0000000E+00  0.0000000E+00
 648922.  0.0000000E+00  0.0000000E+00  0.0000000E+00  0.0000000E+00  0.0000000E+00  0.0000000E+00
 610750.  0.0000000E+00  0.0000000E+00  0.0000000E+00  0.0000000E+00  0.0000000E+00  0.0000000E+00
 572578.  0.0000000E+00  0.0000000E+00  0.0000000E+00  0.0000000E+00  0.0000000E+00  0.0000000E+00
 534406.  0.0000000E+00  0.0000000E+00  0.0000000E+00  0.0000000E+00  0.0000000E+00  0.0000000E+00
 496234.  0.0000000E+00  0.0000000E+00  0.0000000E+00  0.0000000E+00  0.0000000E+00  0.0000000E+00
 458062.  0.0000000E+00  0.0000000E+00  0.0000000E+00  0.0000000E+00  0.0000000E+00  0.0000000E+00
 419891.  0.0000000E+00  0.0000000E+00  0.0000000E+00  0.0000000E+00  0.0000000E+00  0.0000000E+00
 381719.  0.0000000E+00  0.0000000E+00  0.0000000E+00  0.0000000E+00  0.0000000E+00  0.0000000E+00
 343547.  0.0000000E+00  0.0000000E+00  0.0000000E+00  0.0000000E+00  0.0000000E+00  0.0000000E+00
 305375.  0.0000000E+00  0.0000000E+00  0.0000000E+00  0.0000000E+00  0.0000000E+00  0.0000000E+00
 267203.  0.0000000E+00  0.0000000E+00  0.0000000E+00  0.0000000E+00  0.0000000E+00  0.0000000E+00
 229031.  0.0000000E+00  0.0000000E+00  0.0000000E+00  0.0000000E+00  0.0000000E+00  0.0000000E+00
 190859.  0.0000000E+00  0.0000000E+00  0.0000000E+00  0.0000000E+00  0.0000000E+00  0.0000000E+00
 152688.  0.0000000E+00  0.0000000E+00  0.0000000E+00  0.0000000E+00  0.0000000E+00  0.0000000E+00
 114516.  0.0000000E+00  0.0000000E+00  0.0000000E+00  0.0000000E+00  0.0000000E+00  0.0000000E+00
  76344.  0.0000000E+00  0.0000000E+00  0.0000000E+00  0.0000000E+00  0.0000000E+00  0.0000000E+00
  38172.  0.0000000E+00  0.0000000E+00  0.0000000E+00  0.0000000E+00  0.0000000E+00  0.0000000E+00
      0.  0.0000000E+00  0.0000000E+00  0.0000000E+00  0.0000000E+00  0.0000000E+00  0.0000000E+00
