      23        1 S      726        126.59730        210.80060         27.84516         85.91490      185    7
6371000.  0.4829821E-02 -0.3435460E-02  0.4594905E-03 -0.4370331E-02 -0.2122215E-11 -0.9107913E-02
6370000.  0.4830183E-02 -0.1173662E-02  0.4601211E-03 -0.3664225E-02  0.1429671E-05 -0.9108867E-02
6369000.  0.4830190E-02  0.1088778E-02  0.4606407E-03 -0.2956197E-02  0.2859441E-05 -0.9109153E-02
6368000.  0.4829841E-02  0.3351695E-02  0.4610490E-03 -0.2246418E-02  0.4289204E-05 -0.9108771E-02
6368000.  0.4829841E-02  0.3351695E-02  0.4610490E-03 -0.2246418E-02  0.4289204E-05 -0.9108771E-02
6367000.  0.4829138E-02  0.5614922E-02  0.4613458E-03 -0.1535059E-02  0.5718854E-05 -0.9107719E-02
6366000.  0.4828079E-02  0.7878292E-02  0.4615309E-03 -0.8222890E-03  0.7148286E-05 -0.9105998E-02
6365000.  0.4826664E-02  0.1014164E-01  0.4616039E-03 -0.1082810E-03  0.8577396E-05 -0.9103607E-02
6364000.  0.4824895E-02  0.1240480E-01  0.4615648E-03  0.6067933E-03  0.1000608E-04 -0.9100547E-02
6363000.  0.4822770E-02  0.1466760E-01  0.4614134E-03  0.1322762E-02  0.1143423E-04 -0.9096818E-02
6362000.  0.4820290E-02  0.1692988E-01  0.4611495E-03  0.2039452E-02  0.1286174E-04 -0.9092420E-02
6361000.  0.4817456E-02  0.1919147E-01  0.4607731E-03  0.2756691E-02  0.1428851E-04 -0.9087353E-02
6360000.  0.4814266E-02  0.2145221E-01  0.4602841E-03  0.3474305E-02  0.1571443E-04 -0.9081616E-02
6359000.  0.4810721E-02  0.2371193E-01  0.4596824E-03  0.4192122E-02  0.1713939E-04 -0.9075211E-02
6358000.  0.4806822E-02  0.2597045E-01  0.4589681E-03  0.4909968E-02  0.1856331E-04 -0.9068137E-02
6357000.  0.4802568E-02  0.2822763E-01  0.4581411E-03  0.5627668E-02  0.1998605E-04 -0.9060396E-02
6356000.  0.4797961E-02  0.3048328E-01  0.4572015E-03  0.6345049E-02  0.2140753E-04 -0.9051986E-02
6356000.  0.4797961E-02  0.1912367E-01  0.4572015E-03  0.2105088E-02  0.2140753E-04 -0.1009597E-01
6355000.  0.4794830E-02  0.2076313E-01  0.4568333E-03  0.2587277E-02  0.2299172E-04 -0.1008969E-01
6354000.  0.4791443E-02  0.2240189E-01  0.4563892E-03  0.3069726E-02  0.2457489E-04 -0.1008288E-01
6353000.  0.4787798E-02  0.2403986E-01  0.4558695E-03  0.3552356E-02  0.2615694E-04 -0.1007552E-01
6352000.  0.4783896E-02  0.2567697E-01  0.4552741E-03  0.4035089E-02  0.2773779E-04 -0.1006763E-01
6351000.  0.4779737E-02  0.2731312E-01  0.4546028E-03  0.4517844E-02  0.2931736E-04 -0.1005919E-01
6350000.  0.4775322E-02  0.2894823E-01  0.4538558E-03  0.5000546E-02  0.3089557E-04 -0.1005022E-01
6349000.  0.4770650E-02  0.3058220E-01  0.4530331E-03  0.5483113E-02  0.3247232E-04 -0.1004070E-01
6348000.  0.4765722E-02  0.3221495E-01  0.4521346E-03  0.5965468E-02  0.3404754E-04 -0.1003065E-01
6347000.  0.4760537E-02  0.3384639E-01  0.4511604E-03  0.6447532E-02  0.3562114E-04 -0.1002006E-01
6346600.  0.4758392E-02  0.3449858E-01  0.4507495E-03  0.6640258E-02  0.3625011E-04 -0.1001567E-01
6346600.  0.4758392E-02  0.1963691E-01  0.4507495E-03  0.3078360E-02  0.3625011E-04 -0.1167485E-01
6318800.  0.4601417E-02  0.5226029E-01  0.4145433E-03  0.1344223E-01  0.8648048E-04 -0.1128991E-01
6291000.  0.4303484E-02  0.8407886E-01  0.3348220E-03  0.2285785E-01  0.1342753E-03 -0.1055993E-01
6291000.  0.4303484E-02  0.8518580E-01  0.3348220E-03  0.2379115E-01  0.1342753E-03 -0.1055993E-01
6263000.  0.3860935E-02  0.1158056E+00  0.2121997E-03  0.3159006E-01  0.1784239E-03 -0.9475906E-02
6235000.  0.3289837E-02  0.1435176E+00  0.6139949E-04  0.3649836E-01  0.2171054E-03 -0.8077242E-02
6207000.  0.2605122E-02  0.1673552E+00 -0.1035734E-03  0.3797689E-01  0.2490138E-03 -0.6400641E-02
6179000.  0.1825784E-02  0.1864393E+00 -0.2670754E-03  0.3582546E-01  0.2730269E-03 -0.4492909E-02
6151000.  0.9744439E-03  0.2000054E+00 -0.4133696E-03  0.3020199E-01  0.2882486E-03 -0.2409897E-02
6151000.  0.9744439E-03  0.1610227E+00 -0.4133696E-03  0.2636559E-01  0.2882486E-03 -0.2463809E-02
6128500.  0.4012456E-03  0.1631291E+00 -0.4958630E-03  0.2013921E-01  0.2944333E-03 -0.1033446E-02
6106000. -0.1745396E-03  0.1624991E+00 -0.5543439E-03  0.1283245E-01  0.2955256E-03  0.4159608E-03
6083500. -0.7433929E-03  0.1592215E+00 -0.5857170E-03  0.4859985E-02  0.2915015E-03  0.1860075E-02
6061000. -0.1296178E-02  0.1534236E+00 -0.5884089E-03 -0.3335163E-02  0.2824218E-03  0.3275109E-02
6038500. -0.1824272E-02  0.1452682E+00 -0.5624234E-03 -0.1130714E-01  0.2684298E-03  0.4638190E-02
6016000. -0.2319680E-02  0.1349473E+00 -0.5093068E-03 -0.1863229E-01  0.2497477E-03  0.5927692E-02
5993500. -0.2775132E-02  0.1226783E+00 -0.4320288E-03 -0.2493174E-01  0.2266713E-03  0.7123601E-02
5971000. -0.3184165E-02  0.1087011E+00 -0.3347880E-03 -0.2989128E-01  0.1995637E-03  0.8207690E-02
5971000. -0.3184165E-02  0.9852559E-01 -0.3347880E-03 -0.2626332E-01  0.1995637E-03  0.8624524E-02
5937667. -0.3637082E-02  0.7443862E-01 -0.1874015E-03 -0.2954656E-01  0.1507952E-03  0.9964776E-02
5904333. -0.3962116E-02  0.4978050E-01 -0.3103741E-04 -0.2972752E-01  0.9586620E-04  0.1097550E-01
5871000. -0.4158410E-02  0.2535381E-01  0.1188514E-03 -0.2715224E-01  0.3654641E-04  0.1164245E-01
5837667. -0.4229027E-02  0.1843729E-02  0.2492603E-03 -0.2238931E-01 -0.2535515E-04  0.1196282E-01
5804333. -0.4180298E-02 -0.2018144E-01  0.3505319E-03 -0.1613464E-01 -0.8804165E-04  0.1194376E-01
5771000. -0.4021238E-02 -0.4026600E-01  0.4167785E-03 -0.9123218E-02 -0.1497719E-03  0.1160132E-01
5771000. -0.4021238E-02 -0.4026609E-01  0.4167785E-03 -0.9122761E-02 -0.1497719E-03  0.1160132E-01
5701000. -0.3355592E-02 -0.7962737E-01  0.4388042E-03  0.4999175E-02 -0.2679314E-03  0.9695949E-02
5701000. -0.3355592E-02 -0.6548251E-01  0.4388042E-03  0.4840229E-02 -0.2679314E-03  0.1064177E-01
5667333. -0.2972793E-02 -0.7903976E-01  0.3992044E-03  0.9964449E-02 -0.3211452E-03  0.9458422E-02
5633667. -0.2524139E-02 -0.9037966E-01  0.3356432E-03  0.1387272E-01 -0.3675054E-03  0.8054305E-02
5600000. -0.2021766E-02 -0.9934361E-01  0.2550161E-03  0.1640659E-01 -0.4059446E-03  0.6466481E-02
5600000. -0.2021766E-02 -0.9934362E-01  0.2550161E-03  0.1640726E-01 -0.4059446E-03  0.6466481E-02
5563518. -0.1429304E-02 -0.1071167E+00  0.1558931E-03  0.1794631E-01 -0.4376397E-03  0.4577191E-02
5527037. -0.8005148E-03 -0.1120215E+00  0.5256690E-04  0.1787710E-01 -0.4581109E-03  0.2555168E-02
5490556. -0.1520132E-03 -0.1139981E+00 -0.4589862E-04  0.1627145E-01 -0.4667494E-03  0.4532247E-03
5454074.  0.4994546E-03 -0.1130593E+00 -0.1312148E-03  0.1332564E-01 -0.4632516E-03 -0.1674728E-02
5417593.  0.1137364E-02 -0.1092879E+00 -0.1965200E-03  0.9340282E-02 -0.4476233E-03 -0.3774822E-02
5381111.  0.1745923E-02 -0.1028323E+00 -0.2369146E-03  0.4692012E-02 -0.4201737E-03 -0.5794907E-02
5344630.  0.2310304E-02 -0.9390251E-01 -0.2497917E-03 -0.1987724E-03 -0.3815060E-03 -0.7685296E-02
5308148.  0.2817098E-02 -0.8276180E-01 -0.2349941E-03 -0.4903740E-02 -0.3324938E-03 -0.9400290E-02
5271667.  0.3254485E-02 -0.6971995E-01 -0.1947601E-03 -0.9020046E-02 -0.2742643E-03 -0.1089877E-01
5235185.  0.3612579E-02 -0.5512323E-01 -0.1334809E-03 -0.1220237E-01 -0.2081583E-03 -0.1214534E-01
5198704.  0.3883522E-02 -0.3934757E-01 -0.5730541E-04 -0.1418784E-01 -0.1357086E-03 -0.1311077E-01
5162222.  0.4061695E-02 -0.2278547E-01  0.2640404E-04 -0.1481521E-01 -0.5858877E-04 -0.1377267E-01
5125741.  0.4143736E-02 -0.5839405E-02  0.1096693E-03 -0.1403475E-01  0.2141200E-04 -0.1411581E-01
5089259.  0.4128597E-02  0.1109132E-01  0.1845620E-03 -0.1190990E-01  0.1024466E-03 -0.1413230E-01
5052778.  0.4017491E-02  0.2761651E-01  0.2438182E-03 -0.8610435E-02  0.1826353E-03 -0.1382165E-01
5016296.  0.3813801E-02  0.4336763E-01  0.2814229E-03 -0.4397264E-02  0.2601252E-03 -0.1319063E-01
4979815.  0.3522966E-02  0.5800215E-01  0.2930638E-03  0.3980346E-03  0.3331137E-03 -0.1225305E-01
4943333.  0.3152259E-02  0.7121392E-01  0.2764686E-03  0.5399934E-02  0.3999048E-03 -0.1102929E-01
4906852.  0.2710631E-02  0.8273593E-01  0.2315768E-03  0.1021655E-01  0.4589291E-03 -0.9545806E-02
4870370.  0.2208389E-02  0.9234750E-01  0.1605425E-03  0.1446974E-01  0.5087914E-03 -0.7834430E-02
4833889.  0.1657020E-02  0.9987520E-01  0.6758942E-04  0.1782146E-01  0.5482868E-03 -0.5931804E-02
4797407.  0.1068800E-02  0.1051969E+00 -0.4130933E-04  0.1999920E-01  0.5764360E-03 -0.3878187E-02
4760926.  0.4566234E-03  0.1082404E+00 -0.1588406E-03  0.2081392E-01  0.5924961E-03 -0.1717085E-02
4724444. -0.1664108E-03  0.1089838E+00 -0.2768935E-03  0.2017334E-01  0.5959817E-03  0.5062045E-03
4687963. -0.7871505E-03  0.1074533E+00 -0.3871086E-03  0.1808780E-01  0.5866695E-03  0.2745029E-02
4651482. -0.1392778E-02  0.1037209E+00 -0.4814871E-03  0.1466857E-01  0.5646044E-03  0.4952769E-02
4615000. -0.1971006E-02  0.9790011E-01 -0.5529362E-03  0.1011941E-01  0.5300954E-03  0.7083584E-02
4578518. -0.2510276E-02  0.9014195E-01 -0.5957574E-03  0.4722286E-02  0.4837110E-03  0.9093207E-02
4542037. -0.2999994E-02  0.8063100E-01 -0.6060469E-03 -0.1182453E-02  0.4262681E-03  0.1093990E-01
4505556. -0.3430732E-02  0.6957877E-01 -0.5819617E-03 -0.7219941E-02  0.3588094E-03  0.1258539E-01
4469074. -0.3794335E-02  0.5721929E-01 -0.5238422E-03 -0.1300583E-01  0.2825852E-03  0.1399544E-01
4432593. -0.4084012E-02  0.4380477E-01 -0.4342013E-03 -0.1817147E-01  0.1990350E-03  0.1514041E-01
4396111. -0.4294487E-02  0.2959832E-01 -0.3175487E-03 -0.2238915E-01  0.1097443E-03  0.1599601E-01
4359630. -0.4421989E-02  0.1487190E-01 -0.1801164E-03 -0.2539217E-01  0.1643164E-04  0.1654341E-01
4323148. -0.4464331E-02 -0.1017485E-03 -0.2943177E-04 -0.2699227E-01 -0.7910414E-04  0.1676997E-01
4286667. -0.4420874E-02 -0.1504991E-01  0.1261372E-03 -0.2709104E-01 -0.1749986E-03  0.1666903E-01
4250185. -0.4292527E-02 -0.2970738E-01  0.2779456E-03 -0.2568471E-01 -0.2693777E-03  0.1624027E-01
4213704. -0.4081703E-02 -0.4381695E-01  0.4175830E-03 -0.2286405E-01 -0.3603733E-03  0.1548959E-01
4177222. -0.3792230E-02 -0.5713581E-01  0.5374270E-03 -0.1880651E-01 -0.4461778E-03  0.1442886E-01
4140741. -0.3429312E-02 -0.6943582E-01  0.6310803E-03 -0.1376487E-01 -0.5250598E-03  0.1307589E-01
4104259. -0.2999369E-02 -0.8050905E-01  0.6937772E-03 -0.8048951E-02 -0.5954135E-03  0.1145378E-01
4067778. -0.2509998E-02 -0.9016769E-01  0.7226357E-03 -0.2006249E-02 -0.6557727E-03  0.9590806E-02
4031296. -0.1969751E-02 -0.9824887E-01  0.7168200E-03  0.4001606E-02 -0.7048527E-03  0.7519484E-02
3994815. -0.1388096E-02 -0.1046148E+00  0.6775523E-03  0.9620781E-02 -0.7415608E-03  0.5276400E-02
3958333. -0.7751532E-03 -0.1091556E+00  0.6079997E-03  0.1452862E-01 -0.7650272E-03  0.2901064E-02
3921852. -0.1416497E-03 -0.1117912E+00  0.5130487E-03  0.1845218E-01 -0.7746131E-03  0.4356640E-03
3885370.  0.5013826E-03 -0.1124719E+00  0.3989548E-03  0.2118566E-01 -0.7699276E-03 -0.2076190E-02
3848889.  0.1142648E-02 -0.1111799E+00  0.2729435E-03  0.2260152E-01 -0.7508328E-03 -0.4589719E-02
3812407.  0.1770910E-02 -0.1079293E+00  0.1427153E-03  0.2265738E-01 -0.7174462E-03 -0.7060308E-02
3775926.  0.2375040E-02 -0.1027680E+00  0.1598024E-04  0.2139712E-01 -0.6701424E-03 -0.9443745E-02
3739444.  0.2944343E-02 -0.9577516E-01 -0.1000560E-03  0.1894681E-01 -0.6095404E-03 -0.1169751E-01
3702963.  0.3468604E-02 -0.8706241E-01 -0.1991102E-03  0.1550532E-01 -0.5365037E-03 -0.1378100E-01
3666482.  0.3938382E-02 -0.7677137E-01 -0.2762236E-03  0.1133040E-01 -0.4521146E-03 -0.1565661E-01
3630000.  0.4345121E-02 -0.6507130E-01 -0.3280398E-03  0.6721464E-02 -0.3576603E-03 -0.1729029E-01
3630000.  0.4345121E-02 -0.6507105E-01 -0.3280398E-03  0.6721300E-02 -0.3576603E-03 -0.1729029E-01
3592500.  0.4690352E-02 -0.5201440E-01 -0.3534640E-03  0.1919793E-02 -0.2516281E-03 -0.1868857E-01
3555000.  0.4955068E-02 -0.3775125E-01 -0.3510082E-03 -0.2694322E-02 -0.1382687E-03 -0.1977514E-01
3517500.  0.5132868E-02 -0.2252385E-01 -0.3227743E-03 -0.6785624E-02 -0.1949689E-04 -0.2052369E-01
3480000.  0.5218851E-02 -0.6599458E-02 -0.2727461E-03 -0.1005373E-01  0.1026338E-03 -0.2091346E-01
3480000.  0.5218851E-02 -0.1537938E-01  0.2162179E-05  0.9550516E-02  0.1026338E-03 -0.3732982E-01
3409422.  0.4910160E-02  0.6984615E-01 -0.1042751E-03  0.9371543E-02  0.5124699E-03 -0.3551099E-01
3338844.  0.3724795E-02  0.1407159E+00 -0.1991480E-03  0.7489035E-02  0.8652870E-03 -0.2719511E-01
3268266.  0.1886623E-02  0.1862490E+00 -0.2649630E-03  0.4195325E-02  0.1096313E-02 -0.1384410E-01
3197688. -0.2848344E-03  0.2003015E+00 -0.2887837E-03  0.8332152E-05  0.1161707E-02  0.2285647E-02
3127109. -0.2431206E-02  0.1820003E+00 -0.2642702E-03 -0.4414861E-02  0.1045202E-02  0.1854345E-01
3056531. -0.4212223E-02  0.1353840E+00 -0.1926722E-03 -0.8378605E-02  0.7601013E-03  0.3231245E-01
2985953. -0.5355251E-02  0.6839853E-01 -0.8268616E-04 -0.1125004E-01  0.3466482E-03  0.4140483E-01
2915375. -0.5690863E-02 -0.8523176E-02  0.5074286E-04 -0.1254702E-01 -0.1345141E-03  0.4436734E-01
2844797. -0.5171579E-02 -0.8406939E-01  0.1884777E-03 -0.1200339E-01 -0.6116281E-03  0.4066631E-01
2774219. -0.3872770E-02 -0.1476206E+00  0.3098070E-03 -0.9604341E-02 -0.1012404E-02  0.3073581E-01
2703641. -0.1977254E-02 -0.1905958E+00  0.3952774E-03 -0.5589665E-02 -0.1274385E-02  0.1589261E-01
2633062.  0.2531578E-03 -0.2074373E+00  0.4293858E-03 -0.4254415E-03 -0.1353719E-02 -0.1862348E-02
2562484.  0.2514429E-02 -0.1961481E+00  0.4028015E-03  0.5250778E-02 -0.1231251E-02 -0.2012186E-01
2491906.  0.4500798E-02 -0.1583710E+00  0.3138678E-03  0.1070504E-01 -0.9152630E-03 -0.3639510E-01
2421328.  0.5943348E-02 -0.9902897E-01  0.1691982E-03  0.1519306E-01 -0.4406040E-03 -0.4842791E-01
2350750.  0.6642701E-02 -0.2560857E-01 -0.1670083E-04  0.1804830E-01  0.1355545E-03 -0.5448659E-01
2280172.  0.6492207E-02  0.5281193E-01 -0.2227454E-03  0.1876223E-01  0.7407434E-03 -0.5357153E-01
2209594.  0.5489553E-02  0.1266618E+00 -0.4234027E-03  0.1704932E-01  0.1296094E-02 -0.4553885E-01
2139016.  0.3736049E-02  0.1869818E+00 -0.5914210E-03  0.1288985E-01  0.1726022E-02 -0.3111994E-01
2068438.  0.1424198E-02  0.2264172E+00 -0.7008919E-03  0.6546368E-02  0.1967559E-02 -0.1183952E-01
1997859. -0.1184642E-02  0.2399933E+00 -0.7303382E-03 -0.1447807E-02  0.1978266E-02  0.1015567E-01
1927281. -0.3789546E-02  0.2256198E+00 -0.6655285E-03 -0.1032623E-01  0.1741858E-02  0.3233493E-01
1856703. -0.6083489E-02  0.1842676E+00 -0.5017316E-03 -0.1915245E-01  0.1270918E-02  0.5206549E-01
1786125. -0.7786627E-02  0.1198304E+00 -0.2451707E-03 -0.2689976E-01  0.6064251E-03  0.6690130E-01
1715547. -0.8676533E-02  0.3868586E-01  0.8647861E-04 -0.3254308E-01 -0.1858431E-03  0.7485287E-01
1644969. -0.8612166E-02 -0.5097960E-01  0.4646351E-03 -0.3515442E-01 -0.1021647E-02  0.7460809E-01
1574391. -0.7549359E-02 -0.1400121E+00  0.8513987E-03 -0.3399375E-01 -0.1806699E-02  0.6568364E-01
1503812. -0.5546445E-02 -0.2192104E+00  0.1202089E-02 -0.2858786E-01 -0.2446303E-02  0.4849089E-01
1433234. -0.2759855E-02 -0.2802254E+00  0.1468537E-02 -0.1879097E-01 -0.2855187E-02  0.2431370E-01
1362656.  0.5701146E-03 -0.3163711E+00  0.1602969E-02 -0.4821662E-02 -0.2966686E-02 -0.4803006E-02
1292078.  0.4141256E-02 -0.3232480E+00  0.1562106E-02  0.1272655E-01 -0.2740174E-02 -0.3623675E-01
1221500.  0.7617237E-02 -0.2991406E+00  0.1311267E-02  0.3289949E-01 -0.2166189E-02 -0.6702753E-01
1221500.  0.7617237E-02  0.1195595E+01  0.1737075E+00  0.8662802E+00 -0.2166189E-02 -0.7032735E-01
1183328.  0.6171963E-03  0.1052166E+01  0.1431037E+00  0.9165974E+01 -0.1644687E-02 -0.1036401E+00
1145156. -0.3958439E-02  0.3969760E+00  0.6845406E-01  0.1519050E+02 -0.9264408E-03 -0.1358633E+00
1106984. -0.3388993E-02 -0.6296996E+00 -0.3057718E-01  0.1707379E+02 -0.2047801E-04 -0.1661605E+00
1068812.  0.3794659E-02 -0.1757850E+01 -0.1262823E+00  0.1406746E+02  0.1059160E-02 -0.1937005E+00
1030641.  0.1720334E-01 -0.2650411E+01 -0.1905355E+00  0.6792410E+01  0.2293525E-02 -0.2176944E+00
 992469.  0.3444502E-01 -0.2991227E+01 -0.2028219E+00 -0.2885424E+01  0.3659276E-02 -0.2374376E+00
 954297.  0.5152652E-01 -0.2576698E+01 -0.1564288E+00 -0.1232551E+02  0.5129078E-02 -0.2523401E+00
 916125.  0.6376032E-01 -0.1387609E+01 -0.6106630E-01 -0.1881366E+02  0.6672504E-02 -0.2619512E+00
 877953.  0.6698559E-01  0.3801139E+00  0.5895625E-01 -0.2030817E+02  0.8256878E-02 -0.2659713E+00
 839781.  0.5881775E-01  0.2337876E+01  0.1706575E+00 -0.1603263E+02  0.9848167E-02 -0.2642454E+00
 801609.  0.3960028E-01  0.3980229E+01  0.2409883E+00 -0.6755111E+01  0.1141180E-01 -0.2567464E+00
 763438.  0.1277257E-01  0.4801041E+01  0.2459286E+00  0.5332479E+01  0.1291336E-01 -0.2435565E+00
 725266. -0.1552554E-01  0.4426217E+01  0.1776828E+00  0.1711700E+02  0.1431927E-01 -0.2248426E+00
 687094. -0.3761110E-01  0.2732558E+01  0.4799442E-01  0.2533026E+02  0.1559710E-01 -0.2008453E+00
 648922. -0.4601977E-01 -0.7633355E-01 -0.1134821E+00  0.2739869E+02  0.1671607E-01 -0.1718739E+00
 610750. -0.3552962E-01 -0.3460103E+01 -0.2656076E+00  0.2215998E+02  0.1764750E-01 -0.1383148E+00
 572578. -0.5020303E-02 -0.6607131E+01 -0.3656063E+00  0.1026307E+02  0.1836529E-01 -0.1006463E+00
 534406.  0.4127527E-01 -0.8569425E+01 -0.3800571E+00 -0.5861396E+01  0.1884652E-01 -0.5945712E-01
 496234.  0.9348463E-01 -0.8445259E+01 -0.2943640E+00 -0.2247184E+02  0.1907216E-01 -0.1546062E-01
 458062.  0.1369650E+00 -0.5575916E+01 -0.1182970E+00 -0.3533293E+02  0.1902785E-01  0.3050404E-01
 419891.  0.1542957E+00  0.2825782E+00  0.1139593E+00 -0.4069825E+02  0.1870461E-01  0.7748222E-01
 381719.  0.1281291E+00  0.8850983E+01  0.3496130E+00 -0.3623330E+02  0.1809941E-01  0.1244430E+00
 343547.  0.4443379E-01  0.1930621E+02  0.5277980E+00 -0.2165819E+02  0.1721558E-01  0.1703126E+00
 305375. -0.1044403E+00  0.3036319E+02  0.5927750E+00  0.1045667E+01  0.1606283E-01  0.2140386E+00
 267203. -0.3174740E+00  0.4044883E+02  0.5068261E+00  0.2793440E+02  0.1465699E-01  0.2546405E+00
 229031. -0.5839515E+00  0.4794316E+02  0.2599657E+00  0.5385081E+02  0.1301941E-01  0.2912594E+00
 190859. -0.8839781E+00  0.5144658E+02 -0.1258369E+00  0.7347384E+02  0.1117619E-01  0.3231841E+00
 152688. -0.1190555E+01  0.5002698E+02 -0.5990551E+00  0.8244331E+02  0.9157214E-02  0.3498642E+00
 114516. -0.1472997E+01  0.4339988E+02 -0.1087419E+01  0.7831486E+02  0.6995026E-02  0.3709231E+00
  76344. -0.1701056E+01  0.3200836E+02 -0.1511254E+01  0.6112870E+02  0.4724138E-02  0.3861180E+00
  38172. -0.1849266E+01  0.1698548E+02 -0.1798873E+01  0.3347128E+02  0.2380074E-02  0.3953718E+00
      0. -0.1900150E+01  0.0000000E+00 -0.1899145E+01  0.0000000E+00  0.0000000E+00  0.3981743E+00
