      12       16 S      570        115.12220         21.07388         10.20646        446.80701      185    7
6371000. -0.3324685E-01  0.2852019E+00  0.2423520E-02  0.3567037E-01 -0.8050657E-04  0.6406440E-01
6370000. -0.3329009E-01  0.2657009E+00  0.2417586E-02  0.3994749E-01 -0.9055368E-04  0.6395508E-01
6369000. -0.3333025E-01  0.2460438E+00  0.2410981E-02  0.4420802E-01 -0.1005832E-03  0.6384082E-01
6368000. -0.3336732E-01  0.2262328E+00  0.2403709E-02  0.4845072E-01 -0.1105945E-03  0.6372162E-01
6368000. -0.3336732E-01  0.2262328E+00  0.2403709E-02  0.4845072E-01 -0.1105945E-03  0.6372162E-01
6367000. -0.3340127E-01  0.2062701E+00  0.2395772E-02  0.5267441E-01 -0.1205866E-03  0.6359748E-01
6366000. -0.3343207E-01  0.1861580E+00  0.2387174E-02  0.5687787E-01 -0.1305589E-03  0.6346842E-01
6365000. -0.3345970E-01  0.1658987E+00  0.2377918E-02  0.6105992E-01 -0.1405105E-03  0.6333444E-01
6364000. -0.3348413E-01  0.1454946E+00  0.2368007E-02  0.6521935E-01 -0.1504408E-03  0.6319555E-01
6363000. -0.3350536E-01  0.1249481E+00  0.2357445E-02  0.6935499E-01 -0.1603488E-03  0.6305176E-01
6362000. -0.3352335E-01  0.1042616E+00  0.2346236E-02  0.7346565E-01 -0.1702339E-03  0.6290308E-01
6361000. -0.3353808E-01  0.8343758E-01  0.2334384E-02  0.7755017E-01 -0.1800952E-03  0.6274954E-01
6360000. -0.3354954E-01  0.6247861E-01  0.2321893E-02  0.8160739E-01 -0.1899321E-03  0.6259113E-01
6359000. -0.3355769E-01  0.4138727E-01  0.2308767E-02  0.8563615E-01 -0.1997437E-03  0.6242786E-01
6358000. -0.3356253E-01  0.2016618E-01  0.2295011E-02  0.8963530E-01 -0.2095294E-03  0.6225976E-01
6357000. -0.3356402E-01 -0.1181985E-02  0.2280630E-02  0.9360372E-01 -0.2192882E-03  0.6208682E-01
6356000. -0.3356215E-01 -0.2265450E-01  0.2265629E-02  0.9754027E-01 -0.2290196E-03  0.6190907E-01
6356000. -0.3356215E-01  0.4522084E-01  0.2265629E-02  0.7311068E-01 -0.2290196E-03  0.6921180E-01
6355000. -0.3356803E-01  0.2973810E-01  0.2253952E-02  0.7567423E-01 -0.2398689E-03  0.6903035E-01
6354000. -0.3357148E-01  0.1417500E-01  0.2241874E-02  0.7822014E-01 -0.2506895E-03  0.6884521E-01
6353000. -0.3357248E-01 -0.1467017E-02  0.2229398E-02  0.8074795E-01 -0.2614808E-03  0.6865641E-01
6352000. -0.3357101E-01 -0.1718651E-01  0.2216526E-02  0.8325718E-01 -0.2722421E-03  0.6846394E-01
6351000. -0.3356708E-01 -0.3298199E-01  0.2203262E-02  0.8574733E-01 -0.2829730E-03  0.6826781E-01
6350000. -0.3356066E-01 -0.4885198E-01  0.2189609E-02  0.8821797E-01 -0.2936728E-03  0.6806806E-01
6349000. -0.3355174E-01 -0.6479495E-01  0.2175570E-02  0.9066860E-01 -0.3043409E-03  0.6786466E-01
6348000. -0.3354031E-01 -0.8080938E-01  0.2161148E-02  0.9309879E-01 -0.3149768E-03  0.6765765E-01
6347000. -0.3352636E-01 -0.9689373E-01  0.2146345E-02  0.9550806E-01 -0.3255800E-03  0.6744704E-01
6346600. -0.3352008E-01 -0.1033467E+00  0.2140319E-02  0.9646582E-01 -0.3298119E-03  0.6736178E-01
6346600. -0.3352008E-01  0.5862052E-01  0.2140319E-02  0.7675720E-01 -0.3298119E-03  0.7904974E-01
6318800. -0.3302830E-01 -0.2910613E+00  0.1704186E-02  0.1208769E+00 -0.6615490E-03  0.7264651E-01
6291000. -0.3093585E-01 -0.6708937E+00  0.1108382E-02  0.1492724E+00 -0.9608129E-03  0.6419088E-01
6291000. -0.3093585E-01 -0.6774168E+00  0.1108382E-02  0.1532462E+00 -0.9608129E-03  0.6419088E-01
6263000. -0.2708853E-01 -0.1071264E+01  0.4057530E-03  0.1629859E+00 -0.1220530E-02  0.5369566E-01
6235000. -0.2156278E-01 -0.1435657E+01 -0.2932622E-03  0.1516688E+00 -0.1430331E-02  0.4152532E-01
6207000. -0.1456071E-01 -0.1737814E+01 -0.8988708E-03  0.1209637E+00 -0.1583559E-02  0.2801186E-01
6179000. -0.6422217E-02 -0.1948381E+01 -0.1333897E-02  0.7488389E-01 -0.1675166E-02  0.1355566E-01
6151000.  0.2397350E-02 -0.2044678E+01 -0.1543109E-02  0.1930138E-01 -0.1702003E-02 -0.1381933E-02
6151000.  0.2397350E-02 -0.1683588E+01 -0.1543109E-02  0.1647340E-01 -0.1702003E-02 -0.1514568E-02
6128500.  0.8291327E-02 -0.1644180E+01 -0.1529292E-02 -0.2414984E-01 -0.1680492E-02 -0.1062432E-01
6106000.  0.1394058E-01 -0.1545561E+01 -0.1375269E-02 -0.6245671E-01 -0.1627353E-02 -0.1940214E-01
6083500.  0.1914377E-01 -0.1392623E+01 -0.1094031E-02 -0.9577699E-01 -0.1544003E-02 -0.2771122E-01
6061000.  0.2372182E-01 -0.1193008E+01 -0.7073332E-03 -0.1218436E+00 -0.1432319E-02 -0.3542856E-01
6038500.  0.2752682E-01 -0.9566424E+00 -0.2440150E-03 -0.1389310E+00 -0.1294587E-02 -0.4244547E-01
6016000.  0.3044905E-01 -0.6951065E+00  0.2620931E-03 -0.1459511E+00 -0.1133451E-02 -0.4866873E-01
5993500.  0.3242160E-01 -0.4209520E+00  0.7745239E-03 -0.1425032E+00 -0.9518524E-03 -0.5402170E-01
5971000.  0.3342254E-01 -0.1469761E+00  0.1256627E-02 -0.1288813E+00 -0.7529790E-03 -0.5844296E-01
5971000.  0.3342254E-01 -0.1235989E+00  0.1256627E-02 -0.1184639E+00 -0.7529790E-03 -0.6281825E-01
5937667.  0.3312191E-01  0.2286858E+00  0.1789636E-02 -0.8316302E-01 -0.4094467E-03 -0.6815019E-01
5904333.  0.3115120E-01  0.5115191E+00  0.2110017E-02 -0.3822002E-01 -0.4345021E-04 -0.7141703E-01
5871000.  0.2791584E-01  0.7106379E+00  0.2183672E-02  0.1012733E-01  0.3344654E-03 -0.7273262E-01
5837667.  0.2386848E-01  0.8220513E+00  0.2008210E-02  0.5612251E-01  0.7144694E-03 -0.7224105E-01
5804333.  0.1945835E-01  0.8507367E+00  0.1608778E-02  0.9506350E-01  0.1087533E-02 -0.7010303E-01
5771000.  0.1508982E-01  0.8086662E+00  0.1031635E-02  0.1236320E+00  0.1445462E-02 -0.6648884E-01
5771000.  0.1508982E-01  0.8086900E+00  0.1031635E-02  0.1236275E+00  0.1445462E-02 -0.6648884E-01
5701000.  0.7181997E-02  0.6003696E+00 -0.5466806E-03  0.1542522E+00  0.2110829E-02 -0.5365742E-01
5701000.  0.7181997E-02  0.4883837E+00 -0.5466806E-03  0.1201644E+00  0.2110829E-02 -0.5568177E-01
5667333.  0.4885303E-02  0.3803160E+00 -0.1165169E-02  0.1125440E+00  0.2386520E-02 -0.4850568E-01
5633667.  0.3157508E-02  0.2750471E+00 -0.1722964E-02  0.9746719E-01  0.2621962E-02 -0.4047332E-01
5600000.  0.1955088E-02  0.1830019E+00 -0.2185240E-02  0.7670558E-01  0.2813002E-02 -0.3172171E-01
5600000.  0.1955088E-02  0.1829826E+00 -0.2185240E-02  0.7670950E-01  0.2813002E-02 -0.3172171E-01
5563518.  0.1153363E-02  0.1011638E+00 -0.2554254E-02  0.5138329E-01  0.2966001E-02 -0.2163309E-01
5527037.  0.7411758E-03  0.4818062E-01 -0.2766784E-02  0.2243938E-01  0.3060004E-02 -0.1115263E-01
5490556.  0.5354075E-03  0.2969583E-01 -0.2808858E-02 -0.7749182E-02  0.3093380E-02 -0.4921724E-03
5454074.  0.3314121E-03  0.4753767E-01 -0.2680234E-02 -0.3679133E-01  0.3065694E-02  0.1014011E-01
5417593. -0.7474210E-04  0.9965464E-01 -0.2393948E-02 -0.6247476E-01  0.2977691E-02  0.2054288E-01
5381111. -0.8648242E-03  0.1804245E+00 -0.1974728E-02 -0.8294642E-01  0.2831227E-02  0.3052753E-01
5344630. -0.2179507E-02  0.2812610E+00 -0.1456607E-02 -0.9684209E-01  0.2629212E-02  0.3991954E-01
5308148. -0.4103909E-02  0.3914605E+00 -0.8797387E-03 -0.1033804E+00  0.2375481E-02  0.4856403E-01
5271667. -0.6657907E-02  0.4991752E+00 -0.2870593E-03 -0.1023937E+00  0.2074725E-02  0.5632658E-01
5235185. -0.9793096E-02  0.5924956E+00  0.2793447E-03 -0.9431759E-01  0.1732303E-02  0.6309740E-01
5198704. -0.1339482E-01  0.6604675E+00  0.7814030E-03 -0.8012731E-01  0.1354169E-02  0.6879129E-01
5162222. -0.1729113E-01  0.6940411E+00  0.1187996E-02 -0.6123505E-01  0.9466483E-03  0.7334993E-01
5125741. -0.2126507E-01  0.6868118E+00  0.1476992E-02 -0.3936185E-01  0.5163693E-03  0.7674114E-01
5089259. -0.2507241E-01  0.6355574E+00  0.1636675E-02 -0.1638603E-01  0.7002297E-04  0.7895860E-01
5052778. -0.2845981E-01  0.5405015E+00  0.1666160E-02  0.5805111E-02 -0.3856858E-03  0.8002052E-01
5016296. -0.3118550E-01  0.4052912E+00  0.1575038E-02  0.2546576E-01 -0.8442715E-03  0.7996753E-01
4979815. -0.3303750E-01  0.2367430E+00  0.1382201E-02  0.4111432E-01 -0.1299489E-02  0.7886016E-01
4943333. -0.3385096E-01  0.4430108E-01  0.1113990E-02  0.5163887E-01 -0.1745541E-02  0.7677617E-01
4906852. -0.3352094E-01 -0.1606274E+00  0.8019176E-03  0.5636240E-01 -0.2177066E-02  0.7380624E-01
4870370. -0.3201136E-01 -0.3655508E+00  0.4800049E-03  0.5507769E-01 -0.2589299E-02  0.7005184E-01
4833889. -0.2935886E-01 -0.5577530E+00  0.1821510E-03  0.4804256E-01 -0.2978035E-02  0.6562118E-01
4797407. -0.2567104E-01 -0.7252382E+00 -0.6050386E-04  0.3594222E-01 -0.3339736E-02  0.6062460E-01
4760926. -0.2112054E-01 -0.8575285E+00 -0.2217863E-03  0.1982326E-01 -0.3671464E-02  0.5517399E-01
4724444. -0.1593336E-01 -0.9464151E+00 -0.2823559E-03  0.1001404E-02 -0.3970948E-02  0.4937752E-01
4687963. -0.1037530E-01 -0.9864751E+00 -0.2309250E-03 -0.1904055E-01 -0.4236492E-02  0.4333897E-01
4651482. -0.4733830E-02 -0.9754393E+00 -0.6490348E-04 -0.3876827E-01 -0.4466997E-02  0.3715472E-01
4615000.  0.6998938E-03 -0.9142959E+00  0.2096363E-03 -0.5670511E-01 -0.4661891E-02  0.3091253E-01
4578518.  0.5649228E-02 -0.8071992E+00  0.5785618E-03 -0.7153258E-01 -0.4821064E-02  0.2469112E-01
4542037.  0.9869758E-02 -0.6611702E+00  0.1020849E-02 -0.8217782E-01 -0.4944835E-02  0.1855930E-01
4505556.  0.1316455E-01 -0.4855841E+00  0.1510221E-02 -0.8787948E-01 -0.5033892E-02  0.1257538E-01
4469074.  0.1539555E-01 -0.2915465E+00  0.2017034E-02 -0.8822686E-01 -0.5089228E-02  0.6787939E-02
4432593.  0.1649138E-01 -0.9117345E-01  0.2510301E-02 -0.8317643E-01 -0.5112082E-02  0.1236512E-02
4396111.  0.1645116E-01  0.1032200E+00  0.2959873E-02 -0.7304109E-01 -0.5103897E-02 -0.4048634E-02
4359630.  0.1534333E-01  0.2798506E+00  0.3338290E-02 -0.5845841E-01 -0.5066269E-02 -0.9044166E-02
4323148.  0.1330030E-01  0.4282345E+00  0.3622588E-02 -0.4033513E-01 -0.5000901E-02 -0.1373499E-01
4286667.  0.1050960E-01  0.5397747E+00  0.3795580E-02 -0.1978253E-01 -0.4909572E-02 -0.1811119E-01
4250185.  0.7201029E-02  0.6082661E+00  0.3846857E-02  0.1966170E-02 -0.4794091E-02 -0.2216925E-01
4213704.  0.3632637E-02  0.6302119E+00  0.3773224E-02  0.2363347E-01 -0.4656287E-02 -0.2591020E-01
4177222.  0.7393271E-04  0.6049833E+00  0.3578719E-02  0.4398317E-01 -0.4497952E-02 -0.2934017E-01
4140741. -0.3209786E-02  0.5347973E+00  0.3274188E-02  0.6189089E-01 -0.4320847E-02 -0.3246959E-01
4104259. -0.5973975E-02  0.4245085E+00  0.2876400E-02  0.7641209E-01 -0.4126642E-02 -0.3531388E-01
4067778. -0.8008359E-02  0.2812786E+00  0.2406945E-02  0.8682757E-01 -0.3916926E-02 -0.3789319E-01
4031296. -0.9149387E-02  0.1140870E+00  0.1890744E-02  0.9268060E-01 -0.3693131E-02 -0.4023373E-01
3994815. -0.9288696E-02 -0.6681035E-01  0.1354606E-02  0.9378954E-01 -0.3456549E-02 -0.4236780E-01
3958333. -0.8378827E-02 -0.2505257E+00  0.8255260E-03  0.9024794E-01 -0.3208238E-02 -0.4433545E-01
3921852. -0.6435076E-02 -0.4261488E+00  0.3292773E-03  0.8240535E-01 -0.2949029E-02 -0.4618550E-01
3885370. -0.3533575E-02 -0.5833847E+00 -0.1110825E-03  0.7083517E-01 -0.2679417E-02 -0.4797726E-01
3848889.  0.1933569E-03 -0.7130840E+00 -0.4762729E-03  0.5629271E-01 -0.2399552E-02 -0.4978209E-01
3812407.  0.4565895E-02 -0.8077461E+00 -0.7517717E-03  0.3966023E-01 -0.2109106E-02 -0.5168600E-01
3775926.  0.9366362E-02 -0.8618578E+00 -0.9283152E-03  0.2189493E-01 -0.1807241E-02 -0.5379187E-01
3739444.  0.1435237E-01 -0.8721542E+00 -0.1002215E-02  0.3968856E-02 -0.1492443E-02 -0.5622303E-01
3702963.  0.1926900E-01 -0.8377159E+00 -0.9752556E-03 -0.1318198E-01 -0.1162455E-02 -0.5912678E-01
3666482.  0.2386319E-01 -0.7599575E+00 -0.8543601E-03 -0.2870898E-01 -0.8140751E-03 -0.6267925E-01
3630000.  0.2789629E-01 -0.6424735E+00 -0.6509572E-03 -0.4188981E-01 -0.4429898E-03 -0.6709216E-01
3630000.  0.2789629E-01 -0.6424703E+00 -0.6509572E-03 -0.4188990E-01 -0.4429898E-03 -0.6709216E-01
3592500.  0.3123973E-01 -0.4879824E+00 -0.3718411E-03 -0.5241171E-01 -0.3191396E-04 -0.7281517E-01
3555000.  0.3358260E-01 -0.3038611E+00 -0.4072877E-04 -0.5949101E-01  0.4172158E-03 -0.8007909E-01
3517500.  0.3477608E-01 -0.9902945E-01  0.3211326E-03 -0.6282584E-01  0.9145436E-03 -0.8926184E-01
3480000.  0.3472740E-01  0.1164750E+00  0.6912979E-03 -0.6231150E-01  0.1472685E-02 -0.1008286E+00
3480000.  0.3472740E-01 -0.9193296E-01  0.4239193E-05  0.6356990E-01  0.1472685E-02 -0.2100667E+00
3409422.  0.3386557E-01  0.2360656E+00 -0.7119795E-03  0.6462226E-01  0.3873869E-02 -0.2185308E+00
3338844.  0.2980032E-01  0.4826011E+00 -0.1404863E-02  0.5955516E-01  0.6216809E-02 -0.2006182E+00
3268266.  0.2352631E-01  0.6340094E+00 -0.2014124E-02  0.4979588E-01  0.8247695E-02 -0.1634794E+00
3197688.  0.1609742E-01  0.6925779E+00 -0.2497118E-02  0.3705138E-01  0.9796806E-02 -0.1149353E+00
3127109.  0.8474714E-02  0.6719386E+00 -0.2830357E-02  0.2303163E-01  0.1077949E-01 -0.6236206E-01
3056531.  0.1428316E-02  0.5921956E+00 -0.3008308E-02  0.9242878E-02  0.1118656E-01 -0.1191043E-01
2985953. -0.4509763E-02  0.4755130E+00 -0.3040372E-02 -0.3142763E-02  0.1106802E-01  0.3192812E-01
2915375. -0.9048075E-02  0.3427074E+00 -0.2946799E-02 -0.1334183E-01  0.1051385E-01  0.6642659E-01
2844797. -0.1210755E-01  0.2110280E+00 -0.2754360E-02 -0.2095514E-01  0.9634990E-02  0.9048518E-01
2774219. -0.1377473E-01  0.9302571E-01 -0.2492337E-02 -0.2591756E-01  0.8546885E-02  0.1043323E+00
2703641. -0.1424806E-01 -0.3612599E-02 -0.2189228E-02 -0.2842203E-01  0.7356821E-02  0.1091479E+00
2633062. -0.1378622E-01 -0.7557830E-01 -0.1870345E-02 -0.2883602E-01  0.6155509E-02  0.1066796E+00
2562484. -0.1266426E-01 -0.1230589E+00 -0.1556354E-02 -0.2761992E-01  0.5012810E-02  0.9890130E-01
2491906. -0.1114060E-01 -0.1486853E+00 -0.1262630E-02 -0.2525643E-01  0.3976700E-02  0.8774332E-01
2421328. -0.9435780E-02 -0.1565102E+00 -0.9993277E-03 -0.2219867E-01  0.3074927E-02  0.7490595E-01
2350750. -0.7721713E-02 -0.1511272E+00 -0.7719135E-03 -0.1883545E-01  0.2318194E-02  0.6175487E-01
2280172. -0.6119580E-02 -0.1370104E+00 -0.5819979E-03 -0.1547232E-01  0.1704126E-02  0.4928456E-01
2209594. -0.4703825E-02 -0.1180684E+00 -0.4282922E-03 -0.1232751E-01  0.1221336E-02  0.3813326E-01
2139016. -0.3509879E-02 -0.9741147E-01 -0.3075498E-03 -0.9537743E-02  0.8531213E-03  0.2863229E-01
2068438. -0.2543516E-02 -0.7728478E-01 -0.2154067E-03 -0.7170551E-02  0.5805090E-03  0.2087222E-01
1997859. -0.1790200E-02 -0.5912436E-01 -0.1470623E-03 -0.5239640E-02  0.3845267E-03  0.1477324E-01
1927281. -0.1223435E-02 -0.4368428E-01 -0.9779121E-04 -0.3720915E-02  0.2477337E-03  0.1015017E-01
1856703. -0.8113799E-03 -0.3119772E-01 -0.6327338E-04 -0.2566950E-02  0.1550641E-03  0.6765808E-02
1786125. -0.5217465E-03 -0.2153991E-01 -0.3978723E-04 -0.1719094E-02  0.9417579E-04  0.4371694E-02
1715547. -0.3249309E-03 -0.1437317E-01 -0.2427989E-04 -0.1116519E-02  0.5541144E-04  0.2735097E-02
1644969. -0.1957015E-03 -0.9262232E-02 -0.1435478E-04 -0.7023661E-03  0.3152854E-04  0.1654497E-02
1574391. -0.1137923E-03 -0.5757021E-02 -0.8205850E-05 -0.4272815E-03  0.1731120E-04  0.9659853E-03
1503812. -0.6374954E-04 -0.3445223E-02 -0.4524452E-05 -0.2509212E-03  0.9148881E-05  0.5432256E-03
1433234. -0.3434420E-04 -0.1979459E-02 -0.2398318E-05 -0.1420137E-03  0.4639642E-05  0.2935504E-03
1362656. -0.1779110E-04 -0.1085078E-02 -0.1214902E-05 -0.7750629E-04  0.2248021E-05  0.1520886E-03
1292078. -0.8966030E-05 -0.5545253E-03 -0.5770529E-06 -0.4136786E-04  0.1032256E-05  0.7552115E-04
1221500. -0.4747215E-05 -0.2297791E-03 -0.2313925E-06 -0.2355488E-04  0.4382381E-06  0.3628777E-04
1221500. -0.4747215E-05  0.3504589E-03  0.2360371E-06  0.2599124E-04  0.4382381E-06  0.3834428E-04
1183328. -0.6348062E-05  0.1875901E-03  0.9687356E-07  0.2040635E-04  0.2571561E-06  0.2326999E-04
1145156. -0.7047517E-05  0.5085230E-04 -0.8164849E-08  0.1466266E-04  0.1480975E-06  0.1388523E-04
1106984. -0.7021913E-05 -0.5373987E-04 -0.7938689E-07  0.9197467E-05  0.8355792E-07  0.8134193E-05
1068812. -0.6472153E-05 -0.1241193E-03 -0.1198318E-06  0.4455588E-05  0.4608927E-07  0.4669884E-05
1030641. -0.5599175E-05 -0.1622734E-03 -0.1348626E-06  0.7516214E-06  0.2479137E-07  0.2621778E-05
 992469. -0.4581738E-05 -0.1733959E-03 -0.1311699E-06 -0.1789990E-05  0.1296517E-07  0.1435633E-05
 954297. -0.3561303E-05 -0.1645236E-03 -0.1156240E-06 -0.3227941E-05  0.6568564E-08  0.7644057E-06
 916125. -0.2635214E-05 -0.1431128E-03 -0.9431096E-07 -0.3754972E-05  0.3209662E-08  0.3942440E-06
 877953. -0.1857914E-05 -0.1158654E-03 -0.7192542E-07 -0.3631454E-05  0.1504406E-08  0.1960554E-06
 839781. -0.1247916E-05 -0.8798925E-04 -0.5156148E-07 -0.3122017E-05  0.6715862E-09  0.9346761E-07
 801609. -0.7977998E-06 -0.6292327E-04 -0.3483090E-07 -0.2451168E-05  0.2828151E-09  0.4239803E-07
 763438. -0.4846630E-06 -0.4244069E-04 -0.2218514E-07 -0.1779752E-05  0.1108096E-09  0.1811716E-07
 725266. -0.2791155E-06 -0.2699623E-04 -0.1331245E-07 -0.1202260E-05  0.3949822E-10  0.7188578E-08
 687094. -0.1519063E-06 -0.1617223E-04 -0.7510794E-08 -0.7572943E-06  0.1228196E-10  0.2585535E-08
 648922. -0.7782049E-07 -0.9100491E-05 -0.3971794E-08 -0.4446910E-06  0.3002126E-11  0.8071764E-09
 610750. -0.3734133E-07 -0.4792397E-05 -0.1960142E-08 -0.2429051E-06  0.3444090E-12  0.1954684E-09
 572578. -0.1668015E-07 -0.2349822E-05 -0.8977171E-09 -0.1229389E-06 -0.1817220E-12  0.2022181E-10
 534406. -0.6883727E-08 -0.1065752E-05 -0.3788004E-09 -0.5732147E-07 -0.1674361E-12 -0.1354572E-10
 496234. -0.2599843E-08 -0.4433618E-06 -0.1459226E-09 -0.2443035E-07 -0.8545133E-13 -0.1170618E-10
 458062. -0.8879684E-09 -0.1673635E-06 -0.5072403E-10 -0.9420002E-08 -0.3357021E-13 -0.5809156E-11
 419891. -0.2701465E-09 -0.5653875E-07 -0.1567466E-10 -0.3242069E-08 -0.1081865E-13 -0.2211044E-11
 381719. -0.7177727E-10 -0.1678496E-07 -0.4222649E-11 -0.9783139E-09 -0.2890762E-14 -0.6828601E-12
 343547. -0.1622835E-10 -0.4274931E-08 -0.9663806E-12 -0.2527331E-09 -0.6323488E-15 -0.1717343E-12
 305375. -0.3013732E-11 -0.9038791E-09 -0.1813778E-12 -0.5409973E-10 -0.1100081E-15 -0.3445492E-13
 267203. -0.4374152E-12 -0.1514861E-09 -0.2656738E-13 -0.9163271E-11 -0.1450462E-16 -0.5291489E-14
 229031. -0.4612998E-13 -0.1880251E-10 -0.2823700E-14 -0.1147576E-11 -0.1345102E-17 -0.5808798E-15
 190859. -0.3157207E-14 -0.1555267E-11 -0.1944897E-15 -0.9561654E-13 -0.7806281E-19 -0.4031032E-16
 152688.  0.0000000E+00  0.0000000E+00  0.0000000E+00  0.0000000E+00  0.0000000E+00  0.0000000E+00
 114516.  0.0000000E+00  0.0000000E+00  0.0000000E+00  0.0000000E+00  0.0000000E+00  0.0000000E+00
  76344.  0.0000000E+00  0.0000000E+00  0.0000000E+00  0.0000000E+00  0.0000000E+00  0.0000000E+00
  38172.  0.0000000E+00  0.0000000E+00  0.0000000E+00  0.0000000E+00  0.0000000E+00  0.0000000E+00
      0.  0.0000000E+00  0.0000000E+00  0.0000000E+00  0.0000000E+00  0.0000000E+00  0.0000000E+00
