      10       13 S      515        145.59270         20.36639          6.81117        276.96210      185    7
6371000. -0.1194886E-01 -0.3707433E+00 -0.5313366E-02  0.6635499E-02  0.5786272E-03  0.1443199E-01
6370000. -0.1189034E-01 -0.3749680E+00 -0.5313951E-02  0.8113975E-03  0.5763496E-03  0.1458889E-01
6369000. -0.1183116E-01 -0.3790576E+00 -0.5313621E-02 -0.5016027E-02  0.5740474E-03  0.1474477E-01
6368000. -0.1177135E-01 -0.3830120E+00 -0.5312376E-02 -0.1084575E-01  0.5717209E-03  0.1489960E-01
6368000. -0.1177135E-01 -0.3830120E+00 -0.5312376E-02 -0.1084575E-01  0.5717209E-03  0.1489960E-01
6367000. -0.1171093E-01 -0.3868308E+00 -0.5310216E-02 -0.1667674E-01  0.5693702E-03  0.1505338E-01
6366000. -0.1164992E-01 -0.3905137E+00 -0.5307141E-02 -0.2250797E-01  0.5669954E-03  0.1520610E-01
6365000. -0.1158835E-01 -0.3940605E+00 -0.5303150E-02 -0.2833842E-01  0.5645967E-03  0.1535775E-01
6364000. -0.1152623E-01 -0.3974709E+00 -0.5298245E-02 -0.3416705E-01  0.5621743E-03  0.1550833E-01
6363000. -0.1146358E-01 -0.4007447E+00 -0.5292424E-02 -0.3999284E-01  0.5597284E-03  0.1565781E-01
6362000. -0.1140043E-01 -0.4038818E+00 -0.5285690E-02 -0.4581476E-01  0.5572590E-03  0.1580621E-01
6361000. -0.1133680E-01 -0.4068820E+00 -0.5278043E-02 -0.5163178E-01  0.5547664E-03  0.1595351E-01
6360000. -0.1127271E-01 -0.4097452E+00 -0.5269482E-02 -0.5744287E-01  0.5522509E-03  0.1609969E-01
6359000. -0.1120818E-01 -0.4124712E+00 -0.5260011E-02 -0.6324702E-01  0.5497125E-03  0.1624476E-01
6358000. -0.1114323E-01 -0.4150601E+00 -0.5249628E-02 -0.6904318E-01  0.5471514E-03  0.1638870E-01
6357000. -0.1107789E-01 -0.4175118E+00 -0.5238337E-02 -0.7483035E-01  0.5445678E-03  0.1653150E-01
6356000. -0.1101217E-01 -0.4198262E+00 -0.5226138E-02 -0.8060748E-01  0.5419618E-03  0.1667317E-01
6356000. -0.1101217E-01 -0.3554840E+00 -0.5226138E-02 -0.4635530E-01  0.5419618E-03  0.1906929E-01
6355000. -0.1095622E-01 -0.3573908E+00 -0.5218565E-02 -0.5012769E-01  0.5389545E-03  0.1924942E-01
6354000. -0.1089998E-01 -0.3592117E+00 -0.5210401E-02 -0.5389624E-01  0.5359190E-03  0.1942868E-01
6353000. -0.1084347E-01 -0.3609464E+00 -0.5201647E-02 -0.5766051E-01  0.5328555E-03  0.1960707E-01
6352000. -0.1078668E-01 -0.3625951E+00 -0.5192301E-02 -0.6142007E-01  0.5297640E-03  0.1978458E-01
6351000. -0.1072964E-01 -0.3641577E+00 -0.5182366E-02 -0.6517448E-01  0.5266447E-03  0.1996121E-01
6350000. -0.1067237E-01 -0.3656343E+00 -0.5171841E-02 -0.6892329E-01  0.5234978E-03  0.2013695E-01
6349000. -0.1061487E-01 -0.3670247E+00 -0.5160729E-02 -0.7266607E-01  0.5203233E-03  0.2031179E-01
6348000. -0.1055715E-01 -0.3683290E+00 -0.5149031E-02 -0.7640238E-01  0.5171215E-03  0.2048573E-01
6347000. -0.1049924E-01 -0.3695472E+00 -0.5136745E-02 -0.8013178E-01  0.5138924E-03  0.2065876E-01
6346600. -0.1047603E-01 -0.3700105E+00 -0.5131667E-02 -0.8162151E-01  0.5125932E-03  0.2072771E-01
6346600. -0.1047603E-01 -0.4000662E+00 -0.5131667E-02 -0.5336324E-01  0.5125932E-03  0.2438055E-01
6318800. -0.8705922E-02 -0.4026477E+00 -0.4730855E-02 -0.1294316E+00  0.3950493E-03  0.2939555E-01
6291000. -0.7035550E-02 -0.3548783E+00 -0.4013848E-02 -0.1974497E+00  0.2569864E-03  0.3377220E-01
6291000. -0.7035550E-02 -0.3652890E+00 -0.4013848E-02 -0.2046217E+00  0.2569864E-03  0.3377220E-01
6263000. -0.5632463E-02 -0.2659378E+00 -0.2982140E-02 -0.2621702E+00  0.1004274E-03  0.3734677E-01
6235000. -0.4753800E-02 -0.1286379E+00 -0.1736052E-02 -0.3015816E+00 -0.7013982E-04  0.4013993E-01
6207000. -0.4537513E-02  0.3297458E-01 -0.3621518E-03 -0.3199770E+00 -0.2511999E-03  0.4211722E-01
6179000. -0.5055625E-02  0.2027215E+00  0.1043641E-02 -0.3160027E+00 -0.4391157E-03  0.4325700E-01
6151000. -0.6305695E-02  0.3631147E+00  0.2382995E-02 -0.2899232E+00 -0.6301756E-03  0.4354646E-01
6151000. -0.6305695E-02  0.3293066E+00  0.2382995E-02 -0.2535408E+00 -0.6301756E-03  0.4389533E-01
6128500. -0.7635039E-02  0.4204774E+00  0.3222877E-02 -0.2205919E+00 -0.7842648E-03  0.4328000E-01
6106000. -0.9250796E-02  0.4906801E+00  0.3931457E-02 -0.1794678E+00 -0.9352646E-03  0.4214786E-01
6083500. -0.1107072E-01  0.5354565E+00  0.4483039E-02 -0.1320088E+00 -0.1081375E-02  0.4051448E-01
6061000. -0.1299886E-01  0.5515249E+00  0.4858814E-02 -0.8025946E-01 -0.1220864E-02  0.3840144E-01
6038500. -0.1492994E-01  0.5369078E+00  0.5047426E-02 -0.2638106E-01 -0.1352081E-02  0.3583564E-01
6016000. -0.1675412E-01  0.4909998E+00  0.5045219E-02  0.2744127E-01 -0.1473484E-02  0.3284912E-01
5993500. -0.1836186E-01  0.4145689E+00  0.4856170E-02  0.7908688E-01 -0.1583651E-02  0.2947893E-01
5971000. -0.1964867E-01  0.3097113E+00  0.4491504E-02  0.1265817E+00 -0.1681297E-02  0.2576572E-01
5971000. -0.1964867E-01  0.3093527E+00  0.4491504E-02  0.1154742E+00 -0.1681297E-02  0.2833789E-01
5937667. -0.2080853E-01  0.1282087E+00  0.3748828E-02  0.1656801E+00 -0.1813810E-02  0.2221920E-01
5904333. -0.2094378E-01 -0.7960460E-01  0.2787759E-02  0.1987626E+00 -0.1912954E-02  0.1561499E-01
5871000. -0.1995775E-01 -0.2976850E+00  0.1699480E-02  0.2143855E+00 -0.1976717E-02  0.8728692E-02
5837667. -0.1783858E-01 -0.5102323E+00  0.5731663E-03  0.2135676E+00 -0.2004141E-02  0.1755595E-02
5804333. -0.1465298E-01 -0.7031329E+00 -0.5101684E-03  0.1983515E+00 -0.1995250E-02 -0.5124676E-02
5771000. -0.1053566E-01 -0.8647166E+00 -0.1482043E-02  0.1714688E+00 -0.1950958E-02 -0.1175266E-01
5771000. -0.1053566E-01 -0.8647410E+00 -0.1482043E-02  0.1714635E+00 -0.1950958E-02 -0.1175266E-01
5701000.  0.5832085E-03 -0.1127552E+01 -0.2989746E-02  0.9712870E-01 -0.1746425E-02 -0.2525152E-01
5701000.  0.5832085E-03 -0.9602686E+00 -0.2989746E-02  0.7592029E-01 -0.1746425E-02 -0.2541591E-01
5667333.  0.5742785E-02 -0.9851395E+00 -0.3291372E-02  0.3819348E-01 -0.1601767E-02 -0.2923702E-01
5633667.  0.1091983E-01 -0.9671959E+00 -0.3394776E-02  0.1235517E-02 -0.1438479E-02 -0.3246216E-01
5600000.  0.1589431E-01 -0.9089966E+00 -0.3309029E-02 -0.3312009E-01 -0.1259782E-02 -0.3506432E-01
5600000.  0.1589431E-01 -0.9090188E+00 -0.3309029E-02 -0.3312064E-01 -0.1259782E-02 -0.3506432E-01
5563518.  0.2085724E-01 -0.8173378E+00 -0.3020765E-02 -0.6693018E-01 -0.1052371E-02 -0.3729514E-01
5527037.  0.2517829E-01 -0.6857378E+00 -0.2551424E-02 -0.9608825E-01 -0.8336161E-03 -0.3902816E-01
5490556.  0.2864589E-01 -0.5204359E+00 -0.1932128E-02 -0.1190851E+00 -0.6063544E-03 -0.4026814E-01
5454074.  0.3108908E-01 -0.3293430E+00 -0.1201546E-02 -0.1347991E+00 -0.3733645E-03 -0.4102992E-01
5417593.  0.3238586E-01 -0.1216478E+00 -0.4036138E-03 -0.1425376E+00 -0.1373319E-03 -0.4133775E-01
5381111.  0.3246946E-01  0.9270460E-01  0.4151337E-03 -0.1420584E+00  0.9924222E-04 -0.4122239E-01
5344630.  0.3133103E-01  0.3034872E+00  0.1207956E-02 -0.1335591E+00  0.3340225E-03 -0.4071974E-01
5308148.  0.2901968E-01  0.5007497E+00  0.1930533E-02 -0.1176497E+00  0.5649145E-03 -0.3986882E-01
5271667.  0.2563986E-01  0.6752548E+00  0.2543019E-02 -0.9530281E-01  0.7900283E-03 -0.3871050E-01
5235185.  0.2134537E-01  0.8189607E+00  0.3012097E-02 -0.6778874E-01  0.1007732E-02 -0.3728523E-01
5198704.  0.1633228E-01  0.9253508E+00  0.3312347E-02 -0.3660289E-01  0.1216599E-02 -0.3563238E-01
5162222.  0.1082831E-01  0.9897479E+00  0.3427386E-02 -0.3376787E-02  0.1415442E-02 -0.3378832E-01
5125741.  0.5082846E-02  0.1009478E+01  0.3350354E-02  0.3020118E-01  0.1603255E-02 -0.3178666E-01
5089259. -0.6460191E-03  0.9839781E+00  0.3084001E-02  0.6247703E-01  0.1779230E-02 -0.2965664E-01
5052778. -0.6102382E-02  0.9147775E+00  0.2640300E-02  0.9190277E-01  0.1942697E-02 -0.2742362E-01
5016296. -0.1104544E-01  0.8053850E+00  0.2039557E-02  0.1171127E+00  0.2093139E-02 -0.2510852E-01
4979815. -0.1525919E-01  0.6611094E+00  0.1309310E-02  0.1369753E+00  0.2230126E-02 -0.2272847E-01
4943333. -0.1856297E-01  0.4887628E+00  0.4827119E-03  0.1506416E+00  0.2353334E-02 -0.2029642E-01
4906852. -0.2081833E-01  0.2963601E+00 -0.4030137E-03  0.1575721E+00  0.2462489E-02 -0.1782282E-01
4870370. -0.2193545E-01  0.9270132E-01 -0.1308570E-02  0.1575502E+00  0.2557382E-02 -0.1531475E-01
4833889. -0.2187613E-01 -0.1129869E+00 -0.2194242E-02  0.1506787E+00  0.2637824E-02 -0.1277764E-01
4797407. -0.2065519E-01 -0.3115093E+00 -0.3021885E-02  0.1373662E+00  0.2703669E-02 -0.1021585E-01
4760926. -0.1833923E-01 -0.4940572E+00 -0.3756405E-02  0.1182952E+00  0.2754779E-02 -0.7632714E-02
4724444. -0.1504298E-01 -0.6526199E+00 -0.4367384E-02  0.9437987E-01  0.2791046E-02 -0.5031455E-02
4687963. -0.1092436E-01 -0.7802812E+00 -0.4830130E-02  0.6672247E-01  0.2812374E-02 -0.2415925E-02
4651482. -0.6176762E-02 -0.8715184E+00 -0.5126704E-02  0.3655253E-01  0.2818694E-02  0.2095894E-03
4615000. -0.1020660E-02 -0.9223981E+00 -0.5246427E-02  0.5171190E-02  0.2809964E-02  0.2839766E-02
4578518.  0.4305541E-02 -0.9307088E+00 -0.5186131E-02 -0.2610541E-01  0.2786175E-02  0.5468116E-02
4542037.  0.9555878E-02 -0.8960314E+00 -0.4950099E-02 -0.5600403E-01  0.2747359E-02  0.8087202E-02
4505556.  0.1448740E-01 -0.8197241E+00 -0.4549646E-02 -0.8334823E-01  0.2693591E-02  0.1068891E-01
4469074.  0.1886979E-01 -0.7048248E+00 -0.4002428E-02 -0.1071016E+00  0.2624994E-02  0.1326472E-01
4432593.  0.2249425E-01 -0.5559210E+00 -0.3331592E-02 -0.1264038E+00  0.2541745E-02  0.1580579E-01
4396111.  0.2518259E-01 -0.3789100E+00 -0.2564560E-02 -0.1406028E+00  0.2444062E-02  0.1830411E-01
4359630.  0.2679326E-01 -0.1807744E+00 -0.1731934E-02 -0.1492693E+00  0.2332214E-02  0.2075314E-01
4323148.  0.2722725E-01  0.3074585E-01 -0.8660227E-03 -0.1522074E+00  0.2206493E-02  0.2314774E-01
4286667.  0.2643129E-01  0.2474263E+00  0.3194780E-06 -0.1494526E+00  0.2067225E-02  0.2548618E-01
4250185.  0.2439968E-01  0.4609305E+00  0.8351687E-03 -0.1412594E+00  0.1914721E-02  0.2776983E-01
4213704.  0.2117429E-01  0.6630819E+00  0.1608555E-02 -0.1280844E+00  0.1749289E-02  0.3000466E-01
4177222.  0.1684221E-01  0.8462117E+00  0.2293719E-02 -0.1105566E+00  0.1571168E-02  0.3220221E-01
4140741.  0.1153283E-01  0.1003397E+01  0.2867854E-02 -0.8944999E-01  0.1380536E-02  0.3437988E-01
4104259.  0.5411854E-02  0.1128739E+01  0.3312971E-02 -0.6564259E-01  0.1177428E-02  0.3656264E-01
4067778. -0.1323925E-02  0.1217518E+01  0.3616272E-02 -0.4008260E-01  0.9617370E-03  0.3878306E-01
4031296. -0.8455229E-02  0.1266377E+01  0.3770526E-02 -0.1374527E-01  0.7331193E-03  0.4108311E-01
3994815. -0.1574685E-01  0.1273384E+01  0.3774060E-02  0.1240042E-01  0.4909888E-03  0.4351455E-01
3958333. -0.2295753E-01  0.1238085E+01  0.3630641E-02  0.3743265E-01  0.2344041E-03  0.4614070E-01
3921852. -0.2984682E-01  0.1161479E+01  0.3349123E-02  0.6050317E-01 -0.3794490E-04  0.4903682E-01
3885370. -0.3618473E-01  0.1045950E+01  0.2942905E-02  0.8086961E-01 -0.3278689E-03  0.5229263E-01
3848889. -0.4175797E-01  0.8951622E+00  0.2429330E-02  0.9791277E-01 -0.6377041E-03  0.5601312E-01
3812407. -0.4637809E-01  0.7138801E+00  0.1828833E-02  0.1111564E+00 -0.9704730E-03  0.6032180E-01
3775926. -0.4988619E-01  0.5078136E+00  0.1164216E-02  0.1202728E+00 -0.1329925E-02  0.6536186E-01
3739444. -0.5215858E-01  0.2833713E+00  0.4596415E-03  0.1250896E+00 -0.1720735E-02  0.7130060E-01
3702963. -0.5310957E-01  0.4747133E-01 -0.2600959E-03  0.1255842E+00 -0.2148570E-02  0.7833277E-01
3666482. -0.5269401E-01 -0.1927308E+00 -0.9705465E-03  0.1218773E+00 -0.2620335E-02  0.8668525E-01
3630000. -0.5090784E-01 -0.4300549E+00 -0.1648328E-02  0.1142187E+00 -0.3144349E-02  0.9662520E-01
3630000. -0.5090784E-01 -0.4300525E+00 -0.1648328E-02  0.1142184E+00 -0.3144349E-02  0.9662520E-01
3592500. -0.4767672E-01 -0.6657150E+00 -0.2288458E-02  0.1026676E+00 -0.3747876E-02  0.1088032E+00
3555000. -0.4310333E-01 -0.8849201E+00 -0.2850051E-02  0.8760824E-01 -0.4429787E-02  0.1233262E+00
3517500. -0.3730557E-01 -0.1080618E+01 -0.3313876E-02  0.6953679E-01 -0.5205152E-02  0.1406390E+00
3480000. -0.3044101E-01 -0.1246403E+01 -0.3663848E-02  0.4902221E-01 -0.6091921E-02  0.1612775E+00
3480000. -0.3044101E-01 -0.4890624E+00  0.1870251E-02 -0.5918809E-01 -0.6091921E-02  0.2570324E+00
3409422. -0.2438290E-01 -0.5936919E+00  0.2478784E-02 -0.5022562E-01 -0.8682827E-02  0.2094053E+00
3338844. -0.1751941E-01 -0.6356012E+00  0.2975177E-02 -0.3912995E-01 -0.1071074E-01  0.1561459E+00
3268266. -0.1049933E-01 -0.6237640E+00  0.3341927E-02 -0.2699564E-01 -0.1213769E-01  0.1015899E+00
3197688. -0.3853972E-02 -0.5700662E+00  0.3573101E-02 -0.1480329E-01 -0.1297066E-01  0.4946830E-01
3127109.  0.2024232E-02 -0.4873987E+00  0.3672693E-02 -0.3357589E-02 -0.1325352E-01  0.2679517E-02
3056531.  0.6884146E-02 -0.3882191E+00  0.3652491E-02  0.6741802E-02 -0.1305714E-01 -0.3679881E-01
2985953.  0.1060541E-01 -0.2834952E+00  0.3529754E-02  0.1510581E-01 -0.1246925E-01 -0.6789515E-01
2915375.  0.1317783E-01 -0.1820924E+00  0.3324948E-02  0.2154133E-01 -0.1158488E-01 -0.9034106E-01
2844797.  0.1467647E-01 -0.9052678E-01  0.3059707E-02  0.2602540E-01 -0.1049823E-01 -0.1045224E+00
2774219.  0.1523556E-01 -0.1297962E-01  0.2755135E-02  0.2866962E-01 -0.9296431E-02 -0.1113066E+00
2703641.  0.1502374E-01  0.4845998E-01  0.2430536E-02  0.2968189E-01 -0.8055116E-02 -0.1118685E+00
2633062.  0.1422281E-01  0.9344015E-01  0.2102535E-02  0.2933109E-01 -0.6835944E-02 -0.1075315E+00
2562484.  0.1301077E-01  0.1229341E+00  0.1784607E-02  0.2791433E-01 -0.5685762E-02 -0.9963501E-01
2491906.  0.1154941E-01  0.1388162E+00  0.1486901E-02  0.2572853E-01 -0.4636926E-02 -0.8943213E-01
2421328.  0.9976608E-02  0.1434777E+00  0.1216378E-02  0.2305074E-01 -0.3708745E-02 -0.7801933E-01
2350750.  0.8402419E-02  0.1394977E+00  0.9771019E-03  0.2012423E-01 -0.2909445E-02 -0.6629715E-01
2280172.  0.6908477E-02  0.1293937E+00  0.7706779E-03  0.1714932E-01 -0.2238433E-02 -0.5495582E-01
2209594.  0.5549746E-02  0.1154390E+00  0.5967429E-03  0.1428077E-01 -0.1688620E-02 -0.4448080E-01
2139016.  0.4357887E-02  0.9955361E-01  0.4534683E-03  0.1162875E-01 -0.1248585E-02 -0.3517329E-01
2068438.  0.3345516E-02  0.8325338E-01  0.3380349E-03  0.9262932E-02 -0.9044551E-03 -0.2717922E-01
1997859.  0.2510698E-02  0.6764869E-01  0.2470480E-03  0.7218273E-02 -0.6414487E-03 -0.2052242E-01
1927281.  0.1841353E-02  0.5347537E-01  0.1768902E-03  0.5501987E-02 -0.4450499E-03 -0.1513814E-01
1856703.  0.1319046E-02  0.4114841E-01  0.1239815E-03  0.4100557E-02 -0.3018000E-03 -0.1090314E-01
1786125.  0.9222424E-03  0.3082599E-01  0.8497632E-04  0.2986422E-02 -0.1998076E-03 -0.7662229E-02
1715547.  0.6287649E-03  0.2247630E-01  0.5688521E-04  0.2123770E-02 -0.1289796E-03 -0.5249036E-02
1644969.  0.4175543E-03  0.1593925E-01  0.3713827E-04  0.1473376E-02 -0.8105458E-04 -0.3501256E-02
1574391.  0.2697870E-03  0.1097926E-01  0.2360159E-04  0.9962550E-03 -0.4949759E-04 -0.2270878E-02
1503812.  0.1694668E-03  0.7327029E-02  0.1455914E-04  0.6563092E-03 -0.2930549E-04 -0.1429917E-02
1433234.  0.1036327E-03  0.4708276E-02  0.8670347E-05  0.4221551E-03 -0.1677091E-04 -0.8727142E-03
1362656.  0.6231714E-04  0.2856873E-02  0.4909805E-05  0.2684259E-03 -0.9233557E-05 -0.5155039E-03
1292078.  0.3847980E-04  0.1506733E-02  0.2492669E-05  0.1774603E-03 -0.4849268E-05 -0.2942735E-03
1221500.  0.2823559E-04  0.3394766E-03  0.7710042E-06  0.1432527E-03 -0.2389830E-05 -0.1610906E-03
1221500.  0.2823559E-04 -0.1168917E-02 -0.1112341E-05 -0.1530705E-03 -0.2389830E-05 -0.1733224E-03
1183328.  0.3328274E-04 -0.5368360E-03 -0.3141097E-06 -0.1138357E-03 -0.1536474E-05 -0.1151698E-03
1145156.  0.3492919E-04 -0.3492391E-04  0.2586412E-06 -0.7804122E-04 -0.9729974E-06 -0.7548486E-04
1106984.  0.3396652E-04  0.3344817E-03  0.6306010E-06 -0.4700955E-04 -0.6061808E-06 -0.4874633E-04
1068812.  0.3117273E-04  0.5781373E-03  0.8334187E-06 -0.2169938E-04 -0.3710283E-06 -0.3097796E-04
1030641.  0.2726119E-04  0.7105799E-03  0.9029218E-06 -0.2531146E-05 -0.2227750E-06 -0.1934571E-04
 992469.  0.2284018E-04  0.7518085E-03  0.8757409E-06  0.1064333E-04 -0.1309851E-06 -0.1185309E-04
 954297.  0.1838902E-04  0.7245025E-03  0.7861045E-06  0.1845504E-04 -0.7527175E-07 -0.7112549E-05
 916125.  0.1424974E-04  0.6513623E-03  0.6633778E-06  0.2186865E-04 -0.4218306E-07 -0.4171119E-05
 877953.  0.1063397E-04  0.5528989E-03  0.5305786E-06  0.2200890E-04 -0.2299620E-07 -0.2385108E-05
 839781.  0.7640951E-05  0.4459324E-03  0.4039333E-06  0.1999334E-04 -0.1216017E-07 -0.1326273E-05
 801609.  0.5282192E-05  0.3428711E-03  0.2933073E-06  0.1681077E-04 -0.6216654E-08 -0.7149524E-06
 763438.  0.3508353E-05  0.2516777E-03  0.2032449E-06  0.1324059E-04 -0.3060992E-08 -0.3723189E-06
 725266.  0.2234407E-05  0.1763745E-03  0.1343154E-06  0.9827107E-05 -0.1445027E-08 -0.1865325E-06
 687094.  0.1361105E-05  0.1178882E-03  0.8451949E-07  0.6890286E-05 -0.6505718E-09 -0.8945004E-07
 648922.  0.7904909E-06  0.7500660E-04  0.5051610E-07  0.4565411E-05 -0.2775556E-09 -0.4082844E-07
 610750.  0.4359568E-06  0.4529602E-04  0.2857903E-07  0.2854697E-05 -0.1113167E-09 -0.1760920E-07
 572578.  0.2271885E-06  0.2586067E-04  0.1523525E-07  0.1679719E-05 -0.4155135E-10 -0.7112269E-08
 534406.  0.1111915E-06  0.1388693E-04  0.7609011E-08  0.9260193E-06 -0.1424778E-10 -0.2659820E-08
 496234.  0.5072201E-07  0.6967769E-05  0.3534261E-08  0.4754453E-06 -0.4407073E-11 -0.9071703E-09
 458062.  0.2136054E-07  0.3239146E-05  0.1512541E-08  0.2255291E-06 -0.1196873E-11 -0.2760324E-09
 419891.  0.8204443E-08  0.1380044E-05  0.5893352E-09  0.9780342E-07 -0.2727126E-12 -0.7248736E-10
 381719.  0.2829084E-08  0.5312285E-06  0.2058108E-09  0.3823651E-07 -0.4729593E-13 -0.1544267E-10
 343547.  0.8577615E-09  0.1812944E-06  0.6310159E-10  0.1322680E-07 -0.4388152E-14 -0.2295352E-11
 305375.  0.2222895E-09  0.5345620E-07  0.1651327E-10  0.3946033E-08  0.5868257E-15 -0.8732675E-13
 267203.  0.4731843E-10  0.1313219E-07  0.3544938E-11  0.9791978E-09  0.3489328E-15  0.6931180E-13
 229031.  0.7804914E-11  0.2548150E-08  0.5889339E-12  0.1916274E-09  0.7616590E-16  0.2299531E-13
 190859.  0.9112101E-12  0.3594648E-09  0.6916986E-13  0.2722439E-10  0.9430103E-17  0.3739552E-14
 152688.  0.6470239E-13  0.3208380E-10  0.4935350E-14  0.2443750E-11  0.6199621E-18  0.3213927E-15
 114516.  0.2102201E-14  0.1395743E-11  0.1609397E-15  0.1067692E-12  0.1650184E-19  0.1151824E-16
  76344.  0.0000000E+00  0.0000000E+00  0.0000000E+00  0.0000000E+00  0.0000000E+00  0.0000000E+00
  38172.  0.0000000E+00  0.0000000E+00  0.0000000E+00  0.0000000E+00  0.0000000E+00  0.0000000E+00
      0.  0.0000000E+00  0.0000000E+00  0.0000000E+00  0.0000000E+00  0.0000000E+00  0.0000000E+00
