      12       20 S      574        105.43700         18.51999          6.30420        268.72479      185    7
6371000. -0.5930637E-02  0.4439002E+00  0.2661265E-02  0.8591902E-02 -0.2739803E-03  0.1693738E-01
6370000. -0.5999971E-02  0.4395128E+00  0.2659485E-02  0.1408370E-01 -0.2766247E-03  0.1675727E-01
6369000. -0.6068594E-02  0.4348267E+00  0.2656844E-02  0.1957100E-01 -0.2792408E-03  0.1657613E-01
6368000. -0.6136457E-02  0.4298427E+00  0.2653342E-02  0.2505197E-01 -0.2818283E-03  0.1639397E-01
6368000. -0.6136457E-02  0.4298427E+00  0.2653342E-02  0.2505197E-01 -0.2818283E-03  0.1639397E-01
6367000. -0.6203515E-02  0.4245614E+00  0.2648980E-02  0.3052477E-01 -0.2843871E-03  0.1621080E-01
6366000. -0.6269721E-02  0.4189835E+00  0.2643760E-02  0.3598759E-01 -0.2869172E-03  0.1602665E-01
6365000. -0.6335028E-02  0.4131102E+00  0.2637684E-02  0.4143857E-01 -0.2894182E-03  0.1584152E-01
6364000. -0.6399390E-02  0.4069423E+00  0.2630752E-02  0.4687592E-01 -0.2918901E-03  0.1565545E-01
6363000. -0.6462761E-02  0.4004811E+00  0.2622969E-02  0.5229780E-01 -0.2943328E-03  0.1546844E-01
6362000. -0.6525095E-02  0.3937278E+00  0.2614336E-02  0.5770240E-01 -0.2967460E-03  0.1528052E-01
6361000. -0.6586346E-02  0.3866839E+00  0.2604856E-02  0.6308792E-01 -0.2991296E-03  0.1509171E-01
6360000. -0.6646469E-02  0.3793508E+00  0.2594532E-02  0.6845254E-01 -0.3014836E-03  0.1490201E-01
6359000. -0.6705418E-02  0.3717302E+00  0.2583368E-02  0.7379449E-01 -0.3038076E-03  0.1471146E-01
6358000. -0.6763148E-02  0.3638238E+00  0.2571368E-02  0.7911196E-01 -0.3061018E-03  0.1452006E-01
6357000. -0.6819616E-02  0.3556334E+00  0.2558534E-02  0.8440317E-01 -0.3083658E-03  0.1432784E-01
6356000. -0.6874775E-02  0.3471610E+00  0.2544873E-02  0.8966637E-01 -0.3105996E-03  0.1413482E-01
6356000. -0.6874775E-02  0.3215100E+00  0.2544873E-02  0.5786503E-01 -0.3105996E-03  0.1563069E-01
6355000. -0.6924788E-02  0.3157231E+00  0.2535523E-02  0.6126883E-01 -0.3130352E-03  0.1540377E-01
6354000. -0.6973878E-02  0.3097600E+00  0.2525640E-02  0.6465920E-01 -0.3154351E-03  0.1517625E-01
6353000. -0.7022019E-02  0.3036215E+00  0.2515226E-02  0.6803542E-01 -0.3177993E-03  0.1494814E-01
6352000. -0.7069183E-02  0.2973088E+00  0.2504283E-02  0.7139674E-01 -0.3201276E-03  0.1471948E-01
6351000. -0.7115342E-02  0.2908229E+00  0.2492814E-02  0.7474239E-01 -0.3224201E-03  0.1449026E-01
6350000. -0.7160469E-02  0.2841647E+00  0.2480821E-02  0.7807167E-01 -0.3246764E-03  0.1426050E-01
6349000. -0.7204539E-02  0.2773355E+00  0.2468306E-02  0.8138382E-01 -0.3268967E-03  0.1403022E-01
6348000. -0.7247522E-02  0.2703365E+00  0.2455273E-02  0.8467812E-01 -0.3290808E-03  0.1379943E-01
6347000. -0.7289395E-02  0.2631689E+00  0.2441725E-02  0.8795384E-01 -0.3312286E-03  0.1356815E-01
6346600. -0.7305826E-02  0.2602549E+00  0.2436162E-02  0.8925876E-01 -0.3320776E-03  0.1347550E-01
6346600. -0.7305826E-02  0.3558908E+00  0.2436162E-02  0.6343923E-01 -0.3320776E-03  0.1602294E-01
6318800. -0.8472320E-02  0.1626016E+00  0.2018763E-02  0.1257455E+00 -0.3874168E-03  0.9308731E-02
6291000. -0.8602097E-02 -0.1146115E+00  0.1362836E-02  0.1715830E+00 -0.4131557E-03  0.2484652E-02
6291000. -0.8602097E-02 -0.1120240E+00  0.1362836E-02  0.1769707E+00 -0.4131557E-03  0.2484652E-02
6263000. -0.7372675E-02 -0.4524366E+00  0.5224042E-03  0.2010816E+00 -0.4091134E-03 -0.4299677E-02
6235000. -0.4618666E-02 -0.7972010E+00 -0.3644197E-03  0.1978674E+00 -0.3757103E-03 -0.1084612E-01
6207000. -0.4362108E-03 -0.1093753E+01 -0.1177517E-02  0.1679515E+00 -0.3144020E-03 -0.1696604E-01
6179000.  0.4851643E-02 -0.1292647E+01 -0.1807707E-02  0.1156290E+00 -0.2275035E-03 -0.2245622E-01
6151000.  0.1072478E-01 -0.1354790E+01 -0.2171739E-02  0.4826561E-01 -0.1182579E-03 -0.2709810E-01
6151000.  0.1072478E-01 -0.1169286E+01 -0.2171739E-02  0.4083041E-01 -0.1182579E-03 -0.2769146E-01
6128500.  0.1476341E-01 -0.1104480E+01 -0.2225358E-02 -0.1043523E-01 -0.1749856E-04 -0.2925867E-01
6106000.  0.1843296E-01 -0.9610304E+00 -0.2100629E-02 -0.5950593E-01  0.8761338E-04 -0.3015542E-01
6083500.  0.2146722E-01 -0.7464179E+00 -0.1812109E-02 -0.1026024E+00  0.1947093E-03 -0.3038394E-01
6061000.  0.2363615E-01 -0.4735202E+00 -0.1386760E-02 -0.1365203E+00  0.3014568E-03 -0.2996235E-01
6038500.  0.2476328E-01 -0.1596023E+00 -0.8615031E-03 -0.1588567E+00  0.4056123E-03 -0.2892226E-01
6016000.  0.2473896E-01  0.1750156E+00 -0.2800931E-03 -0.1681639E+00  0.5050649E-03 -0.2730734E-01
5993500.  0.2352845E-01  0.5084865E+00  0.3104105E-03 -0.1640238E+00  0.5978777E-03 -0.2517162E-01
5971000.  0.2117447E-01  0.8190475E+00  0.8632989E-03 -0.1470459E+00  0.6823169E-03 -0.2257597E-01
5971000.  0.2117447E-01  0.7518027E+00  0.8632989E-03 -0.1332338E+00  0.6823169E-03 -0.2534789E-01
5937667.  0.1634644E-01  0.1073364E+01  0.1454419E-02 -0.9029781E-01  0.8061449E-03 -0.2189890E-01
5904333.  0.1017866E-01  0.1260204E+01  0.1790362E-02 -0.3714712E-01  0.9107826E-03 -0.1805462E-01
5871000.  0.3415659E-02  0.1300725E+01  0.1840360E-02  0.1763332E-01  0.9947960E-03 -0.1405085E-01
5837667. -0.3189661E-02  0.1202660E+01  0.1616189E-02  0.6654754E-01  0.1057846E-02 -0.1006552E-01
5804333. -0.8967664E-02  0.9893454E+00  0.1164146E-02  0.1039823E+00  0.1100366E-02 -0.6217941E-02
5771000. -0.1340034E-01  0.6947123E+00  0.5541201E-03  0.1265783E+00  0.1123271E-02 -0.2575310E-02
5771000. -0.1340034E-01  0.6947349E+00  0.5541201E-03  0.1265746E+00  0.1123271E-02 -0.2575310E-02
5701000. -0.1721821E-01 -0.1316086E-01 -0.9225570E-03  0.1305252E+00  0.1115744E-02  0.3826339E-02
5701000. -0.1721821E-01 -0.2884088E-01 -0.9225570E-03  0.1070406E+00  0.1115744E-02  0.8679533E-02
5667333. -0.1634190E-01 -0.2956748E+00 -0.1441110E-02  0.8778281E-01  0.1060982E-02  0.1202515E-01
5633667. -0.1418581E-01 -0.5100958E+00 -0.1837711E-02  0.6138511E-01  0.9888469E-03  0.1526184E-01
5600000. -0.1106929E-01 -0.6572866E+00 -0.2082665E-02  0.3089909E-01  0.8998231E-03  0.1842016E-01
5600000. -0.1106929E-01 -0.6573156E+00 -0.2082665E-02  0.3090009E-01  0.8998231E-03  0.1842016E-01
5563518. -0.7007205E-02 -0.7467222E+00 -0.2161150E-02 -0.3730565E-02  0.7849550E-03  0.2164352E-01
5527037. -0.2690549E-02 -0.7459067E+00 -0.2040520E-02 -0.3806560E-01  0.6526340E-03  0.2451043E-01
5490556.  0.1366874E-02 -0.6573516E+00 -0.1732191E-02 -0.6876232E-01  0.5050119E-03  0.2698138E-01
5454074.  0.4691083E-02 -0.4923235E+00 -0.1265493E-02 -0.9295230E-01  0.3444599E-03  0.2901910E-01
5417593.  0.6894437E-02 -0.2695214E+00 -0.6842328E-03 -0.1084958E+00  0.1735659E-03  0.3059000E-01
5381111.  0.7713119E-02 -0.1300524E-01 -0.4188048E-04 -0.1141590E+00 -0.4924009E-05  0.3166652E-01
5344630.  0.7030526E-02  0.2502442E+00  0.6037457E-03 -0.1096845E+00 -0.1881088E-03  0.3222908E-01
5308148.  0.4886434E-02  0.4930378E+00  0.1196197E-02 -0.9577193E-01 -0.3730236E-03  0.3226846E-01
5271667.  0.1470987E-02  0.6905069E+00  0.1685455E-02 -0.7396680E-01 -0.5566647E-03  0.3178752E-01
5235185. -0.2895896E-02  0.8224329E+00  0.2032413E-02 -0.4647794E-01 -0.7361023E-03  0.3080248E-01
5198704. -0.7795677E-02  0.8749804E+00  0.2211926E-02 -0.1594820E-01 -0.9085201E-03  0.2934354E-01
5162222. -0.1275231E-01  0.8418533E+00  0.2214625E-02  0.1481001E-01 -0.1071332E-02  0.2745414E-01
5125741. -0.1727588E-01  0.7247006E+00  0.2047114E-02  0.4306816E-01 -0.1222219E-02  0.2519034E-01
5089259. -0.2090860E-01  0.5328008E+00  0.1730778E-02  0.6642557E-01 -0.1359230E-02  0.2261781E-01
5052778. -0.2326511E-01  0.2821189E+00  0.1299377E-02  0.8299934E-01 -0.1480798E-02  0.1981018E-01
5016296. -0.2406727E-01 -0.6260482E-02  0.7955648E-03  0.9156863E-01 -0.1585802E-02  0.1684485E-01
4979815. -0.2316784E-01 -0.3079960E+00  0.2669570E-03  0.9164608E-01 -0.1673560E-02  0.1380038E-01
4943333. -0.2056301E-01 -0.5976884E+00 -0.2382338E-03  0.8348715E-01 -0.1743843E-02  0.1075271E-01
4906852. -0.1639262E-01 -0.8509839E+00 -0.6752118E-03  0.6803494E-01 -0.1796832E-02  0.7771712E-02
4870370. -0.1092758E-01 -0.1046646E+01 -0.1006342E-02  0.4680725E-01 -0.1833093E-02  0.4918997E-02
4833889. -0.4547996E-02 -0.1168197E+01 -0.1203939E-02  0.2174763E-01 -0.1853510E-02  0.2245602E-02
4797407.  0.2289184E-02 -0.1205223E+01 -0.1252258E-02 -0.4957272E-02 -0.1859227E-02 -0.2100010E-03
4760926.  0.9085811E-02 -0.1154072E+01 -0.1148322E-02 -0.3106284E-01 -0.1851572E-02 -0.2421724E-02
4724444.  0.1534349E-01 -0.1018034E+01 -0.9017119E-03 -0.5445457E-01 -0.1831984E-02 -0.4376477E-02
4687963.  0.2060108E-01 -0.8069696E+00 -0.5333846E-03 -0.7330588E-01 -0.1801945E-02 -0.6072833E-02
4651482.  0.2447117E-01 -0.5364069E+00 -0.7357585E-04 -0.8621355E-01 -0.1762913E-02 -0.7520213E-02
4615000.  0.2666838E-01 -0.2262477E+00  0.4408818E-03 -0.9228557E-01 -0.1716263E-02 -0.8736585E-02
4578518.  0.2702997E-01  0.1007973E+00  0.9696028E-03 -0.9118646E-01 -0.1663251E-02 -0.9746575E-02
4542037.  0.2552724E-01  0.4209715E+00  0.1471887E-02 -0.8313867E-01 -0.1604981E-02 -0.1057870E-01
4505556.  0.2226615E-01  0.7112713E+00  0.1909839E-02 -0.6887878E-01 -0.1542381E-02 -0.1126391E-01
4469074.  0.1747817E-01  0.9510802E+00  0.2251067E-02 -0.4957749E-01 -0.1476204E-02 -0.1183287E-01
4432593.  0.1150292E-01  0.1123590E+01  0.2470849E-02 -0.2673479E-01 -0.1407033E-02 -0.1231455E-01
4396111.  0.4761950E-02  0.1216946E+01  0.2553722E-02 -0.2050179E-02 -0.1335290E-02 -0.1273472E-01
4359630. -0.2270531E-02  0.1224931E+01  0.2494201E-02  0.2270540E-01 -0.1261266E-02 -0.1311489E-01
4323148. -0.9102438E-02  0.1147274E+01  0.2296824E-02  0.4582488E-01 -0.1185136E-02 -0.1347246E-01
4286667. -0.1525623E-01  0.9895310E+00  0.1975462E-02  0.6577837E-01 -0.1106992E-02 -0.1382062E-01
4250185. -0.2030229E-01  0.7625217E+00  0.1551958E-02  0.8131531E-01 -0.1026857E-02 -0.1416882E-01
4213704. -0.2388556E-01  0.4815081E+00  0.1054389E-02  0.9153312E-01 -0.9447118E-03 -0.1452422E-01
4177222. -0.2574875E-01  0.1650064E+00  0.5148366E-03  0.9592310E-01 -0.8604939E-03 -0.1489316E-01
4140741. -0.2574669E-01 -0.1664545E+00 -0.3281129E-04  0.9438220E-01 -0.7741111E-03 -0.1528258E-01
4104259. -0.2385416E-01 -0.4917882E+00 -0.5552678E-03  0.8719778E-01 -0.6854136E-03 -0.1570279E-01
4067778. -0.2016529E-01 -0.7906401E+00 -0.1021858E-02  0.7500666E-01 -0.5941908E-03 -0.1616857E-01
4031296. -0.1488515E-01 -0.1044712E+01 -0.1406463E-02  0.5873222E-01 -0.5001153E-03 -0.1670285E-01
3994815. -0.8315773E-02 -0.1238767E+01 -0.1688848E-02  0.3950945E-01 -0.4027120E-03 -0.1733817E-01
3958333. -0.8348330E-03 -0.1361504E+01 -0.1855710E-02  0.1859639E-01 -0.3012738E-03 -0.1812004E-01
3921852.  0.7127018E-02 -0.1406057E+01 -0.1901077E-02 -0.2709505E-02 -0.1947999E-03 -0.1910967E-01
3885370.  0.1511407E-01 -0.1370263E+01 -0.1826321E-02 -0.2315892E-01 -0.8187476E-04 -0.2038743E-01
3848889.  0.2267075E-01 -0.1256593E+01 -0.1639661E-02 -0.4162093E-01  0.3942939E-04 -0.2205678E-01
3812407.  0.2936894E-01 -0.1071805E+01 -0.1355278E-02 -0.5714824E-01  0.1717244E-03 -0.2424964E-01
3775926.  0.3482948E-01 -0.8263943E+00 -0.9921791E-03 -0.6901756E-01  0.3184577E-03 -0.2713189E-01
3739444.  0.3874283E-01 -0.5338075E+00 -0.5727573E-03 -0.7676008E-01  0.4841592E-03 -0.3091206E-01
3702963.  0.4088238E-01 -0.2095957E+00 -0.1213861E-03 -0.8016779E-01  0.6746820E-03 -0.3585159E-01
3666482.  0.4111456E-01  0.1295819E+00  0.3371407E-03 -0.7928721E-01  0.8975722E-03 -0.4227842E-01
3630000.  0.3940195E-01  0.4668900E+00  0.7789703E-03 -0.7439528E-01  0.1162494E-02 -0.5060695E-01
3630000.  0.3940195E-01  0.4668872E+00  0.7789703E-03 -0.7439520E-01  0.1162494E-02 -0.5060695E-01
3592500.  0.3567001E-01  0.7968947E+00  0.1192874E-02 -0.6564646E-01  0.1491556E-02 -0.6167704E-01
3555000.  0.3008720E-01  0.1093163E+01  0.1545347E-02 -0.5363037E-01  0.1894850E-02 -0.7595904E-01
3517500.  0.2289642E-01  0.1341017E+01  0.1819196E-02 -0.3905870E-01  0.2393776E-02 -0.9433924E-01
3480000.  0.1441959E-01  0.1528379E+01  0.2001709E-02 -0.2273401E-01  0.3015704E-02 -0.1179724E+00
3480000.  0.1441959E-01  0.4729867E+00 -0.1151328E-02  0.2852718E-01  0.3015704E-02 -0.1633305E+00
3409422.  0.8967276E-02  0.4989392E+00 -0.1417931E-02  0.1942357E-01  0.4511727E-02 -0.1073449E+00
3338844.  0.3604056E-02  0.4603371E+00 -0.1580179E-02  0.9904525E-02  0.5413297E-02 -0.5654924E-01
3268266. -0.1074828E-02  0.3791661E+00 -0.1640093E-02  0.1108791E-02  0.5794166E-02 -0.1371122E-01
3197688. -0.4720348E-02  0.2771779E+00 -0.1610306E-02 -0.6193800E-02  0.5752582E-02  0.1955523E-01
3127109. -0.7207017E-02  0.1725760E+00 -0.1509877E-02 -0.1160741E-01  0.5397799E-02  0.4286265E-01
3056531. -0.8583320E-02  0.7844344E-01 -0.1360411E-02 -0.1505750E-01  0.4837362E-02  0.5686508E-01
2985953. -0.9012669E-02  0.2473781E-02 -0.1182923E-02 -0.1670893E-01  0.4167194E-02  0.6294601E-01
2915375. -0.8716634E-02 -0.5235524E-01 -0.9956983E-03 -0.1687555E-01  0.3465464E-02  0.6287256E-01
2844797. -0.7928875E-02 -0.8662782E-01 -0.8131035E-03 -0.1593844E-01  0.2790073E-02  0.5849207E-01
2774219. -0.6862720E-02 -0.1032223E+00 -0.6452224E-03 -0.1428044E-01  0.2179103E-02  0.5150463E-01
2703641. -0.5692387E-02 -0.1061452E+00 -0.4981043E-03 -0.1224143E-01  0.1653304E-02  0.4332244E-01
2633062. -0.4545770E-02 -0.9962415E-01 -0.3743903E-03 -0.1009397E-01  0.1219685E-02  0.3500907E-01
2562484. -0.3505712E-02 -0.8749492E-01 -0.2741243E-03 -0.8035055E-02  0.8754348E-03  0.2728141E-01
2491906. -0.2616375E-02 -0.7286066E-01 -0.1955702E-03 -0.6189472E-02  0.6115240E-03  0.2055131E-01
2421328. -0.1892223E-02 -0.5797881E-01 -0.1359606E-03 -0.4621170E-02  0.4157631E-03  0.1498990E-01
2350750. -0.1327268E-02 -0.4430039E-01 -0.9209121E-04 -0.3347589E-02  0.2750796E-03  0.1059697E-01
2280172. -0.9033286E-03 -0.3260211E-01 -0.6075440E-04 -0.2354208E-02  0.1770528E-03  0.7264818E-02
2209594. -0.5965850E-03 -0.2315396E-01 -0.3901899E-04 -0.1607624E-02  0.1108025E-03  0.4830614E-02
2139016. -0.3822512E-03 -0.1588698E-01 -0.2437932E-04 -0.1065887E-02  0.6737352E-04  0.3114950E-02
2068438. -0.2375031E-03 -0.1053725E-01 -0.1480631E-04 -0.6859109E-03  0.3976772E-04  0.1947082E-02
1997859. -0.1429927E-03 -0.6756298E-02 -0.8731701E-05 -0.4281359E-03  0.2276117E-04  0.1178956E-02
1927281. -0.8334177E-04 -0.4186391E-02 -0.4994011E-05 -0.2589876E-03  0.1261599E-04  0.6908500E-03
1856703. -0.4696506E-04 -0.2505016E-02 -0.2766095E-05 -0.1516593E-03  0.6761506E-05  0.3913013E-03
1786125. -0.2555019E-04 -0.1445970E-02 -0.1481220E-05 -0.8585159E-04  0.3497737E-05  0.2139107E-03
1715547. -0.1339483E-04 -0.8040324E-03 -0.7653464E-06 -0.4690179E-04  0.1742838E-05  0.1126603E-03
1644969. -0.6752767E-05 -0.4299143E-03 -0.3807145E-06 -0.2467927E-04  0.8344824E-06  0.5704366E-04
1574391. -0.3265562E-05 -0.2205594E-03 -0.1818424E-06 -0.1247895E-04  0.3828847E-06  0.2769916E-04
1503812. -0.1510725E-05 -0.1082584E-03 -0.8312663E-07 -0.6048302E-05  0.1678015E-06  0.1286176E-04
1433234. -0.6672506E-06 -0.5059935E-04 -0.3619483E-07 -0.2805285E-05  0.6996331E-07  0.5693008E-05
1362656. -0.2829726E-06 -0.2217578E-04 -0.1480803E-07 -0.1253851E-05  0.2758673E-07  0.2395032E-05
1292078. -0.1232917E-06 -0.8187021E-05 -0.5218535E-08 -0.5822275E-06  0.1015060E-07  0.9563844E-06
1221500. -0.8302904E-07  0.7881808E-06 -0.2984615E-10 -0.4329001E-06  0.3362727E-08  0.3549858E-06
1221500. -0.8302904E-07  0.3871756E-05  0.1809415E-08  0.4424935E-06  0.3362727E-08  0.3909543E-06
1183328. -0.9390123E-07  0.1085462E-06 -0.1579845E-09  0.2293169E-06  0.1653104E-08  0.1997853E-06
1145156. -0.8785663E-07 -0.1883747E-05 -0.1092800E-08  0.9364626E-07  0.7893354E-09  0.9946033E-07
1106984. -0.7369570E-07 -0.2686302E-05 -0.1390958E-08  0.1362411E-07  0.3646914E-09  0.4809462E-07
1068812. -0.5713063E-07 -0.2751825E-05 -0.1333040E-08 -0.2771957E-07  0.1622218E-09  0.2250437E-07
1030641. -0.4150991E-07 -0.2418682E-05 -0.1109074E-08 -0.4377027E-07  0.6899238E-10  0.1013874E-07
 992469. -0.2846642E-07 -0.1922976E-05 -0.8382823E-09 -0.4482039E-07  0.2776960E-10  0.4367279E-08
 954297. -0.1848909E-07 -0.1413702E-05 -0.5868626E-09 -0.3832609E-07  0.1040836E-10  0.1780780E-08
 916125. -0.1138929E-07 -0.9711537E-06 -0.3840661E-09 -0.2922630E-07  0.3527678E-11  0.6763493E-09
 877953. -0.6653886E-08 -0.6265891E-06 -0.2359893E-09 -0.2039603E-07  0.1012798E-11  0.2325486E-09
 839781. -0.3683055E-08 -0.3805095E-06 -0.1363619E-09 -0.1318016E-07  0.1972076E-12  0.6798601E-10
 801609. -0.1927873E-08 -0.2175399E-06 -0.7408503E-10 -0.7929711E-08 -0.1578520E-13  0.1374884E-10
 763438. -0.9517692E-09 -0.1169514E-06 -0.3778762E-10 -0.4450115E-08 -0.4410335E-13 -0.7351848E-12
 725266. -0.4416079E-09 -0.5898562E-07 -0.1804586E-10 -0.2328558E-08 -0.3058562E-13 -0.2809771E-11
 687094. -0.1917359E-09 -0.2781536E-07 -0.8038638E-11 -0.1133667E-08 -0.1576387E-13 -0.1991075E-11
 648922. -0.7748133E-10 -0.1220820E-07 -0.3323748E-11 -0.5116682E-09 -0.6862095E-14 -0.1030602E-11
 610750. -0.2895104E-10 -0.4958291E-08 -0.1267693E-11 -0.2129936E-09 -0.2621110E-14 -0.4471800E-12
 572578. -0.9922410E-11 -0.1850004E-08 -0.4425618E-12 -0.8122313E-10 -0.8887086E-15 -0.1690874E-12
 534406. -0.3088701E-11 -0.6284048E-09 -0.1400633E-12 -0.2812921E-10 -0.2674976E-15 -0.5631658E-13
 496234. -0.8626691E-12 -0.1921385E-09 -0.3970533E-13 -0.8750029E-11 -0.7100283E-16 -0.1649928E-13
 458062. -0.2129096E-12 -0.5213165E-10 -0.9930825E-14 -0.2410694E-11 -0.1641685E-16 -0.4215205E-14
 419891. -0.4554443E-13 -0.1232585E-10 -0.2149781E-14 -0.5777667E-12 -0.3247204E-17 -0.9243335E-15
 381719. -0.8234879E-14 -0.2480199E-11 -0.3928388E-15 -0.1176617E-12 -0.5360231E-18 -0.1701174E-15
 343547. -0.1217633E-14 -0.4116859E-12 -0.5863234E-16 -0.1973779E-13 -0.7137713E-19 -0.2545922E-16
 305375. -0.1407735E-15 -0.5402923E-13 -0.6834407E-17 -0.2614352E-14 -0.7317394E-20 -0.2965257E-17
 267203. -0.1195091E-16 -0.5281509E-14 -0.5842158E-18 -0.2575410E-15 -0.5414425E-21 -0.2492348E-18
 229031.  0.0000000E+00  0.0000000E+00  0.0000000E+00  0.0000000E+00  0.0000000E+00  0.0000000E+00
 190859.  0.0000000E+00  0.0000000E+00  0.0000000E+00  0.0000000E+00  0.0000000E+00  0.0000000E+00
 152688.  0.0000000E+00  0.0000000E+00  0.0000000E+00  0.0000000E+00  0.0000000E+00  0.0000000E+00
 114516.  0.0000000E+00  0.0000000E+00  0.0000000E+00  0.0000000E+00  0.0000000E+00  0.0000000E+00
  76344.  0.0000000E+00  0.0000000E+00  0.0000000E+00  0.0000000E+00  0.0000000E+00  0.0000000E+00
  38172.  0.0000000E+00  0.0000000E+00  0.0000000E+00  0.0000000E+00  0.0000000E+00  0.0000000E+00
      0.  0.0000000E+00  0.0000000E+00  0.0000000E+00  0.0000000E+00  0.0000000E+00  0.0000000E+00
