       0       11 S       10        537.37061          6.47762          5.24402        322.51300      185    7
6371000.  0.2556913E+00 -0.1190865E+01 -0.1904716E-01 -0.2747384E+00 -0.1814596E-01 -0.2644224E+00
6370000.  0.2558775E+00 -0.1181838E+01 -0.1900398E-01 -0.2755507E+00 -0.1810452E-01 -0.2635860E+00
6369000.  0.2560623E+00 -0.1172793E+01 -0.1896066E-01 -0.2763589E+00 -0.1806322E-01 -0.2627489E+00
6368000.  0.2562457E+00 -0.1163731E+01 -0.1891722E-01 -0.2771630E+00 -0.1802204E-01 -0.2619110E+00
6368000.  0.2562457E+00 -0.1163731E+01 -0.1891722E-01 -0.2771630E+00 -0.1802204E-01 -0.2619110E+00
6367000.  0.2564276E+00 -0.1154651E+01 -0.1887365E-01 -0.2779630E+00 -0.1798100E-01 -0.2610724E+00
6366000.  0.2566081E+00 -0.1145553E+01 -0.1882996E-01 -0.2787589E+00 -0.1794008E-01 -0.2602330E+00
6365000.  0.2567872E+00 -0.1136439E+01 -0.1878615E-01 -0.2795506E+00 -0.1789930E-01 -0.2593929E+00
6364000.  0.2569649E+00 -0.1127307E+01 -0.1874221E-01 -0.2803382E+00 -0.1785865E-01 -0.2585520E+00
6363000.  0.2571411E+00 -0.1118157E+01 -0.1869814E-01 -0.2811217E+00 -0.1781814E-01 -0.2577103E+00
6362000.  0.2573159E+00 -0.1108991E+01 -0.1865396E-01 -0.2819011E+00 -0.1777775E-01 -0.2568679E+00
6361000.  0.2574893E+00 -0.1099807E+01 -0.1860965E-01 -0.2826762E+00 -0.1773750E-01 -0.2560248E+00
6360000.  0.2576612E+00 -0.1090607E+01 -0.1856522E-01 -0.2834472E+00 -0.1769738E-01 -0.2551809E+00
6359000.  0.2578316E+00 -0.1081389E+01 -0.1852066E-01 -0.2842140E+00 -0.1765739E-01 -0.2543362E+00
6358000.  0.2580006E+00 -0.1072155E+01 -0.1847599E-01 -0.2849767E+00 -0.1761754E-01 -0.2534907E+00
6357000.  0.2581682E+00 -0.1062904E+01 -0.1843121E-01 -0.2857351E+00 -0.1757782E-01 -0.2526445E+00
6356000.  0.2583343E+00 -0.1053636E+01 -0.1838630E-01 -0.2864894E+00 -0.1753823E-01 -0.2517976E+00
6356000.  0.2583343E+00 -0.9464326E+00 -0.1838630E-01 -0.2828759E+00 -0.1753823E-01 -0.3080081E+00
6355000.  0.2584823E+00 -0.9395466E+00 -0.1834188E-01 -0.2830727E+00 -0.1748996E-01 -0.3070783E+00
6354000.  0.2586292E+00 -0.9326540E+00 -0.1829743E-01 -0.2832671E+00 -0.1744183E-01 -0.3061485E+00
6353000.  0.2587751E+00 -0.9257550E+00 -0.1825296E-01 -0.2834594E+00 -0.1739385E-01 -0.3052187E+00
6352000.  0.2589199E+00 -0.9188495E+00 -0.1820845E-01 -0.2836493E+00 -0.1734602E-01 -0.3042890E+00
6351000.  0.2590635E+00 -0.9119376E+00 -0.1816391E-01 -0.2838370E+00 -0.1729833E-01 -0.3033593E+00
6350000.  0.2592061E+00 -0.9050193E+00 -0.1811935E-01 -0.2840224E+00 -0.1725078E-01 -0.3024296E+00
6349000.  0.2593476E+00 -0.8980947E+00 -0.1807475E-01 -0.2842056E+00 -0.1720339E-01 -0.3014999E+00
6348000.  0.2594881E+00 -0.8911638E+00 -0.1803013E-01 -0.2843864E+00 -0.1715614E-01 -0.3005702E+00
6347000.  0.2596274E+00 -0.8842267E+00 -0.1798548E-01 -0.2845650E+00 -0.1710903E-01 -0.2996405E+00
6346600.  0.2596828E+00 -0.8814501E+00 -0.1796761E-01 -0.2846358E+00 -0.1709023E-01 -0.2992687E+00
6346600.  0.2596828E+00 -0.1088570E+01 -0.1796761E-01 -0.2827133E+00 -0.1709023E-01 -0.3898163E+00
6318800.  0.2641010E+00 -0.9359969E+00 -0.1674382E-01 -0.2780668E+00 -0.1544662E-01 -0.3636173E+00
6291000.  0.2678472E+00 -0.7806141E+00 -0.1554212E-01 -0.2725858E+00 -0.1391619E-01 -0.3379236E+00
6291000.  0.2678472E+00 -0.8192188E+00 -0.1554212E-01 -0.2719283E+00 -0.1391619E-01 -0.3379236E+00
6263000.  0.2710899E+00 -0.6560627E+00 -0.1435927E-01 -0.2661825E+00 -0.1248624E-01 -0.3128631E+00
6235000.  0.2736106E+00 -0.4907687E+00 -0.1320393E-01 -0.2594071E+00 -0.1116574E-01 -0.2881041E+00
6207000.  0.2754014E+00 -0.3239996E+00 -0.1208068E-01 -0.2515724E+00 -0.9953537E-02 -0.2635618E+00
6179000.  0.2764573E+00 -0.1564513E+00 -0.1099424E-01 -0.2426531E+00 -0.8848882E-02 -0.2391502E+00
6151000.  0.2767765E+00  0.1112808E-01 -0.9949422E-02 -0.2326290E+00 -0.7851375E-02 -0.2147880E+00
6151000.  0.2767765E+00 -0.1432626E+00 -0.9949422E-02 -0.2407386E+00 -0.7851375E-02 -0.2301008E+00
6128500.  0.2771053E+00 -0.4353581E-01 -0.9114550E-02 -0.2319751E+00 -0.7065607E-02 -0.2149331E+00
6106000.  0.2770876E+00  0.5287631E-01 -0.8311495E-02 -0.2227259E+00 -0.6332946E-02 -0.2000215E+00
6083500.  0.2767357E+00  0.1457580E+00 -0.7541919E-02 -0.2130201E+00 -0.5652529E-02 -0.1853445E+00
6061000.  0.2760623E+00  0.2349085E+00 -0.6807384E-02 -0.2028868E+00 -0.5023554E-02 -0.1708857E+00
6038500.  0.2750809E+00  0.3201429E+00 -0.6109349E-02 -0.1923534E+00 -0.4445290E-02 -0.1566219E+00
6016000.  0.2738057E+00  0.4012725E+00 -0.5449183E-02 -0.1814460E+00 -0.3917093E-02 -0.1425292E+00
5993500.  0.2722515E+00  0.4781213E+00 -0.4828160E-02 -0.1701904E+00 -0.3438391E-02 -0.1285885E+00
5971000.  0.2704337E+00  0.5505314E+00 -0.4247467E-02 -0.1586099E+00 -0.3008694E-02 -0.1147722E+00
5971000.  0.2704337E+00  0.4602771E+00 -0.4247467E-02 -0.1734243E+00 -0.3008694E-02 -0.1501742E+00
5937667.  0.2678174E+00  0.5381884E+00 -0.3371580E-02 -0.1614112E+00 -0.2263073E-02 -0.1349677E+00
5904333.  0.2648191E+00  0.6063517E+00 -0.2558158E-02 -0.1495594E+00 -0.1595134E-02 -0.1204726E+00
5871000.  0.2614886E+00  0.6652986E+00 -0.1806068E-02 -0.1379940E+00 -0.1001185E-02 -0.1066916E+00
5837667.  0.2578726E+00  0.7155888E+00 -0.1113514E-02 -0.1268162E+00 -0.4774703E-03 -0.9362373E-01
5804333.  0.2540147E+00  0.7578000E+00 -0.4782306E-03 -0.1161064E+00 -0.2027056E-04 -0.8125861E-01
5771000.  0.2499560E+00  0.7924965E+00  0.1023731E-03 -0.1059307E+00  0.3740487E-03 -0.6959072E-01
5771000.  0.2499560E+00  0.7924823E+00  0.1023731E-03 -0.1059362E+00  0.3740487E-03 -0.6959072E-01
5701000.  0.2405949E+00  0.9049467E+00  0.1084998E-02 -0.7295605E-01  0.9393322E-03 -0.3353750E-01
5701000.  0.2405949E+00  0.7305522E+00  0.1084998E-02 -0.1142932E+00  0.9393322E-03 -0.1013526E+00
5667333.  0.2366095E+00  0.7766743E+00  0.1667497E-02 -0.1063009E+00  0.1441601E-02 -0.8889669E-01
5633667.  0.2323979E+00  0.8162824E+00  0.2209892E-02 -0.9912349E-01  0.1880495E-02 -0.7737340E-01
5600000.  0.2279926E+00  0.8499996E+00  0.2716553E-02 -0.9277201E-01  0.2260986E-02 -0.6678851E-01
5600000.  0.2279926E+00  0.8499977E+00  0.2716553E-02 -0.9276415E-01  0.2260986E-02 -0.6678851E-01
5563518.  0.2230168E+00  0.8870115E+00  0.3217806E-02 -0.8240179E-01  0.2613003E-02 -0.5632088E-01
5527037.  0.2178444E+00  0.9187752E+00  0.3661327E-02 -0.7260331E-01  0.2907776E-02 -0.4678690E-01
5490556.  0.2125045E+00  0.9455310E+00  0.4050335E-02 -0.6336018E-01  0.3150480E-02 -0.3812398E-01
5454074.  0.2070250E+00  0.9675250E+00  0.4387992E-02 -0.5466286E-01  0.3345927E-02 -0.3026962E-01
5417593.  0.2014328E+00  0.9849954E+00  0.4677380E-02 -0.4650236E-01  0.3498580E-02 -0.2316980E-01
5381111.  0.1957528E+00  0.9981837E+00  0.4921553E-02 -0.3886513E-01  0.3612610E-02 -0.1676924E-01
5344630.  0.1900091E+00  0.1007329E+01  0.5123456E-02 -0.3173863E-01  0.3691865E-02 -0.1101659E-01
5308148.  0.1842239E+00  0.1012671E+01  0.5285978E-02 -0.2510639E-01  0.3739917E-02 -0.5862179E-02
5271667.  0.1784186E+00  0.1014438E+01  0.5411902E-02 -0.1895478E-01  0.3760059E-02 -0.1261237E-02
5235185.  0.1726127E+00  0.1012857E+01  0.5503940E-02 -0.1326698E-01  0.3755332E-02  0.2830673E-02
5198704.  0.1668251E+00  0.1008152E+01  0.5564695E-02 -0.8026235E-02  0.3728537E-02  0.6453556E-02
5162222.  0.1610726E+00  0.1000540E+01  0.5596680E-02 -0.3214850E-02  0.3682240E-02  0.9648330E-02
5125741.  0.1553718E+00  0.9902300E+00  0.5602301E-02  0.1184384E-02  0.3618794E-02  0.1244944E-01
5089259.  0.1497370E+00  0.9774261E+00  0.5583868E-02  0.5189669E-02  0.3540346E-02  0.1489335E-01
5052778.  0.1441824E+00  0.9623255E+00  0.5543586E-02  0.8818997E-02  0.3448852E-02  0.1701171E-01
5016296.  0.1387203E+00  0.9451165E+00  0.5483553E-02  0.1209027E-01  0.3346083E-02  0.1883589E-01
4979815.  0.1333624E+00  0.9259818E+00  0.5405774E-02  0.1502125E-01  0.3233643E-02  0.2039496E-01
4943333.  0.1281191E+00  0.9050929E+00  0.5312142E-02  0.1762931E-01  0.3112970E-02  0.2171474E-01
4906852.  0.1230001E+00  0.8826187E+00  0.5204460E-02  0.1993256E-01  0.2985361E-02  0.2282291E-01
4870370.  0.1180138E+00  0.8587153E+00  0.5084416E-02  0.2194835E-01  0.2851954E-02  0.2374225E-01
4833889.  0.1131683E+00  0.8335312E+00  0.4953620E-02  0.2369194E-01  0.2713776E-02  0.2449477E-01
4797407.  0.1084702E+00  0.8072103E+00  0.4813573E-02  0.2518110E-01  0.2571705E-02  0.2510390E-01
4760926.  0.1039259E+00  0.7798865E+00  0.4665694E-02  0.2643134E-01  0.2426516E-02  0.2558831E-01
4724444.  0.9954044E-01  0.7516826E+00  0.4511301E-02  0.2745712E-01  0.2278859E-02  0.2596734E-01
4687963.  0.9531886E-01  0.7227185E+00  0.4351645E-02  0.2827330E-01  0.2129295E-02  0.2625901E-01
4651482.  0.9126504E-01  0.6931035E+00  0.4187884E-02  0.2889349E-01  0.1978271E-02  0.2647981E-01
4615000.  0.8738231E-01  0.6629397E+00  0.4021096E-02  0.2933075E-01  0.1826143E-02  0.2664600E-01
4578518.  0.8367365E-01  0.6323229E+00  0.3852300E-02  0.2959686E-01  0.1673184E-02  0.2677231E-01
4542037.  0.8014148E-01  0.6013432E+00  0.3682449E-02  0.2970283E-01  0.1519584E-02  0.2687396E-01
4505556.  0.7678754E-01  0.5700831E+00  0.3512423E-02  0.2965899E-01  0.1365440E-02  0.2696435E-01
4469074.  0.7361313E-01  0.5386186E+00  0.3343053E-02  0.2947397E-01  0.1210774E-02  0.2705690E-01
4432593.  0.7061938E-01  0.5070242E+00  0.3175132E-02  0.2915559E-01  0.1055547E-02  0.2716391E-01
4396111.  0.6780668E-01  0.4753663E+00  0.3009396E-02  0.2871007E-01  0.8996333E-03  0.2729737E-01
4359630.  0.6517535E-01  0.4437130E+00  0.2846567E-02  0.2814243E-01  0.7428519E-03  0.2747037E-01
4323148.  0.6272504E-01  0.4121253E+00  0.2687327E-02  0.2745522E-01  0.5849379E-03  0.2769335E-01
4286667.  0.6045533E-01  0.3806700E+00  0.2532364E-02  0.2665062E-01  0.4255781E-03  0.2797883E-01
4250185.  0.5836515E-01  0.3494090E+00  0.2382342E-02  0.2572720E-01  0.2643747E-03  0.2833753E-01
4213704.  0.5645330E-01  0.3184132E+00  0.2237958E-02  0.2468226E-01  0.1008851E-03  0.2878086E-01
4177222.  0.5471796E-01  0.2877546E+00  0.2099916E-02  0.2350948E-01 -0.6541779E-04  0.2932041E-01
4140741.  0.5315705E-01  0.2575190E+00  0.1968979E-02  0.2220056E-01 -0.2351073E-03  0.2996728E-01
4104259.  0.5176780E-01  0.2278004E+00  0.1845951E-02  0.2074316E-01 -0.4088423E-03  0.3073366E-01
4067778.  0.5054701E-01  0.1987128E+00  0.1731735E-02  0.1912070E-01 -0.5873291E-03  0.3163062E-01
4031296.  0.4949064E-01  0.1703894E+00  0.1627328E-02  0.1731239E-01 -0.7713610E-03  0.3267074E-01
3994815.  0.4859390E-01  0.1429945E+00  0.1533873E-02  0.1529175E-01 -0.9617821E-03  0.3386595E-01
3958333.  0.4785089E-01  0.1167256E+00  0.1452669E-02  0.1302604E-01 -0.1159526E-02  0.3522865E-01
3921852.  0.4725452E-01  0.9182741E-01  0.1385238E-02  0.1047478E-01 -0.1365578E-02  0.3677195E-01
3885370.  0.4679608E-01  0.6859869E-01  0.1333348E-02  0.7588648E-02 -0.1581021E-02  0.3850868E-01
3848889.  0.4646502E-01  0.4741093E-01  0.1299081E-02  0.4308742E-02 -0.1806987E-02  0.4045190E-01
3812407.  0.4624837E-01  0.2871895E-01  0.1284892E-02  0.5626547E-03 -0.2044710E-02  0.4261458E-01
3775926.  0.4613030E-01  0.1308600E-01  0.1293691E-02 -0.3736230E-02 -0.2295468E-02  0.4500949E-01
3739444.  0.4609136E-01  0.1205121E-02  0.1328933E-02 -0.8692023E-02 -0.2560642E-02  0.4764925E-01
3702963.  0.4610772E-01 -0.6068354E-02  0.1394725E-02 -0.1442967E-01 -0.2841652E-02  0.5054490E-01
3666482.  0.4615008E-01 -0.7683066E-02  0.1495962E-02 -0.2109946E-01 -0.3140002E-02  0.5370706E-01
3630000.  0.4618246E-01 -0.2343650E-02  0.1638487E-02 -0.2888209E-01 -0.3457248E-02  0.5714298E-01
3630000.  0.4618246E-01 -0.2344356E-02  0.1638487E-02 -0.2888264E-01 -0.3457248E-02  0.5714298E-01
3592500.  0.4616079E-01  0.1133621E-01  0.1834708E-02 -0.3805421E-01 -0.3804688E-02  0.6095948E-01
3555000.  0.4602765E-01  0.3593021E-01  0.2089862E-02 -0.4895951E-01 -0.4175423E-02  0.6505828E-01
3517500.  0.4571120E-01  0.7411768E-01  0.2415144E-02 -0.6194645E-01 -0.4571104E-02  0.6943424E-01
3480000.  0.4512202E-01  0.1292136E+00  0.2824008E-02 -0.7743697E-01 -0.4993326E-02  0.7407331E-01
3480000.  0.4512202E-01  0.7394543E+00  0.4414384E-02  0.7446337E-01 -0.4993326E-02 -0.6786201E-01
3409422.  0.3752923E-01  0.6333891E+00  0.3652844E-02  0.6326810E-01 -0.4271819E-02 -0.6225262E-01
3338844.  0.3104424E-01  0.5393441E+00  0.3007417E-02  0.5348006E-01 -0.3616295E-02 -0.5603182E-01
3268266.  0.2553785E-01  0.4565797E+00  0.2463211E-02  0.4497246E-01 -0.3031057E-02 -0.4962285E-01
3197688.  0.2088967E-01  0.3842593E+00  0.2006744E-02  0.3761938E-01 -0.2516424E-02 -0.4332625E-01
3127109.  0.1698885E-01  0.3214957E+00  0.1625894E-02  0.3129993E-01 -0.2069934E-02 -0.3734646E-01
3056531.  0.1373459E-01  0.2673886E+00  0.1309864E-02  0.2589956E-01 -0.1687310E-02 -0.3181380E-01
2985953.  0.1103591E-01  0.2210467E+00  0.1049068E-02  0.2131052E-01 -0.1363139E-02 -0.2680184E-01
2915375.  0.8811573E-02  0.1816119E+00  0.8350808E-03  0.1743301E-01 -0.1091447E-02 -0.2234178E-01
2844797.  0.6989616E-02  0.1482709E+00  0.6605329E-03  0.1417572E-01 -0.8660916E-03 -0.1843422E-01
2774219.  0.5506787E-02  0.1202648E+00  0.5190207E-03  0.1145563E-01 -0.6810526E-03 -0.1505839E-01
2703641.  0.4307917E-02  0.9689442E-01  0.4050155E-03  0.9197852E-02 -0.5306221E-03 -0.1217938E-01
2633062.  0.3345222E-02  0.7752276E-01  0.3137725E-03  0.7335483E-02 -0.4095301E-03 -0.9753640E-02
2562484.  0.2577667E-02  0.6157608E-01  0.2412486E-03  0.5809276E-02 -0.3130206E-03 -0.7733492E-02
2491906.  0.1970196E-02  0.4854116E-01  0.1840149E-03  0.4566874E-02 -0.2368698E-03 -0.6070003E-02
2421328.  0.1493119E-02  0.3796409E-01  0.1391865E-03  0.3562539E-02 -0.1773935E-03 -0.4715322E-02
2350750.  0.1121464E-02  0.2944642E-01  0.1043513E-03  0.2756590E-02 -0.1314241E-03 -0.3624256E-02
2280172.  0.8343853E-03  0.2264131E-01  0.7750597E-04  0.2114769E-02 -0.9627498E-04 -0.2755244E-02
2209594.  0.6146102E-03  0.1724933E-01  0.5699918E-04  0.1607750E-02 -0.6969761E-04 -0.2070862E-02
2139016.  0.4479420E-03  0.1301411E-01  0.4147939E-04  0.1210606E-02 -0.4983366E-04 -0.1538077E-02
2068438.  0.3228060E-03  0.9717912E-02  0.2984931E-04  0.9023080E-03 -0.3516655E-04 -0.1128213E-02
1997859.  0.2298441E-03  0.7177304E-02  0.2122503E-04  0.6652475E-03 -0.2447380E-04 -0.8167794E-03
1927281.  0.1615623E-03  0.5239245E-02  0.1490120E-04  0.4848027E-03 -0.1678285E-04 -0.5831727E-03
1856703.  0.1120090E-03  0.3777002E-02  0.1031944E-04  0.3489244E-03 -0.1132915E-04 -0.4102945E-03
1786125.  0.7650789E-04  0.2686715E-02  0.7042408E-05  0.2477757E-03 -0.7520045E-05 -0.2841704E-03
1715547.  0.5142183E-04  0.1884117E-02  0.4731067E-05  0.1733941E-03 -0.4902291E-05 -0.1935381E-03
1644969.  0.3395237E-04  0.1301609E-02  0.3125584E-05  0.1193939E-03 -0.3134227E-05 -0.1294514E-03
1574391.  0.2196958E-04  0.8857100E-03  0.2029409E-05  0.8069279E-04 -0.1962179E-05 -0.8491175E-04
1503812.  0.1386763E-04  0.5949523E-03  0.1296227E-05  0.5326183E-04 -0.1200802E-05 -0.5452693E-04
1433234.  0.8441028E-05  0.3984014E-03  0.8196695E-06  0.3388054E-04 -0.7170080E-06 -0.3421295E-04
1362656.  0.4771207E-05  0.2751919E-03  0.5258242E-06  0.1985090E-04 -0.4169162E-06 -0.2093018E-04
1292078.  0.2108394E-05  0.2163407E-03  0.3696053E-06  0.8575562E-05 -0.2355625E-06 -0.1246665E-04
1221500. -0.2928237E-06  0.2320607E-03  0.3376877E-06 -0.3286063E-05 -0.1287214E-06 -0.7266215E-05
1221500. -0.2928237E-06 -0.6392085E-06 -0.2645753E-09  0.1525906E-05 -0.1287214E-06 -0.7139363E-05
1183328. -0.2764849E-06 -0.4405873E-05 -0.6864067E-08  0.7362446E-06 -0.9180301E-07 -0.5267972E-05
1145156. -0.2440267E-06 -0.6161171E-05 -0.9682577E-08  0.2458434E-06 -0.6470106E-07 -0.3844888E-05
1106984. -0.2052083E-06 -0.6630791E-05 -0.1021934E-07 -0.3873965E-07 -0.4502768E-07 -0.2773821E-05
1068812. -0.1660931E-06 -0.6331799E-05 -0.9490739E-08 -0.1862494E-06 -0.3091656E-07 -0.1976479E-05
1030641. -0.1301467E-06 -0.5621973E-05 -0.8161277E-08 -0.2462303E-06 -0.2092375E-07 -0.1389817E-05
 992469. -0.9906380E-07 -0.4739550E-05 -0.6644580E-08 -0.2535244E-06 -0.1394305E-07 -0.9634988E-06
 954297. -0.7339145E-07 -0.3835154E-05 -0.5180417E-08 -0.2318992E-06 -0.9137721E-08 -0.6578277E-06
 916125. -0.5297179E-07 -0.2996740E-05 -0.3891863E-08 -0.1969579E-06 -0.5881716E-08 -0.4417933E-06
 877953. -0.3725825E-07 -0.2268893E-05 -0.2827099E-08 -0.1584294E-06 -0.3712843E-08 -0.2914622E-06
 839781. -0.2552961E-07 -0.1667447E-05 -0.1989159E-08 -0.1219118E-06 -0.2294611E-08 -0.1885962E-06
 801609. -0.1702798E-07 -0.1190318E-05 -0.1356422E-08 -0.9022813E-07 -0.1385707E-08 -0.1194838E-06
 763438. -0.1104184E-07 -0.8252558E-06 -0.8961756E-09 -0.6440116E-07 -0.8158996E-09 -0.7396751E-07
 725266. -0.6949114E-08 -0.5552167E-06 -0.5730734E-09 -0.4437556E-07 -0.4671762E-09 -0.4463837E-07
 687094. -0.4235329E-08 -0.3619506E-06 -0.3540863E-09 -0.2951205E-07 -0.2593676E-09 -0.2619047E-07
 648922. -0.2493175E-08 -0.2281554E-06 -0.2108893E-09 -0.1892012E-07 -0.1391314E-09 -0.1489246E-07
 610750. -0.1412983E-08 -0.1386754E-06 -0.1207024E-09 -0.1166517E-07 -0.7181580E-10 -0.8175884E-08
 572578. -0.7680134E-09 -0.8103163E-07 -0.6616942E-10 -0.6884437E-08 -0.3549893E-10 -0.4313041E-08
 534406.  0.0000000E+00  0.0000000E+00  0.0000000E+00  0.0000000E+00  0.0000000E+00  0.0000000E+00
 496234.  0.0000000E+00  0.0000000E+00  0.0000000E+00  0.0000000E+00  0.0000000E+00  0.0000000E+00
 458062.  0.0000000E+00  0.0000000E+00  0.0000000E+00  0.0000000E+00  0.0000000E+00  0.0000000E+00
 419891.  0.0000000E+00  0.0000000E+00  0.0000000E+00  0.0000000E+00  0.0000000E+00  0.0000000E+00
 381719.  0.0000000E+00  0.0000000E+00  0.0000000E+00  0.0000000E+00  0.0000000E+00  0.0000000E+00
 343547.  0.0000000E+00  0.0000000E+00  0.0000000E+00  0.0000000E+00  0.0000000E+00  0.0000000E+00
 305375.  0.0000000E+00  0.0000000E+00  0.0000000E+00  0.0000000E+00  0.0000000E+00  0.0000000E+00
 267203.  0.0000000E+00  0.0000000E+00  0.0000000E+00  0.0000000E+00  0.0000000E+00  0.0000000E+00
 229031.  0.0000000E+00  0.0000000E+00  0.0000000E+00  0.0000000E+00  0.0000000E+00  0.0000000E+00
 190859.  0.0000000E+00  0.0000000E+00  0.0000000E+00  0.0000000E+00  0.0000000E+00  0.0000000E+00
 152688.  0.0000000E+00  0.0000000E+00  0.0000000E+00  0.0000000E+00  0.0000000E+00  0.0000000E+00
 114516.  0.0000000E+00  0.0000000E+00  0.0000000E+00  0.0000000E+00  0.0000000E+00  0.0000000E+00
  76344.  0.0000000E+00  0.0000000E+00  0.0000000E+00  0.0000000E+00  0.0000000E+00  0.0000000E+00
  38172.  0.0000000E+00  0.0000000E+00  0.0000000E+00  0.0000000E+00  0.0000000E+00  0.0000000E+00
      0.  0.0000000E+00  0.0000000E+00  0.0000000E+00  0.0000000E+00  0.0000000E+00  0.0000000E+00
