      15       10 S      629        126.73160         30.08246          6.96019        312.69110      185    7
6371000. -0.3731537E-01  0.2509257E+00  0.5125325E-02  0.4244070E-01 -0.1505529E-03  0.7202414E-01
6370000. -0.3735336E-01  0.2331418E+00  0.5118060E-02  0.5012178E-01 -0.1618507E-03  0.7193220E-01
6369000. -0.3738856E-01  0.2152431E+00  0.5109592E-02  0.5778712E-01 -0.1731337E-03  0.7183536E-01
6368000. -0.3742093E-01  0.1972312E+00  0.5099921E-02  0.6543491E-01 -0.1844012E-03  0.7173361E-01
6368000. -0.3742093E-01  0.1972312E+00  0.5099921E-02  0.6543491E-01 -0.1844012E-03  0.7173361E-01
6367000. -0.3745046E-01  0.1791074E+00  0.5089051E-02  0.7306329E-01 -0.1956523E-03  0.7162697E-01
6366000. -0.3747715E-01  0.1608734E+00  0.5076986E-02  0.8067048E-01 -0.2068863E-03  0.7151544E-01
6365000. -0.3750096E-01  0.1425306E+00  0.5063728E-02  0.8825463E-01 -0.2181023E-03  0.7139903E-01
6364000. -0.3752188E-01  0.1240806E+00  0.5049282E-02  0.9581395E-01 -0.2292998E-03  0.7127774E-01
6363000. -0.3753991E-01  0.1055249E+00  0.5033651E-02  0.1033466E+00 -0.2404778E-03  0.7115158E-01
6362000. -0.3755501E-01  0.8686531E-01  0.5016841E-02  0.1108509E+00 -0.2516356E-03  0.7102057E-01
6361000. -0.3756717E-01  0.6810336E-01  0.4998854E-02  0.1183249E+00 -0.2627725E-03  0.7088470E-01
6360000. -0.3757638E-01  0.4924078E-01  0.4979698E-02  0.1257669E+00 -0.2738876E-03  0.7074399E-01
6359000. -0.3758262E-01  0.3027926E-01  0.4959375E-02  0.1331752E+00 -0.2849803E-03  0.7059844E-01
6358000. -0.3758588E-01  0.1122056E-01  0.4937893E-02  0.1405479E+00 -0.2960498E-03  0.7044806E-01
6357000. -0.3758614E-01 -0.7933551E-02  0.4915256E-02  0.1478832E+00 -0.3070953E-03  0.7029288E-01
6356000. -0.3758338E-01 -0.2718128E-01  0.4891471E-02  0.1551795E+00 -0.3181161E-03  0.7013287E-01
6356000. -0.3758338E-01  0.3611669E-01  0.4891471E-02  0.1105426E+00 -0.3181161E-03  0.7831059E-01
6355000. -0.3758797E-01  0.2224507E-01  0.4873740E-02  0.1153710E+00 -0.3303951E-03  0.7814784E-01
6354000. -0.3759037E-01  0.8311777E-02  0.4855254E-02  0.1201785E+00 -0.3426482E-03  0.7798129E-01
6353000. -0.3759057E-01 -0.5682264E-02  0.4836015E-02  0.1249644E+00 -0.3548749E-03  0.7781095E-01
6352000. -0.3758858E-01 -0.1973610E-01  0.4816026E-02  0.1297280E+00 -0.3670747E-03  0.7763683E-01
6351000. -0.3758437E-01 -0.3384876E-01  0.4795292E-02  0.1344684E+00 -0.3792467E-03  0.7745893E-01
6350000. -0.3757795E-01 -0.4801928E-01  0.4773815E-02  0.1391850E+00 -0.3913906E-03  0.7727727E-01
6349000. -0.3756930E-01 -0.6224666E-01  0.4751599E-02  0.1438770E+00 -0.4035056E-03  0.7709184E-01
6348000. -0.3755841E-01 -0.7652990E-01  0.4728650E-02  0.1485436E+00 -0.4155912E-03  0.7690267E-01
6347000. -0.3754527E-01 -0.9086799E-01  0.4704970E-02  0.1531840E+00 -0.4276469E-03  0.7670975E-01
6346600. -0.3753939E-01 -0.9661835E-01  0.4695294E-02  0.1550327E+00 -0.4324606E-03  0.7663154E-01
6346600. -0.3753939E-01  0.5191590E-01  0.4695294E-02  0.1184421E+00 -0.4324606E-03  0.8972098E-01
6318800. -0.3710766E-01 -0.2557910E+00  0.3973355E-02  0.2094633E+00 -0.8116046E-03  0.8367296E-01
6291000. -0.3526568E-01 -0.5918193E+00  0.2899302E-02  0.2785544E+00 -0.1159404E-02  0.7537573E-01
6291000. -0.3526568E-01 -0.5971916E+00  0.2899302E-02  0.2868870E+00 -0.1159404E-02  0.7537573E-01
6263000. -0.3185761E-01 -0.9538113E+00  0.1534231E-02  0.3287733E+00 -0.1468256E-02  0.6483223E-01
6235000. -0.2689810E-01 -0.1299292E+01  0.6035413E-04  0.3360248E+00 -0.1726449E-02  0.5236671E-01
6207000. -0.2048846E-01 -0.1609715E+01 -0.1367787E-02  0.3081848E+00 -0.1926171E-02  0.3827892E-01
6179000. -0.1283480E-01 -0.1861656E+01 -0.2601501E-02  0.2483457E+00 -0.2061069E-02  0.2293387E-01
6151000. -0.4241331E-02 -0.2034223E+01 -0.3512946E-02  0.1628209E+00 -0.2126535E-02  0.6757369E-02
6151000. -0.4241331E-02 -0.1671077E+01 -0.3512946E-02  0.1431692E+00 -0.2126535E-02  0.6992023E-02
6128500.  0.1726398E-02 -0.1700543E+01 -0.3892759E-02  0.7101917E-01 -0.2133094E-02 -0.3264873E-02
6106000.  0.7712496E-02 -0.1681383E+01 -0.4010811E-02 -0.4324615E-02 -0.2103659E-02 -0.1336543E-01
6083500.  0.1354540E-01 -0.1614024E+01 -0.3863710E-02 -0.7840415E-01 -0.2039054E-02 -0.2315758E-01
6061000.  0.1905858E-01 -0.1500885E+01 -0.3463561E-02 -0.1469439E+00 -0.1940622E-02 -0.3249910E-01
6038500.  0.2409744E-01 -0.1346264E+01 -0.2836897E-02 -0.2060851E+00 -0.1810190E-02 -0.4125897E-01
6016000.  0.2852552E-01 -0.1156101E+01 -0.2022839E-02 -0.2525878E+00 -0.1650024E-02 -0.4931894E-01
5993500.  0.3222983E-01 -0.9376872E+00 -0.1070619E-02 -0.2839886E+00 -0.1462784E-02 -0.5657532E-01
5971000.  0.3512502E-01 -0.6993213E+00 -0.3662021E-04 -0.2987164E+00 -0.1251471E-02 -0.6293838E-01
5971000.  0.3512502E-01 -0.6351382E+00 -0.3662021E-04 -0.2699409E+00 -0.1251471E-02 -0.6753655E-01
5937667.  0.3752195E-01 -0.2828282E+00  0.1347779E-02 -0.2542404E+00 -0.8769340E-03 -0.7525374E-01
5904333.  0.3812239E-01  0.4795516E-01  0.2576329E-02 -0.2114003E+00 -0.4679975E-03 -0.8068375E-01
5871000.  0.3709161E-01  0.3379630E+00  0.3524975E-02 -0.1485641E+00 -0.3656615E-04 -0.8386938E-01
5837667.  0.3468100E-01  0.5736398E+00  0.4110234E-02 -0.7387803E-01  0.4058583E-03 -0.8490520E-01
5804333.  0.3119727E-01  0.7473426E+00  0.4291667E-02  0.4486207E-02  0.8483710E-03 -0.8392247E-01
5771000.  0.2697256E-01  0.8570274E+00  0.4069906E-02  0.7910547E-01  0.1280789E-02 -0.8107975E-01
5771000.  0.2697256E-01  0.8570591E+00  0.4069906E-02  0.7910207E-01  0.1280789E-02 -0.8107975E-01
5701000.  0.1685348E-01  0.9446182E+00  0.2416305E-02  0.2132134E+00  0.2106583E-02 -0.6797959E-01
5701000.  0.1685348E-01  0.7931788E+00  0.2416305E-02  0.1651746E+00  0.2106583E-02 -0.7272998E-01
5667333.  0.1271721E-01  0.7667366E+00  0.1457867E-02  0.1952293E+00  0.2473074E-02 -0.6576533E-01
5633667.  0.8800506E-02  0.7115371E+00  0.3783047E-03  0.2109512E+00  0.2799537E-02 -0.5760998E-01
5600000.  0.5232420E-02  0.6362244E+00 -0.7464381E-03  0.2124151E+00  0.3080114E-02 -0.4842158E-01
5600000.  0.5232420E-02  0.6362224E+00 -0.7464381E-03  0.2124256E+00  0.3080114E-02 -0.4842158E-01
5563518.  0.1847715E-02  0.5437158E+00 -0.1947236E-02  0.2043710E+00  0.3326450E-02 -0.3745172E-01
5527037. -0.9787966E-03  0.4430261E+00 -0.3058192E-02  0.1812765E+00  0.3507376E-02 -0.2561793E-01
5490556. -0.3229746E-02  0.3443097E+00 -0.3998004E-02  0.1449860E+00  0.3618657E-02 -0.1316873E-01
5454074. -0.4943245E-02  0.2566821E+00 -0.4698690E-02  0.9827705E-01  0.3657499E-02 -0.3588382E-03
5417593. -0.6204858E-02  0.1875513E+00 -0.5110243E-02  0.4462926E-01  0.3622571E-02  0.1255439E-01
5381111. -0.7136534E-02  0.1420904E+00 -0.5203977E-02 -0.1206185E-01  0.3514007E-02  0.2531771E-01
5344630. -0.7882576E-02  0.1229412E+00 -0.4973995E-02 -0.6777256E-01  0.3333384E-02  0.3768367E-01
5308148. -0.8594888E-02  0.1300791E+00 -0.4437057E-02 -0.1186565E+00  0.3083645E-02  0.4941775E-01
5271667. -0.9417702E-02  0.1609105E+00 -0.3630875E-02 -0.1612999E+00  0.2769062E-02  0.6029980E-01
5235185. -0.1047375E-01  0.2105517E+00 -0.2610805E-02 -0.1929606E+00  0.2395078E-02  0.7013036E-01
5198704. -0.1185216E-01  0.2722701E+00 -0.1445691E-02 -0.2117290E+00  0.1968252E-02  0.7873191E-01
5162222. -0.1359971E-01  0.3380640E+00 -0.2125192E-03 -0.2166400E+00  0.1496046E-02  0.8595382E-01
5125741. -0.1571507E-01  0.3993030E+00  0.1008858E-02 -0.2077036E+00  0.9867483E-03  0.9167342E-01
5089259. -0.1814758E-01  0.4474333E+00  0.2141513E-02 -0.1858743E+00  0.4492128E-03  0.9579889E-01
5052778. -0.2079915E-01  0.4746351E+00  0.3116350E-02 -0.1529558E+00 -0.1072149E-03  0.9826986E-01
5016296. -0.2353081E-01  0.4744437E+00  0.3876783E-02 -0.1114456E+00 -0.6729959E-03  0.9905840E-01
4979815. -0.2617137E-01  0.4422531E+00  0.4381994E-02 -0.6435136E-01 -0.1238462E-02  0.9816851E-01
4943333. -0.2852981E-01  0.3756863E+00  0.4609371E-02 -0.1496276E-01 -0.1794119E-02  0.9563566E-01
4906852. -0.3040818E-01  0.2748206E+00  0.4555391E-02  0.3336684E-01 -0.2330701E-02  0.9152437E-01
4870370. -0.3161634E-01  0.1422133E+00  0.4235352E-02  0.7745727E-01 -0.2839451E-02  0.8592695E-01
4833889. -0.3198551E-01 -0.1720595E-01  0.3681822E-02  0.1144960E+00 -0.3312154E-02  0.7896058E-01
4797407. -0.3138131E-01 -0.1964405E+00  0.2941919E-02  0.1422220E+00 -0.3741382E-02  0.7076228E-01
4760926. -0.2971445E-01 -0.3868245E+00  0.2073897E-02  0.1590500E+00 -0.4120497E-02  0.6148858E-01
4724444. -0.2694855E-01 -0.5785927E+00  0.1142840E-02  0.1641586E+00 -0.4443839E-02  0.5130821E-01
4687963. -0.2310526E-01 -0.7614415E+00  0.2163644E-03  0.1575201E+00 -0.4706710E-02  0.4040080E-01
4651482. -0.1826485E-01 -0.9252136E+00 -0.6400686E-03  0.1398799E+00 -0.4905482E-02  0.2895100E-01
4615000. -0.1256385E-01 -0.1060506E+01 -0.1367316E-02  0.1126863E+00 -0.5037587E-02  0.1714496E-01
4578518. -0.6189325E-02 -0.1159249E+01 -0.1916243E-02  0.7798034E-01 -0.5101509E-02  0.5167702E-02
4542037.  0.6304550E-03 -0.1215229E+01 -0.2250773E-02  0.3825076E-01 -0.5096787E-02 -0.6801215E-02
4505556.  0.7638291E-02 -0.1224472E+01 -0.2349980E-02 -0.3738562E-02 -0.5023963E-02 -0.1859112E-01
4469074.  0.1456128E-01 -0.1185495E+01 -0.2209105E-02 -0.4512780E-01 -0.4884521E-02 -0.3004226E-01
4432593.  0.2112488E-01 -0.1099416E+01 -0.1839630E-02 -0.8313866E-01 -0.4680838E-02 -0.4100709E-01
4396111.  0.2706906E-01 -0.9698998E+00 -0.1268249E-02 -0.1152529E+00 -0.4416073E-02 -0.5135396E-01
4359630.  0.3216097E-01 -0.8029811E+00 -0.5350438E-03 -0.1393540E+00 -0.4094121E-02 -0.6096529E-01
4323148.  0.3620888E-01 -0.6066967E+00  0.3093198E-03 -0.1538541E+00 -0.3719469E-02 -0.6974190E-01
4286667.  0.3907135E-01 -0.3906814E+00  0.1206714E-02 -0.1577757E+00 -0.3297169E-02 -0.7759900E-01
4250185.  0.4066570E-01 -0.1655852E+00  0.2095378E-02 -0.1507985E+00 -0.2832660E-02 -0.8446998E-01
4213704.  0.4097163E-01  0.5746767E-01  0.2913526E-02 -0.1332654E+00 -0.2331771E-02 -0.9030266E-01
4177222.  0.4003238E-01  0.2675407E+00  0.3603246E-02 -0.1061460E+00 -0.1800534E-02 -0.9506026E-01
4140741.  0.3795203E-01  0.4544353E+00  0.4113746E-02 -0.7097063E-01 -0.1245204E-02 -0.9871951E-01
4104259.  0.3488932E-01  0.6092854E+00  0.4404413E-02 -0.2972314E-01 -0.6720799E-03 -0.1012693E+00
4067778.  0.3104920E-01  0.7249879E+00  0.4446978E-02  0.1527620E-01 -0.8754790E-04 -0.1027103E+00
4031296.  0.2667084E-01  0.7966096E+00  0.4227082E-02  0.6151974E-01  0.5020972E-03 -0.1030519E+00
3994815.  0.2201536E-01  0.8216060E+00  0.3744950E-02  0.1064498E+00  0.1090576E-02 -0.1023122E+00
3958333.  0.1735077E-01  0.7999518E+00  0.3015178E-02  0.1476148E+00  0.1671796E-02 -0.1005158E+00
3921852.  0.1293855E-01  0.7341127E+00  0.2065865E-02  0.1827934E+00  0.2239760E-02 -0.9769254E-01
3885370.  0.9018813E-02  0.6288828E+00  0.9367698E-03  0.2101226E+00  0.2788711E-02 -0.9387616E-01
3848889.  0.5798585E-02  0.4911178E+00 -0.3228151E-03  0.2281868E+00  0.3313038E-02 -0.8910337E-01
3812407.  0.3440330E-02  0.3293236E+00 -0.1657072E-02  0.2360863E+00  0.3807401E-02 -0.8341188E-01
3775926.  0.2054385E-02  0.1532231E+00 -0.3006458E-02  0.2334726E+00  0.4266622E-02 -0.7684013E-01
3739444.  0.1693084E-02 -0.2681227E-01 -0.4311185E-02  0.2205563E+00  0.4685791E-02 -0.6942482E-01
3702963.  0.2348824E-02 -0.2002761E+00 -0.5514072E-02  0.1980799E+00  0.5060158E-02 -0.6120118E-01
3666482.  0.3954830E-02 -0.3571090E+00 -0.6563695E-02  0.1672643E+00  0.5385196E-02 -0.5220009E-01
3630000.  0.6389305E-02 -0.4882090E+00 -0.7416799E-02  0.1297311E+00  0.5656537E-02 -0.4244719E-01
3630000.  0.6389305E-02 -0.4882028E+00 -0.7416799E-02  0.1297294E+00  0.5656537E-02 -0.4244719E-01
3592500.  0.9572546E-02 -0.5870007E+00 -0.8055777E-02  0.8663233E-01  0.5874977E-02 -0.3164263E-01
3555000.  0.1321748E-01 -0.6440888E+00 -0.8429991E-02  0.4015063E-01  0.6027470E-02 -0.2003914E-01
3517500.  0.1706335E-01 -0.6546811E+00 -0.8526456E-02 -0.7338763E-02  0.6109297E-02 -0.7628667E-02
3480000.  0.2082851E-01 -0.6165098E+00 -0.8346383E-02 -0.5341186E-01  0.6115645E-02  0.5612954E-02
3480000.  0.2082851E-01  0.1280795E+00 -0.2798282E-03  0.3864958E-01  0.6115645E-02 -0.5990498E-01
3409422.  0.1804756E-01  0.3652021E+00 -0.6926291E-03  0.3502750E-01  0.6783282E-02 -0.5695884E-01
3338844.  0.1297434E-01  0.5385049E+00 -0.1038632E-02  0.2674699E-01  0.7304697E-02 -0.3432550E-01
3268266.  0.6405632E-02  0.6338993E+00 -0.1272295E-02  0.1497238E-01  0.7491931E-02  0.2324156E-02
3197688. -0.7740720E-03  0.6494007E+00 -0.1362881E-02  0.1175322E-02  0.7225710E-02  0.4642062E-01
3127109. -0.7716624E-02  0.5931166E+00 -0.1296655E-02 -0.1308001E-01  0.6460214E-02  0.9141301E-01
3056531. -0.1370639E-01  0.4803984E+00 -0.1076836E-02 -0.2632658E-01  0.5218518E-02  0.1315308E+00
2985953. -0.1822351E-01  0.3306580E+00 -0.7216349E-03 -0.3734474E-01  0.3580623E-02  0.1623315E+00
2915375. -0.2097150E-01  0.1643588E+00 -0.2609328E-03 -0.4525971E-01  0.1666932E-02  0.1809937E+00
2844797. -0.2187444E-01  0.4897465E-03  0.2678449E-03 -0.4958733E-01 -0.3802540E-03  0.1863778E+00
2774219. -0.2104972E-01 -0.1452839E+00  0.8240773E-03 -0.5023064E-01 -0.2414759E-02  0.1788868E+00
2703641. -0.1876446E-01 -0.2617208E+00  0.1368032E-02 -0.4743742E-01 -0.4302150E-02  0.1601804E+00
2633062. -0.1538360E-01 -0.3423984E+00  0.1864321E-02 -0.4172912E-01 -0.5931660E-02  0.1328020E+00
2562484. -0.1131752E-01 -0.3854881E+00  0.2284429E-02 -0.3381380E-01 -0.7223685E-02  0.9977975E-01
2491906. -0.6974085E-02 -0.3931025E+00  0.2608319E-02 -0.2449566E-01 -0.8133125E-02  0.6424259E-01
2421328. -0.2720350E-02 -0.3703372E+00  0.2824990E-02 -0.1458898E-01 -0.8648554E-02  0.2909820E-01
2350750.  0.1144736E-02 -0.3242077E+00  0.2932165E-02 -0.4843859E-02 -0.8788375E-02 -0.3209952E-02
2280172.  0.4405576E-02 -0.2625784E+00  0.2935262E-02  0.4107304E-02 -0.8594741E-02 -0.3085415E-01
2209594.  0.6934074E-02 -0.1932422E+00  0.2845884E-02  0.1178571E-01 -0.8126322E-02 -0.5268424E-01
2139016.  0.8684538E-02 -0.1231810E+00  0.2680002E-02  0.1788166E-01 -0.7450816E-02 -0.6821130E-01
2068438.  0.9681760E-02 -0.5807143E-01  0.2456086E-02  0.2225277E-01 -0.6638014E-02 -0.7753003E-01
1997859.  0.1000475E-01 -0.2001209E-02  0.2193319E-02  0.2490721E-01 -0.5753946E-02 -0.8119984E-01
1927281.  0.9768786E-02  0.4256242E-01  0.1910104E-02  0.2597605E-01 -0.4856553E-02 -0.8010466E-01
1856703.  0.9107871E-02  0.7467475E-01  0.1622833E-02  0.2568208E-01 -0.3992809E-02 -0.7531099E-01
1786125.  0.8159230E-02  0.9464896E-01  0.1345094E-02  0.2430473E-01 -0.3197481E-02 -0.6793752E-01
1715547.  0.7051073E-02  0.1037438E+00  0.1087216E-02  0.2214769E-01 -0.2493165E-02 -0.5904806E-01
1644969.  0.5894054E-02  0.1038091E+00  0.8561533E-03  0.1951228E-01 -0.1891353E-02 -0.4957237E-01
1574391.  0.4776687E-02  0.9693598E-01  0.6556341E-03  0.1667728E-01 -0.1394219E-02 -0.4025752E-01
1503812.  0.3764488E-02  0.8513079E-01  0.4864736E-03  0.1388862E-01 -0.9967793E-03 -0.3164580E-01
1433234.  0.2902708E-02  0.6999838E-01  0.3469457E-03  0.1136203E-01 -0.6892011E-03 -0.2407479E-01
1362656.  0.2222649E-02  0.5237301E-01  0.2330126E-03  0.9303459E-02 -0.4589856E-03 -0.1768704E-01
1292078.  0.1753170E-02  0.3173169E-01  0.1381816E-03  0.7964019E-02 -0.2931044E-03 -0.1243567E-01
1221500.  0.1541620E-02  0.4956624E-02  0.5239370E-04  0.7767746E-02 -0.1802209E-03 -0.8050187E-02
1221500.  0.1541620E-02 -0.6387913E-02  0.3073315E-04 -0.7880360E-02 -0.1802209E-03 -0.8718023E-02
1183328.  0.1486669E-02  0.2548557E-01  0.7999179E-04 -0.8225963E-02 -0.1341864E-03 -0.6722045E-02
1145156.  0.1233461E-02  0.5874200E-01  0.1255449E-03 -0.6700852E-02 -0.9886588E-04 -0.5129249E-02
1106984.  0.7921829E-03  0.8731642E-01  0.1575315E-03 -0.3802802E-02 -0.7205554E-04 -0.3870682E-02
1068812.  0.2064517E-03  0.1062856E+00  0.1697781E-03 -0.2377392E-03 -0.5193476E-04 -0.2887105E-02
1030641. -0.4561989E-03  0.1126979E+00  0.1605446E-03  0.3248481E-02 -0.3701255E-04 -0.2127673E-02
 992469. -0.1117568E-02  0.1059473E+00  0.1322833E-03  0.6024744E-02 -0.2607898E-04 -0.1548865E-02
 954297. -0.1702627E-02  0.8766039E-01  0.9060036E-04  0.7682664E-02 -0.1816599E-04 -0.1113736E-02
 916125. -0.2151584E-02  0.6117697E-01  0.4274905E-04  0.8083051E-02 -0.1250852E-04 -0.7912351E-03
 877953. -0.2427882E-02  0.3077120E-01 -0.3962259E-05  0.7339261E-02 -0.8511592E-05 -0.5555415E-03
 839781. -0.2521234E-02  0.7997245E-03 -0.4350721E-04  0.5751984E-02 -0.5720400E-05 -0.3856164E-03
 801609. -0.2445787E-02 -0.2504559E-01 -0.7199441E-04  0.3716987E-02 -0.3793159E-05 -0.2646687E-03
 763438. -0.2234470E-02 -0.4425199E-01 -0.8795228E-04  0.1631744E-02 -0.2477508E-05 -0.1795587E-03
 725266. -0.1931089E-02 -0.5570590E-01 -0.9209886E-04 -0.1810689E-03 -0.1590096E-05 -0.1202755E-03
 687094. -0.1582072E-02 -0.5961769E-01 -0.8674222E-04 -0.1517464E-02 -0.9995508E-06 -0.7940271E-04
 648922. -0.1229307E-02 -0.5722860E-01 -0.7502061E-04 -0.2303689E-02 -0.6128272E-06 -0.5147515E-04
 610750. -0.9051966E-03 -0.5038754E-01 -0.6016362E-04 -0.2578043E-02 -0.3646203E-06 -0.3262669E-04
 572578. -0.6303577E-03 -0.4111041E-01 -0.4492407E-04 -0.2454452E-02 -0.2092511E-06 -0.2010244E-04
 534406. -0.4137795E-03 -0.3121016E-01 -0.3125181E-04 -0.2080035E-02 -0.1150079E-06 -0.1195288E-04
 496234. -0.2548387E-03 -0.2205442E-01 -0.2021249E-04 -0.1597396E-02 -0.6004093E-07 -0.6801157E-05
 458062. -0.1463297E-03 -0.1446809E-01 -0.1209898E-04 -0.1118749E-02 -0.2948396E-07 -0.3668191E-05
 419891. -0.7768175E-04 -0.8764070E-02 -0.6655339E-05 -0.7143518E-03 -0.1345969E-07 -0.1853426E-05
 381719. -0.3769907E-04 -0.4860584E-02 -0.3329698E-05 -0.4136527E-03 -0.5629618E-08 -0.8654412E-06
 343547. -0.1647393E-04 -0.2437840E-02 -0.1493459E-05 -0.2150011E-03 -0.2117417E-08 -0.3669308E-06
 305375. -0.6348521E-05 -0.1086396E-02 -0.5884776E-06 -0.9869120E-04 -0.6988061E-09 -0.1381028E-06
 267203. -0.2094819E-05 -0.4193065E-03 -0.1978738E-06 -0.3903671E-04 -0.1955651E-09 -0.4473164E-07
 229031. -0.5666811E-06 -0.1349199E-03 -0.5437942E-07 -0.1281685E-04 -0.4417819E-10 -0.1191994E-07
 190859. -0.1174525E-06 -0.3409325E-04 -0.1141807E-07 -0.3292152E-05 -0.7467231E-11 -0.2440904E-08
 152688. -0.1664949E-07 -0.6117912E-05 -0.1635436E-08 -0.5984547E-06 -0.8316901E-12 -0.3425479E-09
 114516. -0.1304056E-08 -0.6450886E-06 -0.1291118E-09 -0.6372365E-07 -0.4812582E-13 -0.2659041E-10
  76344. -0.3495553E-10 -0.2611386E-07 -0.3480213E-11 -0.2597348E-08 -0.8494501E-15 -0.7069728E-12
  38172. -0.6950806E-13 -0.1042701E-09 -0.6943179E-14 -0.1041303E-10 -0.8362926E-18 -0.1394402E-14
      0.  0.0000000E+00  0.0000000E+00  0.0000000E+00  0.0000000E+00  0.0000000E+00  0.0000000E+00
