       5       32 S      348        123.63800          9.96213          6.33583        241.83560      185    7
6371000. -0.1525599E-01  0.1137214E+01  0.2711089E-02  0.1796708E-01 -0.9899840E-03  0.6143869E-01
6370000. -0.1543379E-01  0.1128283E+01  0.2708009E-02  0.2127703E-01 -0.9996011E-03  0.6110206E-01
6369000. -0.1561016E-01  0.1118889E+01  0.2704410E-02  0.2458074E-01 -0.1009165E-02  0.6076506E-01
6368000. -0.1578501E-01  0.1109035E+01  0.2700293E-02  0.2787749E-01 -0.1018677E-02  0.6042770E-01
6368000. -0.1578501E-01  0.1109035E+01  0.2700293E-02  0.2787749E-01 -0.1018677E-02  0.6042770E-01
6367000. -0.1595828E-01  0.1098720E+01  0.2695659E-02  0.3116656E-01 -0.1028135E-02  0.6009002E-01
6366000. -0.1612990E-01  0.1087947E+01  0.2690509E-02  0.3444723E-01 -0.1037540E-02  0.5975202E-01
6365000. -0.1629979E-01  0.1076716E+01  0.2684846E-02  0.3771878E-01 -0.1046892E-02  0.5941374E-01
6364000. -0.1646788E-01  0.1065031E+01  0.2678669E-02  0.4098050E-01 -0.1056192E-02  0.5907518E-01
6363000. -0.1663410E-01  0.1052892E+01  0.2671981E-02  0.4423168E-01 -0.1065437E-02  0.5873637E-01
6362000. -0.1679838E-01  0.1040301E+01  0.2664784E-02  0.4747160E-01 -0.1074630E-02  0.5839732E-01
6361000. -0.1696065E-01  0.1027261E+01  0.2657080E-02  0.5069955E-01 -0.1083770E-02  0.5805806E-01
6360000. -0.1712084E-01  0.1013774E+01  0.2648869E-02  0.5391484E-01 -0.1092856E-02  0.5771860E-01
6359000. -0.1727888E-01  0.9998410E+00  0.2640155E-02  0.5711676E-01 -0.1101889E-02  0.5737897E-01
6358000. -0.1743469E-01  0.9854653E+00  0.2630940E-02  0.6030461E-01 -0.1110868E-02  0.5703919E-01
6357000. -0.1758821E-01  0.9706491E+00  0.2621225E-02  0.6347769E-01 -0.1119795E-02  0.5669926E-01
6356000. -0.1773938E-01  0.9553951E+00  0.2611013E-02  0.6663532E-01 -0.1128667E-02  0.5635923E-01
6356000. -0.1773938E-01  0.8684822E+00  0.2611013E-02  0.4830681E-01 -0.1128667E-02  0.6021911E-01
6355000. -0.1787486E-01  0.8578566E+00  0.2603290E-02  0.5010649E-01 -0.1138086E-02  0.5978880E-01
6354000. -0.1800866E-01  0.8469859E+00  0.2595284E-02  0.5189831E-01 -0.1147437E-02  0.5935894E-01
6353000. -0.1814074E-01  0.8358716E+00  0.2586998E-02  0.5368201E-01 -0.1156720E-02  0.5892955E-01
6352000. -0.1827105E-01  0.8245149E+00  0.2578433E-02  0.5545737E-01 -0.1165936E-02  0.5850063E-01
6351000. -0.1839956E-01  0.8129172E+00  0.2569589E-02  0.5722413E-01 -0.1175085E-02  0.5807221E-01
6350000. -0.1852623E-01  0.8010798E+00  0.2560469E-02  0.5898207E-01 -0.1184166E-02  0.5764427E-01
6349000. -0.1865103E-01  0.7890041E+00  0.2551074E-02  0.6073094E-01 -0.1193181E-02  0.5721684E-01
6348000. -0.1877390E-01  0.7766917E+00  0.2541405E-02  0.6247051E-01 -0.1202128E-02  0.5678992E-01
6347000. -0.1889483E-01  0.7641440E+00  0.2531464E-02  0.6420054E-01 -0.1211008E-02  0.5636353E-01
6346600. -0.1894265E-01  0.7590594E+00  0.2527411E-02  0.6488983E-01 -0.1214542E-02  0.5619312E-01
6346600. -0.1894265E-01  0.9777722E+00  0.2527411E-02  0.5081137E-01 -0.1214542E-02  0.6279815E-01
6318800. -0.2256038E-01  0.6609195E+00  0.2245178E-02  0.7764029E-01 -0.1461918E-02  0.5070771E-01
6291000. -0.2455839E-01  0.2398167E+00  0.1859167E-02  0.9807439E-01 -0.1658079E-02  0.3931092E-01
6291000. -0.2455839E-01  0.2576512E+00  0.1859167E-02  0.1005384E+00 -0.1658079E-02  0.3931092E-01
6263000. -0.2458162E-01 -0.2569574E+00  0.1384409E-02  0.1139597E+00 -0.1807177E-02  0.2863321E-01
6235000. -0.2224564E-01 -0.8083083E+00  0.8717012E-03  0.1177018E+00 -0.1910541E-02  0.1848967E-01
6207000. -0.1749297E-01 -0.1348528E+01  0.3643600E-03  0.1115544E+00 -0.1970417E-02  0.8837735E-02
6179000. -0.1048049E-01 -0.1828660E+01 -0.9526363E-04  0.9616492E-01 -0.1988920E-02 -0.3375054E-03
6151000. -0.1574758E-02 -0.2202971E+01 -0.4694755E-03  0.7299145E-01 -0.1968177E-02 -0.9015665E-02
6151000. -0.1574758E-02 -0.1816612E+01 -0.4694755E-03  0.6428533E-01 -0.1968177E-02 -0.8928541E-02
6128500.  0.5105584E-02 -0.1953833E+01 -0.6631236E-03  0.4507395E-01 -0.1930500E-02 -0.1231252E-01
6106000.  0.1213179E-01 -0.2011666E+01 -0.7862978E-03  0.2454863E-01 -0.1881888E-02 -0.1512131E-01
6083500.  0.1921711E-01 -0.1987149E+01 -0.8361969E-03  0.3749485E-02 -0.1824367E-02 -0.1735887E-01
6061000.  0.2607122E-01 -0.1881205E+01 -0.8136500E-03 -0.1631537E-01 -0.1759942E-02 -0.1903277E-01
6038500.  0.3241376E-01 -0.1698503E+01 -0.7229238E-03 -0.3471453E-01 -0.1690586E-02 -0.2015284E-01
6016000.  0.3798695E-01 -0.1447113E+01 -0.5713798E-03 -0.5063270E-01 -0.1618236E-02 -0.2073054E-01
5993500.  0.4256687E-01 -0.1138043E+01 -0.3690068E-03 -0.6340176E-01 -0.1544785E-02 -0.2077873E-01
5971000.  0.4597287E-01 -0.7846816E+00 -0.1278586E-03 -0.7252341E-01 -0.1472081E-02 -0.2030861E-01
5971000.  0.4597287E-01 -0.7175520E+00 -0.1278586E-03 -0.6995274E-01 -0.1472081E-02 -0.2632685E-01
5937667.  0.4830555E-01 -0.1727931E+00  0.2535027E-03 -0.7452073E-01 -0.1337322E-02 -0.2505093E-01
5904333.  0.4780474E-01  0.3585721E+00  0.6391807E-03 -0.7179131E-01 -0.1211139E-02 -0.2308945E-01
5871000.  0.4464326E-01  0.8387069E+00  0.9943661E-03 -0.6312381E-01 -0.1096488E-02 -0.2068130E-01
5837667.  0.3916812E-01  0.1239052E+01  0.1292160E-02 -0.5013065E-01 -0.9951538E-03 -0.1802907E-01
5804333.  0.3184967E-01  0.1540944E+01  0.1514290E-02 -0.3446889E-01 -0.9079805E-03 -0.1528916E-01
5771000.  0.2323140E-01  0.1735231E+01  0.1650901E-02 -0.1768365E-01 -0.8351287E-03 -0.1256907E-01
5771000.  0.2323140E-01  0.1735341E+01  0.1650901E-02 -0.1768385E-01 -0.8351287E-03 -0.1256907E-01
5701000.  0.3041335E-02  0.1859473E+01  0.1642617E-02  0.1926328E-01 -0.7367854E-03 -0.5107479E-02
5701000.  0.3041335E-02  0.1626007E+01  0.1642617E-02  0.1490203E-01 -0.7367854E-03 -0.5964722E-02
5667333. -0.5323756E-02  0.1529634E+01  0.1538937E-02  0.2404876E-01 -0.7048697E-03 -0.6135849E-02
5633667. -0.1303002E-01  0.1378795E+01  0.1391664E-02  0.3137541E-01 -0.6716948E-03 -0.6445635E-02
5600000. -0.1982289E-01  0.1185986E+01  0.1210694E-02  0.3679924E-01 -0.6364879E-03 -0.6903865E-02
5600000. -0.1982289E-01  0.1186031E+01  0.1210694E-02  0.3679986E-01 -0.6364879E-03 -0.6903865E-02
5563518. -0.2598827E-01  0.9611443E+00  0.9866594E-03  0.4117593E-01 -0.5955255E-03 -0.7367691E-02
5527037. -0.3076924E-01  0.7044203E+00  0.7423343E-03  0.4387862E-01 -0.5524575E-03 -0.7648737E-02
5490556. -0.3401646E-01  0.4273714E+00  0.4873848E-03  0.4489112E-01 -0.5081912E-03 -0.7792605E-02
5454074. -0.3564682E-01  0.1415649E+00  0.2313304E-03  0.4427926E-01 -0.4634128E-03 -0.7831592E-02
5417593. -0.3564228E-01 -0.1418655E+00 -0.1687281E-04  0.4217906E-01 -0.4186600E-03 -0.7787033E-02
5381111. -0.3404618E-01 -0.4127181E+00 -0.2492409E-03  0.3878180E-01 -0.3743643E-03 -0.7673484E-02
5344630. -0.3095698E-01 -0.6620238E+00 -0.4589810E-03  0.3431881E-01 -0.3308939E-03 -0.7500471E-02
5308148. -0.2651989E-01 -0.8823677E+00 -0.6407244E-03  0.2904510E-01 -0.2885674E-03 -0.7274473E-02
5271667. -0.2091832E-01 -0.1067989E+01 -0.7905758E-03  0.2322555E-01 -0.2476768E-03 -0.7000065E-02
5235185. -0.1436299E-01 -0.1214914E+01 -0.9061685E-03  0.1712066E-01 -0.2084852E-03 -0.6681352E-02
5198704. -0.7083120E-02 -0.1320894E+01 -0.9865756E-03  0.1097630E-01 -0.1712370E-03 -0.6322370E-02
5162222.  0.6848502E-03 -0.1385357E+01 -0.1032222E-02  0.5013406E-02 -0.1361477E-03 -0.5927777E-02
5125741.  0.8704744E-02 -0.1409233E+01 -0.1044705E-02 -0.5774552E-03 -0.1034086E-03 -0.5502789E-02
5089259.  0.1675048E-01 -0.1394778E+01 -0.1026617E-02 -0.5641720E-02 -0.7317533E-04 -0.5053260E-02
5052778.  0.2461125E-01 -0.1345344E+01 -0.9813278E-03 -0.1006179E-01 -0.4557158E-04 -0.4585796E-02
5016296.  0.3209887E-01 -0.1265130E+01 -0.9127695E-03 -0.1375837E-01 -0.2067895E-04 -0.4107220E-02
4979815.  0.3905024E-01 -0.1158949E+01 -0.8252299E-03 -0.1668782E-01  0.1457488E-05 -0.3624590E-02
4943333.  0.4533171E-01 -0.1031965E+01 -0.7231402E-03 -0.1884025E-01  0.2083731E-04 -0.3145334E-02
4906852.  0.5083901E-01 -0.8894957E+00 -0.6109142E-03 -0.2023456E-01  0.3749656E-04 -0.2675563E-02
4870370.  0.5549886E-01 -0.7367778E+00 -0.4927718E-03 -0.2091471E-01  0.5150959E-04 -0.2222075E-02
4833889.  0.5926680E-01 -0.5788171E+00 -0.3726342E-03 -0.2094451E-01  0.6298700E-04 -0.1790805E-02
4797407.  0.6212643E-01 -0.4202267E+00 -0.2540022E-03 -0.2040152E-01  0.7206758E-04 -0.1385513E-02
4760926.  0.6408607E-01 -0.2651387E+00 -0.1399153E-03 -0.1937333E-01  0.7891311E-04 -0.1010901E-02
4724444.  0.6517632E-01 -0.1170943E+00 -0.3288149E-04 -0.1795255E-01  0.8370839E-04 -0.6696853E-03
4687963.  0.6544618E-01  0.2096464E-01  0.6511215E-04 -0.1623218E-01  0.8664994E-04 -0.3637729E-03
4651482.  0.6495970E-01  0.1467456E+00  0.1526137E-03 -0.1430253E-01  0.8794451E-04 -0.9452137E-04
4615000.  0.6379224E-01  0.2585827E+00  0.2286719E-03 -0.1224804E-01  0.8780238E-04  0.1380431E-03
4578518.  0.6202700E-01  0.3554024E+00  0.2927936E-03 -0.1014550E-01  0.8643347E-04  0.3341379E-03
4542037.  0.5975176E-01  0.4366867E+00  0.3448996E-03 -0.8062142E-02  0.8404187E-04  0.4955556E-03
4505556.  0.5705572E-01  0.5024167E+00  0.3852682E-03 -0.6054452E-02  0.8082187E-04  0.6237924E-03
4469074.  0.5402688E-01  0.5529988E+00  0.4144704E-03 -0.4168377E-02  0.7695687E-04  0.7212108E-03
4432593.  0.5075011E-01  0.5891917E+00  0.4333064E-03 -0.2439057E-02  0.7261708E-04  0.7900114E-03
4396111.  0.4730476E-01  0.6120408E+00  0.4427508E-03 -0.8912974E-03  0.6795961E-04  0.8326962E-03
4359630.  0.4376394E-01  0.6227992E+00  0.4438907E-03  0.4595184E-03  0.6312366E-04  0.8528148E-03
4323148.  0.4019271E-01  0.6228632E+00  0.4378787E-03  0.1606189E-02  0.5823284E-04  0.8522428E-03
4286667.  0.3664832E-01  0.6137138E+00  0.4258852E-03  0.2549411E-02  0.5339667E-04  0.8342372E-03
4250185.  0.3317901E-01  0.5968534E+00  0.4090594E-03  0.3295292E-02  0.4870873E-04  0.8007276E-03
4213704.  0.2982486E-01  0.5737698E+00  0.3885020E-03  0.3855144E-02  0.4425214E-04  0.7538298E-03
4177222.  0.2661719E-01  0.5458880E+00  0.3652367E-03  0.4243563E-02  0.4009791E-04  0.6952859E-03
4140741.  0.2357978E-01  0.5145513E+00  0.3401975E-03  0.4477999E-02  0.3631001E-04  0.6260903E-03
4104259.  0.2072865E-01  0.4809881E+00  0.3142113E-03  0.4577303E-02  0.3294641E-04  0.5470897E-03
4067778.  0.1807349E-01  0.4463057E+00  0.2879980E-03  0.4560833E-02  0.3006413E-04  0.4579196E-03
4031296.  0.1561771E-01  0.4114771E+00  0.2621628E-03  0.4448201E-02  0.2772289E-04  0.3578959E-03
3994815.  0.1335980E-01  0.3773423E+00  0.2372031E-03  0.4258391E-02  0.2598978E-04  0.2451124E-03
3958333.  0.1129360E-01  0.3446046E+00  0.2135068E-03  0.4009699E-02  0.2494592E-04  0.1165681E-03
3921852.  0.9409519E-02  0.3138388E+00  0.1913621E-03  0.3719449E-02  0.2469285E-04 -0.3193671E-04
3885370.  0.7694814E-02  0.2854911E+00  0.1709582E-03  0.3404270E-02  0.2536136E-04 -0.2064812E-03
3848889.  0.6134744E-02  0.2598885E+00  0.1523914E-03  0.3080686E-02  0.2712258E-04 -0.4151517E-03
3812407.  0.4712876E-02  0.2372283E+00  0.1356612E-03  0.2765573E-02  0.3020139E-04 -0.6687000E-03
3775926.  0.3412185E-02  0.2175764E+00  0.1206676E-03  0.2477660E-02  0.3489288E-04 -0.9810952E-03
3739444.  0.2215556E-02  0.2008395E+00  0.1071919E-03  0.2239444E-02  0.4158386E-04 -0.1370417E-02
3702963.  0.1107094E-02  0.1867233E+00  0.9487109E-04  0.2080001E-02  0.5077801E-04 -0.1859798E-02
3666482.  0.7324827E-04  0.1746523E+00  0.8314603E-04  0.2039208E-02  0.6312923E-04 -0.2478592E-02
3630000. -0.8951357E-03  0.1636424E+00  0.7118401E-04  0.2173983E-02  0.7948076E-04 -0.3263702E-02
3630000. -0.8951357E-03  0.1636415E+00  0.7118401E-04  0.2173977E-02  0.7948076E-04 -0.3263702E-02
3592500. -0.1825638E-02  0.1522325E+00  0.5732864E-04  0.2590847E-02  0.1015823E-03 -0.4286050E-02
3555000. -0.2680510E-02  0.1373487E+00  0.3986575E-04  0.3427253E-02  0.1304682E-03 -0.5579651E-02
3517500. -0.3426981E-02  0.1144651E+00  0.1576405E-04  0.4888271E-02  0.1679331E-03 -0.7213293E-02
3480000. -0.3998627E-02  0.7648076E-01 -0.1950451E-04  0.7284768E-02  0.2161996E-03 -0.9262844E-02
3480000. -0.3998627E-02 -0.1621490E+00 -0.1640849E-03 -0.7017236E-02  0.2161996E-03  0.3315192E-02
3409422. -0.2520513E-02 -0.1077625E+00 -0.1010651E-03 -0.4519900E-02  0.1689525E-03  0.4712777E-02
3338844. -0.1550976E-02 -0.6964469E-01 -0.6092015E-04 -0.2842787E-02  0.1186429E-03  0.4201358E-02
3268266. -0.9321149E-03 -0.4382695E-01 -0.3594128E-04 -0.1746811E-02  0.7771017E-04  0.3164958E-02
3197688. -0.5472788E-03 -0.2687977E-01 -0.2075357E-04 -0.1049004E-02  0.4832245E-04  0.2169926E-02
3127109. -0.3139596E-03 -0.1607707E-01 -0.1172739E-04 -0.6157540E-03  0.2880159E-04  0.1394962E-02
3056531. -0.1759793E-03 -0.9381081E-02 -0.6483766E-05 -0.3533047E-03  0.1654737E-04  0.8533604E-03
2985953. -0.9636096E-04 -0.5341105E-02 -0.3506104E-05 -0.1981289E-03  0.9195467E-05  0.5008515E-03
2915375. -0.5153115E-04 -0.2967122E-02 -0.1853571E-05 -0.1085662E-03  0.4952967E-05  0.2833964E-03
2844797. -0.2690259E-04 -0.1608012E-02 -0.9575351E-06 -0.5810748E-04  0.2589077E-05  0.1550474E-03
2774219. -0.1370407E-04 -0.8498703E-03 -0.4830503E-06 -0.3036352E-04  0.1314300E-05  0.8216463E-04
2703641. -0.6807112E-05 -0.4378486E-03 -0.2377989E-06 -0.1548090E-04  0.6480465E-06  0.4221634E-04
2633062. -0.3294616E-05 -0.2197553E-03 -0.1141421E-06 -0.7695772E-05  0.3103264E-06  0.2103924E-04
2562484. -0.1552415E-05 -0.1073716E-03 -0.5337091E-07 -0.3727105E-05  0.1442662E-06  0.1017053E-04
2491906. -0.7114377E-06 -0.5102611E-04 -0.2428432E-07 -0.1756860E-05  0.6506632E-07  0.4767313E-05
2421328. -0.3167407E-06 -0.2356188E-04 -0.1073989E-07 -0.8051566E-06  0.2844567E-07  0.2165476E-05
2350750. -0.1368229E-06 -0.1055939E-04 -0.4610612E-08 -0.3583222E-06  0.1204136E-07  0.9523705E-06
2280172. -0.5726433E-07 -0.4586781E-05 -0.1918526E-08 -0.1546405E-06  0.4929206E-08  0.4050910E-06
2209594. -0.2318408E-07 -0.1928285E-05 -0.7725419E-09 -0.6461948E-07  0.1948367E-08  0.1664232E-06
2139016. -0.9063675E-08 -0.7832518E-06 -0.3004950E-09 -0.2610060E-07  0.7423554E-09  0.6593377E-07
2068438. -0.3414803E-08 -0.3068189E-06 -0.1126783E-09 -0.1017075E-07  0.2721148E-09  0.2514469E-07
1997859. -0.1237097E-08 -0.1156618E-06 -0.4063976E-10 -0.3815350E-08  0.9574704E-10  0.9211298E-08
1927281. -0.4298861E-09 -0.4186072E-07 -0.1406354E-10 -0.1374565E-08  0.3225965E-10  0.3233823E-08
1856703. -0.1428892E-09 -0.1450672E-07 -0.4656378E-11 -0.4743206E-09  0.1037826E-10  0.1085077E-08
1786125. -0.4528802E-10 -0.4799245E-08 -0.1470435E-11 -0.1562937E-09  0.3177881E-11  0.3469214E-09
1715547. -0.1363874E-10 -0.1510581E-08 -0.4413144E-12 -0.4901099E-10  0.9228555E-12  0.1053243E-09
1644969. -0.3887340E-11 -0.4506094E-09 -0.1253731E-12 -0.1457023E-10  0.2531184E-12  0.3024549E-10
1574391. -0.1044381E-11 -0.1267694E-09 -0.3354575E-13 -0.4090530E-11  0.6523109E-13  0.8183219E-11
1503812.  0.0000000E+00  0.0000000E+00  0.0000000E+00  0.0000000E+00  0.0000000E+00  0.0000000E+00
1433234.  0.0000000E+00  0.0000000E+00  0.0000000E+00  0.0000000E+00  0.0000000E+00  0.0000000E+00
1362656.  0.0000000E+00  0.0000000E+00  0.0000000E+00  0.0000000E+00  0.0000000E+00  0.0000000E+00
1292078.  0.0000000E+00  0.0000000E+00  0.0000000E+00  0.0000000E+00  0.0000000E+00  0.0000000E+00
1221500.  0.0000000E+00  0.0000000E+00  0.0000000E+00  0.0000000E+00  0.0000000E+00  0.0000000E+00
1221500.  0.0000000E+00  0.0000000E+00  0.0000000E+00  0.0000000E+00  0.0000000E+00  0.0000000E+00
1183328.  0.0000000E+00  0.0000000E+00  0.0000000E+00  0.0000000E+00  0.0000000E+00  0.0000000E+00
1145156.  0.0000000E+00  0.0000000E+00  0.0000000E+00  0.0000000E+00  0.0000000E+00  0.0000000E+00
1106984.  0.0000000E+00  0.0000000E+00  0.0000000E+00  0.0000000E+00  0.0000000E+00  0.0000000E+00
1068812.  0.0000000E+00  0.0000000E+00  0.0000000E+00  0.0000000E+00  0.0000000E+00  0.0000000E+00
1030641.  0.0000000E+00  0.0000000E+00  0.0000000E+00  0.0000000E+00  0.0000000E+00  0.0000000E+00
 992469.  0.0000000E+00  0.0000000E+00  0.0000000E+00  0.0000000E+00  0.0000000E+00  0.0000000E+00
 954297.  0.0000000E+00  0.0000000E+00  0.0000000E+00  0.0000000E+00  0.0000000E+00  0.0000000E+00
 916125.  0.0000000E+00  0.0000000E+00  0.0000000E+00  0.0000000E+00  0.0000000E+00  0.0000000E+00
 877953.  0.0000000E+00  0.0000000E+00  0.0000000E+00  0.0000000E+00  0.0000000E+00  0.0000000E+00
 839781.  0.0000000E+00  0.0000000E+00  0.0000000E+00  0.0000000E+00  0.0000000E+00  0.0000000E+00
 801609.  0.0000000E+00  0.0000000E+00  0.0000000E+00  0.0000000E+00  0.0000000E+00  0.0000000E+00
 763438.  0.0000000E+00  0.0000000E+00  0.0000000E+00  0.0000000E+00  0.0000000E+00  0.0000000E+00
 725266.  0.0000000E+00  0.0000000E+00  0.0000000E+00  0.0000000E+00  0.0000000E+00  0.0000000E+00
 687094.  0.0000000E+00  0.0000000E+00  0.0000000E+00  0.0000000E+00  0.0000000E+00  0.0000000E+00
 648922.  0.0000000E+00  0.0000000E+00  0.0000000E+00  0.0000000E+00  0.0000000E+00  0.0000000E+00
 610750.  0.0000000E+00  0.0000000E+00  0.0000000E+00  0.0000000E+00  0.0000000E+00  0.0000000E+00
 572578.  0.0000000E+00  0.0000000E+00  0.0000000E+00  0.0000000E+00  0.0000000E+00  0.0000000E+00
 534406.  0.0000000E+00  0.0000000E+00  0.0000000E+00  0.0000000E+00  0.0000000E+00  0.0000000E+00
 496234.  0.0000000E+00  0.0000000E+00  0.0000000E+00  0.0000000E+00  0.0000000E+00  0.0000000E+00
 458062.  0.0000000E+00  0.0000000E+00  0.0000000E+00  0.0000000E+00  0.0000000E+00  0.0000000E+00
 419891.  0.0000000E+00  0.0000000E+00  0.0000000E+00  0.0000000E+00  0.0000000E+00  0.0000000E+00
 381719.  0.0000000E+00  0.0000000E+00  0.0000000E+00  0.0000000E+00  0.0000000E+00  0.0000000E+00
 343547.  0.0000000E+00  0.0000000E+00  0.0000000E+00  0.0000000E+00  0.0000000E+00  0.0000000E+00
 305375.  0.0000000E+00  0.0000000E+00  0.0000000E+00  0.0000000E+00  0.0000000E+00  0.0000000E+00
 267203.  0.0000000E+00  0.0000000E+00  0.0000000E+00  0.0000000E+00  0.0000000E+00  0.0000000E+00
 229031.  0.0000000E+00  0.0000000E+00  0.0000000E+00  0.0000000E+00  0.0000000E+00  0.0000000E+00
 190859.  0.0000000E+00  0.0000000E+00  0.0000000E+00  0.0000000E+00  0.0000000E+00  0.0000000E+00
 152688.  0.0000000E+00  0.0000000E+00  0.0000000E+00  0.0000000E+00  0.0000000E+00  0.0000000E+00
 114516.  0.0000000E+00  0.0000000E+00  0.0000000E+00  0.0000000E+00  0.0000000E+00  0.0000000E+00
  76344.  0.0000000E+00  0.0000000E+00  0.0000000E+00  0.0000000E+00  0.0000000E+00  0.0000000E+00
  38172.  0.0000000E+00  0.0000000E+00  0.0000000E+00  0.0000000E+00  0.0000000E+00  0.0000000E+00
      0.  0.0000000E+00  0.0000000E+00  0.0000000E+00  0.0000000E+00  0.0000000E+00  0.0000000E+00
