       6       14 S      375        185.00121         14.92261          7.36947        259.31589      185    7
6371000. -0.4580444E-01 -0.4614345E+00 -0.6024669E-02  0.3977977E-01  0.1403314E-02  0.6532674E-01
6370000. -0.4573119E-01 -0.4719367E+00 -0.6030611E-02  0.3592427E-01  0.1393046E-02  0.6551066E-01
6369000. -0.4565629E-01 -0.4823380E+00 -0.6035946E-02  0.3206052E-01  0.1382749E-02  0.6569231E-01
6368000. -0.4557978E-01 -0.4926377E+00 -0.6040675E-02  0.2818893E-01  0.1372424E-02  0.6587169E-01
6368000. -0.4557978E-01 -0.4926377E+00 -0.6040675E-02  0.2818893E-01  0.1372424E-02  0.6587169E-01
6367000. -0.4550165E-01 -0.5028354E+00 -0.6044795E-02  0.2430990E-01  0.1362071E-02  0.6604881E-01
6366000. -0.4542193E-01 -0.5129305E+00 -0.6048306E-02  0.2042384E-01  0.1351690E-02  0.6622364E-01
6365000. -0.4534063E-01 -0.5229225E+00 -0.6051206E-02  0.1653117E-01  0.1341282E-02  0.6639620E-01
6364000. -0.4525778E-01 -0.5328107E+00 -0.6053495E-02  0.1263228E-01  0.1330847E-02  0.6656646E-01
6363000. -0.4517338E-01 -0.5425948E+00 -0.6055172E-02  0.8727591E-02  0.1320385E-02  0.6673443E-01
6362000. -0.4508745E-01 -0.5522742E+00 -0.6056235E-02  0.4817507E-02  0.1309897E-02  0.6690010E-01
6361000. -0.4500001E-01 -0.5618485E+00 -0.6056684E-02  0.9024428E-03  0.1299384E-02  0.6706345E-01
6360000. -0.4491108E-01 -0.5713171E+00 -0.6056518E-02 -0.3017191E-02  0.1288845E-02  0.6722450E-01
6359000. -0.4482067E-01 -0.5806796E+00 -0.6055736E-02 -0.6940981E-02  0.1278281E-02  0.6738322E-01
6358000. -0.4472880E-01 -0.5899356E+00 -0.6054339E-02 -0.1086852E-01  0.1267692E-02  0.6753962E-01
6357000. -0.4463548E-01 -0.5990846E+00 -0.6052325E-02 -0.1479938E-01  0.1257078E-02  0.6769370E-01
6356000. -0.4454074E-01 -0.6081262E+00 -0.6049693E-02 -0.1873316E-01  0.1246441E-02  0.6784543E-01
6356000. -0.4454074E-01 -0.5005168E+00 -0.6049693E-02  0.3986772E-02  0.1246441E-02  0.7753698E-01
6355000. -0.4446164E-01 -0.5073587E+00 -0.6050122E-02  0.1482457E-02  0.1234255E-02  0.7774497E-01
6354000. -0.4438147E-01 -0.5141351E+00 -0.6050158E-02 -0.1024741E-02  0.1222035E-02  0.7795130E-01
6353000. -0.4430024E-01 -0.5208459E+00 -0.6049800E-02 -0.3534652E-02  0.1209784E-02  0.7815596E-01
6352000. -0.4421797E-01 -0.5274908E+00 -0.6049048E-02 -0.6047104E-02  0.1197501E-02  0.7835897E-01
6351000. -0.4413465E-01 -0.5340695E+00 -0.6047902E-02 -0.8561925E-02  0.1185185E-02  0.7856030E-01
6350000. -0.4405031E-01 -0.5405819E+00 -0.6046360E-02 -0.1107894E-01  0.1172839E-02  0.7875996E-01
6349000. -0.4396496E-01 -0.5470275E+00 -0.6044424E-02 -0.1359799E-01  0.1160461E-02  0.7895795E-01
6348000. -0.4387859E-01 -0.5534064E+00 -0.6042092E-02 -0.1611888E-01  0.1148052E-02  0.7915425E-01
6347000. -0.4379123E-01 -0.5597180E+00 -0.6039363E-02 -0.1864146E-01  0.1135613E-02  0.7934886E-01
6346600. -0.4375601E-01 -0.5622239E+00 -0.6038161E-02 -0.1965092E-01  0.1130629E-02  0.7942623E-01
6346600. -0.4375601E-01 -0.5689669E+00 -0.6038161E-02 -0.9670858E-03  0.1130629E-02  0.9468331E-01
6318800. -0.4100282E-01 -0.6864809E+00 -0.5921497E-02 -0.5258124E-01  0.7044607E-03  0.1004882E+00
6291000. -0.3782355E-01 -0.7638519E+00 -0.5580123E-02 -0.1036180E+00  0.2551023E-03  0.1053043E+00
6291000. -0.3782355E-01 -0.7838630E+00 -0.5580123E-02 -0.1087369E+00  0.2551023E-03  0.1053043E+00
6263000. -0.3429011E-01 -0.8166825E+00 -0.4988890E-02 -0.1596337E+00 -0.2159640E-03  0.1088827E+00
6235000. -0.3070954E-01 -0.8055984E+00 -0.4184531E-02 -0.2053761E+00 -0.7003460E-03  0.1113613E+00
6207000. -0.2726933E-01 -0.7534524E+00 -0.3194128E-02 -0.2439893E+00 -0.1193188E-02  0.1127328E+00
6179000. -0.2413992E-01 -0.6651330E+00 -0.2052836E-02 -0.2737882E+00 -0.1689638E-02  0.1130057E+00
6151000. -0.2146613E-01 -0.5473729E+00 -0.8024519E-03 -0.2934474E+00 -0.2184912E-02  0.1122025E+00
6151000. -0.2146613E-01 -0.4513429E+00 -0.8024519E-03 -0.2548788E+00 -0.2184912E-02  0.1133901E+00
6128500. -0.2004773E-01 -0.3506407E+00  0.1074192E-03 -0.2594701E+00 -0.2584964E-02  0.1130760E+00
6106000. -0.1899640E-01 -0.2440806E+00  0.1023770E-02 -0.2585601E+00 -0.2982987E-02  0.1122440E+00
6083500. -0.1832616E-01 -0.1354493E+00  0.1927372E-02 -0.2522823E+00 -0.3377183E-02  0.1109117E+00
6061000. -0.1803770E-01 -0.2847324E-01  0.2799680E-02 -0.2408904E+00 -0.3765819E-02  0.1090990E+00
6038500. -0.1811880E-01  0.7326995E-01  0.3623251E-02 -0.2247523E+00 -0.4147237E-02  0.1068279E+00
6016000. -0.1854502E-01  0.1664453E+00  0.4382122E-02 -0.2043348E+00 -0.4519860E-02  0.1041226E+00
5993500. -0.1928065E-01  0.2480274E+00  0.5062126E-02 -0.1801870E+00 -0.4882202E-02  0.1010097E+00
5971000. -0.2027996E-01  0.3153651E+00  0.5651167E-02 -0.1529289E+00 -0.5232870E-02  0.9751710E-01
5971000. -0.2027996E-01  0.3271396E+00  0.5651167E-02 -0.1330331E+00 -0.5232870E-02  0.1001719E+00
5937667. -0.2215569E-01  0.3835213E+00  0.6230864E-02 -0.8860752E-01 -0.5741713E-02  0.9422924E-01
5904333. -0.2422749E-01  0.4021961E+00  0.6580572E-02 -0.4543529E-01 -0.6217843E-02  0.8768202E-01
5871000. -0.2630174E-01  0.3849230E+00  0.6711528E-02 -0.5242139E-02 -0.6658397E-02  0.8065665E-01
5837667. -0.2819866E-01  0.3350852E+00  0.6642915E-02  0.3067009E-01 -0.7061223E-02  0.7328141E-01
5804333. -0.2975942E-01  0.2572457E+00  0.6399644E-02  0.6140220E-01 -0.7424836E-02  0.6568401E-01
5771000. -0.3085118E-01  0.1567587E+00  0.6010379E-02  0.8642098E-01 -0.7748384E-02  0.5799126E-01
5771000. -0.3085118E-01  0.1568284E+00  0.6010379E-02  0.8641948E-01 -0.7748384E-02  0.5799126E-01
5701000. -0.3100218E-01 -0.1420457E+00  0.4824293E-02  0.1260031E+00 -0.8288058E-02  0.4029068E-01
5701000. -0.3100218E-01 -0.6297413E-01  0.4824293E-02  0.1079327E+00 -0.8288058E-02  0.4902907E-01
5667333. -0.3029922E-01 -0.2035338E+00  0.4234053E-02  0.1147159E+00 -0.8524287E-02  0.4039992E-01
5633667. -0.2885175E-01 -0.3439717E+00  0.3619385E-02  0.1172515E+00 -0.8715361E-02  0.3195642E-01
5600000. -0.2667215E-01 -0.4799021E+00  0.3001569E-02  0.1159796E+00 -0.8862508E-02  0.2378712E-01
5600000. -0.2667215E-01 -0.4798805E+00  0.3001569E-02  0.1159835E+00 -0.8862508E-02  0.2378712E-01
5563518. -0.2352468E-01 -0.6184167E+00  0.2344252E-02  0.1129873E+00 -0.8974336E-02  0.1535111E-01
5527037. -0.1960555E-01 -0.7487145E+00  0.1714280E-02  0.1064933E+00 -0.9039267E-02  0.7413796E-02
5490556. -0.1497400E-01 -0.8665884E+00  0.1130644E-02  0.9687082E-01 -0.9060252E-02  0.6295529E-05
5454074. -0.9712017E-02 -0.9682747E+00  0.6100134E-03  0.8456100E-01 -0.9040397E-02 -0.6847326E-02
5417593. -0.3922200E-02 -0.1050508E+01  0.1664022E-03  0.7006104E-01 -0.8982927E-02 -0.1312906E-01
5381111.  0.2276454E-02 -0.1110624E+01 -0.1891879E-03  0.5390498E-01 -0.8891148E-02 -0.1882861E-01
5344630.  0.8750865E-02 -0.1146607E+01 -0.4488371E-03  0.3664757E-01 -0.8768416E-02 -0.2394161E-01
5308148.  0.1535909E-01 -0.1157135E+01 -0.6078478E-03  0.1884465E-01 -0.8618075E-02 -0.2847058E-01
5271667.  0.2195286E-01 -0.1141580E+01 -0.6646533E-03  0.1039682E-02 -0.8443461E-02 -0.3242355E-01
5235185.  0.2838309E-01 -0.1100020E+01 -0.6207333E-03 -0.1625331E-01 -0.8247823E-02 -0.3581433E-01
5198704.  0.3450236E-01 -0.1033212E+01 -0.4804044E-03 -0.3255921E-01 -0.8034341E-02 -0.3866150E-01
5162222.  0.4017014E-01 -0.9425476E+00 -0.2505454E-03 -0.4745623E-01 -0.7806052E-02 -0.4098785E-01
5125741.  0.4525490E-01 -0.8300060E+00  0.5969216E-04 -0.6058080E-01 -0.7565876E-02 -0.4282042E-01
5089259.  0.4963856E-01 -0.6980755E+00  0.4392965E-03 -0.7163717E-01 -0.7316544E-02 -0.4418861E-01
5052778.  0.5321806E-01 -0.5496911E+00  0.8757205E-03 -0.8039854E-01 -0.7060637E-02 -0.4512481E-01
5016296.  0.5590860E-01 -0.3881264E+00  0.1355372E-02 -0.8671136E-01 -0.6800518E-02 -0.4566282E-01
4979815.  0.5764464E-01 -0.2169308E+00  0.1863934E-02 -0.9049327E-01 -0.6538383E-02 -0.4583758E-01
4943333.  0.5838163E-01 -0.3980241E-01  0.2386876E-02 -0.9173227E-01 -0.6276193E-02 -0.4568535E-01
4906852.  0.5809642E-01  0.1394698E+00  0.2909731E-02 -0.9048232E-01 -0.6015736E-02 -0.4524072E-01
4870370.  0.5678748E-01  0.3171356E+00  0.3418577E-02 -0.8685814E-01 -0.5758571E-02 -0.4453916E-01
4833889.  0.5447464E-01  0.4895263E+00  0.3900251E-02 -0.8102876E-01 -0.5506082E-02 -0.4361487E-01
4797407.  0.5119799E-01  0.6531851E+00  0.4342748E-02 -0.7320985E-01 -0.5259443E-02 -0.4249906E-01
4760926.  0.4701707E-01  0.8048931E+00  0.4735366E-02 -0.6365610E-01 -0.5019673E-02 -0.4122275E-01
4724444.  0.4200850E-01  0.9417675E+00  0.5068989E-02 -0.5265121E-01 -0.4787598E-02 -0.3981376E-01
4687963.  0.3626489E-01  0.1061290E+01  0.5336161E-02 -0.4050123E-01 -0.4563915E-02 -0.3829760E-01
4651482.  0.2989167E-01  0.1161366E+01  0.5531239E-02 -0.2752355E-01 -0.4349166E-02 -0.3669712E-01
4615000.  0.2300493E-01  0.1240349E+01  0.5650404E-02 -0.1403930E-01 -0.4143769E-02 -0.3503193E-01
4578518.  0.1572926E-01  0.1297049E+01  0.5691666E-02 -0.3662375E-03 -0.3948052E-02 -0.3331888E-01
4542037.  0.8194732E-02  0.1330755E+01  0.5654827E-02  0.1318934E-01 -0.3762254E-02 -0.3157144E-01
4505556.  0.5337159E-03  0.1341225E+01  0.5541394E-02  0.2634004E-01 -0.3586535E-02 -0.2979995E-01
4469074. -0.7121340E-02  0.1328671E+01  0.5354449E-02  0.3882216E-01 -0.3421006E-02 -0.2801151E-01
4432593. -0.1463983E-01  0.1293740E+01  0.5098520E-02  0.5039950E-01 -0.3265761E-02 -0.2621006E-01
4396111. -0.2189683E-01  0.1237473E+01  0.4779371E-02  0.6086938E-01 -0.3120863E-02 -0.2439607E-01
4359630. -0.2877365E-01  0.1161283E+01  0.4403863E-02  0.7006274E-01 -0.2986395E-02 -0.2256736E-01
4323148. -0.3516135E-01  0.1066885E+01  0.3979678E-02  0.7784787E-01 -0.2862453E-02 -0.2071761E-01
4286667. -0.4096096E-01  0.9562858E+00  0.3515194E-02  0.8412950E-01 -0.2749185E-02 -0.1883838E-01
4250185. -0.4608623E-01  0.8316855E+00  0.3019179E-02  0.8884961E-01 -0.2646790E-02 -0.1691682E-01
4213704. -0.5046346E-01  0.6954675E+00  0.2500684E-02  0.9198537E-01 -0.2555558E-02 -0.1493738E-01
4177222. -0.5403343E-01  0.5501067E+00  0.1968735E-02  0.9354781E-01 -0.2475868E-02 -0.1288083E-01
4140741. -0.5675086E-01  0.3981540E+00  0.1432266E-02  0.9357884E-01 -0.2408232E-02 -0.1072398E-01
4104259. -0.5858543E-01  0.2421474E+00  0.8998282E-03  0.9214820E-01 -0.2353295E-02 -0.8440133E-02
4067778. -0.5952106E-01  0.8459883E-01  0.3795631E-03  0.8934984E-01 -0.2311877E-02 -0.5997031E-02
4031296. -0.5955591E-01 -0.7208141E-01 -0.1210439E-03  0.8529768E-01 -0.2284988E-02 -0.3358401E-02
3994815. -0.5870163E-01 -0.2255924E+00 -0.5951520E-03  0.8012193E-01 -0.2273869E-02 -0.4814852E-03
3958333. -0.5698246E-01 -0.3738078E+00 -0.1036753E-02  0.7396388E-01 -0.2280023E-02  0.2683437E-02
3921852. -0.5443453E-01 -0.5147724E+00 -0.1440624E-02  0.6697279E-01 -0.2305257E-02  0.6192899E-02
3885370. -0.5110428E-01 -0.6467523E+00 -0.1802449E-02  0.5930020E-01 -0.2351732E-02  0.1011391E-01
3848889. -0.4704782E-01 -0.7682229E+00 -0.2118740E-02  0.5109705E-01 -0.2422018E-02  0.1452385E-01
3812407. -0.4232889E-01 -0.8779002E+00 -0.2386895E-02  0.4250846E-01 -0.2519172E-02  0.1951414E-01
3775926. -0.3701843E-01 -0.9747182E+00 -0.2605091E-02  0.3367167E-01 -0.2646810E-02  0.2519139E-01
3739444. -0.3119227E-01 -0.1057848E+01 -0.2772279E-02  0.2471050E-01 -0.2809225E-02  0.3168201E-01
3702963. -0.2493101E-01 -0.1126658E+01 -0.2888059E-02  0.1573437E-01 -0.3011480E-02  0.3913526E-01
3666482. -0.1831781E-01 -0.1180718E+01 -0.2952618E-02  0.6833573E-02 -0.3259584E-02  0.4772860E-01
3630000. -0.1143778E-01 -0.1219754E+01 -0.2966597E-02 -0.1922497E-02 -0.3560665E-02  0.5767439E-01
3630000. -0.1143778E-01 -0.1219747E+01 -0.2966597E-02 -0.1922313E-02 -0.3560665E-02  0.5767439E-01
3592500. -0.4167873E-02 -0.1247793E+01 -0.2928884E-02 -0.1088252E-01 -0.3934163E-02  0.6952836E-01
3555000.  0.3219164E-02 -0.1259473E+01 -0.2838616E-02 -0.1977842E-01 -0.4382944E-02  0.8331324E-01
3517500.  0.1062572E-01 -0.1254352E+01 -0.2696161E-02 -0.2861925E-01 -0.4919482E-02  0.9941872E-01
3480000.  0.1795158E-01 -0.1231972E+01 -0.2501741E-02 -0.3744485E-01 -0.5558783E-02  0.1183171E+00
3480000.  0.1795158E-01 -0.7932393E-01  0.3237864E-02  0.2688006E-01 -0.5558783E-02  0.6184879E-01
3409422.  0.1837971E-01 -0.8846397E-03  0.2927853E-02  0.2883901E-01 -0.5966938E-02  0.1456565E-01
3338844.  0.1803585E-01  0.6007911E-01  0.2603973E-02  0.2942644E-01 -0.5935790E-02 -0.1800325E-01
3268266.  0.1711058E-01  0.1042896E+00  0.2279992E-02  0.2890060E-01 -0.5611034E-02 -0.3892083E-01
3197688.  0.1578112E-01  0.1333778E+00  0.1966804E-02  0.2752022E-01 -0.5106540E-02 -0.5086697E-01
3127109.  0.1420327E-01  0.1495190E+00  0.1672498E-02  0.2552990E-01 -0.4508641E-02 -0.5613184E-01
3056531.  0.1250728E-01  0.1551162E+00  0.1402599E-02  0.2314865E-01 -0.3880450E-02 -0.5662479E-01
2985953.  0.1079654E-01  0.1525762E+00  0.1160366E-02  0.2056311E-01 -0.3265914E-02 -0.5389695E-01
2915375.  0.9148519E-02  0.1441464E+00  0.9471912E-03  0.1792517E-01 -0.2693647E-02 -0.4917200E-01
2844797.  0.7617213E-02  0.1318102E+00  0.7629708E-03  0.1535254E-01 -0.2180352E-02 -0.4338431E-01
2774219.  0.6236354E-02  0.1172353E+00  0.6064792E-03  0.1293081E-01 -0.1733789E-02 -0.3722002E-01
2703641.  0.5023048E-02  0.1017553E+00  0.4757053E-03  0.1071686E-01 -0.1355304E-02 -0.3115843E-01
2633062.  0.3981417E-02  0.8638191E-01  0.3681438E-03  0.8743539E-02 -0.1041890E-02 -0.2551166E-01
2562484.  0.3106069E-02  0.7183520E-01  0.2810418E-03  0.7024245E-02 -0.7878465E-03 -0.2046187E-01
2491906.  0.2385033E-02  0.5858207E-01  0.2115821E-03  0.5557084E-02 -0.5860134E-03 -0.1609307E-01
2421328.  0.1802366E-02  0.4688284E-01  0.1570341E-03  0.4329301E-02 -0.4287162E-03 -0.1241923E-01
2350750.  0.1340181E-02  0.3683569E-01  0.1148514E-03  0.3320902E-02 -0.3084055E-03 -0.9407163E-02
2280172.  0.9802016E-03  0.2841934E-01  0.8273556E-04  0.2507574E-02 -0.2180746E-03 -0.6994794E-02
2209594.  0.7048754E-03  0.2153026E-01  0.5866967E-04  0.1863189E-02 -0.1514984E-03 -0.5105036E-02
2139016.  0.4981045E-03  0.1601396E-01  0.4092740E-04  0.1361649E-02 -0.1033401E-03 -0.3656022E-02
2068438.  0.3456659E-03  0.1169007E-01  0.2806511E-04  0.9782091E-03 -0.6916295E-04 -0.2568095E-02
1997859.  0.2353871E-03  0.8371260E-02  0.1890152E-04  0.6903305E-03 -0.4537843E-04 -0.1768238E-02
1927281.  0.1571481E-03  0.5876892E-02  0.1249073E-04  0.4781779E-03 -0.2915902E-04 -0.1192531E-02
1856703.  0.1027474E-03  0.4041574E-02  0.8090340E-05  0.3247934E-03 -0.1832942E-04 -0.7870261E-03
1786125.  0.6570750E-04  0.2720296E-02  0.5130001E-05  0.2160730E-03 -0.1125683E-04 -0.5077048E-03
1715547.  0.4103373E-04  0.1790478E-02  0.3180641E-05  0.1405739E-03 -0.6744463E-05 -0.3197073E-03
1644969.  0.2496453E-04  0.1151969E-02  0.1926504E-05  0.8922762E-04 -0.3936076E-05 -0.1962014E-03
1574391.  0.1472900E-04  0.7257937E-03  0.1140743E-05  0.5498828E-04 -0.2234124E-05 -0.1170990E-03
1503812.  0.8321342E-05  0.4525368E-03  0.6651599E-06  0.3243739E-04 -0.1232200E-05 -0.6776897E-04
1433234.  0.4290324E-05  0.2915761E-03  0.3946773E-06  0.1731821E-04 -0.6613105E-06 -0.3785753E-04
1362656.  0.1521522E-05  0.2236285E-03  0.2678522E-06  0.5862656E-05 -0.3481979E-06 -0.2027715E-04
1292078. -0.1053727E-05  0.2633723E-03  0.2677543E-06 -0.6514375E-05 -0.1836381E-06 -0.1046163E-04
1221500. -0.5027382E-05  0.5026197E-03  0.4463600E-06 -0.2854620E-04 -0.9666282E-07 -0.6087472E-05
1221500. -0.5027382E-05  0.5874130E-04  0.5598775E-07  0.2651343E-04 -0.9666282E-07 -0.3909589E-05
1183328. -0.5017524E-05 -0.5119522E-04 -0.6080579E-07  0.1340650E-04 -0.7402116E-07 -0.3577585E-05
1145156. -0.4521637E-05 -0.1070073E-03 -0.1142300E-06  0.5101635E-05 -0.5431738E-07 -0.2977085E-05
1106984. -0.3806127E-05 -0.1271689E-03 -0.1287351E-06  0.2105093E-06 -0.3844236E-07 -0.2325046E-05
1068812. -0.3041156E-05 -0.1254673E-03 -0.1213880E-06 -0.2350010E-05 -0.2633773E-07 -0.1730195E-05
1030641. -0.2326348E-05 -0.1117954E-03 -0.1035749E-06 -0.3400351E-05 -0.1750429E-07 -0.1236884E-05
 992469. -0.1711768E-05 -0.9290715E-04 -0.8244644E-07 -0.3540331E-05 -0.1129591E-07 -0.8532937E-06
 954297. -0.1214701E-05 -0.7311982E-04 -0.6211972E-07 -0.3189850E-05 -0.7079462E-08 -0.5694547E-06
 916125. -0.8322762E-06 -0.5493438E-04 -0.4463768E-07 -0.2627328E-05 -0.4307309E-08 -0.3680548E-06
 877953. -0.5507312E-06 -0.3956568E-04 -0.3071106E-07 -0.2024415E-05 -0.2541770E-08 -0.2304206E-06
 839781. -0.3517740E-06 -0.2737472E-04 -0.2026696E-07 -0.1475612E-05 -0.1452742E-08 -0.1396494E-06
 801609. -0.2166426E-06 -0.1820578E-04 -0.1283354E-07 -0.1023258E-05 -0.8027091E-09 -0.8183784E-07
 763438. -0.1284213E-06 -0.1163353E-04 -0.7792470E-08 -0.6767611E-06 -0.4277951E-09 -0.4629106E-07
 725266. -0.7310167E-07 -0.7133151E-05 -0.4529821E-08 -0.4271452E-06 -0.2192636E-09 -0.2521284E-07
 687094. -0.3984226E-07 -0.4188013E-05 -0.2514920E-08 -0.2570610E-06 -0.1077083E-09 -0.1318432E-07
 648922. -0.2071588E-07 -0.2347631E-05 -0.1329218E-08 -0.1472084E-06 -0.5049678E-10 -0.6594317E-08
 610750. -0.1022964E-07 -0.1251714E-05 -0.6660153E-09 -0.7996396E-07 -0.2248170E-10 -0.3140510E-08
 572578. -0.4771240E-08 -0.6317629E-06 -0.3147082E-09 -0.4102418E-07 -0.9447067E-11 -0.1416259E-08
 534406. -0.2087790E-08 -0.3000326E-06 -0.1393218E-09 -0.1976558E-07 -0.3719126E-11 -0.6006691E-09
 496234. -0.8499628E-09 -0.1330690E-06 -0.5731327E-10 -0.8878637E-08 -0.1359241E-11 -0.2375864E-09
 458062. -0.3185895E-09 -0.5459497E-07 -0.2168349E-10 -0.3683939E-08 -0.4559563E-12 -0.8672544E-10
 419891. -0.1085007E-09 -0.2047105E-07 -0.7446197E-11 -0.1395152E-08 -0.1383823E-12 -0.2882878E-10
 381719. -0.3300147E-10 -0.6905380E-08 -0.2281586E-11 -0.4747666E-09 -0.3729802E-13 -0.8577831E-11
 343547. -0.8764212E-11 -0.2052403E-08 -0.6098767E-12 -0.1421992E-09 -0.8712011E-14 -0.2233310E-11
 305375. -0.1970725E-11 -0.5224909E-09 -0.1379211E-12 -0.3644394E-10 -0.1705990E-14 -0.4933711E-12
 267203. -0.3593648E-12 -0.1094867E-09 -0.2527452E-13 -0.7681006E-11 -0.2673292E-15 -0.8857211E-13
 229031. -0.4988585E-13 -0.1781474E-10 -0.3523303E-14 -0.1255944E-11 -0.3131250E-16 -0.1212896E-13
 190859. -0.4779872E-14 -0.2055924E-11 -0.3387283E-15 -0.1455131E-12 -0.2466832E-17 -0.1147591E-14
 152688.  0.0000000E+00  0.0000000E+00  0.0000000E+00  0.0000000E+00  0.0000000E+00  0.0000000E+00
 114516.  0.0000000E+00  0.0000000E+00  0.0000000E+00  0.0000000E+00  0.0000000E+00  0.0000000E+00
  76344.  0.0000000E+00  0.0000000E+00  0.0000000E+00  0.0000000E+00  0.0000000E+00  0.0000000E+00
  38172.  0.0000000E+00  0.0000000E+00  0.0000000E+00  0.0000000E+00  0.0000000E+00  0.0000000E+00
      0.  0.0000000E+00  0.0000000E+00  0.0000000E+00  0.0000000E+00  0.0000000E+00  0.0000000E+00
