       4       27 S      296        153.03780          9.51165          6.70807        257.90131      185    7
6371000. -0.3993203E-03 -0.1096032E+01 -0.3688971E-02 -0.3289650E-02  0.1793540E-02 -0.4946608E-01
6370000. -0.2272988E-03 -0.1095819E+01 -0.3688231E-02 -0.6133874E-02  0.1801283E-02 -0.4919400E-01
6369000. -0.5533295E-04 -0.1095322E+01 -0.3687045E-02 -0.8977827E-02  0.1808983E-02 -0.4892269E-01
6368000.  0.1165326E-03 -0.1094541E+01 -0.3685413E-02 -0.1182111E-01  0.1816640E-02 -0.4865218E-01
6368000.  0.1165326E-03 -0.1094541E+01 -0.3685413E-02 -0.1182111E-01  0.1816640E-02 -0.4865218E-01
6367000.  0.2882533E-03 -0.1093476E+01 -0.3683334E-02 -0.1466333E-01  0.1824256E-02 -0.4838246E-01
6366000.  0.4597845E-03 -0.1092127E+01 -0.3680810E-02 -0.1750408E-01  0.1831829E-02 -0.4811357E-01
6365000.  0.6310816E-03 -0.1090494E+01 -0.3677839E-02 -0.2034297E-01  0.1839360E-02 -0.4784549E-01
6364000.  0.8021002E-03 -0.1088577E+01 -0.3674424E-02 -0.2317960E-01  0.1846849E-02 -0.4757826E-01
6363000.  0.9727954E-03 -0.1086375E+01 -0.3670563E-02 -0.2601357E-01  0.1854296E-02 -0.4731188E-01
6362000.  0.1143123E-02 -0.1083891E+01 -0.3666258E-02 -0.2884449E-01  0.1861701E-02 -0.4704636E-01
6361000.  0.1313038E-02 -0.1081123E+01 -0.3661508E-02 -0.3167195E-01  0.1869065E-02 -0.4678172E-01
6360000.  0.1482497E-02 -0.1078072E+01 -0.3656315E-02 -0.3449557E-01  0.1876387E-02 -0.4651796E-01
6359000.  0.1651454E-02 -0.1074738E+01 -0.3650679E-02 -0.3731494E-01  0.1883668E-02 -0.4625510E-01
6358000.  0.1819867E-02 -0.1071122E+01 -0.3644601E-02 -0.4012967E-01  0.1890907E-02 -0.4599315E-01
6357000.  0.1987689E-02 -0.1067224E+01 -0.3638082E-02 -0.4293937E-01  0.1898106E-02 -0.4573212E-01
6356000.  0.2154877E-02 -0.1063045E+01 -0.3631122E-02 -0.4574364E-01  0.1905264E-02 -0.4547203E-01
6356000.  0.2154877E-02 -0.9349914E+00 -0.3631122E-02 -0.2990967E-01  0.1905264E-02 -0.4594091E-01
6355000.  0.2301432E-02 -0.9323804E+00 -0.3626304E-02 -0.3147709E-01  0.1912447E-02 -0.4558180E-01
6354000.  0.2447565E-02 -0.9296148E+00 -0.3621241E-02 -0.3304203E-01  0.1919573E-02 -0.4522362E-01
6353000.  0.2593251E-02 -0.9266947E+00 -0.3615932E-02 -0.3460433E-01  0.1926643E-02 -0.4486637E-01
6352000.  0.2738467E-02 -0.9236204E+00 -0.3610378E-02 -0.3616387E-01  0.1933658E-02 -0.4451005E-01
6351000.  0.2883188E-02 -0.9203922E+00 -0.3604579E-02 -0.3772052E-01  0.1940616E-02 -0.4415467E-01
6350000.  0.3027390E-02 -0.9170102E+00 -0.3598537E-02 -0.3927413E-01  0.1947519E-02 -0.4380023E-01
6349000.  0.3171050E-02 -0.9134748E+00 -0.3592251E-02 -0.4082459E-01  0.1954366E-02 -0.4344674E-01
6348000.  0.3314143E-02 -0.9097862E+00 -0.3585721E-02 -0.4237174E-01  0.1961158E-02 -0.4309421E-01
6347000.  0.3456644E-02 -0.9059447E+00 -0.3578949E-02 -0.4391547E-01  0.1967894E-02 -0.4274264E-01
6346600.  0.3513474E-02 -0.9043654E+00 -0.3576173E-02 -0.4453197E-01  0.1970574E-02 -0.4260228E-01
6346600.  0.3513474E-02 -0.1068120E+01 -0.3576173E-02 -0.3237737E-01  0.1970574E-02 -0.4382737E-01
6318800.  0.7965453E-02 -0.9596702E+00 -0.3380951E-02 -0.5677491E-01  0.2138897E-02 -0.3344724E-01
6291000.  0.1178069E-01 -0.7772144E+00 -0.3084390E-02 -0.7863601E-01  0.2263507E-02 -0.2378036E-01
6291000.  0.1178069E-01 -0.8061792E+00 -0.3084390E-02 -0.8093400E-01  0.2263507E-02 -0.2378036E-01
6263000.  0.1477360E-01 -0.5447356E+00 -0.2683677E-02 -0.1006656E+00  0.2348510E-02 -0.1500466E-01
6235000.  0.1648165E-01 -0.2239865E+00 -0.2206890E-02 -0.1154010E+00  0.2396247E-02 -0.6810753E-02
6207000.  0.1668017E-01  0.1391054E+00 -0.1677785E-02 -0.1243706E+00  0.2409132E-02  0.8659593E-03
6179000.  0.1522616E-01  0.5244844E+00 -0.1122830E-02 -0.1271150E+00  0.2389306E-02  0.8084483E-02
6151000.  0.1206975E-01  0.9100282E+00 -0.5697791E-03 -0.1235140E+00  0.2338671E-02  0.1489332E-01
6151000.  0.1206975E-01  0.6961694E+00 -0.5697791E-03 -0.1100562E+00  0.2338671E-02  0.1422556E-01
6128500.  0.9202887E-02  0.9242083E+00 -0.1928266E-03 -0.1029642E+00  0.2282400E-02  0.1756895E-01
6106000.  0.5568394E-02  0.1129768E+01  0.1544950E-03 -0.9333541E-01  0.2215083E-02  0.2048208E-01
6083500.  0.1257123E-02  0.1306514E+01  0.4638919E-03 -0.8155560E-01  0.2138227E-02  0.2297294E-01
6061000. -0.3619465E-02  0.1449135E+01  0.7285186E-03 -0.6805665E-01  0.2053307E-02  0.2505033E-01
6038500. -0.8933175E-02  0.1553481E+01  0.9431160E-03 -0.5330258E-01  0.1961766E-02  0.2672414E-01
6016000. -0.1454332E-01  0.1616631E+01  0.1104097E-02 -0.3777332E-01  0.1865010E-02  0.2800506E-01
5993500. -0.2030111E-01  0.1636938E+01  0.1209573E-02 -0.2194943E-01  0.1764408E-02  0.2890483E-01
5971000. -0.2605426E-01  0.1614046E+01  0.1259338E-02 -0.6299138E-02  0.1661283E-02  0.2943546E-01
5971000. -0.2605426E-01  0.1494297E+01  0.1259338E-02 -0.2394554E-02  0.1661283E-02  0.3284618E-01
5937667. -0.3353802E-01  0.1354969E+01  0.1220299E-02  0.1676358E-01  0.1491123E-02  0.3205389E-01
5904333. -0.4012620E-01  0.1154416E+01  0.1090180E-02  0.3234348E-01  0.1327282E-02  0.3044993E-01
5871000. -0.4553888E-01  0.9083818E+00  0.8886198E-03  0.4405306E-01  0.1173679E-02  0.2816445E-01
5837667. -0.4958021E-01  0.6328236E+00  0.6359577E-03  0.5190049E-01  0.1033530E-02  0.2532786E-01
5804333. -0.5213599E-01  0.3429156E+00  0.3518559E-03  0.5612318E-01  0.9093907E-03  0.2206326E-01
5771000. -0.5316757E-01  0.5233528E-01  0.5430863E-04  0.5712015E-01  0.8032055E-03  0.1848357E-01
5771000. -0.5316757E-01  0.5234352E-01  0.5430863E-04  0.5712020E-01  0.8032055E-03  0.1848357E-01
5701000. -0.5048105E-01 -0.5325254E+00 -0.5461533E-03  0.5033596E-01  0.6602446E-03  0.7311725E-02
5701000. -0.5048105E-01 -0.4562554E+00 -0.5461533E-03  0.5148320E-01  0.6602446E-03  0.2154052E-01
5667333. -0.4745968E-01 -0.6831451E+00 -0.8073414E-03  0.4719698E-01  0.5568133E-03  0.1767964E-01
5633667. -0.4330660E-01 -0.8840579E+00 -0.1043508E-02  0.4208439E-01  0.4725475E-03  0.1429982E-01
5600000. -0.3816574E-01 -0.1056669E+01 -0.1251345E-02  0.3653360E-01  0.4047150E-03  0.1147071E-01
5600000. -0.3816574E-01 -0.1056699E+01 -0.1251345E-02  0.3653333E-01  0.4047150E-03  0.1147071E-01
5563518. -0.3160466E-01 -0.1229897E+01 -0.1442035E-02  0.2997891E-01  0.3464882E-03  0.8932688E-02
5527037. -0.2414080E-01 -0.1371684E+01 -0.1593892E-02  0.2301314E-01  0.3016829E-03  0.6777582E-02
5490556. -0.1595971E-01 -0.1480194E+01 -0.1705267E-02  0.1587850E-01  0.2682038E-03  0.4971054E-02
5454074. -0.7254460E-02 -0.1554627E+01 -0.1775844E-02  0.8797631E-02  0.2441499E-03  0.3479964E-02
5417593.  0.1779388E-02 -0.1595161E+01 -0.1806506E-02  0.1968961E-02  0.2278067E-03  0.2272969E-02
5381111.  0.1095096E-01 -0.1602893E+01 -0.1799200E-02 -0.4438414E-02  0.2176344E-03  0.1319523E-02
5344630.  0.2007691E-01 -0.1579684E+01 -0.1756750E-02 -0.1028551E-01  0.2122660E-03  0.5903861E-03
5308148.  0.2898752E-01 -0.1528057E+01 -0.1682683E-02 -0.1546555E-01  0.2104978E-03  0.5745639E-04
5271667.  0.3752803E-01 -0.1451037E+01 -0.1581055E-02 -0.1990269E-01  0.2112842E-03 -0.3061871E-03
5235185.  0.4556310E-01 -0.1352031E+01 -0.1456258E-02 -0.2355125E-01  0.2137287E-03 -0.5257727E-03
5198704.  0.5297680E-01 -0.1234702E+01 -0.1312881E-02 -0.2639289E-01  0.2170760E-03 -0.6253254E-03
5162222.  0.5967537E-01 -0.1102822E+01 -0.1155527E-02 -0.2843452E-01  0.2207015E-03 -0.6264184E-03
5125741.  0.6558602E-01 -0.9601832E+00 -0.9887135E-03 -0.2970455E-01  0.2241020E-03 -0.5500642E-03
5089259.  0.7065809E-01 -0.8104715E+00 -0.8167249E-03 -0.3024956E-01  0.2268865E-03 -0.4140184E-03
5052778.  0.7486097E-01 -0.6572080E+00 -0.6435536E-03 -0.3013051E-01  0.2287617E-03 -0.2351451E-03
5016296.  0.7818400E-01 -0.5036432E+00 -0.4727906E-03 -0.2941938E-01  0.2295248E-03 -0.2772548E-04
4979815.  0.8063391E-01 -0.3527367E+00 -0.3076116E-03 -0.2819546E-01  0.2290482E-03  0.1957761E-03
4943333.  0.8223364E-01 -0.2070802E+00 -0.1507058E-03 -0.2654232E-01  0.2272744E-03  0.4237606E-03
4906852.  0.8301975E-01 -0.6890693E-01 -0.4297500E-05 -0.2454437E-01  0.2242007E-03  0.6485942E-03
4870370.  0.8304055E-01  0.5995594E-01  0.1298856E-03 -0.2228480E-01  0.2198681E-03  0.8621301E-03
4833889.  0.8235368E-01  0.1780594E+00  0.2505715E-03 -0.1984424E-01  0.2143610E-03  0.1058244E-02
4797407.  0.8102392E-01  0.2843485E+00  0.3569444E-03 -0.1729639E-01  0.2077869E-03  0.1234164E-02
4760926.  0.7912116E-01  0.3781181E+00  0.4485822E-03 -0.1470940E-01  0.2002735E-03  0.1385894E-02
4724444.  0.7671819E-01  0.4590119E+00  0.5254433E-03 -0.1214388E-01  0.1919644E-03  0.1511904E-02
4687963.  0.7388915E-01  0.5269704E+00  0.5877996E-03 -0.9651855E-02  0.1830093E-03  0.1611474E-02
4651482.  0.7070755E-01  0.5822122E+00  0.6362029E-03 -0.7276987E-02  0.1735609E-03  0.1684259E-02
4615000.  0.6724492E-01  0.6251873E+00  0.6714294E-03 -0.5054307E-02  0.1637701E-03  0.1731116E-02
4578518.  0.6356984E-01  0.6565377E+00  0.6944307E-03 -0.3010949E-02  0.1537836E-03  0.1752858E-02
4542037.  0.5974674E-01  0.6770633E+00  0.7062921E-03 -0.1166173E-02  0.1437396E-03  0.1751616E-02
4505556.  0.5583493E-01  0.6876850E+00  0.7081883E-03  0.4682452E-03  0.1337651E-03  0.1728881E-02
4469074.  0.5188818E-01  0.6894057E+00  0.7013426E-03  0.1886650E-02  0.1239771E-03  0.1686714E-02
4432593.  0.4795465E-01  0.6832808E+00  0.6869946E-03  0.3089174E-02  0.1144824E-03  0.1626751E-02
4396111.  0.4407598E-01  0.6703880E+00  0.6663675E-03  0.4080793E-02  0.1053781E-03  0.1550653E-02
4359630.  0.4028804E-01  0.6518035E+00  0.6406460E-03  0.4870498E-02  0.9674979E-04  0.1460840E-02
4323148.  0.3662021E-01  0.6285754E+00  0.6109523E-03  0.5470135E-02  0.8867356E-04  0.1357924E-02
4286667.  0.3309635E-01  0.6017157E+00  0.5783348E-03  0.5894619E-02  0.8122007E-04  0.1243597E-02
4250185.  0.2973431E-01  0.5721723E+00  0.5437495E-03  0.6159878E-02  0.7445301E-04  0.1118110E-02
4213704.  0.2654709E-01  0.5408320E+00  0.5080607E-03  0.6283327E-02  0.6843609E-04  0.9816726E-03
4177222.  0.2354245E-01  0.5085014E+00  0.4720282E-03  0.6282537E-02  0.6323224E-04  0.8339109E-03
4140741.  0.2072407E-01  0.4759134E+00  0.4363139E-03  0.6175525E-02  0.5891010E-04  0.6735275E-03
4104259.  0.1809141E-01  0.4437146E+00  0.4014733E-03  0.5979889E-02  0.5554619E-04  0.4987725E-03
4067778.  0.1564070E-01  0.4124728E+00  0.3679671E-03  0.5712620E-02  0.5323160E-04  0.3064726E-03
4031296.  0.1336490E-01  0.3826728E+00  0.3361556E-03  0.5390342E-02  0.5207730E-04  0.9272717E-04
3994815.  0.1125468E-01  0.3547228E+00  0.3063096E-03  0.5029071E-02  0.5222103E-04 -0.1479359E-03
3958333.  0.9298358E-02  0.3289504E+00  0.2786054E-03  0.4644608E-02  0.5383639E-04 -0.4225687E-03
3921852.  0.7482807E-02  0.3056073E+00  0.2531321E-03  0.4252838E-02  0.5714198E-04 -0.7399720E-03
3885370.  0.5793498E-02  0.2848615E+00  0.2298828E-03  0.3870502E-02  0.6241395E-04 -0.1111422E-02
3848889.  0.4215370E-02  0.2667951E+00  0.2087522E-03  0.3516362E-02  0.6999996E-04 -0.1550849E-02
3812407.  0.2733018E-02  0.2513810E+00  0.1895170E-03  0.3212370E-02  0.8033749E-04 -0.2075551E-02
3775926.  0.1331709E-02  0.2384626E+00  0.1718157E-03  0.2985949E-02  0.9397278E-04 -0.2706678E-02
3739444. -0.2064192E-05  0.2277063E+00  0.1551054E-03  0.2872902E-02  0.1115876E-03 -0.3470080E-02
3702963. -0.1279094E-02  0.2185346E+00  0.1386069E-03  0.2921498E-02  0.1340249E-03 -0.4396916E-02
3666482. -0.2506038E-02  0.2100216E+00  0.1212141E-03  0.3198279E-02  0.1623249E-03 -0.5524544E-02
3630000. -0.3682894E-02  0.2007375E+00  0.1013685E-03  0.3796297E-02  0.1977611E-03 -0.6897034E-02
3630000. -0.3682894E-02  0.2007365E+00  0.1013685E-03  0.3796328E-02  0.1977611E-03 -0.6897034E-02
3592500. -0.4831586E-02  0.1888112E+00  0.7612574E-04  0.4877612E-02  0.2432352E-03 -0.8608937E-02
3555000. -0.5892628E-02  0.1702226E+00  0.4258982E-04  0.6654517E-02  0.2998109E-03 -0.1068004E-01
3517500. -0.6811936E-02  0.1395611E+00 -0.4141885E-05  0.9419404E-02  0.3697963E-03 -0.1317652E-01
3480000. -0.7496309E-02  0.8877176E-01 -0.7104963E-04  0.1359377E-01  0.4558885E-03 -0.1616314E-01
3480000. -0.7496309E-02 -0.2647776E+00 -0.3517437E-03 -0.1307386E-01  0.4558885E-03  0.7417161E-02
3409422. -0.5019891E-02 -0.1860795E+00 -0.2310261E-03 -0.8945995E-02  0.3618956E-03  0.8951237E-02
3338844. -0.3297743E-02 -0.1278998E+00 -0.1491530E-03 -0.6006860E-02  0.2662626E-03  0.8081410E-02
3268266. -0.2125860E-02 -0.8605735E-01 -0.9465336E-04 -0.3959154E-02  0.1856800E-03  0.6416192E-02
3197688. -0.1344957E-02 -0.5671871E-01 -0.5903840E-04 -0.2561943E-02  0.1241840E-03  0.4715079E-02
3127109. -0.8351083E-03 -0.3663212E-01 -0.3618680E-04 -0.1627687E-02  0.8020027E-04  0.3280724E-02
3056531. -0.5088669E-03 -0.2318994E-01 -0.2179116E-04 -0.1015288E-02  0.5022540E-04  0.2187170E-02
2985953. -0.3042328E-03 -0.1439023E-01 -0.1288785E-04 -0.6216610E-03  0.3058132E-04  0.1406703E-02
2915375. -0.1784117E-03 -0.8752626E-02 -0.7483022E-05 -0.3735533E-03  0.1813425E-04  0.8764825E-03
2844797. -0.1025867E-03 -0.5217102E-02 -0.4263468E-05 -0.2202101E-03  0.1048318E-04  0.5304408E-03
2774219. -0.5781023E-04 -0.3046548E-02 -0.2382309E-05 -0.1272972E-03  0.5911150E-05  0.3123090E-03
2703641. -0.3190948E-04 -0.1742182E-02 -0.1304689E-05 -0.7212212E-04  0.3251758E-05  0.1790582E-03
2633062. -0.1724042E-04 -0.9751118E-03 -0.6998022E-06 -0.4002343E-04  0.1744970E-05  0.1000139E-03
2562484. -0.9111071E-05 -0.5338553E-03 -0.3673331E-06 -0.2173983E-04  0.9131629E-06  0.5442892E-04
2491906. -0.4705544E-05 -0.2856760E-03 -0.1885237E-06 -0.1154880E-04  0.4657639E-06  0.2885427E-04
2421328. -0.2372744E-05 -0.1492906E-03 -0.9450547E-07 -0.5994563E-05  0.2313823E-06  0.1489376E-04
2350750. -0.1166872E-05 -0.7611572E-04 -0.4622201E-07 -0.3037190E-05  0.1118546E-06  0.7480298E-05
2280172. -0.5589877E-06 -0.3781960E-04 -0.2202941E-07 -0.1500302E-05  0.5256226E-07  0.3652345E-05
2209594. -0.2604970E-06 -0.1829013E-04 -0.1021695E-07 -0.7216346E-06  0.2397997E-07  0.1731782E-05
2139016. -0.1179157E-06 -0.8597332E-05 -0.4604058E-08 -0.3374912E-06  0.1060608E-07  0.7963890E-06
2068438. -0.5175846E-07 -0.3921684E-05 -0.2012444E-08 -0.1532204E-06  0.4540282E-08  0.3546651E-06
1997859. -0.2198940E-07 -0.1732888E-05 -0.8516147E-09 -0.6740553E-07  0.1877678E-08  0.1526938E-06
1927281. -0.9023394E-08 -0.7402959E-06 -0.3481717E-09 -0.2867721E-07  0.7486341E-09  0.6342951E-07
1856703. -0.3568027E-08 -0.3050737E-06 -0.1371972E-09 -0.1177224E-07  0.2870739E-09  0.2536605E-07
1786125. -0.1355954E-08 -0.1209703E-06 -0.5196954E-10 -0.4651201E-08  0.1055918E-09  0.9740991E-08
1715547. -0.4937790E-09 -0.4602540E-07 -0.1886736E-10 -0.1763669E-08  0.3714170E-10  0.3581704E-08
1644969. -0.1717256E-09 -0.1674822E-07 -0.6542911E-11 -0.6397588E-09  0.1245070E-10  0.1256856E-08
1574391. -0.5681963E-10 -0.5807757E-08 -0.2159087E-11 -0.2211944E-09  0.3962091E-11  0.4193376E-09
1503812. -0.1780861E-10 -0.1911178E-08 -0.6750092E-12 -0.7258909E-10  0.1191514E-11  0.1324507E-09
1433234. -0.5261284E-11 -0.5939805E-09 -0.1989414E-12 -0.2250373E-10  0.3368861E-12  0.3941325E-10
1362656. -0.1457353E-11 -0.1733059E-09 -0.5493277E-13 -0.6557154E-11  0.8897523E-13  0.1099177E-10
1292078.  0.0000000E+00  0.0000000E+00  0.0000000E+00  0.0000000E+00  0.0000000E+00  0.0000000E+00
1221500.  0.0000000E+00  0.0000000E+00  0.0000000E+00  0.0000000E+00  0.0000000E+00  0.0000000E+00
1221500.  0.0000000E+00  0.0000000E+00  0.0000000E+00  0.0000000E+00  0.0000000E+00  0.0000000E+00
1183328.  0.0000000E+00  0.0000000E+00  0.0000000E+00  0.0000000E+00  0.0000000E+00  0.0000000E+00
1145156.  0.0000000E+00  0.0000000E+00  0.0000000E+00  0.0000000E+00  0.0000000E+00  0.0000000E+00
1106984.  0.0000000E+00  0.0000000E+00  0.0000000E+00  0.0000000E+00  0.0000000E+00  0.0000000E+00
1068812.  0.0000000E+00  0.0000000E+00  0.0000000E+00  0.0000000E+00  0.0000000E+00  0.0000000E+00
1030641.  0.0000000E+00  0.0000000E+00  0.0000000E+00  0.0000000E+00  0.0000000E+00  0.0000000E+00
 992469.  0.0000000E+00  0.0000000E+00  0.0000000E+00  0.0000000E+00  0.0000000E+00  0.0000000E+00
 954297.  0.0000000E+00  0.0000000E+00  0.0000000E+00  0.0000000E+00  0.0000000E+00  0.0000000E+00
 916125.  0.0000000E+00  0.0000000E+00  0.0000000E+00  0.0000000E+00  0.0000000E+00  0.0000000E+00
 877953.  0.0000000E+00  0.0000000E+00  0.0000000E+00  0.0000000E+00  0.0000000E+00  0.0000000E+00
 839781.  0.0000000E+00  0.0000000E+00  0.0000000E+00  0.0000000E+00  0.0000000E+00  0.0000000E+00
 801609.  0.0000000E+00  0.0000000E+00  0.0000000E+00  0.0000000E+00  0.0000000E+00  0.0000000E+00
 763438.  0.0000000E+00  0.0000000E+00  0.0000000E+00  0.0000000E+00  0.0000000E+00  0.0000000E+00
 725266.  0.0000000E+00  0.0000000E+00  0.0000000E+00  0.0000000E+00  0.0000000E+00  0.0000000E+00
 687094.  0.0000000E+00  0.0000000E+00  0.0000000E+00  0.0000000E+00  0.0000000E+00  0.0000000E+00
 648922.  0.0000000E+00  0.0000000E+00  0.0000000E+00  0.0000000E+00  0.0000000E+00  0.0000000E+00
 610750.  0.0000000E+00  0.0000000E+00  0.0000000E+00  0.0000000E+00  0.0000000E+00  0.0000000E+00
 572578.  0.0000000E+00  0.0000000E+00  0.0000000E+00  0.0000000E+00  0.0000000E+00  0.0000000E+00
 534406.  0.0000000E+00  0.0000000E+00  0.0000000E+00  0.0000000E+00  0.0000000E+00  0.0000000E+00
 496234.  0.0000000E+00  0.0000000E+00  0.0000000E+00  0.0000000E+00  0.0000000E+00  0.0000000E+00
 458062.  0.0000000E+00  0.0000000E+00  0.0000000E+00  0.0000000E+00  0.0000000E+00  0.0000000E+00
 419891.  0.0000000E+00  0.0000000E+00  0.0000000E+00  0.0000000E+00  0.0000000E+00  0.0000000E+00
 381719.  0.0000000E+00  0.0000000E+00  0.0000000E+00  0.0000000E+00  0.0000000E+00  0.0000000E+00
 343547.  0.0000000E+00  0.0000000E+00  0.0000000E+00  0.0000000E+00  0.0000000E+00  0.0000000E+00
 305375.  0.0000000E+00  0.0000000E+00  0.0000000E+00  0.0000000E+00  0.0000000E+00  0.0000000E+00
 267203.  0.0000000E+00  0.0000000E+00  0.0000000E+00  0.0000000E+00  0.0000000E+00  0.0000000E+00
 229031.  0.0000000E+00  0.0000000E+00  0.0000000E+00  0.0000000E+00  0.0000000E+00  0.0000000E+00
 190859.  0.0000000E+00  0.0000000E+00  0.0000000E+00  0.0000000E+00  0.0000000E+00  0.0000000E+00
 152688.  0.0000000E+00  0.0000000E+00  0.0000000E+00  0.0000000E+00  0.0000000E+00  0.0000000E+00
 114516.  0.0000000E+00  0.0000000E+00  0.0000000E+00  0.0000000E+00  0.0000000E+00  0.0000000E+00
  76344.  0.0000000E+00  0.0000000E+00  0.0000000E+00  0.0000000E+00  0.0000000E+00  0.0000000E+00
  38172.  0.0000000E+00  0.0000000E+00  0.0000000E+00  0.0000000E+00  0.0000000E+00  0.0000000E+00
      0.  0.0000000E+00  0.0000000E+00  0.0000000E+00  0.0000000E+00  0.0000000E+00  0.0000000E+00
