      14       12 S      611        121.59450         26.33684         21.05575         85.58688      185    7
6371000. -0.2030635E-03  0.1555166E-02  0.2276126E-04  0.2258247E-03 -0.7346989E-06  0.3924814E-03
6370000. -0.2032994E-03  0.1449531E-02  0.2272293E-04  0.2625686E-03 -0.7962578E-06  0.3918975E-03
6369000. -0.2035185E-03  0.1343124E-02  0.2267884E-04  0.2992199E-03 -0.8577229E-06  0.3912851E-03
6368000. -0.2037209E-03  0.1235953E-02  0.2262900E-04  0.3357691E-03 -0.9190895E-06  0.3906443E-03
6368000. -0.2037209E-03  0.1235953E-02  0.2262900E-04  0.3357691E-03 -0.9190895E-06  0.3906443E-03
6367000. -0.2039065E-03  0.1128030E-02  0.2257344E-04  0.3722069E-03 -0.9803534E-06  0.3899751E-03
6366000. -0.2040750E-03  0.1019363E-02  0.2251217E-04  0.4085237E-03 -0.1041510E-05  0.3892776E-03
6365000. -0.2042264E-03  0.9099641E-03  0.2244520E-04  0.4447102E-03 -0.1102555E-05  0.3885518E-03
6364000. -0.2043606E-03  0.7998431E-03  0.2237257E-04  0.4807571E-03 -0.1163484E-05  0.3877978E-03
6363000. -0.2044775E-03  0.6890108E-03  0.2229429E-04  0.5166550E-03 -0.1224292E-05  0.3870156E-03
6362000. -0.2045769E-03  0.5774781E-03  0.2221039E-04  0.5523948E-03 -0.1284975E-05  0.3862052E-03
6361000. -0.2046587E-03  0.4652564E-03  0.2212089E-04  0.5879672E-03 -0.1345529E-05  0.3853668E-03
6360000. -0.2047229E-03  0.3523569E-03  0.2202582E-04  0.6233631E-03 -0.1405949E-05  0.3845004E-03
6359000. -0.2047693E-03  0.2387914E-03  0.2192521E-04  0.6585732E-03 -0.1466231E-05  0.3836059E-03
6358000. -0.2047978E-03  0.1245716E-03  0.2181909E-04  0.6935886E-03 -0.1526370E-05  0.3826836E-03
6357000. -0.2048084E-03  0.9709565E-05  0.2170749E-04  0.7284001E-03 -0.1586362E-05  0.3817335E-03
6356000. -0.2048009E-03 -0.1057824E-03  0.2159044E-04  0.7629990E-03 -0.1646203E-05  0.3807555E-03
6356000. -0.2048009E-03  0.2626984E-03  0.2159044E-04  0.5504971E-03 -0.1646203E-05  0.4253178E-03
6355000. -0.2048356E-03  0.1795061E-03  0.2150224E-04  0.5732881E-03 -0.1712883E-05  0.4243178E-03
6354000. -0.2048572E-03  0.9590170E-04  0.2141048E-04  0.5959644E-03 -0.1779405E-05  0.4232961E-03
6353000. -0.2048656E-03  0.1189159E-04  0.2131516E-04  0.6185222E-03 -0.1845764E-05  0.4222527E-03
6352000. -0.2048609E-03 -0.7251774E-04  0.2121631E-04  0.6409577E-03 -0.1911958E-05  0.4211876E-03
6351000. -0.2048429E-03 -0.1573197E-03  0.2111396E-04  0.6632668E-03 -0.1977984E-05  0.4201010E-03
6350000. -0.2048115E-03 -0.2425076E-03  0.2100811E-04  0.6854459E-03 -0.2043837E-05  0.4189928E-03
6349000. -0.2047667E-03 -0.3280747E-03  0.2089879E-04  0.7074911E-03 -0.2109514E-05  0.4178631E-03
6348000. -0.2047085E-03 -0.4140142E-03  0.2078602E-04  0.7293985E-03 -0.2175012E-05  0.4167120E-03
6347000. -0.2046367E-03 -0.5003190E-03  0.2066982E-04  0.7511646E-03 -0.2240328E-05  0.4155395E-03
6346600. -0.2046042E-03 -0.5349417E-03  0.2062239E-04  0.7598305E-03 -0.2266402E-05  0.4150645E-03
6346600. -0.2046042E-03  0.3535553E-03  0.2062239E-04  0.5864413E-03 -0.2266402E-05  0.4864070E-03
6318800. -0.2021608E-03 -0.1512218E-02  0.1711497E-04  0.1005244E-02 -0.4314266E-05  0.4500543E-03
6291000. -0.1911455E-03 -0.3556840E-02  0.1201732E-04  0.1309133E-02 -0.6175683E-05  0.4010890E-03
6291000. -0.1911455E-03 -0.3589449E-02  0.1201732E-04  0.1347117E-02 -0.6175683E-05  0.4010890E-03
6263000. -0.1706152E-03 -0.5750730E-02  0.5677846E-05  0.1509765E-02 -0.7807463E-05  0.3396011E-03
6235000. -0.1407368E-03 -0.7816753E-02 -0.9990854E-06  0.1499553E-02 -0.9145297E-05  0.2675988E-03
6207000. -0.1022844E-03 -0.9625711E-02 -0.7252948E-05  0.1319303E-02 -0.1014691E-04  0.1869401E-03
6179000. -0.5673202E-04 -0.1102349E-01 -0.1237699E-04  0.9904205E-03 -0.1077906E-04  0.9987110E-04
6151000. -0.6186652E-05 -0.1187859E-01 -0.1579530E-04  0.5504952E-03 -0.1101917E-04  0.8993396E-05
6151000. -0.6186652E-05 -0.9778781E-02 -0.1579530E-04  0.4826128E-03 -0.1101917E-04  0.9335676E-05
6128500.  0.2849006E-04 -0.9806891E-02 -0.1688126E-04  0.1299229E-03 -0.1095184E-04 -0.4729289E-04
6106000.  0.6271009E-04 -0.9520716E-02 -0.1670929E-04 -0.2259196E-03 -0.1068687E-04 -0.1024401E-03
6083500.  0.9537800E-04 -0.8930839E-02 -0.1530849E-04 -0.5623203E-03 -0.1023104E-04 -0.1552462E-03
6061000.  0.1254605E-03 -0.8061725E-02 -0.1278502E-04 -0.8584423E-03 -0.9594020E-05 -0.2049213E-03
6038500.  0.1520334E-03 -0.6950419E-02 -0.9313707E-05 -0.1096414E-02 -0.8788158E-05 -0.2507515E-03
6016000.  0.1743227E-03 -0.5644387E-02 -0.5125796E-05 -0.1262310E-02 -0.7828171E-05 -0.2921073E-03
5993500.  0.1917362E-03 -0.4198975E-02 -0.4936674E-06 -0.1346846E-02 -0.6730832E-05 -0.3284531E-03
5971000.  0.2038875E-03 -0.2674532E-02  0.4286380E-05 -0.1345807E-02 -0.5514652E-05 -0.3593413E-03
5971000.  0.2038875E-03 -0.2410512E-02  0.4286380E-05 -0.1221006E-02 -0.5514652E-05 -0.3860319E-03
5937667.  0.2108596E-03 -0.2825206E-03  0.1029225E-04 -0.1052106E-02 -0.3392977E-05 -0.4228031E-03
5904333.  0.2072569E-03  0.1609866E-02  0.1509171E-04 -0.7664845E-03 -0.1113222E-05 -0.4464891E-03
5871000.  0.1946188E-03  0.3156740E-02  0.1818425E-04 -0.4071718E-03  0.1257154E-05 -0.4575757E-03
5837667.  0.1749433E-03  0.4292867E-02  0.1930235E-04 -0.1908176E-04  0.3654152E-05 -0.4568058E-03
5804333.  0.1504537E-03  0.4996433E-02  0.1840688E-04  0.3560570E-03  0.6018132E-05 -0.4450899E-03
5771000.  0.1233866E-03  0.5284060E-02  0.1566051E-04  0.6833638E-03  0.8294326E-05 -0.4234528E-03
5771000.  0.1233866E-03  0.5284244E-02  0.1566051E-04  0.6833376E-03  0.8294326E-05 -0.4234528E-03
5701000.  0.6541804E-04  0.5034051E-02  0.5007234E-05  0.1195279E-02  0.1253239E-04 -0.3414036E-03
5701000.  0.6541804E-04  0.4197376E-02  0.5007234E-05  0.9308793E-03  0.1253239E-04 -0.3598426E-03
5667333.  0.4426942E-04  0.3783108E-02 -0.1029846E-06  0.9909302E-03  0.1432216E-04 -0.3164780E-03
5633667.  0.2562653E-04  0.3259754E-02 -0.5338858E-05  0.9792092E-03  0.1586677E-04 -0.2672272E-03
5600000.  0.9902068E-05  0.2688247E-02 -0.1033698E-04  0.9023613E-03  0.1713761E-04 -0.2129958E-03
5600000.  0.9902068E-05  0.2688198E-02 -0.1033698E-04  0.9024058E-03  0.1713761E-04 -0.2129958E-03
5563518. -0.3717060E-05  0.2070156E-02 -0.1517815E-04  0.7775043E-03  0.1817793E-04 -0.1496534E-03
5527037. -0.1388649E-04  0.1493829E-02 -0.1912728E-04  0.5930409E-03  0.1884483E-04 -0.8281896E-04
5490556. -0.2101435E-04  0.1016293E-02 -0.2188447E-04  0.3639872E-03  0.1912244E-04 -0.1391585E-04
5454074. -0.2579860E-04  0.6811610E-03 -0.2324504E-04  0.1084108E-03  0.1900298E-04  0.5562566E-04
5417593. -0.2914014E-04  0.5154175E-03 -0.2311296E-04 -0.1540289E-03  0.1848688E-04  0.1243898E-03
5381111. -0.3204268E-04  0.5276955E-03 -0.2150546E-04 -0.4037166E-03  0.1758250E-04  0.1910133E-03
5344630. -0.3550615E-04  0.7082687E-03 -0.1854858E-04 -0.6225408E-03  0.1630591E-04  0.2541956E-03
5308148. -0.4042541E-04  0.1030392E-02 -0.1446409E-04 -0.7952809E-03  0.1468022E-04  0.3127377E-03
5271667. -0.4749918E-04  0.1453003E-02 -0.9550661E-05 -0.9105922E-03  0.1273527E-04  0.3655504E-03
5235185. -0.5715967E-04  0.1924570E-02 -0.4158388E-05 -0.9617669E-03  0.1050655E-04  0.4116868E-03
5198704. -0.6952361E-04  0.2387541E-02  0.1337727E-05 -0.9470340E-03  0.8034771E-05  0.4503478E-03
5162222. -0.8437409E-04  0.2783340E-02  0.6567259E-05 -0.8695161E-03  0.5364484E-05  0.4809045E-03
5125741. -0.1011657E-03  0.3057144E-02  0.1119019E-04 -0.7368194E-03  0.2543631E-05  0.5029015E-03
5089259. -0.1190630E-03  0.3162495E-02  0.1492174E-04 -0.5602983E-03 -0.3780551E-06  0.5160651E-03
5052778. -0.1369953E-03  0.3065036E-02  0.1755023E-04 -0.3541155E-03 -0.3349482E-05  0.5203025E-03
5016296. -0.1537392E-03  0.2745360E-02  0.1895070E-04 -0.1340756E-03 -0.6319859E-05  0.5156982E-03
4979815. -0.1680053E-03  0.2200732E-02  0.1909044E-04  0.8352735E-04 -0.9239042E-05  0.5025057E-03
4943333. -0.1785392E-03  0.1445440E-02  0.1802854E-04  0.2831427E-03 -0.1205912E-04  0.4811363E-03
4906852. -0.1842142E-03  0.5101220E-03  0.1590860E-04  0.4510006E-03 -0.1473462E-04  0.4521391E-03
4870370. -0.1841221E-03 -0.5604055E-03  0.1294540E-04  0.5760694E-03 -0.1722389E-04  0.4161872E-03
4833889. -0.1776449E-03 -0.1709950E-02  0.9407769E-05  0.6507023E-03 -0.1948915E-04  0.3740565E-03
4797407. -0.1645093E-03 -0.2874904E-02  0.5597101E-05  0.6710941E-03 -0.2149754E-04  0.3265923E-03
4760926. -0.1448191E-03 -0.3988306E-02  0.1825639E-05  0.6373978E-03 -0.2322097E-04  0.2747048E-03
4724444. -0.1190578E-03 -0.4984554E-02 -0.1606738E-05  0.5535914E-03 -0.2463689E-04  0.2193268E-03
4687963. -0.8807344E-04 -0.5803535E-02 -0.4432638E-05  0.4270949E-03 -0.2572794E-04  0.1614066E-03
4651482. -0.5303019E-04 -0.6394830E-02 -0.6435830E-05  0.2681380E-03 -0.2648228E-04  0.1018759E-03
4615000. -0.1534505E-04 -0.6720895E-02 -0.7464811E-05  0.8898284E-04 -0.2689330E-04  0.4163431E-04
4578518.  0.2339091E-04 -0.6759529E-02 -0.7441952E-05 -0.9695462E-04 -0.2695938E-04 -0.1846209E-04
4542037.  0.6150728E-04 -0.6505409E-02 -0.6367584E-05 -0.2760476E-03 -0.2668367E-04 -0.7761843E-04
4505556.  0.9735463E-04 -0.5970394E-02 -0.4318401E-05 -0.4353882E-03 -0.2607365E-04 -0.1351148E-03
4469074.  0.1293989E-03 -0.5182794E-02 -0.1440889E-05 -0.5636101E-03 -0.2514068E-04 -0.1903098E-03
4432593.  0.1563091E-03 -0.4185705E-02  0.2059261E-05 -0.6515894E-03 -0.2389963E-04 -0.2426423E-03
4396111.  0.1770396E-03 -0.3034215E-02  0.5932268E-05 -0.6930014E-03 -0.2236821E-04 -0.2916430E-03
4359630.  0.1908851E-03 -0.1792265E-02  0.9900553E-05 -0.6846418E-03 -0.2056675E-04 -0.3369181E-03
4323148.  0.1975235E-03 -0.5285071E-03  0.1367792E-04 -0.6265581E-03 -0.1851738E-04 -0.3781681E-03
4286667.  0.1970293E-03  0.6875155E-03  0.1698719E-04 -0.5219734E-03 -0.1624397E-04 -0.4151598E-03
4250185.  0.1898675E-03  0.1789726E-02  0.1957845E-04 -0.3769828E-03 -0.1377124E-04 -0.4477423E-03
4213704.  0.1768636E-03  0.2719120E-02  0.2124362E-04 -0.2001286E-03 -0.1112486E-04 -0.4758245E-03
4177222.  0.1591504E-03  0.3427339E-02  0.2182928E-04 -0.1777916E-05 -0.8330569E-05 -0.4993775E-03
4140741.  0.1381031E-03  0.3879192E-02  0.2124498E-04  0.2065238E-03 -0.5414413E-05 -0.5184237E-03
4104259.  0.1152534E-03  0.4054649E-02  0.1946791E-04  0.4128258E-03 -0.2401866E-05 -0.5330307E-03
4067778.  0.9220443E-04  0.3949696E-02  0.1654334E-04  0.6054563E-03  0.6817796E-06 -0.5433070E-03
4031296.  0.7053354E-04  0.3576412E-02  0.1258052E-04  0.7737608E-03  0.3812286E-05 -0.5493938E-03
3994815.  0.5170731E-04  0.2962037E-02  0.7745864E-05  0.9086589E-03  0.6965965E-05 -0.5514615E-03
3958333.  0.3699494E-04  0.2147136E-02  0.2251453E-05  0.1003175E-02  0.1012052E-04 -0.5497054E-03
3921852.  0.2740246E-04  0.1183231E-02 -0.3656897E-05  0.1052747E-02  0.1325450E-04 -0.5443408E-03
3885370.  0.2361592E-04  0.1295420E-03 -0.9715362E-05  0.1055451E-02  0.1634807E-04 -0.5356011E-03
3848889.  0.2596861E-04 -0.9502757E-03 -0.1565609E-04  0.1012023E-02  0.1938243E-04 -0.5237350E-03
3812407.  0.3442581E-04 -0.1991982E-02 -0.2122345E-04  0.9257302E-03  0.2234060E-04 -0.5090022E-03
3775926.  0.4859059E-04 -0.2934099E-02 -0.2618656E-04  0.8021223E-03  0.2520675E-04 -0.4916728E-03
3739444.  0.6773210E-04 -0.3721577E-02 -0.3035253E-04  0.6486463E-03  0.2796697E-04 -0.4720209E-03
3702963.  0.9082737E-04 -0.4308521E-02 -0.3357500E-04  0.4741878E-03  0.3060861E-04 -0.4503249E-03
3666482.  0.1166247E-03 -0.4660753E-02 -0.3576163E-04  0.2885237E-03  0.3312081E-04 -0.4268579E-03
3630000.  0.1437148E-03 -0.4757487E-02 -0.3687721E-04  0.1017741E-03  0.3549426E-04 -0.4018867E-03
3630000.  0.1437148E-03 -0.4757439E-02 -0.3687721E-04  0.1017695E-03  0.3549426E-04 -0.4018867E-03
3592500.  0.1713304E-03 -0.4579560E-02 -0.3693473E-04 -0.8027192E-04  0.3778089E-04 -0.3748584E-03
3555000.  0.1970868E-03 -0.4127768E-02 -0.3596495E-04 -0.2456780E-03  0.3990464E-04 -0.3465624E-03
3517500.  0.2194239E-03 -0.3422442E-02 -0.3409326E-04 -0.3853093E-03  0.4185831E-04 -0.3170712E-03
3480000.  0.2369472E-03 -0.2499189E-02 -0.3149488E-04 -0.4914496E-03  0.4363491E-04 -0.2863935E-03
3480000.  0.2369472E-03  0.1292627E-02 -0.3010824E-05  0.4393616E-03  0.4363491E-04 -0.1031732E-02
3409422.  0.2075646E-03  0.3908887E-02 -0.7725048E-05  0.4023970E-03  0.5500288E-04 -0.9800800E-03
3338844.  0.1530616E-03  0.5793762E-02 -0.1173780E-04  0.3145537E-03  0.6455041E-04 -0.7126307E-03
3268266.  0.8239289E-04  0.6818051E-02 -0.1455488E-04  0.1890470E-03  0.7023268E-04 -0.2939688E-03
3197688.  0.5162046E-05  0.6989832E-02 -0.1584632E-04  0.4188207E-04  0.7077126E-04  0.2039599E-03
3127109. -0.6974425E-04  0.6424446E-02 -0.1546343E-04 -0.1105925E-03  0.6567767E-04  0.7120013E-03
3056531. -0.1351384E-03  0.5307454E-02 -0.1343099E-04 -0.2537066E-03  0.5517674E-04  0.1171655E-02
2985953. -0.1861045E-03  0.3856820E-02 -0.9919895E-05 -0.3759417E-03  0.4005717E-04  0.1540187E-02
2915375. -0.2201646E-03  0.2290058E-02 -0.5207067E-05 -0.4697636E-03  0.2148269E-04  0.1792769E-02
2844797. -0.2371290E-03  0.7993269E-03  0.3706359E-06 -0.5318848E-03  0.7933628E-06  0.1922158E-02
2774219. -0.2387193E-03 -0.4642388E-03  0.6462607E-05 -0.5630403E-03 -0.2067814E-04  0.1936435E-02
2703641. -0.2280708E-03 -0.1396939E-02  0.1274622E-04 -0.5674380E-03 -0.4175797E-04  0.1855555E-02
2633062. -0.2092085E-03 -0.1940926E-02  0.1896152E-04 -0.5520408E-03 -0.6154124E-04  0.1707408E-02
2562484. -0.1865803E-03 -0.2076034E-02  0.2493727E-04 -0.5258421E-03 -0.7945749E-04  0.1524048E-02
2491906. -0.1647052E-03 -0.1807023E-02  0.3061074E-04 -0.4993192E-03 -0.9530026E-04  0.1338528E-02
2421328. -0.1479861E-03 -0.1147106E-02  0.3604210E-04 -0.4841906E-03 -0.1092240E-03  0.1182730E-02
2350750. -0.1407207E-03 -0.9857048E-04  0.4142900E-04 -0.4936559E-03 -0.1217246E-03  0.1086366E-02
2280172. -0.1473494E-03  0.1371082E-02  0.4712775E-04 -0.5434003E-03 -0.1336158E-03  0.1077261E-02
2209594. -0.1730027E-03  0.3360019E-02  0.5369111E-04 -0.6536703E-03 -0.1460160E-03  0.1182952E-02
2139016. -0.2244623E-03  0.6077463E-02  0.6193791E-04 -0.8530977E-03 -0.1603599E-03  0.1433651E-02
2068438. -0.3117601E-03  0.9916576E-02  0.7307997E-04 -0.1185438E-02 -0.1784515E-03  0.1866642E-02
1997859. -0.4508550E-03  0.1558159E-01  0.8894930E-04 -0.1721503E-02 -0.2025741E-03  0.2532260E-02
1927281. -0.6682118E-03  0.2431713E-01  0.1124044E-03 -0.2580618E-02 -0.2356739E-03  0.3501403E-02
1856703. -0.1008947E-02  0.3834222E-01  0.1480655E-03 -0.3970274E-02 -0.2816374E-03  0.4874250E-02
1786125. -0.1551733E-02  0.6168719E-01  0.2036628E-03 -0.6261527E-02 -0.3456594E-03  0.6787713E-02
1715547. -0.2437041E-02  0.1018630E+00  0.2925750E-03 -0.1013699E-01 -0.4346569E-03  0.9414012E-02
1644969. -0.3922371E-02  0.1732870E+00  0.4387429E-03 -0.1689048E-01 -0.5575256E-03  0.1292778E-01
1574391. -0.6493905E-02  0.3045478E+00  0.6864857E-03 -0.2905558E-01 -0.7246001E-03  0.1737862E-01
1503812. -0.1110029E-01  0.5543791E+00  0.1120824E-02 -0.5177300E-01 -0.9444688E-03  0.2229529E-01
1433234. -0.1966025E-01  0.1048131E+01  0.1911103E-02 -0.9588219E-01 -0.1212943E-02  0.2554283E-01
1362656. -0.3621230E-01  0.2064768E+01  0.3408777E-02 -0.1852296E+00 -0.1479798E-02  0.2009279E-01
1292078. -0.6963406E-01  0.4254074E+01  0.6376362E-02 -0.3747552E+00 -0.1552480E-02 -0.1514715E-01
1221500. -0.1403986E+00  0.9207565E+01  0.1255099E-01 -0.7976512E+00 -0.8190563E-03 -0.1419030E+00
1221500. -0.1403986E+00 -0.1211988E+02 -0.1713260E-01  0.6429210E+00 -0.8190563E-03 -0.8108170E-01
1183328. -0.5625976E-01 -0.1566940E+02 -0.1970425E-01  0.2047366E+00 -0.4313390E-03 -0.5051149E-01
1145156.  0.4335988E-01 -0.1722473E+02 -0.1955681E-01 -0.2483699E+00 -0.1923678E-03 -0.3070152E-01
1106984.  0.1458052E+00 -0.1661938E+02 -0.1687638E-01 -0.6280553E+00 -0.4933380E-04 -0.1798393E-01
1068812.  0.2386290E+00 -0.1407967E+02 -0.1229946E-01 -0.8743262E+00  0.3227935E-04 -0.9863500E-02
1030641.  0.3117039E+00 -0.1013420E+02 -0.6716563E-02 -0.9628780E+00  0.7473333E-04 -0.4695861E-02
 992469.  0.3586437E+00 -0.5476582E+01 -0.1058388E-02 -0.9035215E+00  0.9234187E-04 -0.1435463E-02
 954297.  0.3773369E+00 -0.8181948E+00  0.3884907E-02 -0.7316812E+00  0.9445043E-04  0.5614116E-03
 916125.  0.3696616E+00  0.3239407E+01  0.7582336E-02 -0.4962418E+00  0.8730713E-04  0.1705296E-02
 877953.  0.3405477E+00  0.6288847E+01  0.9804593E-02 -0.2470944E+00  0.7520385E-04  0.2251084E-02
 839781.  0.2966899E+00  0.8149574E+01  0.1059886E-01 -0.2530408E-01  0.6115410E-04  0.2381270E-02
 801609.  0.2452140E+00  0.8852150E+01  0.1021611E-01  0.1427501E+00  0.4720658E-04  0.2237686E-02
 763438.  0.1925535E+00  0.8587036E+01  0.9017288E-02  0.2466373E+00  0.3465626E-04  0.1931506E-02
 725266.  0.1436873E+00  0.7635867E+01  0.7382644E-02  0.2897026E+00  0.2419866E-04  0.1552856E-02
 687094.  0.1018130E+00  0.6302420E+01  0.5642328E-02  0.2845060E+00  0.1604536E-04  0.1171571E-02
 648922.  0.6838277E-01  0.4857375E+01  0.4036260E-02  0.2477746E+00  0.1007627E-04  0.8294813E-03
 610750.  0.4341831E-01  0.3503784E+01  0.2703091E-02  0.1959449E+00  0.5973209E-05  0.5513389E-03
 572578.  0.2596276E-01  0.2364861E+01  0.1691771E-02  0.1421659E+00  0.3326684E-05  0.3432379E-03
 534406.  0.1454865E-01  0.1490051E+01  0.9860196E-03  0.9497204E-01  0.1730329E-05  0.1992443E-03
 496234.  0.7590836E-02  0.8727109E+00  0.5322934E-03  0.5837684E-01  0.8344308E-06  0.1072056E-03
 458062.  0.3657122E-02  0.4721098E+00  0.2641624E-03  0.3288308E-01  0.3695955E-06  0.5307383E-04
 419891.  0.1609539E-02  0.2338097E+00  0.1192997E-03  0.1685089E-01  0.1485610E-06  0.2391322E-04
 381719.  0.6380044E-03  0.1047223E+00  0.4836286E-04  0.7769495E-02  0.5335338E-07  0.9675119E-05
 343547.  0.2235309E-03  0.4172358E-01  0.1727753E-04  0.3172785E-02  0.1676538E-07  0.3449019E-05
 305375.  0.6746405E-04  0.1445191E-01  0.5302862E-05  0.1122199E-02  0.4481752E-08  0.1056019E-05
 267203.  0.1691522E-04  0.4212092E-02  0.1348803E-05  0.3328941E-03  0.9792952E-09  0.2678434E-06
 229031.  0.3340411E-05  0.9844045E-03  0.2696057E-06  0.7895444E-04  0.1650031E-09  0.5333293E-07
 190859.  0.4782547E-06  0.1711340E-03  0.3898851E-07  0.1389258E-04  0.1958691E-10  0.7678489E-08
 152688.  0.4320451E-07  0.1950826E-04  0.3550560E-08  0.1598990E-05  0.1407085E-11  0.6954631E-09
 114516.  0.1897231E-08  0.1150509E-05  0.1568781E-09  0.9499561E-07  0.4600703E-13  0.3051320E-10
  76344.  0.2255050E-10  0.2061654E-07  0.1872725E-11  0.1711034E-08  0.3615581E-15  0.3603350E-12
  38172.  0.0000000E+00  0.0000000E+00  0.0000000E+00  0.0000000E+00  0.0000000E+00  0.0000000E+00
      0.  0.0000000E+00  0.0000000E+00  0.0000000E+00  0.0000000E+00  0.0000000E+00  0.0000000E+00
