      16       12 S      648        111.90250         28.61790          6.09591        281.95490      185    7
6371000. -0.3201485E-01 -0.2175579E+00 -0.3959085E-02  0.2805577E-01  0.2666487E-03  0.5690609E-01
6370000. -0.3197918E-01 -0.2369221E+00 -0.3962895E-02  0.2048996E-01  0.2577081E-03  0.5701426E-01
6369000. -0.3194049E-01 -0.2561412E+00 -0.3965516E-02  0.1290883E-01  0.2487510E-03  0.5711717E-01
6368000. -0.3189878E-01 -0.2752130E+00 -0.3966947E-02  0.5314680E-02  0.2397781E-03  0.5721481E-01
6368000. -0.3189878E-01 -0.2752130E+00 -0.3966947E-02  0.5314680E-02  0.2397781E-03  0.5721481E-01
6367000. -0.3185410E-01 -0.2941355E+00 -0.3967184E-02 -0.2290185E-02  0.2307902E-03  0.5730717E-01
6366000. -0.3180645E-01 -0.3129068E+00 -0.3966227E-02 -0.9903462E-02  0.2217883E-03  0.5739423E-01
6365000. -0.3175588E-01 -0.3315248E+00 -0.3964075E-02 -0.1752284E-01  0.2127732E-03  0.5747599E-01
6364000. -0.3170239E-01 -0.3499878E+00 -0.3960726E-02 -0.2514601E-01  0.2037456E-03  0.5755244E-01
6363000. -0.3164602E-01 -0.3682939E+00 -0.3956181E-02 -0.3277066E-01  0.1947064E-03  0.5762357E-01
6362000. -0.3158678E-01 -0.3864412E+00 -0.3950439E-02 -0.4039447E-01  0.1856566E-03  0.5768938E-01
6361000. -0.3152471E-01 -0.4044281E+00 -0.3943500E-02 -0.4801512E-01  0.1765967E-03  0.5774985E-01
6360000. -0.3145983E-01 -0.4222529E+00 -0.3935366E-02 -0.5563030E-01  0.1675278E-03  0.5780497E-01
6359000. -0.3139217E-01 -0.4399140E+00 -0.3926037E-02 -0.6323768E-01  0.1584507E-03  0.5785474E-01
6358000. -0.3132174E-01 -0.4574098E+00 -0.3915515E-02 -0.7083496E-01  0.1493662E-03  0.5789916E-01
6357000. -0.3124858E-01 -0.4747389E+00 -0.3903801E-02 -0.7841980E-01  0.1402752E-03  0.5793822E-01
6356000. -0.3117272E-01 -0.4918997E+00 -0.3890898E-02 -0.8598991E-01  0.1311784E-03  0.5797191E-01
6356000. -0.3117272E-01 -0.3687096E+00 -0.3890898E-02 -0.4106298E-01  0.1311784E-03  0.6475473E-01
6355000. -0.3111385E-01 -0.3814299E+00 -0.3884059E-02 -0.4607527E-01  0.1210086E-03  0.6482828E-01
6354000. -0.3105299E-01 -0.3940459E+00 -0.3876434E-02 -0.5108407E-01  0.1108276E-03  0.6489762E-01
6353000. -0.3099015E-01 -0.4065566E+00 -0.3868023E-02 -0.5608837E-01  0.1006360E-03  0.6496274E-01
6352000. -0.3092537E-01 -0.4189613E+00 -0.3858827E-02 -0.6108715E-01  0.9043453E-04  0.6502363E-01
6351000. -0.3085864E-01 -0.4312591E+00 -0.3848847E-02 -0.6607939E-01  0.8022384E-04  0.6508029E-01
6350000. -0.3078999E-01 -0.4434493E+00 -0.3838083E-02 -0.7106408E-01  0.7000459E-04  0.6513273E-01
6349000. -0.3071943E-01 -0.4555312E+00 -0.3826539E-02 -0.7604020E-01  0.5977743E-04  0.6518092E-01
6348000. -0.3064699E-01 -0.4675039E+00 -0.3814213E-02 -0.8100675E-01  0.4954305E-04  0.6522487E-01
6347000. -0.3057268E-01 -0.4793669E+00 -0.3801109E-02 -0.8596268E-01  0.3930210E-04  0.6526458E-01
6346600. -0.3054244E-01 -0.4840812E+00 -0.3795650E-02 -0.8794188E-01  0.3520403E-04  0.6527927E-01
6346600. -0.3054244E-01 -0.3983656E+00 -0.3795650E-02 -0.5065089E-01  0.3520403E-04  0.7592897E-01
6318800. -0.2832031E-01 -0.6096025E+00 -0.3347920E-02 -0.1529955E+00 -0.2985649E-03  0.7660306E-01
6291000. -0.2531673E-01 -0.7562675E+00 -0.2482957E-02 -0.2399277E+00 -0.6293632E-03  0.7456431E-01
6291000. -0.2531673E-01 -0.7688510E+00 -0.2482957E-02 -0.2488202E+00 -0.6293632E-03  0.7456431E-01
6263000. -0.2173604E-01 -0.8503724E+00 -0.1239105E-02 -0.3116780E+00 -0.9472547E-03  0.6964835E-01
6235000. -0.1792252E-01 -0.8772165E+00  0.2028062E-03 -0.3379425E+00 -0.1237732E-02  0.6212251E-01
6207000. -0.1408090E-01 -0.8663338E+00  0.1672156E-02 -0.3239687E+00 -0.1489839E-02  0.5223644E-01
6179000. -0.1033363E-01 -0.8376767E+00  0.2993224E-02 -0.2711045E+00 -0.1693914E-02  0.4032702E-01
6151000. -0.6714948E-02 -0.8108893E+00  0.4006973E-02 -0.1855137E+00 -0.1841938E-02  0.2680242E-01
6151000. -0.6714948E-02 -0.6014402E+00  0.4006973E-02 -0.1617523E+00 -0.1841938E-02  0.2717393E-01
6128500. -0.4643100E-02 -0.5748314E+00  0.4444284E-02 -0.8462145E-01 -0.1920373E-02  0.1716848E-01
6106000. -0.2631569E-02 -0.5678152E+00  0.4598972E-02 -0.2652189E-02 -0.1962784E-02  0.6807254E-02
6083500. -0.6071100E-03 -0.5822273E+00  0.4464079E-02  0.7842184E-01 -0.1968275E-02 -0.3706098E-02
6061000.  0.1505124E-02 -0.6171471E+00  0.4052639E-02  0.1530764E+00 -0.1936668E-02 -0.1416785E-01
6038500.  0.3772055E-02 -0.6690469E+00  0.3396264E-02  0.2163771E+00 -0.1868500E-02 -0.2437830E-01
6016000.  0.6243999E-02 -0.7321213E+00  0.2542458E-02  0.2643035E+00 -0.1765000E-02 -0.3414540E-01
5993500.  0.8947494E-02 -0.7988098E+00  0.1550940E-02  0.2939943E+00 -0.1628057E-02 -0.4328858E-01
5971000.  0.1188022E-01 -0.8604445E+00  0.4892334E-03  0.3039108E+00 -0.1460172E-02 -0.5164186E-01
5971000.  0.1188022E-01 -0.7765715E+00  0.4892334E-03  0.2690910E+00 -0.1460172E-02 -0.5319707E-01
5937667.  0.1602732E-01 -0.8023180E+00 -0.8642096E-03  0.2429375E+00 -0.1154093E-02 -0.6341515E-01
5904333.  0.2019515E-01 -0.7820185E+00 -0.2004744E-02  0.1892532E+00 -0.8008963E-03 -0.7116633E-01
5871000.  0.2411106E-01 -0.7049305E+00 -0.2814332E-02  0.1182403E+00 -0.4139990E-03 -0.7628436E-01
5837667.  0.2746738E-01 -0.5683309E+00 -0.3230666E-02  0.4069414E-01 -0.7335135E-05 -0.7872435E-01
5804333.  0.2996290E-01 -0.3772931E+00 -0.3246231E-02 -0.3343079E-01  0.4052199E-03 -0.7855089E-01
5771000.  0.3134069E-01 -0.1435002E+00 -0.2901063E-02 -0.9604934E-01  0.8103503E-03 -0.7592477E-01
5771000.  0.3134069E-01 -0.1435285E+00 -0.2901063E-02 -0.9604745E-01  0.8103503E-03 -0.7592477E-01
5701000.  0.2976373E-01  0.4452829E+00 -0.1324364E-02 -0.1771630E+00  0.1574859E-02 -0.6176515E-01
5701000.  0.2976373E-01  0.3548533E+00 -0.1324364E-02 -0.1473665E+00  0.1574859E-02 -0.7015447E-01
5667333.  0.2722815E-01  0.6020271E+00 -0.5264619E-03 -0.1518856E+00  0.1922879E-02 -0.6130170E-01
5633667.  0.2344426E-01  0.8247461E+00  0.2535702E-03 -0.1409515E+00  0.2220295E-02 -0.5106302E-01
5600000.  0.1857939E-01  0.1009010E+01  0.9404955E-03 -0.1171528E+00  0.2460716E-02 -0.3978555E-01
5600000.  0.1857939E-01  0.1009015E+01  0.9404955E-03 -0.1171574E+00  0.2460716E-02 -0.3978555E-01
5563518.  0.1232751E-01  0.1164835E+01  0.1516908E-02 -0.8237056E-01  0.2651459E-02 -0.2670301E-01
5527037.  0.5361255E-02  0.1256985E+01  0.1867437E-02 -0.3901608E-01  0.2765382E-02 -0.1301918E-01
5490556. -0.1932280E-02  0.1278422E+01  0.1956474E-02  0.8131468E-02  0.2800127E-02  0.8906243E-03
5454074. -0.9141296E-02  0.1227609E+01  0.1776661E-02  0.5405504E-01  0.2755444E-02  0.1466378E-01
5417593. -0.1586071E-01  0.1108611E+01  0.1348900E-02  0.9398850E-01  0.2633109E-02  0.2795822E-01
5381111. -0.2172465E-01  0.9306939E+00  0.7195087E-03  0.1238777E+00  0.2436766E-02  0.4046228E-01
5344630. -0.2643265E-01  0.7074949E+00 -0.4483201E-04  0.1407364E+00  0.2171765E-02  0.5189746E-01
5308148. -0.2977251E-01  0.4557750E+00 -0.8641196E-03  0.1429024E+00  0.1844915E-02  0.6202511E-01
5271667. -0.3163316E-01  0.1940018E+00 -0.1652829E-02  0.1301467E+00  0.1464309E-02  0.7064675E-01
5235185. -0.3201060E-01 -0.5925942E-01 -0.2328306E-02  0.1036554E+00  0.1039016E-02  0.7760689E-01
5198704. -0.3100376E-01 -0.2868309E+00 -0.2818332E-02  0.6588143E-01  0.5789185E-03  0.8279179E-01
5162222. -0.2880244E-01 -0.4743498E+00 -0.3067817E-02  0.2028044E-01  0.9438254E-04  0.8612941E-01
5125741. -0.2566820E-01 -0.6113181E+00 -0.3043517E-02 -0.2902012E-01 -0.4038779E-03  0.8758800E-01
5089259. -0.2190944E-01 -0.6918807E+00 -0.2736816E-02 -0.7761620E-01 -0.9051297E-03  0.8717346E-01
5052778. -0.1785434E-01 -0.7151210E+00 -0.2164206E-02 -0.1212136E+00 -0.1398723E-02  0.8492780E-01
5016296. -0.1382186E-01 -0.6849762E+00 -0.1365480E-02 -0.1560103E+00 -0.1874399E-02  0.8092587E-01
4979815. -0.1009611E-01 -0.6097242E+00 -0.4001177E-03 -0.1790045E+00 -0.2322364E-02  0.7527335E-01
4943333. -0.6902941E-02 -0.5011178E+00  0.6582061E-03 -0.1882390E+00 -0.2733558E-02  0.6810302E-01
4906852. -0.4393923E-02 -0.3732729E+00  0.1727841E-02 -0.1829385E+00 -0.3099708E-02  0.5957257E-01
4870370. -0.2635868E-02 -0.2413476E+00  0.2726310E-02 -0.1635451E+00 -0.3413547E-02  0.4986035E-01
4833889. -0.1609165E-02 -0.1202270E+00  0.3576898E-02 -0.1316514E+00 -0.3668847E-02  0.3916340E-01
4797407. -0.1212804E-02 -0.2319730E-01  0.4215047E-02 -0.8983999E-01 -0.3860580E-02  0.2769191E-01
4760926. -0.1277020E-02  0.3915180E-01  0.4593194E-02 -0.4144845E-01 -0.3984931E-02  0.1566785E-01
4724444. -0.1581305E-02  0.5981704E-01  0.4684399E-02  0.9728414E-02 -0.4039390E-02  0.3318266E-02
4687963. -0.1876702E-02  0.3593389E-01  0.4484010E-02  0.5974631E-01 -0.4022753E-02 -0.9126163E-02
4651482. -0.1910281E-02 -0.3102807E-01  0.4009599E-02  0.1048416E+00 -0.3935130E-02 -0.2143777E-01
4615000. -0.1449612E-02 -0.1354261E+00  0.3299050E-02  0.1417209E+00 -0.3777915E-02 -0.3339527E-01
4578518. -0.3054192E-03 -0.2679446E+00  0.2407198E-02  0.1678066E+00 -0.3553750E-02 -0.4478725E-01
4542037.  0.1649528E-02 -0.4164005E+00  0.1401137E-02  0.1814224E+00 -0.3266452E-02 -0.5541704E-01
4505556.  0.4466992E-02 -0.5667760E+00  0.3546541E-03  0.1818997E+00 -0.2920898E-02 -0.6510701E-01
4469074.  0.8116042E-02 -0.7043816E+00 -0.6575875E-03  0.1695967E+00 -0.2522916E-02 -0.7370113E-01
4432593.  0.1248226E-01 -0.8150532E+00 -0.1565723E-02  0.1458443E+00 -0.2079193E-02 -0.8106723E-01
4396111.  0.1737494E-01 -0.8863406E+00 -0.2310093E-02  0.1128121E+00 -0.1597049E-02 -0.8710065E-01
4359630.  0.2253891E-01 -0.9085083E+00 -0.2845341E-02  0.7332235E-01 -0.1084379E-02 -0.9172353E-01
4323148.  0.2767357E-01 -0.8753495E+00 -0.3143638E-02  0.3060817E-01 -0.5493838E-03 -0.9488770E-01
4286667.  0.3245370E-01 -0.7847242E+00 -0.3196217E-02 -0.1193404E-01 -0.5183223E-06 -0.9657192E-01
4250185.  0.3655454E-01 -0.6387605E+00 -0.3013587E-02 -0.5101684E-01  0.5537794E-03 -0.9678300E-01
4213704.  0.3967518E-01 -0.4437797E+00 -0.2624217E-02 -0.8369557E-01  0.1105122E-02 -0.9555238E-01
4177222.  0.4156224E-01 -0.2098448E+00 -0.2071891E-02 -0.1075871E+00  0.1645429E-02 -0.9293387E-01
4140741.  0.4202901E-01  0.4988401E-01 -0.1412100E-02 -0.1210245E+00  0.2166925E-02 -0.8900115E-01
4104259.  0.4097079E-01  0.3201169E+00 -0.7074912E-03 -0.1231652E+00  0.2662361E-02 -0.8384252E-01
4067778.  0.3837422E-01  0.5844444E+00 -0.2315049E-04 -0.1140264E+00  0.3124974E-02 -0.7755924E-01
4031296.  0.3432002E-01  0.8265350E+00  0.5784295E-03 -0.9446113E-01  0.3548654E-02 -0.7025836E-01
3994815.  0.2898004E-01  0.1031214E+01  0.1041779E-02 -0.6607493E-01  0.3927869E-02 -0.6205115E-01
3958333.  0.2260650E-01  0.1185553E+01  0.1322509E-02 -0.3108547E-01  0.4257764E-02 -0.5304667E-01
3921852.  0.1551781E-01  0.1279725E+01  0.1390244E-02  0.7846865E-02  0.4534058E-02 -0.4334900E-01
3885370.  0.8077332E-02  0.1307685E+01  0.1230639E-02  0.4782664E-01  0.4753069E-02 -0.3305221E-01
3848889.  0.6720047E-03  0.1267568E+01  0.8461205E-03  0.8592668E-01  0.4911599E-02 -0.2223835E-01
3812407. -0.6313686E-02  0.1161806E+01  0.2554255E-03  0.1194006E+00  0.5006888E-02 -0.1097213E-01
3775926. -0.1252041E-01  0.9969786E+00 -0.5078730E-03  0.1458602E+00  0.5036484E-02  0.6997717E-03
3739444. -0.1763803E-01  0.7833415E+00 -0.1398026E-02  0.1634376E+00  0.4998145E-02  0.1275382E-01
3702963. -0.2142360E-01  0.5341886E+00 -0.2360250E-02  0.1708910E+00  0.4889697E-02  0.2518968E-01
3666482. -0.2371728E-01  0.2649580E+00 -0.3334696E-02  0.1676750E+00  0.4708888E-02  0.3803460E-01
3630000. -0.2445134E-01 -0.7752151E-02 -0.4260429E-02  0.1539537E+00  0.4453221E-02  0.5134600E-01
3630000. -0.2445134E-01 -0.7748585E-02 -0.4260429E-02  0.1539524E+00  0.4453221E-02  0.5134600E-01
3592500. -0.2361732E-01 -0.2721109E+00 -0.5101488E-02  0.1301699E+00  0.4109280E-02  0.6563763E-01
3555000. -0.2130667E-01 -0.5066623E+00 -0.5774833E-02  0.9724983E-01  0.3679029E-02  0.8069517E-01
3517500. -0.1774278E-01 -0.6955055E+00 -0.6232271E-02  0.5718390E-01  0.3157525E-02  0.9667382E-01
3480000. -0.1323479E-01 -0.8255555E+00 -0.6438813E-02  0.1244172E-01  0.2538771E-02  0.1137780E+00
3480000. -0.1323479E-01  0.5396419E-02  0.3933407E-04 -0.2430247E-01  0.2538771E-02  0.1554092E+00
3409422. -0.1217948E-01 -0.1904561E+00  0.3069787E-03 -0.2333661E-01  0.9070176E-03  0.1369459E+00
3338844. -0.9184957E-02 -0.3407207E+00  0.5422588E-03 -0.1856520E-01 -0.4501185E-03  0.1062915E+00
3268266. -0.4864549E-02 -0.4280274E+00  0.7074515E-03 -0.1086478E-01 -0.1416403E-02  0.6712549E-01
3197688.  0.4763106E-04 -0.4477870E+00  0.7766487E-03 -0.1453723E-02 -0.1923858E-02  0.2431118E-01
3127109.  0.4829783E-02 -0.4063594E+00  0.7382731E-03  0.8335996E-02 -0.1960357E-02 -0.1708542E-01
3056531.  0.8876890E-02 -0.3179167E+00  0.5951721E-03  0.1726325E-01 -0.1567114E-02 -0.5261949E-01
2985953.  0.1176753E-01 -0.2007827E+00  0.3626834E-03  0.2433491E-01 -0.8283397E-03 -0.7904517E-01
2915375.  0.1328998E-01 -0.7397202E-01  0.6530969E-04  0.2890015E-01  0.1438788E-03 -0.9459930E-01
2844797.  0.1343366E-01  0.4560879E-01 -0.2673100E-03  0.3068282E-01  0.1226326E-02 -0.9901912E-01
2774219.  0.1235448E-01  0.1450419E+00 -0.6044673E-03  0.2975838E-01  0.2300351E-02 -0.9334369E-01
2703641.  0.1032475E-01  0.2163045E+00 -0.9179583E-03  0.2649035E-01  0.3264491E-02 -0.7957336E-01
2633062.  0.7677955E-02  0.2563088E+00 -0.1184804E-02  0.2144180E-01  0.4042919E-02 -0.6026443E-01
2562484.  0.4757307E-02  0.2662601E+00 -0.1388910E-02  0.1527857E-01  0.4589317E-02 -0.3813117E-01
2491906.  0.1873481E-02  0.2506077E+00 -0.1521711E-02  0.8678404E-02  0.4886718E-02 -0.1570229E-01
2421328. -0.7243287E-03  0.2157993E+00 -0.1581857E-02  0.2255256E-02  0.4943930E-02  0.4928682E-02
2350750. -0.2863811E-02  0.1690758E+00 -0.1574181E-02 -0.3495384E-02  0.4789817E-02  0.2225037E-01
2280172. -0.4452313E-02  0.1174263E+00 -0.1508201E-02 -0.8225654E-02  0.4466504E-02  0.3538002E-01
2209594. -0.5469599E-02  0.6683390E-01 -0.1396429E-02 -0.1174338E-01  0.4022555E-02  0.4402577E-01
2139016. -0.5953867E-02  0.2181419E-01 -0.1252682E-02 -0.1400110E-01  0.3506928E-02  0.4838863E-01
2068438. -0.5984338E-02 -0.1474956E-01 -0.1090614E-02 -0.1507182E-01  0.2964224E-02  0.4903020E-01
1997859. -0.5663299E-02 -0.4154613E-01 -0.9225428E-03 -0.1511670E-01  0.2431480E-02  0.4672983E-01
1927281. -0.5099999E-02 -0.5858317E-01 -0.7586845E-03 -0.1435012E-01  0.1936539E-02  0.4235147E-01
1856703. -0.4397749E-02 -0.6686080E-01 -0.6067267E-03 -0.1300769E-01  0.1497704E-02  0.3673355E-01
1786125. -0.3645050E-02 -0.6799264E-01 -0.4717625E-03 -0.1131862E-01  0.1124518E-02  0.3060978E-01
1715547. -0.2910725E-02 -0.6386413E-01 -0.3564779E-03 -0.9485602E-02  0.8192100E-03  0.2456226E-01
1644969. -0.2242571E-02 -0.5634380E-01 -0.2615194E-03 -0.7672772E-02  0.5784895E-03  0.1900399E-01
1574391. -0.1668796E-02 -0.4707100E-01 -0.1859546E-03 -0.6000772E-02  0.3954096E-03  0.1418508E-01
1503812. -0.1201365E-02 -0.3732129E-01 -0.1277489E-03 -0.4548733E-02  0.2610545E-03  0.1021510E-01
1433234. -0.8405180E-03 -0.2792870E-01 -0.8418855E-04 -0.3362315E-02  0.1659375E-03  0.7094017E-02
1362656. -0.5799675E-03 -0.1922201E-01 -0.5217551E-04 -0.2467891E-02  0.1010278E-03  0.4743400E-02
1292078. -0.4131355E-03 -0.1088878E-01 -0.2831893E-04 -0.1897625E-02  0.5848215E-04  0.3030472E-02
1221500. -0.3421608E-03 -0.1552572E-02 -0.8628423E-05 -0.1739670E-02  0.3220031E-04  0.1770718E-02
1221500. -0.3421608E-03  0.2851054E-02 -0.2484150E-05  0.1771657E-02  0.3220031E-04  0.1918943E-02
1183328. -0.3307805E-03 -0.6854451E-02 -0.1346407E-04  0.1807657E-02  0.2239678E-04  0.1379828E-02
1145156. -0.2598834E-03 -0.1663442E-01 -0.2321142E-04  0.1379509E-02  0.1538848E-04  0.9798381E-03
1106984. -0.1355827E-03 -0.2436465E-01 -0.2937939E-04  0.6449673E-03  0.1044269E-04  0.6865573E-03
1068812.  0.2488254E-04 -0.2852018E-01 -0.3074006E-04 -0.1899007E-03  0.6999862E-05  0.4743674E-03
1030641.  0.1976789E-03 -0.2845325E-01 -0.2730141E-04 -0.9275796E-03  0.4637011E-05  0.3231100E-03
 992469.  0.3578940E-03 -0.2443415E-01 -0.2011042E-04 -0.1424666E-02  0.3038161E-05  0.2170095E-03
 954297.  0.4845809E-03 -0.1747711E-01 -0.1084551E-04 -0.1615886E-02  0.1971026E-05  0.1438390E-03
 916125.  0.5643328E-03 -0.9023767E-02 -0.1335168E-05 -0.1514618E-02  0.1267613E-05  0.9424466E-04
 877953.  0.5927535E-03 -0.5812536E-03  0.6864332E-05 -0.1194052E-02  0.8088289E-06  0.6117002E-04
 839781.  0.5738625E-03  0.6592952E-02  0.1274245E-04 -0.7579104E-03  0.5120876E-06  0.3942128E-04
 801609.  0.5179250E-03  0.1169416E-01  0.1592473E-04 -0.3101566E-03  0.3213287E-06  0.2527410E-04
 763438.  0.4384747E-03  0.1443643E-01  0.1660024E-04  0.6805855E-04  0.1992912E-06  0.1612657E-04
 725266.  0.3493168E-03  0.1499464E-01  0.1534235E-04  0.3306360E-03  0.1216410E-06  0.1022152E-04
 687094.  0.2621794E-03  0.1386149E-01  0.1289202E-04  0.4669787E-03  0.7263603E-07  0.6411481E-05
 648922.  0.1853177E-03  0.1167371E-01  0.9965297E-05  0.4942035E-03  0.4212915E-07  0.3949733E-05
 610750.  0.1231483E-03  0.9052604E-02  0.7122715E-05  0.4449647E-03  0.2354760E-07  0.2369809E-05
 572578.  0.7670518E-04  0.6492414E-02  0.4713339E-05  0.3553707E-03  0.1257191E-07  0.1371158E-05
 534406.  0.4458557E-04  0.4308421E-02  0.2883010E-05  0.2560082E-03  0.6350212E-08  0.7566204E-06
 496234.  0.2403982E-04  0.2639020E-02  0.1623420E-05  0.1673486E-03  0.3003305E-08  0.3936051E-06
 458062.  0.1192825E-04  0.1484381E-02  0.8360338E-06  0.9923240E-04  0.1314260E-08  0.1907342E-06
 419891.  0.5389934E-05  0.7605884E-03  0.3900479E-06  0.5311012E-04  0.5247392E-09  0.8486835E-07
 381719.  0.2187259E-05  0.3509498E-03  0.1627025E-06  0.2541260E-04  0.1879089E-09  0.3411981E-07
 343547.  0.7824206E-06  0.1434986E-03  0.5959618E-07  0.1071208E-04  0.5903256E-10  0.1213714E-07
 305375.  0.2404921E-06  0.5083392E-04  0.1869332E-07  0.3892910E-05  0.1580390E-10  0.3718354E-08
 267203.  0.6126136E-07  0.1510475E-04  0.4844571E-08  0.1181700E-05  0.3461843E-11  0.9452219E-09
 229031.  0.1226283E-07  0.3588376E-05  0.9838770E-09  0.2857419E-06  0.5850185E-12  0.1887932E-09
 190859.  0.1775699E-08  0.6323629E-06  0.1441762E-09  0.5108638E-07  0.6965637E-13  0.2727223E-10
 152688.  0.1618924E-09  0.7288017E-07  0.1327062E-10  0.5955511E-08  0.5017955E-14  0.2477990E-11
 114516.  0.7159724E-11  0.4334523E-08  0.5911884E-12  0.3572949E-09  0.1644483E-15  0.1090114E-12
  76344.  0.8553023E-13  0.7813764E-10  0.7098517E-14  0.6480125E-11  0.1294495E-17  0.1289646E-14
  38172.  0.0000000E+00  0.0000000E+00  0.0000000E+00  0.0000000E+00  0.0000000E+00  0.0000000E+00
      0.  0.0000000E+00  0.0000000E+00  0.0000000E+00  0.0000000E+00  0.0000000E+00  0.0000000E+00
