       3       30 S      250        154.13789          8.51487          8.67597        422.28821      185    7
6371000. -0.5784240E-03 -0.2635744E-01 -0.7333751E-04  0.5050864E-03  0.5554470E-04 -0.6311135E-03
6370000. -0.5742706E-03 -0.2656489E-01 -0.7341284E-04  0.4546596E-03  0.5564348E-04 -0.6274013E-03
6369000. -0.5700850E-03 -0.2676614E-01 -0.7348024E-04  0.4041131E-03  0.5574166E-04 -0.6237403E-03
6368000. -0.5658683E-03 -0.2696116E-01 -0.7353970E-04  0.3534538E-03  0.5583928E-04 -0.6201304E-03
6368000. -0.5658683E-03 -0.2696116E-01 -0.7353970E-04  0.3534538E-03  0.5583928E-04 -0.6201304E-03
6367000. -0.5616216E-03 -0.2714993E-01 -0.7359119E-04  0.3026882E-03  0.5593634E-04 -0.6165723E-03
6366000. -0.5573457E-03 -0.2733242E-01 -0.7363471E-04  0.2518229E-03  0.5603284E-04 -0.6130659E-03
6365000. -0.5530417E-03 -0.2750862E-01 -0.7367024E-04  0.2008648E-03  0.5612880E-04 -0.6096116E-03
6364000. -0.5487105E-03 -0.2767850E-01 -0.7369777E-04  0.1498204E-03  0.5622421E-04 -0.6062097E-03
6363000. -0.5443531E-03 -0.2784205E-01 -0.7371727E-04  0.9869658E-04  0.5631910E-04 -0.6028604E-03
6362000. -0.5399706E-03 -0.2799925E-01 -0.7372874E-04  0.4749995E-04  0.5641347E-04 -0.5995640E-03
6361000. -0.5355639E-03 -0.2815009E-01 -0.7373218E-04 -0.3762730E-05  0.5650732E-04 -0.5963208E-03
6360000. -0.5311340E-03 -0.2829454E-01 -0.7372755E-04 -0.5508471E-04  0.5660067E-04 -0.5931309E-03
6359000. -0.5266819E-03 -0.2843259E-01 -0.7371488E-04 -0.1064592E-03  0.5669352E-04 -0.5899948E-03
6358000. -0.5222086E-03 -0.2856424E-01 -0.7369414E-04 -0.1578795E-03  0.5678588E-04 -0.5869127E-03
6357000. -0.5177153E-03 -0.2868946E-01 -0.7366532E-04 -0.2093388E-03  0.5687777E-04 -0.5838848E-03
6356000. -0.5132027E-03 -0.2880825E-01 -0.7362842E-04 -0.2608303E-03  0.5696918E-04 -0.5809113E-03
6356000. -0.5132027E-03 -0.2471788E-01 -0.7362842E-04  0.1722438E-04  0.5696918E-04 -0.4692444E-03
6355000. -0.5093151E-03 -0.2481852E-01 -0.7362902E-04 -0.9536729E-05  0.5704239E-04 -0.4636069E-03
6354000. -0.5054118E-03 -0.2491585E-01 -0.7362542E-04 -0.3632761E-04  0.5711472E-04 -0.4580081E-03
6353000. -0.5014936E-03 -0.2500986E-01 -0.7361762E-04 -0.6314614E-04  0.5718617E-04 -0.4524479E-03
6352000. -0.4975608E-03 -0.2510053E-01 -0.7360560E-04 -0.8999022E-04  0.5725676E-04 -0.4469266E-03
6351000. -0.4936141E-03 -0.2518787E-01 -0.7358936E-04 -0.1168577E-03  0.5732648E-04 -0.4414440E-03
6350000. -0.4896540E-03 -0.2527188E-01 -0.7356891E-04 -0.1437464E-03  0.5739534E-04 -0.4360004E-03
6349000. -0.4856809E-03 -0.2535253E-01 -0.7354424E-04 -0.1706543E-03  0.5746335E-04 -0.4305959E-03
6348000. -0.4816954E-03 -0.2542983E-01 -0.7351534E-04 -0.1975793E-03  0.5753051E-04 -0.4252304E-03
6347000. -0.4776981E-03 -0.2550377E-01 -0.7348221E-04 -0.2245191E-03  0.5759684E-04 -0.4199040E-03
6346600. -0.4760959E-03 -0.2553240E-01 -0.7346778E-04 -0.2352987E-03  0.5762314E-04 -0.4177845E-03
6346600. -0.4760959E-03 -0.2843061E-01 -0.7346778E-04 -0.2755990E-04  0.5762314E-04 -0.2517768E-03
6318800. -0.3487494E-03 -0.2968625E-01 -0.7251564E-04 -0.4103046E-03  0.5834335E-04 -0.8177741E-04
6291000. -0.2192780E-03 -0.2939422E-01 -0.6988695E-04 -0.7930955E-03  0.5836519E-04  0.6871126E-04
6291000. -0.2192780E-03 -0.3030596E-01 -0.6988695E-04 -0.8272782E-03  0.5836519E-04  0.6871126E-04
6263000. -0.8996951E-04 -0.2825160E-01 -0.6535464E-04 -0.1230198E-02  0.5778416E-04  0.1929125E-03
6235000.  0.2658161E-04 -0.2451831E-01 -0.5913253E-04 -0.1593038E-02  0.5669238E-04  0.3015095E-03
6207000.  0.1233013E-03 -0.1925953E-01 -0.5143778E-04 -0.1897489E-02  0.5515357E-04  0.3967039E-03
6179000.  0.1939799E-03 -0.1271402E-01 -0.4256256E-04 -0.2127899E-02  0.5322191E-04  0.4806381E-03
6151000.  0.2336283E-03 -0.5196603E-02 -0.3286038E-04 -0.2272131E-02  0.5094238E-04  0.5553272E-03
6151000.  0.2336283E-03 -0.6733157E-02 -0.3286038E-04 -0.2028807E-02  0.5094238E-04  0.5424016E-03
6128500.  0.2482137E-03 -0.1514012E-02 -0.2567737E-04 -0.2031350E-02  0.4895027E-04  0.5845636E-03
6106000.  0.2443092E-03  0.3713340E-02 -0.1856537E-04 -0.1988971E-02  0.4682154E-04  0.6198504E-03
6083500.  0.2221461E-03  0.8802716E-02 -0.1167841E-04 -0.1904454E-02  0.4457963E-04  0.6487438E-03
6061000.  0.1824569E-03  0.1361696E-01 -0.5158931E-05 -0.1781568E-02  0.4224630E-04  0.6716890E-03
6038500.  0.1264378E-03  0.1803130E-01  0.8655147E-06 -0.1624941E-02  0.3984182E-04  0.6891129E-03
6016000.  0.5569969E-04  0.2193588E-01  0.6284944E-05 -0.1439866E-02  0.3738495E-04  0.7014222E-03
5993500. -0.2778845E-04  0.2523815E-01  0.1100895E-04 -0.1232108E-02  0.3489306E-04  0.7090077E-03
5971000. -0.1217640E-03  0.2786463E-01  0.1496811E-04 -0.1007753E-02  0.3238216E-04  0.7122529E-03
5971000. -0.1217640E-03  0.2568925E-01  0.1496811E-04 -0.8806593E-03  0.3238216E-04  0.7281928E-03
5937667. -0.2609282E-03  0.2726609E-01  0.1873013E-04 -0.5603228E-03  0.2863020E-04  0.7040590E-03
5904333. -0.4046634E-03  0.2745670E-01  0.2087416E-04 -0.2643719E-03  0.2503437E-04  0.6686990E-03
5871000. -0.5460985E-03  0.2641870E-01  0.2155854E-04 -0.3813531E-05  0.2164991E-04  0.6235524E-03
5837667. -0.6793130E-03  0.2434945E-01  0.2098732E-04  0.2148574E-03  0.1852392E-04  0.5701493E-03
5804333. -0.7994779E-03  0.2146582E-01  0.1938809E-04  0.3889746E-03  0.1569552E-04  0.5100180E-03
5771000. -0.9029019E-03  0.1798760E-01  0.1699414E-04  0.5189551E-03  0.1319614E-04  0.4446439E-03
5771000. -0.9029019E-03  0.1798874E-01  0.1699414E-04  0.5189712E-03  0.1319614E-04  0.4446439E-03
5701000. -0.1058422E-02  0.1007533E-01  0.1048881E-04  0.6419918E-03  0.9365010E-05  0.2505067E-03
5701000. -0.1058422E-02  0.8935111E-02  0.1048881E-04  0.7579392E-03  0.9365010E-05  0.5488376E-03
5667333. -0.1094523E-02  0.4746120E-02  0.6483795E-05  0.7546268E-03  0.6738510E-05  0.4471811E-03
5633667. -0.1108873E-02  0.7179481E-03  0.2542428E-05  0.7348196E-03  0.4617943E-05  0.3574168E-03
5600000. -0.1102526E-02 -0.3076606E-02 -0.1262782E-05  0.7039313E-03  0.2939559E-05  0.2798862E-03
5600000. -0.1102526E-02 -0.3076577E-02 -0.1262782E-05  0.7039049E-03  0.2939559E-05  0.2798862E-03
5563518. -0.1073736E-02 -0.6936484E-02 -0.5137242E-05  0.6480083E-03  0.1544279E-05  0.2097077E-03
5527037. -0.1023622E-02 -0.1051751E-01 -0.8671335E-05  0.5854638E-03  0.5140101E-06  0.1520591E-03
5490556. -0.9538978E-03 -0.1378011E-01 -0.1183396E-04  0.5186506E-03 -0.2173620E-06  0.1050142E-03
5454074. -0.8664674E-03 -0.1669802E-01 -0.1460728E-04  0.4498201E-03 -0.7057526E-06  0.6693848E-04
5417593. -0.7633544E-03 -0.1925733E-01 -0.1698563E-04  0.3810545E-03 -0.9985008E-06  0.3647695E-04
5381111. -0.6466165E-03 -0.2145642E-01 -0.1897494E-04  0.3142060E-03 -0.1135813E-05  0.1246928E-04
5344630. -0.5183026E-03 -0.2330414E-01 -0.2059084E-04  0.2508991E-03 -0.1151764E-05 -0.6060486E-05
5308148. -0.3803678E-03 -0.2481934E-01 -0.2185772E-04  0.1924972E-03 -0.1075285E-05 -0.1993939E-04
5271667. -0.2346505E-03 -0.2602888E-01 -0.2280695E-04  0.1401270E-03 -0.9309769E-06 -0.2985788E-04
5235185. -0.8279776E-04 -0.2696710E-01 -0.2347573E-04  0.9466903E-04 -0.7397977E-06 -0.3639644E-04
5198704.  0.7374099E-04 -0.2767422E-01 -0.2390563E-04  0.5678811E-04 -0.5196994E-06 -0.4003257E-04
5162222.  0.2337785E-03 -0.2819548E-01 -0.2414147E-04  0.2694785E-04 -0.2861392E-06 -0.4115332E-04
5125741.  0.3963806E-03 -0.2858000E-01 -0.2423021E-04  0.5447444E-05 -0.5262513E-07 -0.4006234E-04
5089259.  0.5609218E-03 -0.2888017E-01 -0.2422011E-04 -0.7551731E-05  0.1688523E-06 -0.3697656E-04
5052778.  0.7270666E-03 -0.2915099E-01 -0.2416010E-04 -0.1198671E-04  0.3673015E-06 -0.3203823E-04
5016296.  0.8948187E-03 -0.2944968E-01 -0.2409920E-04 -0.7862199E-05  0.5323262E-06 -0.2530187E-04
4979815.  0.1064498E-02 -0.2983565E-01 -0.2408636E-04  0.4791203E-05  0.6535664E-06 -0.1673568E-04
4943333.  0.1236788E-02 -0.3037050E-01 -0.2417033E-04  0.2594902E-04  0.7202770E-06 -0.6225273E-05
4906852.  0.1412715E-02 -0.3111868E-01 -0.2439985E-04  0.5564178E-04  0.7206640E-06  0.6478709E-05
4870370.  0.1593703E-02 -0.3214804E-01 -0.2482409E-04  0.9397898E-04  0.6412430E-06  0.2171483E-04
4833889.  0.1781555E-02 -0.3353060E-01 -0.2549304E-04  0.1411706E-03  0.4662224E-06  0.3996961E-04
4797407.  0.1978527E-02 -0.3534465E-01 -0.2645853E-04  0.1976249E-03  0.1763897E-06  0.6194145E-04
4760926.  0.2187317E-02 -0.3767582E-01 -0.2777510E-04  0.2639171E-03 -0.2518563E-06  0.8847880E-04
4724444.  0.2411169E-02 -0.4061962E-01 -0.2950134E-04  0.3408533E-03 -0.8477837E-06  0.1207178E-03
4687963.  0.2653877E-02 -0.4428395E-01 -0.3170110E-04  0.4295332E-03 -0.1647987E-05  0.1601018E-03
4651482.  0.2919923E-02 -0.4879257E-01 -0.3444555E-04  0.5313683E-03 -0.2698393E-05  0.2084498E-03
4615000.  0.3214547E-02 -0.5428904E-01 -0.3781507E-04  0.6481488E-03 -0.4056769E-05  0.2680867E-03
4578518.  0.3543867E-02 -0.6094081E-01 -0.4190121E-04  0.7820669E-03 -0.5795720E-05  0.3419197E-03
4542037.  0.3915036E-02 -0.6894495E-01 -0.4680939E-04  0.9357934E-03 -0.8006720E-05  0.4336711E-03
4505556.  0.4336457E-02 -0.7853538E-01 -0.5266210E-04  0.1112554E-02 -0.1080522E-04  0.5479877E-03
4469074.  0.4817999E-02 -0.8998996E-01 -0.5960200E-04  0.1316142E-02 -0.1433676E-04  0.6907704E-03
4432593.  0.5371229E-02 -0.1036388E+00 -0.6779474E-04  0.1551008E-02 -0.1878452E-04  0.8694160E-03
4396111.  0.6009839E-02 -0.1198772E+00 -0.7743429E-04  0.1822305E-02 -0.2437984E-04  0.1093297E-02
4359630.  0.6749927E-02 -0.1391747E+00 -0.8874521E-04  0.2135905E-02 -0.3141437E-04  0.1374364E-02
4323148.  0.7610612E-02 -0.1620931E+00 -0.1019888E-03  0.2498368E-02 -0.4025696E-04  0.1727535E-02
4286667.  0.8614437E-02 -0.1892999E+00 -0.1174648E-03  0.2917017E-02 -0.5137254E-04  0.2171912E-02
4250185.  0.9788221E-02 -0.2215892E+00 -0.1355176E-03  0.3399535E-02 -0.6535008E-04  0.2731503E-02
4213704.  0.1116361E-01 -0.2598985E+00 -0.1565347E-03  0.3953869E-02 -0.8293227E-04  0.3436780E-02
4177222.  0.1277825E-01 -0.3053348E+00 -0.1809504E-03  0.4587497E-02 -0.1050608E-03  0.4326445E-02
4140741.  0.1467644E-01 -0.3591901E+00 -0.2092361E-03  0.5306703E-02 -0.1329245E-03  0.5449311E-02
4104259.  0.1691072E-01 -0.4229684E+00 -0.2418953E-03  0.6114966E-02 -0.1680313E-03  0.6867541E-02
4067778.  0.1954259E-01 -0.4983857E+00 -0.2794341E-03  0.7010476E-02 -0.2122856E-03  0.8659264E-02
4031296.  0.2264430E-01 -0.5873870E+00 -0.3223303E-03  0.7983061E-02 -0.2681018E-03  0.1092388E-01
3994815.  0.2629949E-01 -0.6921042E+00 -0.3709611E-03  0.9008231E-02 -0.3385286E-03  0.1378625E-01
3958333.  0.3060483E-01 -0.8148171E+00 -0.4255105E-03  0.1003959E-01 -0.4274265E-03  0.1740395E-01
3921852.  0.3566970E-01 -0.9578029E+00 -0.4857988E-03  0.1099602E-01 -0.5396613E-03  0.2197493E-01
3885370.  0.4161658E-01 -0.1123140E+01 -0.5510493E-03  0.1174433E-01 -0.6813807E-03  0.2774691E-01
3848889.  0.4857774E-01 -0.1312297E+01 -0.6195055E-03  0.1207251E-01 -0.8603043E-03  0.3502789E-01
3812407.  0.5669148E-01 -0.1525527E+01 -0.6878855E-03  0.1164908E-01 -0.1086137E-02  0.4419932E-01
3775926.  0.6609083E-01 -0.1760816E+01 -0.7505270E-03  0.9965293E-02 -0.1370984E-02  0.5572825E-01
3739444.  0.7688825E-01 -0.2012334E+01 -0.7981579E-03  0.6249022E-02 -0.1729934E-02  0.7018194E-01
3702963.  0.8914495E-01 -0.2267877E+01 -0.8160298E-03 -0.6638826E-03 -0.2181593E-02  0.8823450E-01
3666482.  0.1028262E+00 -0.2505057E+01 -0.7811792E-03 -0.1251806E-01 -0.2748782E-02  0.1106739E+00
3630000.  0.1177265E+00 -0.2685327E+01 -0.6583431E-03 -0.3191908E-01 -0.3459133E-02  0.1383851E+00
3630000.  0.1177265E+00 -0.2685314E+01 -0.6583431E-03 -0.3192102E-01 -0.3459133E-02  0.1383851E+00
3592500.  0.1338271E+00 -0.2757388E+01 -0.3860879E-03 -0.6308396E-01 -0.4372896E-02  0.1732410E+00
3555000.  0.1497297E+00 -0.2594358E+01  0.1205211E-03 -0.1128197E+00 -0.5512929E-02  0.2154208E+00
3517500.  0.1635567E+00 -0.2014359E+01  0.9966881E-03 -0.1905670E+00 -0.6924680E-02  0.2656478E+00
3480000.  0.1720707E+00 -0.7296160E+00  0.2446279E-02 -0.3105394E+00 -0.8656139E-02  0.3239757E+00
3480000.  0.1720707E+00  0.7345675E+01  0.6866965E-02  0.3023294E+00 -0.8656139E-02 -0.2172879E+00
3409422.  0.1062188E+00  0.4716124E+01  0.4179713E-02  0.1906265E+00 -0.6271806E-02 -0.2040838E+00
3338844.  0.6434146E-01  0.2966308E+01  0.2499788E-02  0.1179845E+00 -0.4243867E-02 -0.1600703E+00
3268266.  0.3824611E-01  0.1828453E+01  0.1468829E-02  0.7168598E-01 -0.2730909E-02 -0.1139543E+00
3197688.  0.2230779E-01  0.1104774E+01  0.8477222E-03  0.4275526E-01 -0.1687757E-02 -0.7606451E-01
3127109.  0.1276493E-01  0.6543427E+00  0.4804157E-03  0.2502791E-01 -0.1007607E-02 -0.4836811E-01
3056531.  0.7164115E-02  0.3798858E+00  0.2672436E-03  0.1437616E-01 -0.5831976E-03 -0.2955841E-01
2985953.  0.3942118E-02  0.2161374E+00  0.1458566E-03  0.8100266E-02 -0.3279871E-03 -0.1745060E-01
2915375.  0.2125819E-02  0.1204773E+00  0.7806349E-04  0.4475200E-02 -0.1794792E-03 -0.9984828E-02
2844797.  0.1122850E-02  0.6576640E-01  0.4094619E-04  0.2423072E-02 -0.9563773E-04 -0.5547922E-02
2774219.  0.5805591E-03  0.3514041E-01  0.2103436E-04  0.1285010E-02 -0.4964268E-04 -0.2997012E-02
2703641.  0.2936244E-03  0.1836750E-01  0.1057463E-04  0.6670206E-03 -0.2510154E-04 -0.1574991E-02
2633062.  0.1451460E-03  0.9384755E-02  0.5198161E-05  0.3386311E-03 -0.1236096E-04 -0.8053308E-03
2562484.  0.7006498E-04  0.4683606E-02  0.2496218E-05  0.1679977E-03 -0.5925319E-05 -0.4006113E-03
2491906.  0.3299414E-04  0.2280955E-02  0.1169783E-05  0.8136608E-04 -0.2762988E-05 -0.1937941E-03
2421328.  0.1513993E-04  0.1082879E-02  0.5343397E-06  0.3843057E-04 -0.1252204E-05 -0.9110485E-04
2350750.  0.6761115E-05  0.5005679E-03  0.2376098E-06  0.1768003E-04 -0.5509868E-06 -0.4158598E-04
2280172.  0.2934388E-05  0.2250083E-03  0.1027148E-06  0.7911913E-05 -0.2350926E-06 -0.1841147E-04
2209594.  0.1235811E-05  0.9820968E-04  0.4309685E-07  0.3438968E-05 -0.9712849E-07 -0.7895989E-05
2139016.  0.5041731E-06  0.4155514E-04  0.1752068E-07  0.1449464E-05 -0.3879310E-07 -0.3275295E-05
2068438.  0.1988726E-06  0.1701469E-04  0.6888393E-08  0.5913227E-06 -0.1495058E-07 -0.1311808E-05
1997859.  0.7568556E-07  0.6727736E-05  0.2613455E-08  0.2330175E-06 -0.5548088E-08 -0.5062990E-06
1927281.  0.2772567E-07  0.2563246E-05  0.9546067E-09  0.8849581E-07 -0.1977874E-08 -0.1878896E-06
1856703.  0.9750596E-08  0.9386087E-06  0.3348039E-09  0.3230855E-07 -0.6755599E-09 -0.6687333E-07
1786125.  0.3282284E-08  0.3293964E-06  0.1124151E-09  0.1130666E-07 -0.2204132E-09 -0.2276220E-07
1715547.  0.1054078E-08  0.1104343E-06  0.3601454E-10  0.3780761E-08 -0.6846176E-10 -0.7385455E-08
1644969.  0.3217291E-09  0.3524273E-07  0.1096766E-10  0.1203590E-08 -0.2016629E-10 -0.2275836E-08
1574391.  0.9293726E-10  0.1066150E-07  0.3161305E-11  0.3632952E-09 -0.5608646E-11 -0.6632806E-09
1503812.  0.2529614E-10  0.3041493E-08  0.8578614E-12  0.1035362E-09 -0.1464595E-11 -0.1820581E-09
1433234.  0.0000000E+00  0.0000000E+00  0.0000000E+00  0.0000000E+00  0.0000000E+00  0.0000000E+00
1362656.  0.0000000E+00  0.0000000E+00  0.0000000E+00  0.0000000E+00  0.0000000E+00  0.0000000E+00
1292078.  0.0000000E+00  0.0000000E+00  0.0000000E+00  0.0000000E+00  0.0000000E+00  0.0000000E+00
1221500.  0.0000000E+00  0.0000000E+00  0.0000000E+00  0.0000000E+00  0.0000000E+00  0.0000000E+00
1221500.  0.0000000E+00  0.0000000E+00  0.0000000E+00  0.0000000E+00  0.0000000E+00  0.0000000E+00
1183328.  0.0000000E+00  0.0000000E+00  0.0000000E+00  0.0000000E+00  0.0000000E+00  0.0000000E+00
1145156.  0.0000000E+00  0.0000000E+00  0.0000000E+00  0.0000000E+00  0.0000000E+00  0.0000000E+00
1106984.  0.0000000E+00  0.0000000E+00  0.0000000E+00  0.0000000E+00  0.0000000E+00  0.0000000E+00
1068812.  0.0000000E+00  0.0000000E+00  0.0000000E+00  0.0000000E+00  0.0000000E+00  0.0000000E+00
1030641.  0.0000000E+00  0.0000000E+00  0.0000000E+00  0.0000000E+00  0.0000000E+00  0.0000000E+00
 992469.  0.0000000E+00  0.0000000E+00  0.0000000E+00  0.0000000E+00  0.0000000E+00  0.0000000E+00
 954297.  0.0000000E+00  0.0000000E+00  0.0000000E+00  0.0000000E+00  0.0000000E+00  0.0000000E+00
 916125.  0.0000000E+00  0.0000000E+00  0.0000000E+00  0.0000000E+00  0.0000000E+00  0.0000000E+00
 877953.  0.0000000E+00  0.0000000E+00  0.0000000E+00  0.0000000E+00  0.0000000E+00  0.0000000E+00
 839781.  0.0000000E+00  0.0000000E+00  0.0000000E+00  0.0000000E+00  0.0000000E+00  0.0000000E+00
 801609.  0.0000000E+00  0.0000000E+00  0.0000000E+00  0.0000000E+00  0.0000000E+00  0.0000000E+00
 763438.  0.0000000E+00  0.0000000E+00  0.0000000E+00  0.0000000E+00  0.0000000E+00  0.0000000E+00
 725266.  0.0000000E+00  0.0000000E+00  0.0000000E+00  0.0000000E+00  0.0000000E+00  0.0000000E+00
 687094.  0.0000000E+00  0.0000000E+00  0.0000000E+00  0.0000000E+00  0.0000000E+00  0.0000000E+00
 648922.  0.0000000E+00  0.0000000E+00  0.0000000E+00  0.0000000E+00  0.0000000E+00  0.0000000E+00
 610750.  0.0000000E+00  0.0000000E+00  0.0000000E+00  0.0000000E+00  0.0000000E+00  0.0000000E+00
 572578.  0.0000000E+00  0.0000000E+00  0.0000000E+00  0.0000000E+00  0.0000000E+00  0.0000000E+00
 534406.  0.0000000E+00  0.0000000E+00  0.0000000E+00  0.0000000E+00  0.0000000E+00  0.0000000E+00
 496234.  0.0000000E+00  0.0000000E+00  0.0000000E+00  0.0000000E+00  0.0000000E+00  0.0000000E+00
 458062.  0.0000000E+00  0.0000000E+00  0.0000000E+00  0.0000000E+00  0.0000000E+00  0.0000000E+00
 419891.  0.0000000E+00  0.0000000E+00  0.0000000E+00  0.0000000E+00  0.0000000E+00  0.0000000E+00
 381719.  0.0000000E+00  0.0000000E+00  0.0000000E+00  0.0000000E+00  0.0000000E+00  0.0000000E+00
 343547.  0.0000000E+00  0.0000000E+00  0.0000000E+00  0.0000000E+00  0.0000000E+00  0.0000000E+00
 305375.  0.0000000E+00  0.0000000E+00  0.0000000E+00  0.0000000E+00  0.0000000E+00  0.0000000E+00
 267203.  0.0000000E+00  0.0000000E+00  0.0000000E+00  0.0000000E+00  0.0000000E+00  0.0000000E+00
 229031.  0.0000000E+00  0.0000000E+00  0.0000000E+00  0.0000000E+00  0.0000000E+00  0.0000000E+00
 190859.  0.0000000E+00  0.0000000E+00  0.0000000E+00  0.0000000E+00  0.0000000E+00  0.0000000E+00
 152688.  0.0000000E+00  0.0000000E+00  0.0000000E+00  0.0000000E+00  0.0000000E+00  0.0000000E+00
 114516.  0.0000000E+00  0.0000000E+00  0.0000000E+00  0.0000000E+00  0.0000000E+00  0.0000000E+00
  76344.  0.0000000E+00  0.0000000E+00  0.0000000E+00  0.0000000E+00  0.0000000E+00  0.0000000E+00
  38172.  0.0000000E+00  0.0000000E+00  0.0000000E+00  0.0000000E+00  0.0000000E+00  0.0000000E+00
      0.  0.0000000E+00  0.0000000E+00  0.0000000E+00  0.0000000E+00  0.0000000E+00  0.0000000E+00
