       9        8 S      480        194.48869         24.21443         10.47176        470.42020      185    7
6371000. -0.3957454E-01  0.2577435E+00  0.8004738E-02  0.4757928E-01 -0.2807258E-03  0.7715486E-01
6370000. -0.3961436E-01  0.2496349E+00  0.7996874E-02  0.5261039E-01 -0.2928289E-03  0.7706344E-01
6369000. -0.3965291E-01  0.2414766E+00  0.7988223E-02  0.5763498E-01 -0.3049176E-03  0.7696985E-01
6368000. -0.3969017E-01  0.2332688E+00  0.7978782E-02  0.6265255E-01 -0.3169914E-03  0.7687408E-01
6368000. -0.3969017E-01  0.2332688E+00  0.7978782E-02  0.6265255E-01 -0.3169914E-03  0.7687408E-01
6367000. -0.3972613E-01  0.2250118E+00  0.7968555E-02  0.6766260E-01 -0.3290500E-03  0.7677614E-01
6366000. -0.3976080E-01  0.2167060E+00  0.7957541E-02  0.7266463E-01 -0.3410931E-03  0.7667604E-01
6365000. -0.3979416E-01  0.2083515E+00  0.7945743E-02  0.7765812E-01 -0.3531202E-03  0.7657377E-01
6364000. -0.3982620E-01  0.1999488E+00  0.7933164E-02  0.8264259E-01 -0.3651312E-03  0.7646935E-01
6363000. -0.3985693E-01  0.1914981E+00  0.7919801E-02  0.8761751E-01 -0.3771255E-03  0.7636277E-01
6362000. -0.3988631E-01  0.1829998E+00  0.7905658E-02  0.9258239E-01 -0.3891030E-03  0.7625403E-01
6361000. -0.3991437E-01  0.1744541E+00  0.7890738E-02  0.9753674E-01 -0.4010633E-03  0.7614314E-01
6360000. -0.3994108E-01  0.1658614E+00  0.7875041E-02  0.1024801E+00 -0.4130060E-03  0.7603009E-01
6359000. -0.3996643E-01  0.1572220E+00  0.7858567E-02  0.1074118E+00 -0.4249307E-03  0.7591490E-01
6358000. -0.3999043E-01  0.1485362E+00  0.7841323E-02  0.1123316E+00 -0.4368372E-03  0.7579757E-01
6357000. -0.4001306E-01  0.1398045E+00  0.7823305E-02  0.1172388E+00 -0.4487252E-03  0.7567809E-01
6356000. -0.4003432E-01  0.1310271E+00  0.7804519E-02  0.1221330E+00 -0.4605942E-03  0.7555647E-01
6356000. -0.4003432E-01  0.1418887E+00  0.7804519E-02  0.9272721E-01 -0.4605942E-03  0.8426747E-01
6355000. -0.4005609E-01  0.1355663E+00  0.7789712E-02  0.9594727E-01 -0.4738104E-03  0.8413278E-01
6354000. -0.4007687E-01  0.1292143E+00  0.7774399E-02  0.9916010E-01 -0.4870053E-03  0.8399642E-01
6353000. -0.4009666E-01  0.1228331E+00  0.7758584E-02  0.1023655E+00 -0.5001786E-03  0.8385839E-01
6352000. -0.4011543E-01  0.1164227E+00  0.7742265E-02  0.1055633E+00 -0.5133302E-03  0.8371869E-01
6351000. -0.4013320E-01  0.1099833E+00  0.7725445E-02  0.1087532E+00 -0.5264597E-03  0.8357733E-01
6350000. -0.4014996E-01  0.1035151E+00  0.7708125E-02  0.1119350E+00 -0.5395669E-03  0.8343433E-01
6349000. -0.4016569E-01  0.9701840E-01  0.7690307E-02  0.1151086E+00 -0.5526515E-03  0.8328966E-01
6348000. -0.4018041E-01  0.9049325E-01  0.7671990E-02  0.1182737E+00 -0.5657133E-03  0.8314335E-01
6347000. -0.4019410E-01  0.8393990E-01  0.7653178E-02  0.1214300E+00 -0.5787520E-03  0.8299538E-01
6346600. -0.4019929E-01  0.8131071E-01  0.7645515E-02  0.1226901E+00 -0.5839610E-03  0.8293573E-01
6346600. -0.4019929E-01  0.1690168E+00  0.7645515E-02  0.9843571E-01 -0.5839610E-03  0.9695263E-01
6318800. -0.4063603E-01  0.2796953E-01  0.7073777E-02  0.1626025E+00 -0.9975098E-03  0.9242851E-01
6291000. -0.4041744E-01 -0.1308776E+00  0.6237145E-02  0.2194439E+00 -0.1389147E-02  0.8691324E-01
6291000. -0.4041744E-01 -0.1286619E+00  0.6237145E-02  0.2259770E+00 -0.1389147E-02  0.8691324E-01
6263000. -0.3946372E-01 -0.3075661E+00  0.5131365E-02  0.2753139E+00 -0.1757166E-02  0.8039864E-01
6235000. -0.3769792E-01 -0.4974015E+00  0.3835435E-02  0.3122101E+00 -0.2094434E-02  0.7292696E-01
6207000. -0.3508333E-01 -0.6928917E+00  0.2407560E-02  0.3351549E+00 -0.2396853E-02  0.6454904E-01
6179000. -0.3160786E-01 -0.8881422E+00  0.9112824E-03  0.3432384E+00 -0.2660574E-02  0.5532867E-01
6151000. -0.2728633E-01 -0.1076825E+01 -0.5872382E-03  0.3361838E+00 -0.2882063E-02  0.4534435E-01
6151000. -0.2728633E-01 -0.8665900E+00 -0.5872382E-03  0.2983388E+00 -0.2882063E-02  0.4685397E-01
6128500. -0.2404742E-01 -0.9660885E+00 -0.1614548E-02  0.2822490E+00 -0.3036208E-02  0.4040644E-01
6106000. -0.2047493E-01 -0.1055210E+01 -0.2572794E-02  0.2593331E+00 -0.3167255E-02  0.3378151E-01
6083500. -0.1660853E-01 -0.1132277E+01 -0.3439082E-02  0.2303022E+00 -0.3274660E-02  0.2702482E-01
6061000. -0.1249344E-01 -0.1195827E+01 -0.4193258E-02  0.1959922E+00 -0.3358037E-02  0.2018176E-01
6038500. -0.8179606E-02 -0.1244652E+01 -0.4818316E-02  0.1573448E+00 -0.3417159E-02  0.1329628E-01
6016000. -0.3720774E-02 -0.1277808E+01 -0.5300717E-02  0.1153787E+00 -0.3451953E-02  0.6411101E-02
5993500.  0.8264708E-03 -0.1294638E+01 -0.5630617E-02  0.7116290E-01 -0.3462492E-02 -0.4324900E-03
5971000.  0.5403772E-02 -0.1294798E+01 -0.5802001E-02  0.2579287E-01 -0.3448993E-02 -0.7195184E-02
5971000.  0.5403772E-02 -0.1185914E+01 -0.5802001E-02  0.2163415E-01 -0.3448993E-02 -0.7902583E-02
5937667.  0.1147363E-01 -0.1129575E+01 -0.5754193E-02 -0.3899702E-01 -0.3384396E-02 -0.1669679E-01
5904333.  0.1717748E-01 -0.1046611E+01 -0.5405368E-02 -0.9308849E-01 -0.3275310E-02 -0.2489792E-01
5871000.  0.2238663E-01 -0.9412786E+00 -0.4794555E-02 -0.1389169E+00 -0.3124976E-02 -0.3246039E-01
5837667.  0.2699618E-01 -0.8182026E+00 -0.3968090E-02 -0.1753916E+00 -0.2936803E-02 -0.3935934E-01
5804333.  0.3092589E-01 -0.6821585E+00 -0.2976484E-02 -0.2019887E+00 -0.2714286E-02 -0.4558658E-01
5771000.  0.3412014E-01 -0.5378845E+00 -0.1871773E-02 -0.2186701E+00 -0.2460941E-02 -0.5114853E-01
5771000.  0.3412014E-01 -0.5379021E+00 -0.1871773E-02 -0.2186643E+00 -0.2460941E-02 -0.5114853E-01
5701000.  0.3842930E-01 -0.2413439E+00  0.6659272E-03 -0.2366053E+00 -0.1852846E-02 -0.5912724E-01
5701000.  0.3842930E-01 -0.2010256E+00  0.6659272E-03 -0.1957217E+00 -0.1852846E-02 -0.6995908E-01
5667333.  0.3915162E-01 -0.7299543E-01  0.1680754E-02 -0.1873561E+00 -0.1474772E-02 -0.7303564E-01
5633667.  0.3921015E-01  0.4973911E-01  0.2636185E-02 -0.1734019E+00 -0.1081932E-02 -0.7555837E-01
5600000.  0.3863960E-01  0.1646982E+00  0.3505155E-02 -0.1547800E+00 -0.6771281E-03 -0.7756604E-01
5600000.  0.3863960E-01  0.1647042E+00  0.3505155E-02 -0.1547855E+00 -0.6771281E-03 -0.7756604E-01
5563518.  0.3735390E-01  0.2827981E+00  0.4330848E-02 -0.1327467E+00 -0.2280722E-03 -0.7917398E-01
5527037.  0.3542151E-01  0.3901371E+00  0.5016426E-02 -0.1059994E+00  0.2284582E-03 -0.8018331E-01
5490556.  0.3291140E-01  0.4842026E+00  0.5537553E-02 -0.7547127E-01  0.6890910E-03 -0.8060965E-01
5454074.  0.2990570E-01  0.5628920E+00  0.5875473E-02 -0.4218183E-01  0.1150550E-02 -0.8047084E-01
5417593.  0.2649758E-01  0.6245596E+00  0.6017430E-02 -0.7212095E-02  0.1609634E-02 -0.7978774E-01
5381111.  0.2278780E-01  0.6680716E+00  0.5956961E-02  0.2833670E-01  0.2063312E-02 -0.7858245E-01
5344630.  0.1888256E-01  0.6928074E+00  0.5693900E-02  0.6336959E-01  0.2508637E-02 -0.7687859E-01
5308148.  0.1488965E-01  0.6986802E+00  0.5234216E-02  0.9683842E-01  0.2942848E-02 -0.7470060E-01
5271667.  0.1091634E-01  0.6861116E+00  0.4589741E-02  0.1277616E+00  0.3363280E-02 -0.7207404E-01
5235185.  0.7065612E-02  0.6560205E+00  0.3777588E-02  0.1552590E+00  0.3767459E-02 -0.6902460E-01
5198704.  0.3434267E-02  0.6097865E+00  0.2819666E-02  0.1785672E+00  0.4153018E-02 -0.6557870E-01
5162222.  0.1096095E-03  0.5491966E+00  0.1741766E-02  0.1970626E+00  0.4517783E-02 -0.6176252E-01
5125741. -0.2831960E-02  0.4763955E+00  0.5729400E-03  0.2102697E+00  0.4859690E-02 -0.5760283E-01
5089259. -0.5327517E-02  0.3938137E+00 -0.6556146E-03  0.2178736E+00  0.5176866E-02 -0.5312606E-01
5052778. -0.7328435E-02  0.3041072E+00 -0.1911229E-02  0.2197210E+00  0.5467555E-02 -0.4835909E-01
5016296. -0.8801972E-02  0.2100689E+00 -0.3160957E-02  0.2158200E+00  0.5730188E-02 -0.4332839E-01
4979815. -0.9731445E-02  0.1145689E+00 -0.4372212E-02  0.2063353E+00  0.5963317E-02 -0.3806095E-01
4943333. -0.1011672E-01  0.2045862E-01 -0.5513909E-02  0.1915774E+00  0.6165673E-02 -0.3258311E-01
4906852. -0.9973750E-02 -0.6948446E-01 -0.6557009E-02  0.1719932E+00  0.6336121E-02 -0.2692205E-01
4870370. -0.9333950E-02 -0.1526477E+00 -0.7475490E-02  0.1481450E+00  0.6473694E-02 -0.2110410E-01
4833889. -0.8243186E-02 -0.2266247E+00 -0.8246742E-02  0.1206956E+00  0.6577565E-02 -0.1515618E-01
4797407. -0.6760205E-02 -0.2893009E+00 -0.8852275E-02  0.9038614E-01  0.6647070E-02 -0.9104663E-02
4760926. -0.4955101E-02 -0.3388807E+00 -0.9277947E-02  0.5801682E-01  0.6681689E-02 -0.2976225E-02
4724444. -0.2907027E-02 -0.3739413E+00 -0.9514356E-02  0.2441878E-01  0.6681056E-02  0.3203343E-02
4687963. -0.7023580E-03 -0.3934598E+00 -0.9556877E-02 -0.9560486E-02  0.6644955E-02  0.9407958E-02
4651482.  0.1568036E-02 -0.3968324E+00 -0.9405734E-02 -0.4308653E-01  0.6573314E-02  0.1561260E-01
4615000.  0.3811060E-02 -0.3838857E+00 -0.9065833E-02 -0.7535584E-01  0.6466200E-02  0.2179295E-01
4578518.  0.5933731E-02 -0.3548735E+00 -0.8546566E-02 -0.1056134E+00  0.6323821E-02  0.2792525E-01
4542037.  0.7845728E-02 -0.3104666E+00 -0.7861471E-02 -0.1331721E+00  0.6146525E-02  0.3398693E-01
4505556.  0.9461828E-02 -0.2517312E+00 -0.7027758E-02 -0.1574299E+00  0.5934771E-02  0.3995705E-01
4469074.  0.1070393E-01 -0.1800923E+00 -0.6065801E-02 -0.1778796E+00  0.5689133E-02  0.4581632E-01
4432593.  0.1150298E-01 -0.9730834E-01 -0.4998664E-02 -0.1941180E+00  0.5410312E-02  0.5154677E-01
4396111.  0.1180088E-01 -0.5405883E-02 -0.3851288E-02 -0.2058558E+00  0.5099075E-02  0.5713323E-01
4359630.  0.1155178E-01  0.9335465E-01 -0.2650062E-02 -0.2129181E+00  0.4756303E-02  0.6256256E-01
4323148.  0.1072325E-01  0.1965518E+00 -0.1421916E-02 -0.2152467E+00  0.4382905E-02  0.6782459E-01
4286667.  0.9297183E-02  0.3016436E+00 -0.1939099E-03 -0.2128995E+00  0.3979885E-02  0.7291195E-01
4250185.  0.7270021E-02  0.4060520E+00  0.1007670E-02 -0.2060417E+00  0.3548231E-02  0.7782083E-01
4213704.  0.4653184E-02  0.5072011E+00  0.2157655E-02 -0.1949430E+00  0.3088995E-02  0.8255062E-01
4177222.  0.1472379E-02  0.6025976E+00  0.3232814E-02 -0.1799635E+00  0.2603166E-02  0.8710510E-01
4140741. -0.2232414E-02  0.6898703E+00  0.4212102E-02 -0.1615481E+00  0.2091757E-02  0.9149167E-01
4104259. -0.6408548E-02  0.7668419E+00  0.5077332E-02 -0.1402074E+00  0.1555668E-02  0.9572262E-01
4067778. -0.1099109E-01  0.8315573E+00  0.5813307E-02 -0.1165086E+00  0.9957734E-03  0.9981453E-01
4031296. -0.1590518E-01  0.8823473E+00  0.6408281E-02 -0.9105674E-01  0.4127794E-03  0.1037893E+00
3994815. -0.2106676E-01  0.9178460E+00  0.6853985E-02 -0.6448378E-01 -0.1926854E-03  0.1076737E+00
3958333. -0.2638545E-01  0.9370330E+00  0.7145850E-02 -0.3742845E-01 -0.8202282E-03  0.1115005E+00
3921852. -0.3176549E-01  0.9392431E+00  0.7282927E-02 -0.1052649E-01 -0.1469590E-02  0.1153076E+00
3885370. -0.3710894E-01  0.9241853E+00  0.7267868E-02  0.1560831E-01 -0.2140820E-02  0.1191398E+00
3848889. -0.4231670E-01  0.8919504E+00  0.7106761E-02  0.4039159E-01 -0.2834166E-02  0.1230476E+00
3812407. -0.4729185E-01  0.8429943E+00  0.6808894E-02  0.6328676E-01 -0.3550261E-02  0.1270893E+00
3775926. -0.5194053E-01  0.7781386E+00  0.6386514E-02  0.8380882E-01 -0.4290017E-02  0.1313297E+00
3739444. -0.5617514E-01  0.6985456E+00  0.5854420E-02  0.1015380E+00 -0.5054815E-02  0.1358417E+00
3702963. -0.5991515E-01  0.6056997E+00  0.5229674E-02  0.1161223E+00 -0.5846398E-02  0.1407069E+00
3666482. -0.6308972E-01  0.5013657E+00  0.4531099E-02  0.1272854E+00 -0.6667064E-02  0.1460153E+00
3630000. -0.6563880E-01  0.3875574E+00  0.3778871E-02  0.1348279E+00 -0.7519660E-02  0.1518690E+00
3630000. -0.6563880E-01  0.3875539E+00  0.3778871E-02  0.1348277E+00 -0.7519660E-02  0.1518690E+00
3592500. -0.6755628E-01  0.2627625E+00  0.2971697E-02  0.1387866E+00 -0.8432916E-02  0.1585689E+00
3555000. -0.6872015E-01  0.1319270E+00  0.2152839E-02  0.1387846E+00 -0.9387939E-02  0.1660808E+00
3517500. -0.6910275E-01 -0.2244957E-02  0.1345769E-02  0.1347804E+00 -0.1038988E-01  0.1745330E+00
3480000. -0.6869277E-01 -0.1368903E+00  0.5739782E-03  0.1268099E+00 -0.1144469E-01  0.1840700E+00
3480000. -0.6869277E-01 -0.6541791E-01  0.1057115E-02 -0.1277173E+00 -0.1144469E-01  0.4001492E+00
3409422. -0.6642915E-01 -0.3359030E+00  0.2483064E-02 -0.1288054E+00 -0.1592196E-01  0.4042217E+00
3338844. -0.6142860E-01 -0.5583115E+00  0.3891624E-02 -0.1246723E+00 -0.2031902E-01  0.3862198E+00
3268266. -0.5425625E-01 -0.7274869E+00  0.5228451E-02 -0.1159795E+00 -0.2441094E-01  0.3497885E+00
3197688. -0.4551176E-01 -0.8422356E+00  0.6447396E-02 -0.1035329E+00 -0.2801601E-01  0.2990303E+00
3127109. -0.3578927E-01 -0.9046013E+00  0.7511745E-02 -0.8821727E-01 -0.3099915E-01  0.2382067E+00
3056531. -0.2564606E-01 -0.9191472E+00  0.8394717E-02 -0.7094076E-01 -0.3327203E-01  0.1714857E+00
2985953. -0.1557791E-01 -0.8922191E+00  0.9079542E-02 -0.5258765E-01 -0.3479113E-01  0.1027294E+00
2915375. -0.6003764E-02 -0.8312615E+00  0.9558925E-02 -0.3398100E-01 -0.3555323E-01  0.3534250E-01
2844797.  0.2743260E-02 -0.7442305E+00  0.9834196E-02 -0.1585003E-01 -0.3558981E-01 -0.2783191E-01
2774219.  0.1041850E-01 -0.6390623E+00  0.9914150E-02  0.1188375E-02 -0.3496044E-01 -0.8456858E-01
2703641.  0.1686323E-01 -0.5232788E+00  0.9813746E-02  0.1663866E-01 -0.3374584E-01 -0.1332740E+00
2633062.  0.2199836E-01 -0.4036758E+00  0.9552729E-02  0.3013503E-01 -0.3204094E-01 -0.1729663E+00
2562484.  0.2581476E-01 -0.2860983E+00  0.9154182E-02  0.4143901E-01 -0.2994847E-01 -0.2032243E+00
2491906.  0.2836242E-01 -0.1753223E+00  0.8643172E-02  0.5042707E-01 -0.2757292E-01 -0.2241212E+00
2421328.  0.2973795E-01 -0.7500311E-01  0.8045543E-02  0.5708249E-01 -0.2501567E-01 -0.2361385E+00
2350750.  0.3007239E-01  0.1229824E-01  0.7386785E-02  0.6148357E-01 -0.2237088E-01 -0.2400787E+00
2280172.  0.2951926E-01  0.8506566E-01  0.6691084E-02  0.6378189E-01 -0.1972251E-01 -0.2369743E+00
2209594.  0.2824363E-01  0.1427083E+00  0.5980625E-02  0.6418770E-01 -0.1714216E-01 -0.2279997E+00
2139016.  0.2641258E-01  0.1854313E+00  0.5275004E-02  0.6295242E-01 -0.1468804E-01 -0.2143931E+00
2068438.  0.2418724E-01  0.2140810E+00  0.4590888E-02  0.6035310E-01 -0.1240461E-01 -0.1973861E+00
1997859.  0.2171640E-01  0.2300011E+00  0.3941787E-02  0.5667676E-01 -0.1032295E-01 -0.1781477E+00
1927281.  0.1913214E-01  0.2348668E+00  0.3338078E-02  0.5220624E-01 -0.8461838E-02 -0.1577404E+00
1856703.  0.1654658E-01  0.2305576E+00  0.2787040E-02  0.4721088E-01 -0.6828940E-02 -0.1370873E+00
1786125.  0.1405059E-01  0.2190186E+00  0.2293098E-02  0.4193678E-01 -0.5422585E-02 -0.1169548E+00
1715547.  0.1171363E-01  0.2021591E+00  0.1858115E-02  0.3659993E-01 -0.4233522E-02 -0.9794467E-01
1644969.  0.9584584E-02  0.1817643E+00  0.1481741E-02  0.3138315E-01 -0.3246736E-02 -0.8049631E-01
1574391.  0.7693600E-02  0.1594268E+00  0.1161799E-02  0.2643337E-01 -0.2443198E-02 -0.6489753E-01
1503812.  0.6054433E-02  0.1365021E+00  0.8946793E-03  0.2186165E-01 -0.1801448E-02 -0.5130111E-01
1433234.  0.4667335E-02  0.1140818E+00  0.6757413E-03  0.1774567E-01 -0.1299005E-02 -0.3974777E-01
1362656.  0.3521939E-02  0.9297764E-01  0.4996451E-03  0.1413277E-01 -0.9134156E-03 -0.3019110E-01
1292078.  0.2600483E-02  0.7371524E-01  0.3606697E-03  0.1104621E-01 -0.6230907E-03 -0.2252927E-01
1221500.  0.1881032E-02  0.5651853E-01  0.2529335E-03  0.8493480E-02 -0.4077029E-03 -0.1664339E-01
1221500.  0.1881032E-02 -0.1005566E+00 -0.2277372E-03 -0.1099875E-01 -0.4077029E-03 -0.1745827E-01
1183328.  0.2435712E-02 -0.8396859E-01 -0.1594260E-03 -0.1167142E-01 -0.3141190E-03 -0.1389676E-01
1145156.  0.2881039E-02 -0.6427832E-01 -0.8943475E-04 -0.1156635E-01 -0.2398943E-03 -0.1097812E-01
1106984.  0.3202561E-02 -0.4288092E-01 -0.2223402E-04 -0.1075754E-01 -0.1814855E-03 -0.8601749E-02
1068812.  0.3394322E-02 -0.2119596E-01  0.3832540E-04 -0.9374795E-02 -0.1359108E-03 -0.6680517E-02
1030641.  0.3458641E-02 -0.5486010E-03  0.8928838E-04 -0.7584356E-02 -0.1006755E-03 -0.5139099E-02
 992469.  0.3405239E-02  0.1793229E-01  0.1287573E-03 -0.5568240E-02 -0.7370139E-04 -0.3912610E-02
 954297.  0.3249828E-02  0.3338344E-01  0.1559200E-03 -0.3505098E-02 -0.5327278E-04 -0.2945630E-02
 916125.  0.3012378E-02  0.4525122E-01  0.1709837E-03 -0.1553575E-02 -0.3798069E-04 -0.2190757E-02
 877953.  0.2715221E-02  0.5330084E-01  0.1750134E-03  0.1601602E-03 -0.2667776E-04 -0.1607893E-02
 839781.  0.2381179E-02  0.5759710E-01  0.1697155E-03  0.1549033E-02 -0.1843770E-04 -0.1163199E-02
 801609.  0.2031893E-02  0.5846150E-01  0.1571917E-03  0.2568042E-02 -0.1252012E-04 -0.8283342E-03
 763438.  0.1686465E-02  0.5641126E-01  0.1396954E-03  0.3211058E-02 -0.8339747E-05 -0.5797992E-03
 725266.  0.1360458E-02  0.5208986E-01  0.1194104E-03  0.3505679E-02 -0.5439013E-05 -0.3982335E-03
 687094.  0.1065407E-02  0.4619488E-01  0.9827867E-04  0.3504016E-02 -0.3465683E-05 -0.2678757E-03
 648922.  0.8086656E-03  0.3941263E-01  0.7787818E-04  0.3273611E-02 -0.2152208E-05 -0.1760922E-03
 610750.  0.5936486E-03  0.3236238E-01  0.5936053E-04  0.2887754E-02 -0.1298780E-05 -0.1128292E-03
 572578.  0.4203668E-03  0.2555622E-01  0.4344243E-04  0.2417056E-02 -0.7590027E-06 -0.7025090E-04
 534406.  0.2861468E-03  0.1937553E-01  0.3044233E-04  0.1922937E-02 -0.4277601E-06 -0.4235096E-04
 496234.  0.1864430E-03  0.1406398E-01  0.2034938E-04  0.1453395E-02 -0.2313077E-06 -0.2461152E-04
 458062.  0.1156465E-03  0.9735090E-02  0.1291063E-04  0.1041126E-02 -0.1192514E-06 -0.1371105E-04
 419891.  0.6781417E-04  0.6391403E-02  0.7722934E-05  0.7038107E-03 -0.5815031E-07 -0.7272467E-05
 381719.  0.3725187E-04  0.3950728E-02  0.4317295E-05  0.4460666E-03 -0.2654260E-07 -0.3639463E-05
 343547.  0.1893996E-04  0.2276409E-02  0.2228917E-05  0.2625795E-03 -0.1118694E-07 -0.1698340E-05
 305375.  0.8767436E-05  0.1205939E-02  0.1045604E-05  0.1416634E-03 -0.4273258E-08 -0.7271331E-06
 267203.  0.3610598E-05  0.5759561E-03  0.4355560E-06  0.6871127E-04 -0.1441148E-08 -0.2791982E-06
 229031.  0.1278624E-05  0.2409252E-03  0.1557481E-06  0.2911620E-04 -0.4128468E-09 -0.9297558E-07
 190859.  0.3693592E-06  0.8437786E-04  0.4535543E-07  0.1030613E-04 -0.9460258E-10 -0.2547968E-07
 152688.  0.7966991E-07  0.2293854E-04  0.9846782E-08  0.2825651E-05 -0.1567793E-10 -0.5262276E-08
 114516.  0.1086861E-07  0.4198886E-05  0.1350021E-08  0.5205957E-06 -0.1554696E-11 -0.6940688E-09
  76344.  0.6460374E-09  0.3760553E-06  0.8052971E-10  0.4683812E-07 -0.6026816E-13 -0.4028677E-10
  38172.  0.5094068E-11  0.5946184E-08  0.6363130E-12  0.7426042E-09 -0.2346255E-15 -0.3134280E-12
      0.  0.0000000E+00  0.0000000E+00  0.0000000E+00  0.0000000E+00  0.0000000E+00  0.0000000E+00
