       4       47 S      316         98.35584          8.56828          8.63220        427.02609      185    7
6371000.  0.9998940E-05  0.1571696E-02  0.1781809E-05 -0.8217132E-05  0.0000000E+00  0.0000000E+00
6370000.  0.9751575E-05  0.1580080E-02  0.1782861E-05 -0.5182961E-05  0.0000000E+00  0.0000000E+00
6369000.  0.9502965E-05  0.1587552E-02  0.1783436E-05 -0.2144436E-05  0.0000000E+00  0.0000000E+00
6368000.  0.9253255E-05  0.1594110E-02  0.1783534E-05  0.8974567E-06  0.0000000E+00  0.0000000E+00
6368000.  0.9253255E-05  0.1594110E-02  0.1783534E-05  0.8974567E-06  0.0000000E+00  0.0000000E+00
6367000.  0.9002587E-05  0.1599751E-02  0.1783154E-05  0.3941727E-05  0.0000000E+00  0.0000000E+00
6366000.  0.8751105E-05  0.1604475E-02  0.1782297E-05  0.6987385E-05  0.0000000E+00  0.0000000E+00
6365000.  0.8498954E-05  0.1608280E-02  0.1780961E-05  0.1003344E-04  0.0000000E+00  0.0000000E+00
6364000.  0.8246278E-05  0.1611165E-02  0.1779147E-05  0.1307890E-04  0.0000000E+00  0.0000000E+00
6363000.  0.7993222E-05  0.1613131E-02  0.1776855E-05  0.1612278E-04  0.0000000E+00  0.0000000E+00
6362000.  0.7739928E-05  0.1614176E-02  0.1774086E-05  0.1916408E-04  0.0000000E+00  0.0000000E+00
6361000.  0.7486543E-05  0.1614301E-02  0.1770839E-05  0.2220181E-04  0.0000000E+00  0.0000000E+00
6360000.  0.7233211E-05  0.1613507E-02  0.1767116E-05  0.2523499E-04  0.0000000E+00  0.0000000E+00
6359000.  0.6980075E-05  0.1611795E-02  0.1762918E-05  0.2826263E-04  0.0000000E+00  0.0000000E+00
6358000.  0.6727280E-05  0.1609165E-02  0.1758244E-05  0.3128373E-04  0.0000000E+00  0.0000000E+00
6357000.  0.6474970E-05  0.1605620E-02  0.1753097E-05  0.3429732E-04  0.0000000E+00  0.0000000E+00
6356000.  0.6223288E-05  0.1601162E-02  0.1747478E-05  0.3730242E-04  0.0000000E+00  0.0000000E+00
6356000.  0.6223288E-05  0.1389477E-02  0.1747478E-05  0.2073716E-04  0.0000000E+00  0.0000000E+00
6355000.  0.6005343E-05  0.1387498E-02  0.1744101E-05  0.2229849E-04  0.0000000E+00  0.0000000E+00
6354000.  0.5787746E-05  0.1385047E-02  0.1740478E-05  0.2385680E-04  0.0000000E+00  0.0000000E+00
6353000.  0.5570570E-05  0.1382127E-02  0.1736612E-05  0.2541177E-04  0.0000000E+00  0.0000000E+00
6352000.  0.5353890E-05  0.1378736E-02  0.1732501E-05  0.2696310E-04  0.0000000E+00  0.0000000E+00
6351000.  0.5137778E-05  0.1374877E-02  0.1728147E-05  0.2851049E-04  0.0000000E+00  0.0000000E+00
6350000.  0.4922309E-05  0.1370551E-02  0.1723551E-05  0.3005363E-04  0.0000000E+00  0.0000000E+00
6349000.  0.4707556E-05  0.1365758E-02  0.1718713E-05  0.3159223E-04  0.0000000E+00  0.0000000E+00
6348000.  0.4493592E-05  0.1360499E-02  0.1713634E-05  0.3312598E-04  0.0000000E+00  0.0000000E+00
6347000.  0.4280489E-05  0.1354777E-02  0.1708315E-05  0.3465457E-04  0.0000000E+00  0.0000000E+00
6346600.  0.4195505E-05  0.1352358E-02  0.1706120E-05  0.3526450E-04  0.0000000E+00  0.0000000E+00
6346600.  0.4195505E-05  0.1556881E-02  0.1706120E-05  0.2299673E-04  0.0000000E+00  0.0000000E+00
6318800. -0.2235873E-05  0.1357496E-02  0.1560714E-05  0.4320789E-04  0.0000000E+00  0.0000000E+00
6291000. -0.7378459E-05  0.9712373E-03  0.1334489E-05  0.5968771E-04  0.0000000E+00  0.0000000E+00
6291000. -0.7378459E-05  0.1004767E-02  0.1334489E-05  0.6135836E-04  0.0000000E+00  0.0000000E+00
6263000. -0.1061372E-04  0.4457670E-03  0.1035776E-05  0.7340155E-04  0.0000000E+00  0.0000000E+00
6235000. -0.1115869E-04 -0.2068727E-03  0.7005326E-06  0.7780988E-04  0.0000000E+00  0.0000000E+00
6207000. -0.8777160E-05 -0.8717481E-03  0.3638758E-06  0.7403697E-04  0.0000000E+00  0.0000000E+00
6179000. -0.3604234E-05 -0.1463066E-02  0.6111527E-07  0.6254593E-04  0.0000000E+00  0.0000000E+00
6151000.  0.3858069E-05 -0.1901457E-02 -0.1766474E-06  0.4477184E-04  0.0000000E+00  0.0000000E+00
6151000.  0.3858069E-05 -0.1566995E-02 -0.1766474E-06  0.3887678E-04  0.0000000E+00  0.0000000E+00
6128500.  0.9679015E-05 -0.1710648E-02 -0.2888418E-06  0.2449359E-04  0.0000000E+00  0.0000000E+00
6106000.  0.1580349E-04 -0.1738113E-02 -0.3490748E-06  0.9618875E-05  0.0000000E+00  0.0000000E+00
6083500.  0.2181765E-04 -0.1648741E-02 -0.3573729E-06 -0.4757819E-05  0.0000000E+00  0.0000000E+00
6061000.  0.2731931E-04 -0.1449676E-02 -0.3171305E-06 -0.1772859E-04  0.0000000E+00  0.0000000E+00
6038500.  0.3194418E-04 -0.1155083E-02 -0.2347240E-06 -0.2852061E-04  0.0000000E+00  0.0000000E+00
6016000.  0.3538868E-04 -0.7849439E-03 -0.1189578E-06 -0.3653749E-04  0.0000000E+00  0.0000000E+00
5993500.  0.3742788E-04 -0.3635482E-03  0.1961074E-07 -0.4138589E-04  0.0000000E+00  0.0000000E+00
5971000.  0.3792778E-04  0.8218297E-04  0.1694125E-06 -0.4288711E-04  0.0000000E+00  0.0000000E+00
5971000.  0.3792778E-04  0.8475861E-04  0.1694125E-06 -0.4260075E-04  0.0000000E+00  0.0000000E+00
5937667.  0.3586030E-04  0.6948042E-03  0.3870020E-06 -0.3966319E-04  0.0000000E+00  0.0000000E+00
5904333.  0.3082036E-04  0.1211951E-02  0.5763545E-06 -0.3208976E-04  0.0000000E+00  0.0000000E+00
5871000.  0.2341631E-04  0.1593266E-02  0.7177879E-06 -0.2164378E-04  0.0000000E+00  0.0000000E+00
5837667.  0.1442283E-04  0.1817763E-02  0.8008017E-06 -0.1002397E-04  0.0000000E+00  0.0000000E+00
5804333.  0.4671556E-05  0.1884020E-02  0.8231573E-06  0.1333048E-05  0.0000000E+00  0.0000000E+00
5771000. -0.5039949E-05  0.1806043E-02  0.7891997E-06  0.1135734E-04  0.0000000E+00  0.0000000E+00
5771000. -0.5039949E-05  0.1806159E-02  0.7891997E-06  0.1135718E-04  0.0000000E+00  0.0000000E+00
5701000. -0.2267769E-04  0.1324705E-02  0.5683886E-06  0.2762875E-04  0.0000000E+00  0.0000000E+00
5701000. -0.2267769E-04  0.1163597E-02  0.5683886E-06  0.2728382E-04  0.0000000E+00  0.0000000E+00
5667333. -0.2794151E-04  0.8260114E-03  0.4212276E-06  0.2816634E-04  0.0000000E+00  0.0000000E+00
5633667. -0.3140012E-04  0.4836724E-03  0.2730253E-06  0.2773351E-04  0.0000000E+00  0.0000000E+00
5600000. -0.3307544E-04  0.1535070E-03  0.1298270E-06  0.2633190E-04  0.0000000E+00  0.0000000E+00
5600000. -0.3307544E-04  0.1535190E-03  0.1298270E-06  0.2633135E-04  0.0000000E+00  0.0000000E+00
5563518. -0.3299634E-04 -0.1770614E-03 -0.1399813E-07  0.2379763E-04  0.0000000E+00  0.0000000E+00
5527037. -0.3110446E-04 -0.4779944E-03 -0.1416840E-06  0.2072570E-04  0.0000000E+00  0.0000000E+00
5490556. -0.2759543E-04 -0.7407133E-03 -0.2506817E-06  0.1730186E-04  0.0000000E+00  0.0000000E+00
5454074. -0.2270564E-04 -0.9595098E-03 -0.3395195E-06  0.1371424E-04  0.0000000E+00  0.0000000E+00
5417593. -0.1669650E-04 -0.1131474E-02 -0.4077708E-06  0.1014025E-04  0.0000000E+00  0.0000000E+00
5381111. -0.9837770E-05 -0.1256348E-02 -0.4559757E-06  0.6735935E-05  0.0000000E+00  0.0000000E+00
5344630. -0.2394693E-05 -0.1336154E-02 -0.4854872E-06  0.3630532E-05  0.0000000E+00  0.0000000E+00
5308148.  0.5385584E-05 -0.1374843E-02 -0.4983152E-06  0.9224333E-06  0.0000000E+00  0.0000000E+00
5271667.  0.1328208E-04 -0.1377824E-02 -0.4969422E-06 -0.1320640E-05  0.0000000E+00  0.0000000E+00
5235185.  0.2110885E-04 -0.1351555E-02 -0.4841543E-06 -0.3060306E-05  0.0000000E+00  0.0000000E+00
5198704.  0.2871810E-04 -0.1303136E-02 -0.4628825E-06 -0.4283776E-05  0.0000000E+00  0.0000000E+00
5162222.  0.3600447E-04 -0.1239947E-02 -0.4360660E-06 -0.4999573E-05  0.0000000E+00  0.0000000E+00
5125741.  0.4290416E-04 -0.1169367E-02 -0.4065499E-06 -0.5232034E-05  0.0000000E+00  0.0000000E+00
5089259.  0.4939589E-04 -0.1098552E-02 -0.3770046E-06 -0.5015806E-05  0.0000000E+00  0.0000000E+00
5052778.  0.5549765E-04 -0.1034326E-02 -0.3498891E-06 -0.4390306E-05  0.0000000E+00  0.0000000E+00
5016296.  0.6126607E-04 -0.9831086E-03 -0.3274323E-06 -0.3394632E-05  0.0000000E+00  0.0000000E+00
4979815.  0.6679289E-04 -0.9509756E-03 -0.3116548E-06 -0.2062548E-05  0.0000000E+00  0.0000000E+00
4943333.  0.7220443E-04 -0.9437549E-03 -0.3044073E-06 -0.4181730E-06  0.0000000E+00  0.0000000E+00
4906852.  0.7765959E-04 -0.9672380E-03 -0.3074427E-06  0.1528764E-05  0.0000000E+00  0.0000000E+00
4870370.  0.8335155E-04 -0.1027449E-02 -0.3225080E-06  0.3786336E-05  0.0000000E+00  0.0000000E+00
4833889.  0.8950882E-04 -0.1130989E-02 -0.3514523E-06  0.6383658E-05  0.0000000E+00  0.0000000E+00
4797407.  0.9640118E-04 -0.1285528E-02 -0.3963743E-06  0.9378637E-05  0.0000000E+00  0.0000000E+00
4760926.  0.1043459E-03 -0.1500342E-02 -0.4597863E-06  0.1285993E-04  0.0000000E+00  0.0000000E+00
4724444.  0.1137205E-03 -0.1787052E-02 -0.5448210E-06  0.1695513E-04  0.0000000E+00  0.0000000E+00
4687963.  0.1249769E-03 -0.2160500E-02 -0.6554683E-06  0.2184062E-04  0.0000000E+00  0.0000000E+00
4651482.  0.1386647E-03 -0.2639931E-02 -0.7968999E-06  0.2775245E-04  0.0000000E+00  0.0000000E+00
4615000.  0.1554600E-03 -0.3250473E-02 -0.9758515E-06  0.3500320E-04  0.0000000E+00  0.0000000E+00
4578518.  0.1762029E-03 -0.4025013E-02 -0.1201106E-05  0.4400208E-04  0.0000000E+00  0.0000000E+00
4542037.  0.2019500E-03 -0.5006742E-02 -0.1484130E-05  0.5528472E-04  0.0000000E+00  0.0000000E+00
4505556.  0.2340437E-03 -0.6252574E-02 -0.1839926E-05  0.6955274E-04  0.0000000E+00  0.0000000E+00
4469074.  0.2742022E-03 -0.7837554E-02 -0.2288109E-05  0.8772306E-04  0.0000000E+00  0.0000000E+00
4432593.  0.3246356E-03 -0.9860654E-02 -0.2854284E-05  0.1109968E-03  0.0000000E+00  0.0000000E+00
4396111.  0.3882133E-03 -0.1245306E-01 -0.3572015E-05  0.1409516E-03  0.0000000E+00  0.0000000E+00
4359630.  0.4686656E-03 -0.1578839E-01 -0.4485182E-05  0.1796580E-03  0.0000000E+00  0.0000000E+00
4323148.  0.5708809E-03 -0.2009763E-01 -0.5651382E-05  0.2298378E-03  0.0000000E+00  0.0000000E+00
4286667.  0.7012674E-03 -0.2568782E-01 -0.7146048E-05  0.2950750E-03  0.0000000E+00  0.0000000E+00
4250185.  0.8682843E-03 -0.3296880E-01 -0.9068328E-05  0.3800682E-03  0.0000000E+00  0.0000000E+00
4213704.  0.1083093E-02 -0.4248703E-01 -0.1154809E-04  0.4909789E-03  0.0000000E+00  0.0000000E+00
4177222.  0.1360509E-02 -0.5497368E-01 -0.1475590E-04  0.6358477E-03  0.0000000E+00  0.0000000E+00
4140741.  0.1720175E-02 -0.7140503E-01 -0.1891463E-04  0.8251148E-03  0.0000000E+00  0.0000000E+00
4104259.  0.2188258E-02 -0.9308754E-01 -0.2431566E-04  0.1072220E-02  0.0000000E+00  0.0000000E+00
4067778.  0.2799546E-02 -0.1217617E+00 -0.3133673E-04  0.1394188E-02  0.0000000E+00  0.0000000E+00
4031296.  0.3600436E-02 -0.1597472E+00 -0.4046574E-04  0.1812290E-02  0.0000000E+00  0.0000000E+00
3994815.  0.4652579E-02 -0.2101117E+00 -0.5232398E-04  0.2352172E-02  0.0000000E+00  0.0000000E+00
3958333.  0.6037964E-02 -0.2768953E+00 -0.6769277E-04  0.3043471E-02  0.0000000E+00  0.0000000E+00
3921852.  0.7864919E-02 -0.3653460E+00 -0.8752776E-04  0.3917369E-02  0.0000000E+00  0.0000000E+00
3885370.  0.1027611E-01 -0.4821918E+00 -0.1129579E-03  0.5001190E-02  0.0000000E+00  0.0000000E+00
3848889.  0.1345722E-01 -0.6358273E+00 -0.1452278E-03  0.6306076E-02  0.0000000E+00  0.0000000E+00
3812407.  0.1764722E-01 -0.8363509E+00 -0.1855487E-03  0.7802456E-02  0.0000000E+00  0.0000000E+00
3775926.  0.2314642E-01 -0.1095081E+01 -0.2347370E-03  0.9373036E-02  0.0000000E+00  0.0000000E+00
3739444.  0.3032099E-01 -0.1423148E+01 -0.2924976E-03  0.1072565E-01  0.0000000E+00  0.0000000E+00
3702963.  0.3959178E-01 -0.1827932E+01 -0.3559940E-03  0.1123148E-01  0.0000000E+00  0.0000000E+00
3666482.  0.5139546E-01 -0.2305634E+01 -0.4171790E-03  0.9633409E-02  0.0000000E+00  0.0000000E+00
3630000.  0.6608173E-01 -0.2826165E+01 -0.4578275E-03  0.3518596E-02  0.0000000E+00  0.0000000E+00
3630000.  0.6608173E-01 -0.2826150E+01 -0.4578275E-03  0.3517271E-02  0.0000000E+00  0.0000000E+00
3592500.  0.8425437E-01 -0.3329826E+01 -0.4401281E-03 -0.1173233E-01  0.0000000E+00  0.0000000E+00
3555000.  0.1047990E+00 -0.3580316E+01 -0.2834586E-03 -0.4570931E-01  0.0000000E+00  0.0000000E+00
3517500.  0.1250265E+00 -0.3114685E+01  0.1666985E-03 -0.1151687E+00  0.0000000E+00  0.0000000E+00
3480000.  0.1382782E+00 -0.9958685E+00  0.1200845E-02 -0.2509539E+00  0.0000000E+00  0.0000000E+00
3480000.  0.1382782E+00  0.9383468E+01  0.3557890E-02  0.2465772E+00  0.0000000E+00  0.0000000E+00
3409422.  0.6423596E-01  0.4532253E+01  0.1627888E-02  0.1169732E+00  0.0000000E+00  0.0000000E+00
3338844.  0.2896415E-01  0.2121407E+01  0.7240425E-03  0.5388082E-01  0.0000000E+00  0.0000000E+00
3268266.  0.1267690E-01  0.9626078E+00  0.3129929E-03  0.2410033E-01  0.0000000E+00  0.0000000E+00
3197688.  0.5384855E-02  0.4234934E+00  0.1314625E-03  0.1046653E-01  0.0000000E+00  0.0000000E+00
3127109.  0.2219271E-02  0.1806263E+00  0.5362555E-04  0.4412179E-02  0.0000000E+00  0.0000000E+00
3056531.  0.8870355E-03  0.7467136E-01  0.2123307E-04  0.1804702E-02  0.0000000E+00  0.0000000E+00
2985953.  0.3436440E-03  0.2990741E-01  0.8154991E-05  0.7158381E-03  0.0000000E+00  0.0000000E+00
2915375.  0.1289443E-03  0.1159860E-01  0.3035680E-05  0.2751580E-03  0.0000000E+00  0.0000000E+00
2844797.  0.4682204E-04  0.4352296E-02  0.1094230E-05  0.1024119E-03  0.0000000E+00  0.0000000E+00
2774219.  0.1643701E-04  0.1578831E-02  0.3815248E-06  0.3687257E-04  0.0000000E+00  0.0000000E+00
2703641.  0.5572203E-05  0.5531067E-03  0.1285236E-06  0.1282811E-04  0.0000000E+00  0.0000000E+00
2633062.  0.1821793E-05  0.1869029E-03  0.4177385E-07  0.4307053E-05  0.0000000E+00  0.0000000E+00
2562484.  0.5736235E-06  0.6083932E-04  0.1308152E-07  0.1393676E-05  0.0000000E+00  0.0000000E+00
2491906.  0.1736623E-06  0.1904781E-04  0.3940243E-08  0.4339294E-06  0.0000000E+00  0.0000000E+00
2421328.  0.5046116E-07  0.5726082E-05  0.1139482E-08  0.1297760E-06  0.0000000E+00  0.0000000E+00
2350750.  0.1404490E-07  0.1649658E-05  0.3157450E-09  0.3720879E-07  0.0000000E+00  0.0000000E+00
2280172.  0.3736214E-08  0.4544976E-06  0.8364515E-10  0.1020557E-07  0.0000000E+00  0.0000000E+00
2209594.  0.9476188E-09  0.1194660E-06  0.2113238E-10  0.2671357E-08  0.0000000E+00  0.0000000E+00
2139016.  0.2285313E-09  0.2988062E-07  0.5077747E-11  0.6655455E-09  0.0000000E+00  0.0000000E+00
2068438.  0.5224787E-10  0.7090637E-08  0.1156861E-11  0.1573641E-09  0.0000000E+00  0.0000000E+00
1997859.  0.1129239E-10  0.1590145E-08  0.2489185E-12  0.3521638E-10  0.0000000E+00  0.0000000E+00
1927281.  0.0000000E+00  0.0000000E+00  0.0000000E+00  0.0000000E+00  0.0000000E+00  0.0000000E+00
1856703.  0.0000000E+00  0.0000000E+00  0.0000000E+00  0.0000000E+00  0.0000000E+00  0.0000000E+00
1786125.  0.0000000E+00  0.0000000E+00  0.0000000E+00  0.0000000E+00  0.0000000E+00  0.0000000E+00
1715547.  0.0000000E+00  0.0000000E+00  0.0000000E+00  0.0000000E+00  0.0000000E+00  0.0000000E+00
1644969.  0.0000000E+00  0.0000000E+00  0.0000000E+00  0.0000000E+00  0.0000000E+00  0.0000000E+00
1574391.  0.0000000E+00  0.0000000E+00  0.0000000E+00  0.0000000E+00  0.0000000E+00  0.0000000E+00
1503812.  0.0000000E+00  0.0000000E+00  0.0000000E+00  0.0000000E+00  0.0000000E+00  0.0000000E+00
1433234.  0.0000000E+00  0.0000000E+00  0.0000000E+00  0.0000000E+00  0.0000000E+00  0.0000000E+00
1362656.  0.0000000E+00  0.0000000E+00  0.0000000E+00  0.0000000E+00  0.0000000E+00  0.0000000E+00
1292078.  0.0000000E+00  0.0000000E+00  0.0000000E+00  0.0000000E+00  0.0000000E+00  0.0000000E+00
1221500.  0.0000000E+00  0.0000000E+00  0.0000000E+00  0.0000000E+00  0.0000000E+00  0.0000000E+00
1221500.  0.0000000E+00  0.0000000E+00  0.0000000E+00  0.0000000E+00  0.0000000E+00  0.0000000E+00
1183328.  0.0000000E+00  0.0000000E+00  0.0000000E+00  0.0000000E+00  0.0000000E+00  0.0000000E+00
1145156.  0.0000000E+00  0.0000000E+00  0.0000000E+00  0.0000000E+00  0.0000000E+00  0.0000000E+00
1106984.  0.0000000E+00  0.0000000E+00  0.0000000E+00  0.0000000E+00  0.0000000E+00  0.0000000E+00
1068812.  0.0000000E+00  0.0000000E+00  0.0000000E+00  0.0000000E+00  0.0000000E+00  0.0000000E+00
1030641.  0.0000000E+00  0.0000000E+00  0.0000000E+00  0.0000000E+00  0.0000000E+00  0.0000000E+00
 992469.  0.0000000E+00  0.0000000E+00  0.0000000E+00  0.0000000E+00  0.0000000E+00  0.0000000E+00
 954297.  0.0000000E+00  0.0000000E+00  0.0000000E+00  0.0000000E+00  0.0000000E+00  0.0000000E+00
 916125.  0.0000000E+00  0.0000000E+00  0.0000000E+00  0.0000000E+00  0.0000000E+00  0.0000000E+00
 877953.  0.0000000E+00  0.0000000E+00  0.0000000E+00  0.0000000E+00  0.0000000E+00  0.0000000E+00
 839781.  0.0000000E+00  0.0000000E+00  0.0000000E+00  0.0000000E+00  0.0000000E+00  0.0000000E+00
 801609.  0.0000000E+00  0.0000000E+00  0.0000000E+00  0.0000000E+00  0.0000000E+00  0.0000000E+00
 763438.  0.0000000E+00  0.0000000E+00  0.0000000E+00  0.0000000E+00  0.0000000E+00  0.0000000E+00
 725266.  0.0000000E+00  0.0000000E+00  0.0000000E+00  0.0000000E+00  0.0000000E+00  0.0000000E+00
 687094.  0.0000000E+00  0.0000000E+00  0.0000000E+00  0.0000000E+00  0.0000000E+00  0.0000000E+00
 648922.  0.0000000E+00  0.0000000E+00  0.0000000E+00  0.0000000E+00  0.0000000E+00  0.0000000E+00
 610750.  0.0000000E+00  0.0000000E+00  0.0000000E+00  0.0000000E+00  0.0000000E+00  0.0000000E+00
 572578.  0.0000000E+00  0.0000000E+00  0.0000000E+00  0.0000000E+00  0.0000000E+00  0.0000000E+00
 534406.  0.0000000E+00  0.0000000E+00  0.0000000E+00  0.0000000E+00  0.0000000E+00  0.0000000E+00
 496234.  0.0000000E+00  0.0000000E+00  0.0000000E+00  0.0000000E+00  0.0000000E+00  0.0000000E+00
 458062.  0.0000000E+00  0.0000000E+00  0.0000000E+00  0.0000000E+00  0.0000000E+00  0.0000000E+00
 419891.  0.0000000E+00  0.0000000E+00  0.0000000E+00  0.0000000E+00  0.0000000E+00  0.0000000E+00
 381719.  0.0000000E+00  0.0000000E+00  0.0000000E+00  0.0000000E+00  0.0000000E+00  0.0000000E+00
 343547.  0.0000000E+00  0.0000000E+00  0.0000000E+00  0.0000000E+00  0.0000000E+00  0.0000000E+00
 305375.  0.0000000E+00  0.0000000E+00  0.0000000E+00  0.0000000E+00  0.0000000E+00  0.0000000E+00
 267203.  0.0000000E+00  0.0000000E+00  0.0000000E+00  0.0000000E+00  0.0000000E+00  0.0000000E+00
 229031.  0.0000000E+00  0.0000000E+00  0.0000000E+00  0.0000000E+00  0.0000000E+00  0.0000000E+00
 190859.  0.0000000E+00  0.0000000E+00  0.0000000E+00  0.0000000E+00  0.0000000E+00  0.0000000E+00
 152688.  0.0000000E+00  0.0000000E+00  0.0000000E+00  0.0000000E+00  0.0000000E+00  0.0000000E+00
 114516.  0.0000000E+00  0.0000000E+00  0.0000000E+00  0.0000000E+00  0.0000000E+00  0.0000000E+00
  76344.  0.0000000E+00  0.0000000E+00  0.0000000E+00  0.0000000E+00  0.0000000E+00  0.0000000E+00
  38172.  0.0000000E+00  0.0000000E+00  0.0000000E+00  0.0000000E+00  0.0000000E+00  0.0000000E+00
      0.  0.0000000E+00  0.0000000E+00  0.0000000E+00  0.0000000E+00  0.0000000E+00  0.0000000E+00
