       0       19 S       18        360.55801          5.69348          4.08706        249.87120      185    7
6371000.  0.2424080E+00 -0.1536058E+01 -0.8998233E-02 -0.2514062E+00 -0.1041426E-01 -0.2488395E+00
6370000.  0.2426475E+00 -0.1516018E+01 -0.8958729E-02 -0.2519520E+00 -0.1037530E-01 -0.2475954E+00
6369000.  0.2428839E+00 -0.1495941E+01 -0.8919139E-02 -0.2524906E+00 -0.1033654E-01 -0.2463514E+00
6368000.  0.2431171E+00 -0.1475827E+01 -0.8879467E-02 -0.2530219E+00 -0.1029797E-01 -0.2451072E+00
6368000.  0.2431171E+00 -0.1475827E+01 -0.8879467E-02 -0.2530219E+00 -0.1029797E-01 -0.2451072E+00
6367000.  0.2433472E+00 -0.1455677E+01 -0.8839712E-02 -0.2535459E+00 -0.1025959E-01 -0.2438630E+00
6366000.  0.2435741E+00 -0.1435492E+01 -0.8799873E-02 -0.2540626E+00 -0.1022141E-01 -0.2426187E+00
6365000.  0.2437978E+00 -0.1415271E+01 -0.8759955E-02 -0.2545719E+00 -0.1018343E-01 -0.2413743E+00
6364000.  0.2440183E+00 -0.1395015E+01 -0.8719958E-02 -0.2550740E+00 -0.1014564E-01 -0.2401297E+00
6363000.  0.2442357E+00 -0.1374724E+01 -0.8679883E-02 -0.2555687E+00 -0.1010805E-01 -0.2388851E+00
6362000.  0.2444499E+00 -0.1354400E+01 -0.8639730E-02 -0.2560561E+00 -0.1007065E-01 -0.2376403E+00
6361000.  0.2446609E+00 -0.1334042E+01 -0.8599501E-02 -0.2565360E+00 -0.1003345E-01 -0.2363954E+00
6360000.  0.2448687E+00 -0.1313650E+01 -0.8559197E-02 -0.2570086E+00 -0.9996440E-02 -0.2351504E+00
6359000.  0.2450733E+00 -0.1293226E+01 -0.8518821E-02 -0.2574739E+00 -0.9959628E-02 -0.2339052E+00
6358000.  0.2452747E+00 -0.1272769E+01 -0.8478371E-02 -0.2579317E+00 -0.9923012E-02 -0.2326598E+00
6357000.  0.2454728E+00 -0.1252280E+01 -0.8437851E-02 -0.2583821E+00 -0.9886591E-02 -0.2314143E+00
6356000.  0.2456678E+00 -0.1231760E+01 -0.8397260E-02 -0.2588252E+00 -0.9850365E-02 -0.2301686E+00
6356000.  0.2456678E+00 -0.1127435E+01 -0.8397260E-02 -0.2571759E+00 -0.9850365E-02 -0.2836231E+00
6355000.  0.2458435E+00 -0.1111861E+01 -0.8356901E-02 -0.2570776E+00 -0.9805953E-02 -0.2822765E+00
6354000.  0.2460168E+00 -0.1096282E+01 -0.8316557E-02 -0.2569760E+00 -0.9761753E-02 -0.2809317E+00
6353000.  0.2461877E+00 -0.1080698E+01 -0.8276230E-02 -0.2568711E+00 -0.9717762E-02 -0.2795885E+00
6352000.  0.2463561E+00 -0.1065111E+01 -0.8235920E-02 -0.2567628E+00 -0.9673984E-02 -0.2782469E+00
6351000.  0.2465220E+00 -0.1049519E+01 -0.8195627E-02 -0.2566513E+00 -0.9630415E-02 -0.2769071E+00
6350000.  0.2466855E+00 -0.1033924E+01 -0.8155352E-02 -0.2565364E+00 -0.9587056E-02 -0.2755688E+00
6349000.  0.2468466E+00 -0.1018325E+01 -0.8115094E-02 -0.2564181E+00 -0.9543907E-02 -0.2742322E+00
6348000.  0.2470052E+00 -0.1002723E+01 -0.8074855E-02 -0.2562966E+00 -0.9500968E-02 -0.2728973E+00
6347000.  0.2471614E+00 -0.9871174E+00 -0.8034637E-02 -0.2561717E+00 -0.9458238E-02 -0.2715639E+00
6346600.  0.2472232E+00 -0.9808744E+00 -0.8018555E-02 -0.2561208E+00 -0.9441205E-02 -0.2710310E+00
6346600.  0.2472232E+00 -0.1272315E+01 -0.8018555E-02 -0.2561540E+00 -0.9441205E-02 -0.3572341E+00
6318800.  0.2519877E+00 -0.9122909E+00 -0.6929345E-02 -0.2429730E+00 -0.7962664E-02 -0.3208486E+00
6291000.  0.2551931E+00 -0.5580665E+00 -0.5899121E-02 -0.2291041E+00 -0.6637881E-02 -0.2867081E+00
6291000.  0.2551931E+00 -0.5918704E+00 -0.5899121E-02 -0.2275999E+00 -0.6637881E-02 -0.2867081E+00
6263000.  0.2570059E+00 -0.2345082E+00 -0.4930335E-02 -0.2130951E+00 -0.5449029E-02 -0.2545890E+00
6235000.  0.2572687E+00  0.1130386E+00 -0.4027608E-02 -0.1975275E+00 -0.4397802E-02 -0.2240303E+00
6207000.  0.2560304E+00  0.4481966E+00 -0.3195743E-02 -0.1808396E+00 -0.3477979E-02 -0.1947428E+00
6179000.  0.2533512E+00  0.7682850E+00 -0.2439769E-02 -0.1629854E+00 -0.2684600E-02 -0.1664425E+00
6151000.  0.2493034E+00  0.1070499E+01 -0.1764889E-02 -0.1439308E+00 -0.2013934E-02 -0.1388538E+00
6151000.  0.2493034E+00  0.7661651E+00 -0.1764889E-02 -0.1584104E+00 -0.2013934E-02 -0.1526467E+00
6128500.  0.2462767E+00  0.9455257E+00 -0.1229482E-02 -0.1447596E+00 -0.1503940E-02 -0.1363028E+00
6106000.  0.2426421E+00  0.1110319E+01 -0.7426545E-03 -0.1309050E+00 -0.1050296E-02 -0.1207207E+00
6083500.  0.2384518E+00  0.1260163E+01 -0.3050707E-03 -0.1168770E+00 -0.6504675E-03 -0.1058118E+00
6061000.  0.2337593E+00  0.1394716E+01  0.8270609E-04 -0.1027027E+00 -0.3022249E-03 -0.9149295E-01
6038500.  0.2286190E+00  0.1513679E+01  0.4201979E-03 -0.8840304E-01 -0.3639474E-05 -0.7767512E-01
6016000.  0.2230866E+00  0.1616765E+01  0.7069911E-03 -0.7399391E-01  0.2468980E-03 -0.6426837E-01
5993500.  0.2172185E+00  0.1703705E+01  0.9427220E-03 -0.5948730E-01  0.4506876E-03 -0.5118620E-01
5971000.  0.2110723E+00  0.1774260E+01  0.1127057E-02 -0.4488802E-01  0.6087092E-03 -0.3833348E-01
5971000.  0.2110723E+00  0.1605263E+01  0.1127057E-02 -0.6462126E-01  0.6087092E-03 -0.6596462E-01
5937667.  0.2025218E+00  0.1659124E+01  0.1431388E-02 -0.5188316E-01  0.9182748E-03 -0.5259266E-01
5904333.  0.1937521E+00  0.1689339E+01  0.1671773E-02 -0.4017979E-01  0.1161265E-02 -0.4049398E-01
5871000.  0.1848808E+00  0.1698473E+01  0.1853679E-02 -0.2953295E-01  0.1344038E-02 -0.2955800E-01
5837667.  0.1760115E+00  0.1688995E+01  0.1982633E-02 -0.1993421E-01  0.1472391E-02 -0.1967236E-01
5804333.  0.1672351E+00  0.1663245E+01  0.2064044E-02 -0.1135124E-01  0.1551517E-02 -0.1071997E-01
5771000.  0.1586315E+00  0.1623385E+01  0.2103105E-02 -0.3737209E-02  0.1585999E-02 -0.2588449E-02
5771000.  0.1586315E+00  0.1623431E+01  0.2103105E-02 -0.3742726E-02  0.1585999E-02 -0.2588449E-02
5701000.  0.1409740E+00  0.1575236E+01  0.1996445E-02  0.2303630E-01  0.1481032E-02  0.2165109E-01
5701000.  0.1409740E+00  0.1325835E+01  0.1996445E-02 -0.1468778E-01  0.1481032E-02 -0.1808442E-01
5667333.  0.1340203E+00  0.1304529E+01  0.2063632E-02 -0.1090917E-01  0.1558490E-02 -0.1142122E-01
5633667.  0.1271980E+00  0.1276484E+01  0.2113459E-02 -0.8108909E-02  0.1603692E-02 -0.5867550E-02
5600000.  0.1205374E+00  0.1243577E+01  0.2150965E-02 -0.6238007E-02  0.1622362E-02 -0.1371953E-02
5600000.  0.1205374E+00  0.1243598E+01  0.2150965E-02 -0.6231832E-02  0.1622362E-02 -0.1371953E-02
5563518.  0.1134858E+00  0.1218332E+01  0.2173462E-02 -0.1743301E-02  0.1618714E-02  0.2505247E-02
5527037.  0.1065956E+00  0.1187439E+01  0.2172217E-02  0.2071817E-02  0.1595168E-02  0.5597930E-02
5490556.  0.9989604E-01  0.1151904E+01  0.2150895E-02  0.5279934E-02  0.1555888E-02  0.8018691E-02
5454074.  0.9341093E-01  0.1112619E+01  0.2112790E-02  0.7942834E-02  0.1504425E-02  0.9868116E-02
5417593.  0.8715974E-01  0.1070388E+01  0.2060865E-02  0.1011714E-01  0.1443802E-02  0.1123226E-01
5381111.  0.8115688E-01  0.1025935E+01  0.1997755E-02  0.1185718E-01  0.1376569E-02  0.1218808E-01
5344630.  0.7541353E-01  0.9799076E+00  0.1925808E-02  0.1321236E-01  0.1304871E-02  0.1280255E-01
5308148.  0.6993669E-01  0.9328798E+00  0.1847088E-02  0.1422955E-01  0.1230489E-02  0.1313423E-01
5271667.  0.6473094E-01  0.8853537E+00  0.1763413E-02  0.1495024E-01  0.1154897E-02  0.1323330E-01
5235185.  0.5979756E-01  0.8377687E+00  0.1676364E-02  0.1541341E-01  0.1079296E-02  0.1314372E-01
5198704.  0.5513601E-01  0.7905101E+00  0.1587317E-02  0.1565452E-01  0.1004660E-02  0.1290284E-01
5162222.  0.5074323E-01  0.7439032E+00  0.1497446E-02  0.1570582E-01  0.9317540E-03  0.1254360E-01
5125741.  0.4661489E-01  0.6982272E+00  0.1407756E-02  0.1559634E-01  0.8611808E-03  0.1209293E-01
5089259.  0.4274476E-01  0.6537126E+00  0.1319088E-02  0.1535235E-01  0.7933901E-03  0.1157478E-01
5052778.  0.3912583E-01  0.6105527E+00  0.1232147E-02  0.1499747E-01  0.7287139E-03  0.1100870E-01
5016296.  0.3574971E-01  0.5688977E+00  0.1147504E-02  0.1455257E-01  0.6673742E-03  0.1041138E-01
4979815.  0.3260758E-01  0.5288699E+00  0.1065623E-02  0.1403634E-01  0.6095121E-03  0.9796681E-02
4943333.  0.2968970E-01  0.4905559E+00  0.9868603E-03  0.1346505E-01  0.5551917E-03  0.9175553E-02
4906852.  0.2698622E-01  0.4540217E+00  0.9114933E-03  0.1285341E-01  0.5044239E-03  0.8557769E-02
4870370.  0.2448667E-01  0.4193043E+00  0.8397117E-03  0.1221399E-01  0.4571653E-03  0.7950409E-02
4833889.  0.2218073E-01  0.3864225E+00  0.7716473E-03  0.1155741E-01  0.4133421E-03  0.7359238E-02
4797407.  0.2005776E-01  0.3553768E+00  0.7073666E-03  0.1089332E-01  0.3728444E-03  0.6789153E-02
4760926.  0.1810739E-01  0.3261534E+00  0.6468924E-03  0.1022970E-01  0.3355441E-03  0.6243304E-02
4724444.  0.1631916E-01  0.2987213E+00  0.5901994E-03  0.9573062E-02  0.3012930E-03  0.5724155E-02
4687963.  0.1468301E-01  0.2730430E+00  0.5372341E-03  0.8929109E-02  0.2699349E-03  0.5233380E-02
4651482.  0.1318899E-01  0.2490687E+00  0.4879088E-03  0.8302351E-02  0.2413035E-03  0.4771849E-02
4615000.  0.1182747E-01  0.2267415E+00  0.4421129E-03  0.7696451E-02  0.2152294E-03  0.4339994E-02
4578518.  0.1058923E-01  0.2059992E+00  0.3997200E-03  0.7114242E-02  0.1915433E-03  0.3937718E-02
4542037.  0.9465416E-02  0.1867754E+00  0.3605888E-03  0.6557879E-02  0.1700773E-03  0.3564721E-02
4505556.  0.8447498E-02  0.1689990E+00  0.3245656E-03  0.6028917E-02  0.1506650E-03  0.3220249E-02
4469074.  0.7527375E-02  0.1525966E+00  0.2914895E-03  0.5528305E-02  0.1331452E-03  0.2903407E-02
4432593.  0.6697439E-02  0.1374948E+00  0.2611982E-03  0.5056627E-02  0.1173635E-03  0.2613097E-02
4396111.  0.5950413E-02  0.1236179E+00  0.2335239E-03  0.4613988E-02  0.1031708E-03  0.2348100E-02
4359630.  0.5279536E-02  0.1108922E+00  0.2083020E-03  0.4200236E-02  0.9042606E-04  0.2107281E-02
4323148.  0.4678394E-02  0.9924281E-01  0.1853673E-03  0.3814815E-02  0.7899410E-04  0.1889235E-02
4286667.  0.4141062E-02  0.8859817E-01  0.1645605E-03  0.3457107E-02  0.6874865E-04  0.1692764E-02
4250185.  0.3661965E-02  0.7888655E-01  0.1457244E-03  0.3126128E-02  0.5956938E-04  0.1516536E-02
4213704.  0.3235981E-02  0.7003995E-01  0.1287099E-03  0.2820852E-02  0.5134442E-04  0.1359337E-02
4177222.  0.2858327E-02  0.6199143E-01  0.1133724E-03  0.2540017E-02  0.4396772E-04  0.1219994E-02
4140741.  0.2524635E-02  0.5467807E-01  0.9957651E-04  0.2282345E-02  0.3734068E-04  0.1097390E-02
4104259.  0.2230853E-02  0.4803885E-01  0.8719279E-04  0.2046399E-02  0.3137000E-04  0.9905243E-03
4067778.  0.1973303E-02  0.4201664E-01  0.7610187E-04  0.1830658E-02  0.2596865E-04  0.8984372E-03
4031296.  0.1748594E-02  0.3655726E-01  0.6619198E-04  0.1633515E-02  0.2105415E-04  0.8203074E-03
3994815.  0.1553661E-02  0.3161077E-01  0.5736203E-04  0.1453260E-02  0.1654899E-04  0.7553913E-03
3958333.  0.1385690E-02  0.2713079E-01  0.4952003E-04  0.1288052E-02  0.1237917E-04  0.7030448E-03
3921852.  0.1242140E-02  0.2307597E-01  0.4258589E-04  0.1135889E-02  0.8474469E-05  0.6627512E-03
3885370.  0.1120677E-02  0.1940970E-01  0.3649079E-04  0.9945469E-03  0.4766966E-05  0.6340662E-03
3848889.  0.1019171E-02  0.1610193E-01  0.3118001E-04  0.8615562E-03  0.1191417E-05  0.6166471E-03
3812407.  0.9356347E-03  0.1312932E-01  0.2661352E-04  0.7340212E-03 -0.2316066E-05  0.6102184E-03
3775926.  0.8681982E-03  0.1047783E-01  0.2276976E-04  0.6085478E-03 -0.5817582E-05  0.6145634E-03
3739444.  0.8150341E-03  0.8144296E-02  0.1964804E-04  0.4810456E-03 -0.9374457E-05  0.6294852E-03
3702963.  0.7743001E-03  0.6140035E-02  0.1727403E-04  0.3464920E-03 -0.1304641E-04  0.6547474E-03
3666482.  0.7440345E-03  0.4494690E-02  0.1570530E-04  0.1986050E-03 -0.1689189E-04  0.6900236E-03
3630000.  0.7220400E-03  0.3262270E-02  0.1504007E-04  0.2942018E-04 -0.2096689E-04  0.7347588E-03
3630000.  0.7220400E-03  0.3262236E-02  0.1504007E-04  0.2940619E-04 -0.2096689E-04  0.7347588E-03
3592500.  0.7053495E-03  0.2503501E-02  0.1543893E-04 -0.1716803E-03 -0.2544914E-04  0.7896450E-03
3555000.  0.6913015E-03  0.2392896E-02  0.1715561E-04 -0.4210825E-03 -0.3027728E-04  0.8519544E-03
3517500.  0.6755076E-03  0.3137880E-02  0.2052727E-04 -0.7376152E-03 -0.3548811E-04  0.9191493E-03
3480000.  0.6521116E-03  0.5034199E-02  0.2601899E-04 -0.1146217E-02 -0.4109948E-04  0.9872359E-03
3480000.  0.6521116E-03  0.1987114E-01  0.3648648E-04  0.1126516E-02 -0.4109948E-04 -0.1064039E-02
3409422.  0.4631835E-03  0.1449363E-01  0.2580492E-04  0.8170468E-03 -0.3056944E-04 -0.8413928E-03
3338844.  0.3259871E-03  0.1047351E-01  0.1808983E-04  0.5873974E-03 -0.2234570E-04 -0.6487714E-03
3268266.  0.2272847E-03  0.7497421E-02  0.1256664E-04  0.4185174E-03 -0.1607159E-04 -0.4894887E-03
3197688.  0.1569473E-03  0.5315701E-02  0.8648371E-05  0.2954559E-03 -0.1138214E-04 -0.3622079E-03
3127109.  0.1073063E-03  0.3732014E-02  0.5894447E-05  0.2066121E-03 -0.7941657E-05 -0.2632804E-03
3056531.  0.7261895E-04  0.2593903E-02  0.3977419E-05  0.1430808E-03 -0.5460828E-05 -0.1881877E-03
2985953.  0.4862625E-04  0.1784269E-02  0.2656088E-05  0.9808995E-04 -0.3701052E-05 -0.1323675E-03
2915375.  0.3220447E-04  0.1214274E-02  0.1754638E-05  0.6654653E-04 -0.2472364E-05 -0.9165912E-04
2844797.  0.2108613E-04  0.8172550E-03  0.1146148E-05  0.4465899E-04 -0.1627688E-05 -0.6249860E-04
2774219.  0.1364286E-04  0.5437491E-03  0.7399260E-06  0.2963344E-04 -0.1055863E-05 -0.4196505E-04
2703641.  0.8717948E-05  0.3574658E-03  0.4718422E-06  0.1943260E-04 -0.6746610E-06 -0.2774526E-04
2633062.  0.5498839E-05  0.2320794E-03  0.2970365E-06  0.1258690E-04 -0.4244516E-06 -0.1805823E-04
2562484.  0.3421435E-05  0.1487168E-03  0.1844827E-06  0.8048171E-05 -0.2628023E-06 -0.1156670E-04
2491906.  0.2098575E-05  0.9399985E-04  0.1129610E-06  0.5076695E-05 -0.1600425E-06 -0.7287869E-05
2421328.  0.1267923E-05  0.5856458E-04  0.6813932E-07  0.3156907E-05 -0.9579828E-07 -0.4514536E-05
2350750.  0.7539700E-06  0.3593773E-04  0.4045779E-07  0.1933765E-05 -0.5632051E-07 -0.2747687E-05
2280172.  0.4408741E-06  0.2170234E-04  0.2362351E-07  0.1165829E-05 -0.3249298E-07 -0.1641870E-05
2209594.  0.2532452E-06  0.1288541E-04  0.1355156E-07  0.6911096E-06 -0.1837838E-07 -0.9623953E-06
2139016.  0.1427437E-06  0.7514137E-05  0.7628809E-08  0.4024297E-06 -0.1018003E-07 -0.5528240E-06
2068438.  0.7885597E-07  0.4298876E-05  0.4209382E-08  0.2299148E-06 -0.5515549E-08 -0.3108537E-06
1997859.  0.4263702E-07  0.2409761E-05  0.2273445E-08  0.1287136E-06 -0.2918991E-08 -0.1708892E-06
1927281.  0.2253062E-07  0.1321703E-05  0.1200087E-08  0.7051101E-07 -0.1506705E-08 -0.9171864E-07
1856703.  0.1161630E-07  0.7081940E-06  0.6181249E-09  0.3773808E-07 -0.7572346E-09 -0.4798331E-07
1786125.  0.5832624E-08  0.3700567E-06  0.3100743E-09  0.1969843E-07 -0.3698334E-09 -0.2442497E-07
1715547.  0.2846139E-08  0.1882031E-06  0.1511724E-09  0.1000823E-07 -0.1751512E-09 -0.1207289E-07
1644969.  0.1346567E-08  0.9295201E-07  0.7146100E-10  0.4938538E-08 -0.8023732E-10 -0.5781426E-08
1574391.  0.6161026E-09  0.4446693E-07  0.3266386E-10  0.2361003E-08 -0.3545000E-10 -0.2675754E-08
1503812.  0.2718930E-09  0.2053493E-07  0.1438677E-10  0.1090968E-08 -0.1504196E-10 -0.1194570E-08
1433234.  0.0000000E+00  0.0000000E+00  0.0000000E+00  0.0000000E+00  0.0000000E+00  0.0000000E+00
1362656.  0.0000000E+00  0.0000000E+00  0.0000000E+00  0.0000000E+00  0.0000000E+00  0.0000000E+00
1292078.  0.0000000E+00  0.0000000E+00  0.0000000E+00  0.0000000E+00  0.0000000E+00  0.0000000E+00
1221500.  0.0000000E+00  0.0000000E+00  0.0000000E+00  0.0000000E+00  0.0000000E+00  0.0000000E+00
1221500.  0.0000000E+00  0.0000000E+00  0.0000000E+00  0.0000000E+00  0.0000000E+00  0.0000000E+00
1183328.  0.0000000E+00  0.0000000E+00  0.0000000E+00  0.0000000E+00  0.0000000E+00  0.0000000E+00
1145156.  0.0000000E+00  0.0000000E+00  0.0000000E+00  0.0000000E+00  0.0000000E+00  0.0000000E+00
1106984.  0.0000000E+00  0.0000000E+00  0.0000000E+00  0.0000000E+00  0.0000000E+00  0.0000000E+00
1068812.  0.0000000E+00  0.0000000E+00  0.0000000E+00  0.0000000E+00  0.0000000E+00  0.0000000E+00
1030641.  0.0000000E+00  0.0000000E+00  0.0000000E+00  0.0000000E+00  0.0000000E+00  0.0000000E+00
 992469.  0.0000000E+00  0.0000000E+00  0.0000000E+00  0.0000000E+00  0.0000000E+00  0.0000000E+00
 954297.  0.0000000E+00  0.0000000E+00  0.0000000E+00  0.0000000E+00  0.0000000E+00  0.0000000E+00
 916125.  0.0000000E+00  0.0000000E+00  0.0000000E+00  0.0000000E+00  0.0000000E+00  0.0000000E+00
 877953.  0.0000000E+00  0.0000000E+00  0.0000000E+00  0.0000000E+00  0.0000000E+00  0.0000000E+00
 839781.  0.0000000E+00  0.0000000E+00  0.0000000E+00  0.0000000E+00  0.0000000E+00  0.0000000E+00
 801609.  0.0000000E+00  0.0000000E+00  0.0000000E+00  0.0000000E+00  0.0000000E+00  0.0000000E+00
 763438.  0.0000000E+00  0.0000000E+00  0.0000000E+00  0.0000000E+00  0.0000000E+00  0.0000000E+00
 725266.  0.0000000E+00  0.0000000E+00  0.0000000E+00  0.0000000E+00  0.0000000E+00  0.0000000E+00
 687094.  0.0000000E+00  0.0000000E+00  0.0000000E+00  0.0000000E+00  0.0000000E+00  0.0000000E+00
 648922.  0.0000000E+00  0.0000000E+00  0.0000000E+00  0.0000000E+00  0.0000000E+00  0.0000000E+00
 610750.  0.0000000E+00  0.0000000E+00  0.0000000E+00  0.0000000E+00  0.0000000E+00  0.0000000E+00
 572578.  0.0000000E+00  0.0000000E+00  0.0000000E+00  0.0000000E+00  0.0000000E+00  0.0000000E+00
 534406.  0.0000000E+00  0.0000000E+00  0.0000000E+00  0.0000000E+00  0.0000000E+00  0.0000000E+00
 496234.  0.0000000E+00  0.0000000E+00  0.0000000E+00  0.0000000E+00  0.0000000E+00  0.0000000E+00
 458062.  0.0000000E+00  0.0000000E+00  0.0000000E+00  0.0000000E+00  0.0000000E+00  0.0000000E+00
 419891.  0.0000000E+00  0.0000000E+00  0.0000000E+00  0.0000000E+00  0.0000000E+00  0.0000000E+00
 381719.  0.0000000E+00  0.0000000E+00  0.0000000E+00  0.0000000E+00  0.0000000E+00  0.0000000E+00
 343547.  0.0000000E+00  0.0000000E+00  0.0000000E+00  0.0000000E+00  0.0000000E+00  0.0000000E+00
 305375.  0.0000000E+00  0.0000000E+00  0.0000000E+00  0.0000000E+00  0.0000000E+00  0.0000000E+00
 267203.  0.0000000E+00  0.0000000E+00  0.0000000E+00  0.0000000E+00  0.0000000E+00  0.0000000E+00
 229031.  0.0000000E+00  0.0000000E+00  0.0000000E+00  0.0000000E+00  0.0000000E+00  0.0000000E+00
 190859.  0.0000000E+00  0.0000000E+00  0.0000000E+00  0.0000000E+00  0.0000000E+00  0.0000000E+00
 152688.  0.0000000E+00  0.0000000E+00  0.0000000E+00  0.0000000E+00  0.0000000E+00  0.0000000E+00
 114516.  0.0000000E+00  0.0000000E+00  0.0000000E+00  0.0000000E+00  0.0000000E+00  0.0000000E+00
  76344.  0.0000000E+00  0.0000000E+00  0.0000000E+00  0.0000000E+00  0.0000000E+00  0.0000000E+00
  38172.  0.0000000E+00  0.0000000E+00  0.0000000E+00  0.0000000E+00  0.0000000E+00  0.0000000E+00
      0.  0.0000000E+00  0.0000000E+00  0.0000000E+00  0.0000000E+00  0.0000000E+00  0.0000000E+00
