      19        9 S      690        110.58240         38.10463         12.17524        620.00409      185    7
6371000.  0.3567979E-01 -0.1272707E+00 -0.2805458E-02 -0.3848526E-01  0.5936872E-05 -0.6734312E-01
6370000.  0.3569804E-01 -0.1051353E+00 -0.2798979E-02 -0.4406407E-01  0.1650407E-04 -0.6730302E-01
6369000.  0.3571280E-01 -0.8292806E-01 -0.2791626E-02 -0.4962298E-01  0.2706448E-04 -0.6725667E-01
6368000.  0.3572407E-01 -0.6065136E-01 -0.2783403E-02 -0.5516023E-01  0.3761712E-04 -0.6720404E-01
6368000.  0.3572407E-01 -0.6065136E-01 -0.2783403E-02 -0.5516023E-01  0.3761712E-04 -0.6720404E-01
6367000.  0.3573183E-01 -0.3830750E-01 -0.2774311E-02 -0.6067407E-01  0.4816101E-04 -0.6714517E-01
6366000.  0.3573609E-01 -0.1589883E-01 -0.2764357E-02 -0.6616277E-01  0.5869516E-04 -0.6708004E-01
6365000.  0.3573682E-01  0.6572293E-02 -0.2753543E-02 -0.7162457E-01  0.6921861E-04 -0.6700865E-01
6364000.  0.3573402E-01  0.2910347E-01 -0.2741874E-02 -0.7705778E-01  0.7973036E-04 -0.6693102E-01
6363000.  0.3572768E-01  0.5169230E-01 -0.2729354E-02 -0.8246067E-01  0.9022943E-04 -0.6684715E-01
6362000.  0.3571779E-01  0.7433634E-01 -0.2715989E-02 -0.8783153E-01  0.1007149E-03 -0.6675705E-01
6361000.  0.3570434E-01  0.9703311E-01 -0.2701784E-02 -0.9316869E-01  0.1111856E-03 -0.6666072E-01
6360000.  0.3568733E-01  0.1197802E+00 -0.2686743E-02 -0.9847045E-01  0.1216408E-03 -0.6655816E-01
6359000.  0.3566674E-01  0.1425750E+00 -0.2670874E-02 -0.1037351E+00  0.1320794E-03 -0.6644940E-01
6358000.  0.3564257E-01  0.1654150E+00 -0.2654180E-02 -0.1089611E+00  0.1425005E-03 -0.6633443E-01
6357000.  0.3561481E-01  0.1882977E+00 -0.2636670E-02 -0.1141467E+00  0.1529030E-03 -0.6621327E-01
6356000.  0.3558346E-01  0.2112206E+00 -0.2618350E-02 -0.1192903E+00  0.1632860E-03 -0.6608592E-01
6356000.  0.3558346E-01  0.1108541E+00 -0.2618350E-02 -0.8718219E-01  0.1632860E-03 -0.7382847E-01
6355000.  0.3556475E-01  0.1274509E+00 -0.2604397E-02 -0.9059687E-01  0.1748652E-03 -0.7371341E-01
6354000.  0.3554344E-01  0.1440766E+00 -0.2589910E-02 -0.9398853E-01  0.1864260E-03 -0.7359344E-01
6353000.  0.3551952E-01  0.1607298E+00 -0.2574893E-02 -0.9735645E-01  0.1979676E-03 -0.7346853E-01
6352000.  0.3549299E-01  0.1774092E+00 -0.2559349E-02 -0.1006999E+00  0.2094892E-03 -0.7333870E-01
6351000.  0.3546383E-01  0.1941133E+00 -0.2543282E-02 -0.1040182E+00  0.2209900E-03 -0.7320397E-01
6350000.  0.3543205E-01  0.2108407E+00 -0.2526697E-02 -0.1073107E+00  0.2324693E-03 -0.7306433E-01
6349000.  0.3539764E-01  0.2275902E+00 -0.2509597E-02 -0.1105766E+00  0.2439263E-03 -0.7291979E-01
6348000.  0.3536060E-01  0.2443602E+00 -0.2491986E-02 -0.1138152E+00  0.2553602E-03 -0.7277038E-01
6347000.  0.3532093E-01  0.2611495E+00 -0.2473869E-02 -0.1170259E+00  0.2667703E-03 -0.7261608E-01
6346600.  0.3530432E-01  0.2678702E+00 -0.2466482E-02 -0.1183022E+00  0.2713274E-03 -0.7255299E-01
6346600.  0.3530432E-01  0.1099569E+00 -0.2466482E-02 -0.9218808E-01  0.2713274E-03 -0.8486310E-01
6318800.  0.3407326E-01  0.4567573E+00 -0.1925860E-02 -0.1524926E+00  0.6316488E-03 -0.7977816E-01
6291000.  0.3131051E-01  0.8087383E+00 -0.1167774E-02 -0.1908242E+00  0.9632062E-03 -0.7170716E-01
6291000.  0.3131051E-01  0.8184394E+00 -0.1167774E-02 -0.1961492E+00  0.9632062E-03 -0.7170716E-01
6263000.  0.2694623E-01  0.1163006E+01 -0.2690777E-03 -0.2078231E+00  0.1255069E-02 -0.6066330E-01
6235000.  0.2114569E-01  0.1468153E+01  0.6150220E-03 -0.1896444E+00  0.1492776E-02 -0.4713163E-01
6207000.  0.1413228E-01  0.1711393E+01  0.1358084E-02 -0.1444347E+00  0.1666385E-02 -0.3158114E-01
6179000.  0.6222358E-02  0.1873226E+01  0.1854309E-02 -0.7865673E-01  0.1768244E-02 -0.1458303E-01
6151000. -0.2192131E-02  0.1939083E+01  0.2032772E-02 -0.1537370E-02  0.1793405E-02  0.3206852E-02
6151000. -0.2192131E-02  0.1579062E+01  0.2032772E-02 -0.8229671E-03  0.1793405E-02  0.3328132E-02
6128500. -0.7701453E-02  0.1533211E+01  0.1937310E-02  0.5441787E-01  0.1761234E-02  0.1485063E-01
6106000. -0.1296830E-01  0.1442300E+01  0.1654230E-02  0.1047268E+00  0.1688934E-02  0.2601452E-01
6083500. -0.1784052E-01  0.1310577E+01  0.1208032E-02  0.1461985E+00  0.1578175E-02  0.3659430E-01
6061000. -0.2218393E-01  0.1143927E+01  0.6357435E-03  0.1756828E+00  0.1431392E-02  0.4638241E-01
6038500. -0.2588756E-01  0.9495428E+00 -0.1613827E-04  0.1909990E+00  0.1251717E-02  0.5519215E-01
6016000. -0.2886753E-01  0.7354949E+00 -0.6953378E-03  0.1910690E+00  0.1042900E-02  0.6286078E-01
5993500. -0.3106935E-01  0.5102934E+00 -0.1347799E-02  0.1759641E+00  0.8092196E-03  0.6925245E-01
5971000. -0.3246871E-01  0.2824372E+00 -0.1921711E-02  0.1468716E+00  0.5553850E-03  0.7425842E-01
5971000. -0.3246871E-01  0.2518183E+00 -0.1921711E-02  0.1342819E+00  0.5553850E-03  0.7850885E-01
5937667. -0.3296676E-01 -0.5512052E-01 -0.2471844E-02  0.7369938E-01  0.1298096E-03  0.8362794E-01
5904333. -0.3197045E-01 -0.3172429E+00 -0.2677774E-02  0.4433135E-02 -0.3140471E-03  0.8550418E-01
5871000. -0.2974217E-01 -0.5250544E+00 -0.2520647E-02 -0.6350430E-01 -0.7594759E-03  0.8426345E-01
5837667. -0.2657645E-01 -0.6755880E+00 -0.2030585E-02 -0.1215903E+00 -0.1190720E-02  0.8012476E-01
5804333. -0.2276843E-01 -0.7713369E+00 -0.1276459E-02 -0.1636237E+00 -0.1593361E-02  0.7337876E-01
5771000. -0.1858932E-01 -0.8188394E+00 -0.3526814E-03 -0.1860958E+00 -0.1954620E-02  0.6437147E-01
5771000. -0.1858932E-01 -0.8188502E+00 -0.3526814E-03 -0.1860891E+00 -0.1954620E-02  0.6437147E-01
5701000. -0.9261583E-02 -0.8569394E+00  0.1749679E-02 -0.1815029E+00 -0.2525909E-02  0.3839207E-01
5701000. -0.9261583E-02 -0.7000046E+00  0.1749679E-02 -0.1409600E+00 -0.2525909E-02  0.4100258E-01
5667333. -0.5593759E-02 -0.6863666E+00  0.2417507E-02 -0.1101603E+00 -0.2707500E-02  0.2756638E-01
5633667. -0.2022024E-02 -0.6644388E+00  0.2900056E-02 -0.7149255E-01 -0.2815919E-02  0.1337487E-01
5600000.  0.1420809E-02 -0.6380696E+00  0.3166200E-02 -0.2891243E-01 -0.2848205E-02 -0.1184540E-02
5600000.  0.1420809E-02 -0.6380613E+00  0.3166200E-02 -0.2891392E-01 -0.2848205E-02 -0.1184540E-02
5563518.  0.4994287E-02 -0.6097603E+00  0.3198561E-02  0.1765956E-01 -0.2796170E-02 -0.1695417E-01
5527037.  0.8402392E-02 -0.5805580E+00  0.2967691E-02  0.6229003E-01 -0.2654903E-02 -0.3227312E-01
5490556.  0.1164214E-01 -0.5508805E+00  0.2496934E-02  0.1007986E+00 -0.2428305E-02 -0.4668489E-01
5454074.  0.1470799E-01 -0.5194470E+00  0.1831663E-02  0.1297243E+00 -0.2122788E-02 -0.5976863E-01
5417593.  0.1758264E-01 -0.4835952E+00  0.1034300E-02  0.1466348E+00 -0.1747068E-02 -0.7114984E-01
5381111.  0.2023108E-01 -0.4397790E+00  0.1776500E-03  0.1503324E+00 -0.1311811E-02 -0.8051163E-01
5344630.  0.2259662E-01 -0.3841846E+00 -0.6622535E-03  0.1409180E+00 -0.8293643E-03 -0.8759995E-01
5308148.  0.2460173E-01 -0.3133577E+00 -0.1413663E-02  0.1197356E+00 -0.3132793E-03 -0.9223102E-01
5271667.  0.2615137E-01 -0.2248161E+00 -0.2015597E-02  0.8919434E-01  0.2219904E-03 -0.9429325E-01
5235185.  0.2714048E-01 -0.1175430E+00 -0.2423367E-02  0.5249790E-01  0.7616211E-03 -0.9374887E-01
5198704.  0.2746316E-01  0.7646925E-02 -0.2612074E-02  0.1331458E-01  0.1290723E-02 -0.9063277E-01
5162222.  0.2702385E-01  0.1479714E+00 -0.2578295E-02 -0.2459507E-01  0.1794865E-02 -0.8504860E-01
5125741.  0.2574858E-01  0.2986972E+00 -0.2339559E-02 -0.5772893E-01  0.2260340E-02 -0.7716542E-01
5089259.  0.2359532E-01  0.4534249E+00 -0.1931894E-02 -0.8317125E-01  0.2674629E-02 -0.6720862E-01
5052778.  0.2056278E-01  0.6044792E+00 -0.1405775E-02 -0.9883916E-01  0.3026605E-02 -0.5545462E-01
5016296.  0.1669554E-01  0.7435164E+00 -0.8207355E-03 -0.1036539E+00  0.3306884E-02 -0.4221908E-01
4979815.  0.1208680E-01  0.8621442E+00 -0.2394949E-03 -0.9760509E-01  0.3507950E-02 -0.2784988E-01
4943333.  0.6875770E-02  0.9526343E+00  0.2782353E-03 -0.8171795E-01  0.3624366E-02 -0.1271425E-01
4906852.  0.1243050E-02  0.1008551E+01  0.6812419E-03 -0.5792803E-01  0.3652820E-02  0.2808800E-02
4870370. -0.4599608E-02  0.1025323E+01  0.9315639E-03 -0.2887091E-01  0.3592180E-02  0.1834113E-01
4833889. -0.1041999E-01  0.1000651E+01  0.1007698E-02  0.2375477E-02  0.3443464E-02  0.3351197E-01
4797407. -0.1598051E-01  0.9347535E+00  0.9063346E-03  0.3259063E-01  0.3209751E-02  0.4796961E-01
4760926. -0.2105154E-01  0.8304064E+00  0.6423168E-03  0.5870473E-01  0.2896089E-02  0.6138628E-01
4724444. -0.2542690E-01  0.6927708E+00  0.2469292E-03  0.7808032E-01  0.2509283E-02  0.7346754E-01
4687963. -0.2893553E-01  0.5290679E+00 -0.2351918E-03  0.8873772E-01  0.2057759E-02  0.8395495E-01
4651482. -0.3145275E-01  0.3480485E+00 -0.7504150E-03  0.8952484E-01  0.1551270E-02  0.9263297E-01
4615000. -0.3290685E-01  0.1593755E+00 -0.1241109E-02  0.8020364E-01  0.1000675E-02  0.9933040E-01
4578518. -0.3328232E-01 -0.2705144E-01 -0.1650906E-02  0.6145852E-01  0.4177083E-03  0.1039224E+00
4542037. -0.3261942E-01 -0.2018050E+00 -0.1929853E-02  0.3482437E-01 -0.1853114E-03  0.1063311E+00
4505556. -0.3100943E-01 -0.3565958E+00 -0.2038905E-02  0.2539868E-02 -0.7957900E-03  0.1065264E+00
4469074. -0.2858642E-01 -0.4848159E+00 -0.1953369E-02 -0.3265294E-01 -0.1401091E-02  0.1045230E+00
4432593. -0.2551667E-01 -0.5819471E+00 -0.1665148E-02 -0.6774481E-01 -0.1988739E-02  0.1003800E+00
4396111. -0.2198538E-01 -0.6458331E+00 -0.1183487E-02 -0.9972260E-01 -0.2546781E-02  0.9419636E-01
4359630. -0.1818352E-01 -0.6767228E+00 -0.5343569E-03 -0.1258142E+00 -0.3063874E-02  0.8610870E-01
4323148. -0.1429359E-01 -0.6771538E+00  0.2417190E-03 -0.1437208E+00 -0.3529616E-02  0.7628670E-01
4286667. -0.1047813E-01 -0.6516524E+00  0.1092772E-02 -0.1517976E+00 -0.3934606E-02  0.6492937E-01
4250185. -0.6868635E-02 -0.6062871E+00  0.1959693E-02 -0.1491800E+00 -0.4270702E-02  0.5225927E-01
4213704. -0.3559164E-02 -0.5481230E+00  0.2780728E-02 -0.1358457E+00 -0.4531057E-02  0.3851946E-01
4177222. -0.6015659E-03 -0.4845941E+00  0.3496485E-02 -0.1126035E+00 -0.4710286E-02  0.2396601E-01
4140741.  0.1994129E-02 -0.4228895E+00  0.4054353E-02 -0.8102431E-01 -0.4804482E-02  0.8865852E-02
4104259.  0.4257187E-02 -0.3693475E+00  0.4412645E-02 -0.4330118E-01 -0.4811291E-02 -0.6511401E-02
4067778.  0.6249271E-02 -0.3289616E+00  0.4543561E-02 -0.2077521E-02 -0.4729901E-02 -0.2189529E-01
4031296.  0.8056022E-02 -0.3049797E+00  0.4435241E-02  0.3977045E-01 -0.4561027E-02 -0.3702253E-01
3994815.  0.9775907E-02 -0.2986792E+00  0.4092446E-02  0.7934887E-01 -0.4306883E-02 -0.5163855E-01
3958333.  0.1150901E-01 -0.3092822E+00  0.3535984E-02  0.1139747E+00 -0.3971073E-02 -0.6550501E-01
3921852.  0.1334511E-01 -0.3340682E+00  0.2801018E-02  0.1413644E+00 -0.3558552E-02 -0.7840058E-01
3885370.  0.1535360E-01 -0.3686147E+00  0.1934150E-02  0.1598051E+00 -0.3075432E-02 -0.9012791E-01
3848889.  0.1757436E-01 -0.4071934E+00  0.9899726E-03  0.1682647E+00 -0.2528938E-02 -0.1005136E+00
3812407.  0.2001216E-01 -0.4432721E+00  0.2677192E-04  0.1664547E+00 -0.1927150E-02 -0.1094139E+00
3775926.  0.2263311E-01 -0.4700681E+00 -0.8975554E-03  0.1548332E+00 -0.1278949E-02 -0.1167136E+00
3739444.  0.2536545E-01 -0.4811343E+00 -0.1729869E-02  0.1345539E+00 -0.5937165E-03 -0.1223305E+00
3702963.  0.2810248E-01 -0.4709121E+00 -0.2425298E-02  0.1073637E+00  0.1187130E-03 -0.1262138E+00
3666482.  0.3070968E-01 -0.4352262E+00 -0.2950402E-02  0.7545743E-01  0.8483640E-03 -0.1283453E+00
3630000.  0.3303347E-01 -0.3716660E+00 -0.3285170E-02  0.4130625E-01  0.1585251E-02 -0.1287392E+00
3630000.  0.3303347E-01 -0.3716629E+00 -0.3285170E-02  0.4130509E-01  0.1585251E-02 -0.1287392E+00
3592500.  0.3495637E-01 -0.2766382E+00 -0.3426297E-02  0.6867069E-02  0.2339872E-02 -0.1273766E+00
3555000.  0.3623244E-01 -0.1523304E+00 -0.3371170E-02 -0.2494903E-01  0.3081329E-02 -0.1242764E+00
3517500.  0.3669969E-01 -0.2665603E-02 -0.3142538E-02 -0.5171122E-01  0.3799597E-02 -0.1195113E+00
3480000.  0.3622601E-01  0.1661911E+00 -0.2776330E-02 -0.7140344E-01  0.4485153E-02 -0.1131800E+00
3480000.  0.3622601E-01  0.4620511E+00 -0.5915196E-03  0.6741480E-01  0.4485153E-02 -0.2271321E+00
3409422.  0.2767015E-01  0.1051023E+01 -0.1276564E-02  0.5410699E-01  0.6749404E-02 -0.1733963E+00
3338844.  0.1379604E-01  0.1409932E+01 -0.1749003E-02  0.2967586E-01  0.8173641E-02 -0.7837778E-01
3268266. -0.2545465E-02  0.1493696E+01 -0.1910040E-02 -0.1230639E-02  0.8407072E-02  0.3792131E-01
3197688. -0.1831150E-01  0.1311724E+01 -0.1718357E-02 -0.3305707E-01  0.7337753E-02  0.1531204E+00
3127109. -0.3082196E-01  0.9177885E+00 -0.1194441E-02 -0.6036177E-01  0.5095189E-02  0.2466438E+00
3056531. -0.3816636E-01  0.3942531E+00 -0.4143204E-03 -0.7869054E-01  0.2011147E-02  0.3030203E+00
2985953. -0.3942318E-01 -0.1657335E+00  0.5051149E-03 -0.8519194E-01 -0.1449550E-02  0.3138964E+00
2915375. -0.3468546E-01 -0.6745996E+00  0.1425755E-02 -0.7890993E-01 -0.4772209E-02  0.2786094E+00
2844797. -0.2492467E-01 -0.1063048E+01  0.2209426E-02 -0.6076069E-01 -0.7474626E-02  0.2034758E+00
2774219. -0.1174071E-01 -0.1287769E+01  0.2737228E-02 -0.3324028E-01 -0.9175755E-02  0.1000991E+00
2703641.  0.2944629E-02 -0.1333966E+01  0.2924507E-02  0.5542955E-04 -0.9642083E-02 -0.1689008E-01
2633062.  0.1719602E-01 -0.1213276E+01  0.2729884E-02  0.3500858E-01 -0.8807790E-02 -0.1322356E+00
2562484.  0.2932837E-01 -0.9582170E+00  0.2157806E-02  0.6755693E-01 -0.6769408E-02 -0.2322142E+00
2491906.  0.3809879E-01 -0.6146384E+00  0.1255018E-02  0.9419925E-01 -0.3758982E-02 -0.3063011E+00
2421328.  0.4280818E-01 -0.2335681E+00  0.1021584E-03  0.1123681E+00 -0.1025978E-03 -0.3481505E+00
2350750.  0.4331619E-01  0.1362863E+00 -0.1197925E-02  0.1206419E+00  0.3828166E-02 -0.3558877E+00
2280172.  0.3998092E-01  0.4544738E+00 -0.2533257E-02  0.1187891E+00  0.7664406E-02 -0.3317674E+00
2209594.  0.3354408E-01  0.6926370E+00 -0.3795475E-02  0.1076650E+00  0.1108142E-01 -0.2813470E+00
2139016.  0.2498614E-01  0.8361185E+00 -0.4890739E-02  0.8899239E-01  0.1382927E-01 -0.2123636E+00
2068438.  0.1537510E-01  0.8835478E+00 -0.5747768E-02  0.6506775E-01  0.1575013E-01 -0.1335088E+00
1997859.  0.5729538E-02  0.8447465E+00 -0.6322417E-02  0.3844069E-01  0.1678237E-01 -0.5327871E-01
1927281. -0.3088650E-02  0.7376840E+00 -0.6598763E-02  0.1161151E-01  0.1695293E-01  0.2096230E-01
1856703. -0.1044546E-01  0.5848531E+00 -0.6587075E-02 -0.1323248E-01  0.1636092E-01  0.8363299E-01
1786125. -0.1596509E-01  0.4098652E+00 -0.6319228E-02 -0.3440206E-01  0.1515581E-01  0.1312492E+00
1715547. -0.1952551E-01  0.2344905E+00 -0.5842513E-02 -0.5081328E-01  0.1351386E-01  0.1624362E+00
1644969. -0.2122558E-01  0.7657733E-01 -0.5212699E-02 -0.6202061E-01  0.1161592E-01  0.1776811E+00
1574391. -0.2133468E-01 -0.5103740E-01 -0.4487081E-02 -0.6818207E-01  0.9629038E-02  0.1789060E+00
1503812. -0.2023580E-01 -0.1406045E+00 -0.3718189E-02 -0.6998640E-01  0.7693422E-02  0.1689374E+00
1433234. -0.1837355E-01 -0.1885111E+00 -0.2948365E-02 -0.6857793E-01  0.5915653E-02  0.1509388E+00
1362656. -0.1621841E-01 -0.1932502E+00 -0.2204895E-02 -0.6552922E-01  0.4367973E-02  0.1278335E+00
1292078. -0.1426130E-01 -0.1518772E+00 -0.1494848E-02 -0.6295779E-01  0.3094429E-02  0.1016784E+00
1221500. -0.1306105E-01 -0.5363857E-01 -0.7970105E-03 -0.6397142E-01  0.2124884E-02  0.7279036E-01
1221500. -0.1306105E-01 -0.1318297E+00 -0.1052714E-02  0.6263211E-01  0.2124884E-02  0.7844847E-01
1183328. -0.1150459E-01 -0.3893528E+00 -0.1431069E-02  0.5876037E-01  0.1693943E-02  0.6564649E-01
1145156. -0.8456904E-02 -0.6162391E+00 -0.1703565E-02  0.2847666E-01  0.1335314E-02  0.5430828E-01
1106984. -0.4329595E-02 -0.7391232E+00 -0.1740004E-02 -0.1783842E-01  0.1040297E-02  0.4440516E-01
1068812.  0.9523051E-04 -0.7106938E+00 -0.1486591E-02 -0.6577449E-01  0.8004575E-03  0.3587715E-01
1030641.  0.3865574E-02 -0.5229068E+00 -0.9768297E-03 -0.1013454E+00  0.6078132E-03  0.2863608E-01
 992469.  0.6106978E-02 -0.2089216E+00 -0.3165297E-03 -0.1149362E+00  0.4549659E-03  0.2257114E-01
 954297.  0.6246056E-02  0.1661904E+00  0.3502249E-03 -0.1036108E+00  0.3352420E-03  0.1755770E-01
 916125.  0.4152674E-02  0.5228977E+00  0.8827657E-03 -0.7129227E-01  0.2427314E-03  0.1346535E-01
 877953.  0.1656295E-03  0.7875198E+00  0.1180442E-02 -0.2699027E-01  0.1723033E-03  0.1016556E-01
 839781. -0.4997592E-02  0.9097559E+00  0.1204526E-02  0.1817933E-01  0.1195746E-03  0.7538008E-02
 801609. -0.1041623E-01  0.8730237E+00  0.9811597E-03  0.5417242E-01  0.8084915E-04  0.5474240E-02
 763438. -0.1517603E-01  0.6955204E+00  0.5870417E-03  0.7447111E-01  0.5304147E-04  0.3879087E-02
 725266. -0.1855921E-01  0.4226500E+00  0.1241127E-03  0.7722394E-01  0.3359593E-04  0.2669900E-02
 687094. -0.2016883E-01  0.1137490E+00 -0.3081402E-03  0.6495561E-01  0.2042071E-04  0.1774979E-02
 648922. -0.1996773E-01 -0.1728743E+00 -0.6351641E-03  0.4316243E-01  0.1182241E-04  0.1132490E-02
 610750. -0.1823246E-01 -0.3925309E+00 -0.8194388E-03  0.1837780E-01  0.6455656E-05  0.6877884E-03
 572578. -0.1544652E-01 -0.5215521E+00 -0.8610161E-03 -0.3656375E-02  0.3280864E-05  0.3935139E-03
 534406. -0.1216783E-01 -0.5584592E+00 -0.7887026E-03 -0.1922345E-01  0.1521238E-05  0.2092291E-03
 496234. -0.8906292E-02 -0.5196821E+00 -0.6462551E-03 -0.2705109E-01  0.6218665E-06  0.1013260E-03
 458062. -0.6038349E-02 -0.4319318E+00 -0.4784088E-03 -0.2797910E-01  0.2084087E-06  0.4317932E-04
 419891. -0.3770723E-02 -0.3238510E+00 -0.3205065E-03 -0.2414791E-01  0.4497756E-07  0.1510508E-04
 381719. -0.2150157E-02 -0.2192324E+00 -0.1935193E-03 -0.1806093E-01 -0.4920320E-08  0.3461930E-05
 343547. -0.1105806E-02 -0.1332408E+00 -0.1043169E-03 -0.1182657E-01 -0.1199111E-07 -0.2643307E-06
 305375. -0.5039339E-03 -0.7182955E-01 -0.4942165E-04 -0.6753633E-02 -0.7815776E-08 -0.8481869E-06
 267203. -0.1983610E-03 -0.3366653E-01 -0.2008726E-04 -0.3311949E-02 -0.3458732E-08 -0.5583380E-06
 229031. -0.6491918E-04 -0.1329094E-01 -0.6749197E-05 -0.1355105E-02 -0.1131761E-08 -0.2397135E-06
 190859. -0.1664116E-04 -0.4199420E-02 -0.1767220E-05 -0.4403761E-03 -0.2674289E-09 -0.7272217E-07
 152688. -0.3021294E-05 -0.9732891E-03 -0.3262705E-06 -0.1043072E-03 -0.4149863E-10 -0.1472964E-07
 114516. -0.3214762E-06 -0.1402866E-03 -0.3515887E-07 -0.1527974E-04 -0.3450165E-11 -0.1679109E-08
  76344. -0.1309828E-07 -0.8669028E-05 -0.1445263E-08 -0.9548446E-06 -0.9576050E-13 -0.7113572E-10
  38172. -0.5250510E-10 -0.6995432E-07 -0.5823784E-11 -0.7755845E-08 -0.1929486E-15 -0.2886020E-12
      0.  0.0000000E+00  0.0000000E+00  0.0000000E+00  0.0000000E+00  0.0000000E+00  0.0000000E+00
