       0       31 S       30        256.46771          4.95501          3.57836        179.61951      185    7
6371000.  0.2183629E+00 -0.2032929E+01 -0.4770168E-02 -0.2231331E+00 -0.6020471E-02 -0.2191263E+00
6370000.  0.2186790E+00 -0.1994211E+01 -0.4735135E-02 -0.2232548E+00 -0.5986217E-02 -0.2173310E+00
6369000.  0.2189890E+00 -0.1955451E+01 -0.4700084E-02 -0.2233667E+00 -0.5952245E-02 -0.2155385E+00
6368000.  0.2192928E+00 -0.1916649E+01 -0.4665016E-02 -0.2234689E+00 -0.5918554E-02 -0.2137488E+00
6368000.  0.2192928E+00 -0.1916649E+01 -0.4665016E-02 -0.2234689E+00 -0.5918554E-02 -0.2137488E+00
6367000.  0.2195906E+00 -0.1877807E+01 -0.4629932E-02 -0.2235613E+00 -0.5885144E-02 -0.2119620E+00
6366000.  0.2198823E+00 -0.1838926E+01 -0.4594835E-02 -0.2236439E+00 -0.5852015E-02 -0.2101778E+00
6365000.  0.2201679E+00 -0.1800009E+01 -0.4559726E-02 -0.2237167E+00 -0.5819165E-02 -0.2083964E+00
6364000.  0.2204474E+00 -0.1761055E+01 -0.4524606E-02 -0.2237798E+00 -0.5786594E-02 -0.2066177E+00
6363000.  0.2207207E+00 -0.1722068E+01 -0.4489477E-02 -0.2238330E+00 -0.5754303E-02 -0.2048415E+00
6362000.  0.2209880E+00 -0.1683048E+01 -0.4454340E-02 -0.2238764E+00 -0.5722290E-02 -0.2030680E+00
6361000.  0.2212491E+00 -0.1643997E+01 -0.4419198E-02 -0.2239100E+00 -0.5690555E-02 -0.2012970E+00
6360000.  0.2215041E+00 -0.1604915E+01 -0.4384051E-02 -0.2239337E+00 -0.5659098E-02 -0.1995285E+00
6359000.  0.2217529E+00 -0.1565806E+01 -0.4348900E-02 -0.2239477E+00 -0.5627919E-02 -0.1977624E+00
6358000.  0.2219956E+00 -0.1526670E+01 -0.4313749E-02 -0.2239518E+00 -0.5597016E-02 -0.1959988E+00
6357000.  0.2222321E+00 -0.1487508E+01 -0.4278598E-02 -0.2239460E+00 -0.5566390E-02 -0.1942376E+00
6356000.  0.2224626E+00 -0.1448323E+01 -0.4243448E-02 -0.2239304E+00 -0.5536040E-02 -0.1924787E+00
6356000.  0.2224626E+00 -0.1353995E+01 -0.4243448E-02 -0.2252427E+00 -0.5536040E-02 -0.2408840E+00
6355000.  0.2226727E+00 -0.1323674E+01 -0.4208134E-02 -0.2247257E+00 -0.5498378E-02 -0.2390036E+00
6354000.  0.2228781E+00 -0.1293392E+01 -0.4172902E-02 -0.2242060E+00 -0.5461011E-02 -0.2371294E+00
6353000.  0.2230787E+00 -0.1263150E+01 -0.4137751E-02 -0.2236836E+00 -0.5423937E-02 -0.2352614E+00
6352000.  0.2232746E+00 -0.1232947E+01 -0.4102682E-02 -0.2231586E+00 -0.5387157E-02 -0.2333996E+00
6351000.  0.2234658E+00 -0.1202784E+01 -0.4067697E-02 -0.2226309E+00 -0.5350668E-02 -0.2315438E+00
6350000.  0.2236522E+00 -0.1172661E+01 -0.4032793E-02 -0.2221006E+00 -0.5314470E-02 -0.2296940E+00
6349000.  0.2238339E+00 -0.1142580E+01 -0.3997975E-02 -0.2215676E+00 -0.5278562E-02 -0.2278502E+00
6348000.  0.2240109E+00 -0.1112540E+01 -0.3963239E-02 -0.2210320E+00 -0.5242942E-02 -0.2260123E+00
6347000.  0.2241832E+00 -0.1082542E+01 -0.3928587E-02 -0.2204937E+00 -0.5207611E-02 -0.2241804E+00
6346600.  0.2242507E+00 -0.1070555E+01 -0.3914751E-02 -0.2202777E+00 -0.5193559E-02 -0.2234492E+00
6346600.  0.2242507E+00 -0.1476411E+01 -0.3914751E-02 -0.2231251E+00 -0.5193559E-02 -0.3016422E+00
6318800.  0.2291317E+00 -0.7696607E+00 -0.2993015E-02 -0.1995732E+00 -0.3984021E-02 -0.2538639E+00
6291000.  0.2310453E+00 -0.1163567E+00 -0.2171352E-02 -0.1772017E+00 -0.2969104E-02 -0.2122595E+00
6291000.  0.2310453E+00 -0.1400090E+00 -0.2171352E-02 -0.1748412E+00 -0.2969104E-02 -0.2122595E+00
6263000.  0.2302885E+00  0.4749599E+00 -0.1451204E-02 -0.1529419E+00 -0.2118226E-02 -0.1757037E+00
6235000.  0.2269552E+00  0.1032035E+01 -0.8266443E-03 -0.1312993E+00 -0.1418734E-02 -0.1432216E+00
6207000.  0.2213063E+00  0.1528137E+01 -0.2970831E-03 -0.1096729E+00 -0.8546005E-03 -0.1139715E+00
6179000.  0.2136177E+00  0.1959624E+01  0.1370699E-03 -0.8784814E-01 -0.4133569E-03 -0.8717218E-01
6151000.  0.2041824E+00  0.2322281E+01  0.4745158E-03 -0.6563393E-01 -0.8585743E-04 -0.6208977E-01
6151000.  0.2041824E+00  0.1875366E+01  0.4745158E-03 -0.8359652E-01 -0.8585743E-04 -0.7338626E-01
6128500.  0.1971857E+00  0.2081033E+01  0.7458676E-03 -0.7016437E-01  0.1499580E-03 -0.6040061E-01
6106000.  0.1895255E+00  0.2251240E+01  0.9707300E-03 -0.5726217E-01  0.3423441E-03 -0.4875409E-01
6083500.  0.1813254E+00  0.2387042E+01  0.1150897E-02 -0.4484443E-01  0.4956385E-03 -0.3822743E-01
6061000.  0.1727050E+00  0.2489407E+01  0.1287989E-02 -0.3285946E-01  0.6134326E-03 -0.2861632E-01
6038500.  0.1637808E+00  0.2559198E+01  0.1383431E-02 -0.2124655E-01  0.6986050E-03 -0.1972025E-01
6016000.  0.1546666E+00  0.2597114E+01  0.1438417E-02 -0.9936666E-02  0.7533334E-03 -0.1134360E-01
5993500.  0.1454741E+00  0.2603663E+01  0.1453885E-02  0.1146638E-02  0.7791162E-03 -0.3295889E-02
5971000.  0.1363133E+00  0.2579156E+01  0.1430484E-02  0.1209094E-01  0.7767692E-03  0.4619610E-02
5971000.  0.1363133E+00  0.2372322E+01  0.1430484E-02 -0.5096132E-02  0.7767692E-03 -0.1322495E-01
5937667.  0.1240895E+00  0.2295374E+01  0.1438444E-02  0.1816671E-02  0.8280388E-03 -0.6610764E-02
5904333.  0.1123391E+00  0.2192394E+01  0.1413794E-02  0.7397509E-02  0.8482012E-03 -0.1291809E-02
5871000.  0.1011815E+00  0.2069944E+01  0.1363055E-02  0.1181971E-01  0.8433976E-03  0.2970492E-02
5837667.  0.9070321E-01  0.1933553E+01  0.1291821E-02  0.1526182E-01  0.8185789E-03  0.6394359E-02
5804333.  0.8096461E-01  0.1787750E+01  0.1204749E-02  0.1790192E-01  0.7775913E-03  0.9183341E-02
5771000.  0.7200582E-01  0.1636093E+01  0.1105591E-02  0.1991149E-01  0.7232613E-03  0.1152576E-01
5771000.  0.7200582E-01  0.1636164E+01  0.1105591E-02  0.1990828E-01  0.7232613E-03  0.1152576E-01
5701000.  0.5550031E-01  0.1353666E+01  0.8272623E-03  0.3089209E-01  0.5488850E-03  0.2052687E-01
5701000.  0.5550031E-01  0.1154916E+01  0.8272623E-03  0.1149608E-01  0.5488850E-03  0.4883331E-02
5667333.  0.4967059E-01  0.1051924E+01  0.7668219E-03  0.1129952E-01  0.5191579E-03  0.6266145E-02
5633667.  0.4437417E-01  0.9534693E+00  0.7086023E-03  0.1066809E-01  0.4836484E-03  0.7086066E-02
5600000.  0.3958192E-01  0.8613330E+00  0.6547300E-03  0.9661888E-02  0.4451324E-03  0.7413062E-02
5600000.  0.3958192E-01  0.8613531E+00  0.6547300E-03  0.9664482E-02  0.4451324E-03  0.7413062E-02
5563518.  0.3488524E-01  0.7797371E+00  0.5993213E-03  0.9647348E-02  0.4026468E-03  0.7384140E-02
5527037.  0.3064407E-01  0.7023957E+00  0.5446494E-03  0.9418437E-02  0.3609659E-03  0.7145545E-02
5490556.  0.2683227E-01  0.6298270E+00  0.4917522E-03  0.9036229E-02  0.3210817E-03  0.6766730E-02
5454074.  0.2342152E-01  0.5623193E+00  0.4413659E-03  0.8547895E-02  0.2836363E-03  0.6300968E-02
5417593.  0.2038258E-01  0.4999982E+00  0.3939897E-03  0.7990959E-02  0.2490110E-03  0.5787727E-02
5381111.  0.1768556E-01  0.4428554E+00  0.3499244E-03  0.7395427E-02  0.2173875E-03  0.5256382E-02
5344630.  0.1530122E-01  0.3907875E+00  0.3093241E-03  0.6784502E-02  0.1888070E-03  0.4728105E-02
5308148.  0.1320085E-01  0.3436116E+00  0.2722210E-03  0.6176121E-02  0.1632054E-03  0.4217661E-02
5271667.  0.1135722E-01  0.3010927E+00  0.2385632E-03  0.5583371E-02  0.1404520E-03  0.3734828E-02
5235185.  0.9744319E-02  0.2629564E+00  0.2082304E-03  0.5015794E-02  0.1203685E-03  0.3285691E-02
5198704.  0.8337978E-02  0.2289100E+00  0.1810599E-03  0.4479999E-02  0.1027526E-03  0.2873491E-02
5162222.  0.7115581E-02  0.1986447E+00  0.1568554E-03  0.3980131E-02  0.8738729E-04  0.2499497E-02
5125741.  0.6056425E-02  0.1718526E+00  0.1354051E-03  0.3518489E-02  0.7405521E-04  0.2163344E-02
5089259.  0.5141447E-02  0.1482270E+00  0.1164860E-03  0.3095872E-02  0.6254215E-04  0.1863754E-02
5052778.  0.4353414E-02  0.1274732E+00  0.9987606E-04  0.2712025E-02  0.5264493E-04  0.1598695E-02
5016296.  0.3676660E-02  0.1093070E+00  0.8535525E-04  0.2365795E-02  0.4417213E-04  0.1365725E-02
4979815.  0.3097174E-02  0.9346246E-01  0.7271356E-04  0.2055502E-02  0.3694797E-04  0.1162192E-02
4943333.  0.2602356E-02  0.7968891E-01  0.6175049E-04  0.1779005E-02  0.3081151E-04  0.9853008E-03
4906852.  0.2181044E-02  0.6775615E-01  0.5227969E-04  0.1533991E-02  0.2561821E-04  0.8323818E-03
4870370.  0.1823293E-02  0.5745094E-01  0.4412742E-04  0.1317965E-02  0.2123815E-04  0.7007780E-03
4833889.  0.1520366E-02  0.4857969E-01  0.3713543E-04  0.1128387E-02  0.1755672E-04  0.5880120E-03
4797407.  0.1264547E-02  0.4096640E-01  0.3115902E-04  0.9627835E-03  0.1447244E-04  0.4918074E-03
4760926.  0.1049110E-02  0.3445292E-01  0.2606813E-04  0.8187515E-03  0.1189681E-04  0.4100472E-03
4724444.  0.8681584E-03  0.2889674E-01  0.2174567E-04  0.6939805E-03  0.9752534E-05  0.3408249E-03
4687963.  0.7165911E-03  0.2417155E-01  0.1808775E-04  0.5863345E-03  0.7972902E-05  0.2824352E-03
4651482.  0.5899733E-03  0.2016474E-01  0.1500200E-04  0.4938150E-03  0.6500288E-05  0.2333517E-03
4615000.  0.4844791E-03  0.1677692E-01  0.1240706E-04  0.4145913E-03  0.5285294E-05  0.1922323E-03
4578518.  0.3968230E-03  0.1392080E-01  0.1023171E-04  0.3469990E-03  0.4285810E-05  0.1578980E-03
4542037.  0.3241860E-03  0.1151992E-01  0.8413785E-05  0.2895354E-03  0.3466000E-05  0.1293260E-03
4505556.  0.2641549E-03  0.9507442E-02  0.6899153E-05  0.2408521E-03  0.2795462E-05  0.1056227E-03
4469074.  0.2146745E-03  0.7825283E-02  0.5641018E-05  0.1997458E-03  0.2248556E-05  0.8602013E-04
4432593.  0.1740032E-03  0.6423309E-02  0.4599162E-05  0.1651562E-03  0.1803767E-05  0.6985862E-04
4396111.  0.1406617E-03  0.5258102E-02  0.3738958E-05  0.1361447E-03  0.1443029E-05  0.5657329E-04
4359630.  0.1134053E-03  0.4292483E-02  0.3030905E-05  0.1118935E-03  0.1151292E-05  0.4568801E-04
4323148.  0.9118356E-04  0.3494481E-02  0.2449810E-05  0.9168495E-04  0.9160011E-06  0.3679355E-04
4286667.  0.7311772E-04  0.2836925E-02  0.1974363E-05  0.7490200E-04  0.7267727E-06  0.2954930E-04
4250185.  0.5847089E-04  0.2296596E-02  0.1586501E-05  0.6100719E-04  0.5749993E-06  0.2366584E-04
4213704.  0.4663031E-04  0.1853887E-02  0.1271055E-05  0.4954150E-04  0.4536079E-06  0.1890237E-04
4177222.  0.3708531E-04  0.1492165E-02  0.1015258E-05  0.4010968E-04  0.3567723E-06  0.1505750E-04
4140741.  0.2941380E-04  0.1197473E-02  0.8084652E-06  0.3237665E-04  0.2797321E-06  0.1196387E-04
4104259.  0.2326620E-04  0.9580487E-03  0.6417767E-06  0.2605666E-04  0.2185901E-06  0.9483077E-05
4067778.  0.1835531E-04  0.7640749E-03  0.5078211E-06  0.2090840E-04  0.1701788E-06  0.7500600E-05
4031296.  0.1444483E-04  0.6073401E-03  0.4004812E-06  0.1672833E-04  0.1319199E-06  0.5922596E-05
3994815.  0.1134187E-04  0.4810289E-03  0.3147220E-06  0.1334572E-04  0.1017268E-06  0.4672191E-05
3958333.  0.8888780E-05  0.3794756E-03  0.2463944E-06  0.1061744E-04  0.7790776E-07  0.3686674E-05
3921852.  0.6957728E-05  0.2980058E-03  0.1921074E-06  0.8424162E-05  0.5909723E-07  0.2915483E-05
3885370.  0.5445024E-05  0.2327591E-03  0.1490884E-06  0.6666280E-05  0.4418831E-07  0.2317706E-05
3848889.  0.4267210E-05  0.1805730E-03  0.1150904E-06  0.5261125E-05  0.3228564E-07  0.1860777E-05
3812407.  0.3357108E-05  0.1388557E-03  0.8829620E-07  0.4139337E-05  0.2265895E-07  0.1518858E-05
3775926.  0.2661043E-05  0.1055089E-03  0.6725620E-07  0.3242605E-05  0.1471041E-07  0.1271776E-05
3739444.  0.2136059E-05  0.7884700E-04  0.5082732E-07  0.2520812E-05  0.7943237E-08  0.1103889E-05
3702963.  0.1747840E-05  0.5755303E-04  0.3813817E-07  0.1929449E-05  0.1940281E-08  0.1003161E-05
3666482.  0.1468604E-05  0.4064567E-04  0.2856201E-07  0.1426561E-05 -0.3655344E-08  0.9602136E-06
3630000.  0.1275236E-05  0.2748141E-04  0.2171346E-07  0.9692427E-06 -0.9151624E-08  0.9671561E-06
3630000.  0.1275236E-05  0.2748122E-04  0.2171346E-07  0.9692078E-06 -0.9151624E-08  0.9671561E-06
3592500.  0.1144419E-05  0.1755699E-04  0.1734210E-07  0.5106463E-06 -0.1497626E-07  0.1018877E-05
3555000.  0.1061257E-05  0.1137484E-04  0.1583397E-07 -0.1589828E-07 -0.2121620E-07  0.1106236E-05
3517500.  0.1001461E-05  0.9840348E-05  0.1783185E-07 -0.6979368E-06 -0.2803865E-07  0.1213461E-05
3480000.  0.9326284E-06  0.1487469E-04  0.2460017E-07 -0.1662370E-05 -0.3548849E-07  0.1313560E-05
3480000.  0.9326284E-06  0.4841625E-04  0.3157344E-07  0.1649124E-05 -0.3548849E-07 -0.1620105E-05
3409422.  0.5209978E-06  0.2772331E-04  0.1757851E-07  0.9405304E-06 -0.2110552E-07 -0.1015744E-05
3338844.  0.2868358E-06  0.1564570E-04  0.9647775E-08  0.5288516E-06 -0.1222724E-07 -0.6161980E-06
3268266.  0.1555673E-06  0.8699314E-05  0.5217497E-08  0.2930660E-06 -0.6913392E-08 -0.3631653E-06
3197688.  0.8307811E-07  0.4763596E-05  0.2778899E-08  0.1599825E-06 -0.3819428E-08 -0.2084746E-06
3127109.  0.4366241E-07  0.2567660E-05  0.1456865E-08  0.8598756E-07 -0.2063265E-08 -0.1167550E-06
3056531.  0.2257041E-07  0.1361671E-05  0.7513671E-09  0.4548037E-07 -0.1090255E-08 -0.6385865E-07
2985953.  0.1146841E-07  0.7100367E-06  0.3809656E-09  0.2365761E-07 -0.5635817E-09 -0.3412961E-07
2915375.  0.5723994E-08  0.3638173E-06  0.1897640E-09  0.1209448E-07 -0.2849640E-09 -0.1782843E-07
2844797.  0.2804138E-08  0.1830509E-06  0.9279043E-10  0.6072375E-08 -0.1408958E-09 -0.9102373E-08
2774219.  0.1347245E-08  0.9036652E-07  0.4450316E-10  0.2991862E-08 -0.6808970E-10 -0.4541020E-08
2703641.  0.6342390E-09  0.4373389E-07  0.2091609E-10  0.1445314E-08 -0.3214205E-10 -0.2212749E-08
2633062.  0.2922809E-09  0.2072918E-07  0.9623391E-11  0.6839408E-09 -0.1480883E-10 -0.1052589E-08
2562484.  0.1317336E-09  0.9611674E-08  0.4329286E-11  0.3167668E-09 -0.6651262E-11 -0.4886287E-09
2491906.  0.5804795E-10  0.4351002E-08  0.1900567E-11  0.1435529E-09 -0.2903538E-11 -0.2216145E-09
2421328.  0.0000000E+00  0.0000000E+00  0.0000000E+00  0.0000000E+00  0.0000000E+00  0.0000000E+00
2350750.  0.0000000E+00  0.0000000E+00  0.0000000E+00  0.0000000E+00  0.0000000E+00  0.0000000E+00
2280172.  0.0000000E+00  0.0000000E+00  0.0000000E+00  0.0000000E+00  0.0000000E+00  0.0000000E+00
2209594.  0.0000000E+00  0.0000000E+00  0.0000000E+00  0.0000000E+00  0.0000000E+00  0.0000000E+00
2139016.  0.0000000E+00  0.0000000E+00  0.0000000E+00  0.0000000E+00  0.0000000E+00  0.0000000E+00
2068438.  0.0000000E+00  0.0000000E+00  0.0000000E+00  0.0000000E+00  0.0000000E+00  0.0000000E+00
1997859.  0.0000000E+00  0.0000000E+00  0.0000000E+00  0.0000000E+00  0.0000000E+00  0.0000000E+00
1927281.  0.0000000E+00  0.0000000E+00  0.0000000E+00  0.0000000E+00  0.0000000E+00  0.0000000E+00
1856703.  0.0000000E+00  0.0000000E+00  0.0000000E+00  0.0000000E+00  0.0000000E+00  0.0000000E+00
1786125.  0.0000000E+00  0.0000000E+00  0.0000000E+00  0.0000000E+00  0.0000000E+00  0.0000000E+00
1715547.  0.0000000E+00  0.0000000E+00  0.0000000E+00  0.0000000E+00  0.0000000E+00  0.0000000E+00
1644969.  0.0000000E+00  0.0000000E+00  0.0000000E+00  0.0000000E+00  0.0000000E+00  0.0000000E+00
1574391.  0.0000000E+00  0.0000000E+00  0.0000000E+00  0.0000000E+00  0.0000000E+00  0.0000000E+00
1503812.  0.0000000E+00  0.0000000E+00  0.0000000E+00  0.0000000E+00  0.0000000E+00  0.0000000E+00
1433234.  0.0000000E+00  0.0000000E+00  0.0000000E+00  0.0000000E+00  0.0000000E+00  0.0000000E+00
1362656.  0.0000000E+00  0.0000000E+00  0.0000000E+00  0.0000000E+00  0.0000000E+00  0.0000000E+00
1292078.  0.0000000E+00  0.0000000E+00  0.0000000E+00  0.0000000E+00  0.0000000E+00  0.0000000E+00
1221500.  0.0000000E+00  0.0000000E+00  0.0000000E+00  0.0000000E+00  0.0000000E+00  0.0000000E+00
1221500.  0.0000000E+00  0.0000000E+00  0.0000000E+00  0.0000000E+00  0.0000000E+00  0.0000000E+00
1183328.  0.0000000E+00  0.0000000E+00  0.0000000E+00  0.0000000E+00  0.0000000E+00  0.0000000E+00
1145156.  0.0000000E+00  0.0000000E+00  0.0000000E+00  0.0000000E+00  0.0000000E+00  0.0000000E+00
1106984.  0.0000000E+00  0.0000000E+00  0.0000000E+00  0.0000000E+00  0.0000000E+00  0.0000000E+00
1068812.  0.0000000E+00  0.0000000E+00  0.0000000E+00  0.0000000E+00  0.0000000E+00  0.0000000E+00
1030641.  0.0000000E+00  0.0000000E+00  0.0000000E+00  0.0000000E+00  0.0000000E+00  0.0000000E+00
 992469.  0.0000000E+00  0.0000000E+00  0.0000000E+00  0.0000000E+00  0.0000000E+00  0.0000000E+00
 954297.  0.0000000E+00  0.0000000E+00  0.0000000E+00  0.0000000E+00  0.0000000E+00  0.0000000E+00
 916125.  0.0000000E+00  0.0000000E+00  0.0000000E+00  0.0000000E+00  0.0000000E+00  0.0000000E+00
 877953.  0.0000000E+00  0.0000000E+00  0.0000000E+00  0.0000000E+00  0.0000000E+00  0.0000000E+00
 839781.  0.0000000E+00  0.0000000E+00  0.0000000E+00  0.0000000E+00  0.0000000E+00  0.0000000E+00
 801609.  0.0000000E+00  0.0000000E+00  0.0000000E+00  0.0000000E+00  0.0000000E+00  0.0000000E+00
 763438.  0.0000000E+00  0.0000000E+00  0.0000000E+00  0.0000000E+00  0.0000000E+00  0.0000000E+00
 725266.  0.0000000E+00  0.0000000E+00  0.0000000E+00  0.0000000E+00  0.0000000E+00  0.0000000E+00
 687094.  0.0000000E+00  0.0000000E+00  0.0000000E+00  0.0000000E+00  0.0000000E+00  0.0000000E+00
 648922.  0.0000000E+00  0.0000000E+00  0.0000000E+00  0.0000000E+00  0.0000000E+00  0.0000000E+00
 610750.  0.0000000E+00  0.0000000E+00  0.0000000E+00  0.0000000E+00  0.0000000E+00  0.0000000E+00
 572578.  0.0000000E+00  0.0000000E+00  0.0000000E+00  0.0000000E+00  0.0000000E+00  0.0000000E+00
 534406.  0.0000000E+00  0.0000000E+00  0.0000000E+00  0.0000000E+00  0.0000000E+00  0.0000000E+00
 496234.  0.0000000E+00  0.0000000E+00  0.0000000E+00  0.0000000E+00  0.0000000E+00  0.0000000E+00
 458062.  0.0000000E+00  0.0000000E+00  0.0000000E+00  0.0000000E+00  0.0000000E+00  0.0000000E+00
 419891.  0.0000000E+00  0.0000000E+00  0.0000000E+00  0.0000000E+00  0.0000000E+00  0.0000000E+00
 381719.  0.0000000E+00  0.0000000E+00  0.0000000E+00  0.0000000E+00  0.0000000E+00  0.0000000E+00
 343547.  0.0000000E+00  0.0000000E+00  0.0000000E+00  0.0000000E+00  0.0000000E+00  0.0000000E+00
 305375.  0.0000000E+00  0.0000000E+00  0.0000000E+00  0.0000000E+00  0.0000000E+00  0.0000000E+00
 267203.  0.0000000E+00  0.0000000E+00  0.0000000E+00  0.0000000E+00  0.0000000E+00  0.0000000E+00
 229031.  0.0000000E+00  0.0000000E+00  0.0000000E+00  0.0000000E+00  0.0000000E+00  0.0000000E+00
 190859.  0.0000000E+00  0.0000000E+00  0.0000000E+00  0.0000000E+00  0.0000000E+00  0.0000000E+00
 152688.  0.0000000E+00  0.0000000E+00  0.0000000E+00  0.0000000E+00  0.0000000E+00  0.0000000E+00
 114516.  0.0000000E+00  0.0000000E+00  0.0000000E+00  0.0000000E+00  0.0000000E+00  0.0000000E+00
  76344.  0.0000000E+00  0.0000000E+00  0.0000000E+00  0.0000000E+00  0.0000000E+00  0.0000000E+00
  38172.  0.0000000E+00  0.0000000E+00  0.0000000E+00  0.0000000E+00  0.0000000E+00  0.0000000E+00
      0.  0.0000000E+00  0.0000000E+00  0.0000000E+00  0.0000000E+00  0.0000000E+00  0.0000000E+00
