      13       17 S      595        110.38320         20.72271         12.46482        480.57840      185    7
6371000.  0.4451272E-01  0.4841398E-01  0.6935262E-03 -0.4381920E-01 -0.2487316E-03 -0.7946341E-01
6370000.  0.4450291E-01  0.7661494E-01  0.7003013E-03 -0.4250526E-01 -0.2362563E-03 -0.7949498E-01
6369000.  0.4448867E-01  0.1047730E+00  0.7068684E-03 -0.4116834E-01 -0.2237767E-03 -0.7951945E-01
6368000.  0.4447002E-01  0.1328848E+00  0.7132237E-03 -0.3980883E-01 -0.2112938E-03 -0.7953679E-01
6368000.  0.4447002E-01  0.1328848E+00  0.7132237E-03 -0.3980883E-01 -0.2112938E-03 -0.7953679E-01
6367000.  0.4444696E-01  0.1609469E+00  0.7193640E-03 -0.3842713E-01 -0.1988087E-03 -0.7954701E-01
6366000.  0.4441950E-01  0.1889558E+00  0.7252858E-03 -0.3702366E-01 -0.1863226E-03 -0.7955010E-01
6365000.  0.4438764E-01  0.2169082E+00  0.7309855E-03 -0.3559885E-01 -0.1738365E-03 -0.7954606E-01
6364000.  0.4435141E-01  0.2448007E+00  0.7364599E-03 -0.3415311E-01 -0.1613516E-03 -0.7953489E-01
6363000.  0.4431080E-01  0.2726299E+00  0.7417058E-03 -0.3268690E-01 -0.1488691E-03 -0.7951658E-01
6362000.  0.4426583E-01  0.3003927E+00  0.7467201E-03 -0.3120064E-01 -0.1363900E-03 -0.7949115E-01
6361000.  0.4421650E-01  0.3280855E+00  0.7514994E-03 -0.2969480E-01 -0.1239154E-03 -0.7945857E-01
6360000.  0.4416284E-01  0.3557051E+00  0.7560409E-03 -0.2816983E-01 -0.1114465E-03 -0.7941886E-01
6359000.  0.4410484E-01  0.3832483E+00  0.7603415E-03 -0.2662621E-01 -0.9898441E-04 -0.7937202E-01
6358000.  0.4404253E-01  0.4107118E+00  0.7643985E-03 -0.2506439E-01 -0.8653022E-04 -0.7931805E-01
6357000.  0.4397592E-01  0.4380924E+00  0.7682089E-03 -0.2348486E-01 -0.7408507E-04 -0.7925694E-01
6356000.  0.4390501E-01  0.4653869E+00  0.7717700E-03 -0.2188810E-01 -0.6165006E-04 -0.7918871E-01
6356000.  0.4390501E-01  0.3166217E+00  0.7717700E-03 -0.3035012E-01 -0.6165006E-04 -0.8874193E-01
6355000.  0.4385374E-01  0.3366491E+00  0.7764515E-03 -0.2929860E-01 -0.4772356E-04 -0.8870873E-01
6354000.  0.4379933E-01  0.3566258E+00  0.7809669E-03 -0.2823475E-01 -0.3380268E-04 -0.8867009E-01
6353000.  0.4374179E-01  0.3765499E+00  0.7853144E-03 -0.2715877E-01 -0.1988831E-04 -0.8862603E-01
6352000.  0.4368112E-01  0.3964196E+00  0.7894920E-03 -0.2607088E-01 -0.5981269E-05 -0.8857653E-01
6351000.  0.4361735E-01  0.4162332E+00  0.7934980E-03 -0.2497131E-01  0.7917573E-05 -0.8852161E-01
6350000.  0.4355046E-01  0.4359891E+00  0.7973305E-03 -0.2386028E-01  0.2180737E-04 -0.8846126E-01
6349000.  0.4348048E-01  0.4556853E+00  0.8009876E-03 -0.2273801E-01  0.3568727E-04 -0.8839549E-01
6348000.  0.4340741E-01  0.4753202E+00  0.8044679E-03 -0.2160474E-01  0.4955642E-04 -0.8832430E-01
6347000.  0.4333127E-01  0.4948922E+00  0.8077693E-03 -0.2046070E-01  0.6341397E-04 -0.8824769E-01
6346600.  0.4329995E-01  0.5027029E+00  0.8090395E-03 -0.2000011E-01  0.6895355E-04 -0.8821554E-01
6346600.  0.4329995E-01  0.3401224E+00  0.8090395E-03 -0.2735951E-01  0.6895355E-04 -0.1033136E+00
6318800.  0.4096231E-01  0.7252834E+00  0.8708965E-03 -0.6126342E-04  0.5151943E-03 -0.1006749E+00
6291000.  0.3703760E-01  0.1064378E+01  0.8040491E-03  0.3101555E-01  0.9428348E-03 -0.9479983E-01
6291000.  0.3703760E-01  0.1079909E+01  0.8040491E-03  0.3329760E-01  0.9428348E-03 -0.9479983E-01
6263000.  0.3165056E-01  0.1359464E+01  0.5859550E-03  0.6551281E-01  0.1340274E-02 -0.8554599E-01
6235000.  0.2520127E-01  0.1562059E+01  0.2352478E-03  0.9293518E-01  0.1690443E-02 -0.7334315E-01
6207000.  0.1803922E-01  0.1683740E+01 -0.2181062E-03  0.1116378E+00  0.1981181E-02 -0.5857278E-01
6179000.  0.1051624E-01  0.1727289E+01 -0.7288760E-03  0.1186777E+00  0.2202235E-02 -0.4172105E-01
6151000.  0.2958866E-02  0.1701205E+01 -0.1241795E-02  0.1124828E+00  0.2345688E-02 -0.2336023E-01
6151000.  0.2958866E-02  0.1340152E+01 -0.1241795E-02  0.9836869E-01  0.2345688E-02 -0.2352393E-01
6128500. -0.1633897E-02  0.1257922E+01 -0.1566466E-02  0.8446853E-01  0.2406722E-02 -0.1100398E-01
6106000. -0.5910149E-02  0.1162132E+01 -0.1831735E-02  0.6490434E-01  0.2423287E-02  0.1621847E-02
6083500. -0.9834613E-02  0.1059792E+01 -0.2019666E-02  0.4090212E-01  0.2395406E-02  0.1413011E-01
6061000. -0.1339514E-01  0.9569297E+00 -0.2117182E-02  0.1397128E-01  0.2323875E-02  0.2630540E-01
6038500. -0.1659863E-01  0.8582601E+00 -0.2116879E-02 -0.1420608E-01  0.2210237E-02  0.3794336E-01
6016000. -0.1946596E-01  0.7669493E+00 -0.2017419E-02 -0.4189491E-01  0.2056729E-02  0.4885381E-01
5993500. -0.2202632E-01  0.6845381E+00 -0.1823512E-02 -0.6742520E-01  0.1866231E-02  0.5886377E-01
5971000. -0.2431152E-01  0.6109929E+00 -0.1545488E-02 -0.8930250E-01  0.1642202E-02  0.6781893E-01
5971000. -0.2431152E-01  0.5382704E+00 -0.1545488E-02 -0.7678825E-01  0.1642202E-02  0.7100151E-01
5937667. -0.2681536E-01  0.4222120E+00 -0.1090519E-02 -0.9535100E-01  0.1240276E-02  0.8217919E-01
5904333. -0.2875777E-01  0.3222542E+00 -0.5666336E-03 -0.1031172E+00  0.7872156E-03  0.9052286E-01
5871000. -0.3020049E-01  0.2297634E+00 -0.2932999E-04 -0.1006884E+00  0.2981058E-03  0.9596173E-01
5837667. -0.3116065E-01  0.1365447E+00  0.4720780E-03 -0.8974470E-01 -0.2119105E-03  0.9852769E-01
5804333. -0.3161695E-01  0.3632306E-01  0.8990115E-03 -0.7264169E-01 -0.7280954E-03  0.9834053E-01
5771000. -0.3152231E-01 -0.7438316E-01  0.1226067E-02 -0.5201261E-01 -0.1236495E-02  0.9559535E-01
5771000. -0.3152231E-01 -0.7436181E-01  0.1226067E-02 -0.5200974E-01 -0.1236495E-02  0.9559535E-01
5701000. -0.2913859E-01 -0.3703835E+00  0.1574050E-02 -0.1116365E-01 -0.2214090E-02  0.8078104E-01
5701000. -0.2913859E-01 -0.2789725E+00  0.1574050E-02 -0.1648621E-02 -0.2214090E-02  0.8899416E-01
5667333. -0.2726485E-01 -0.4309148E+00  0.1539873E-02  0.1394338E-01 -0.2659517E-02  0.7932005E-01
5633667. -0.2458461E-01 -0.5827951E+00  0.1434077E-02  0.2535807E-01 -0.3049849E-02  0.6819843E-01
5600000. -0.2112090E-01 -0.7259572E+00  0.1279877E-02  0.3224320E-01 -0.3378291E-02  0.5594596E-01
5600000. -0.2112090E-01 -0.7259441E+00  0.1279877E-02  0.3224352E-01 -0.3378291E-02  0.5594596E-01
5563518. -0.1655405E-01 -0.8655785E+00  0.1084971E-02  0.3503985E-01 -0.3658359E-02  0.4173710E-01
5527037. -0.1125746E-01 -0.9793518E+00  0.8873231E-03  0.3327496E-01 -0.3855054E-02  0.2688554E-01
5490556. -0.5403826E-02 -0.1058892E+01  0.7113959E-03  0.2759426E-01 -0.3965677E-02  0.1172918E-01
5454074.  0.7916661E-03 -0.1097841E+01  0.5768729E-03  0.1900412E-01 -0.3989417E-02 -0.3408597E-02
5417593.  0.7084144E-02 -0.1092442E+01  0.4969244E-03  0.8755846E-02 -0.3927258E-02 -0.1822478E-01
5381111.  0.1321632E-01 -0.1041921E+01  0.4771619E-03 -0.1788550E-02 -0.3781837E-02 -0.3244566E-01
5344630.  0.1893467E-01 -0.9485977E+00  0.5154061E-03 -0.1129019E-01 -0.3557283E-02 -0.4582800E-01
5308148.  0.2400809E-01 -0.8177142E+00  0.6021871E-03 -0.1856088E-01 -0.3258994E-02 -0.5816508E-01
5271667.  0.2824243E-01 -0.6570474E+00  0.7219087E-03 -0.2266661E-01 -0.2893481E-02 -0.6928574E-01
5235185.  0.3149436E-01 -0.4762879E+00  0.8545592E-03 -0.2300542E-01 -0.2468086E-02 -0.7905693E-01
5198704.  0.3367946E-01 -0.2863204E+00  0.9777265E-03 -0.1934995E-01 -0.1990857E-02 -0.8738119E-01
5162222.  0.3477724E-01 -0.9835429E-01  0.1068810E-02 -0.1185530E-01 -0.1470247E-02 -0.9419639E-01
5125741.  0.3483027E-01  0.7687838E-01  0.1107130E-02 -0.1033927E-02 -0.9150248E-03 -0.9947297E-01
5089259.  0.3393926E-01  0.2299376E+00  0.1075837E-02  0.1230170E-01 -0.3339841E-03 -0.1032110E+00
5052778.  0.3225382E-01  0.3533036E+00  0.9634177E-03  0.2711578E-01  0.2640985E-03 -0.1054375E+00
5016296.  0.2995967E-01  0.4418994E+00  0.7646907E-03  0.4224603E-01  0.8707349E-03 -0.1062030E+00
4979815.  0.2726414E-01  0.4933562E+00  0.4812766E-03  0.5650172E-01  0.1477718E-02 -0.1055779E+00
4943333.  0.2437984E-01  0.5081054E+00  0.1214240E-03  0.6876539E-01  0.2077365E-02 -0.1036504E+00
4906852.  0.2150949E-01  0.4892259E+00 -0.3006036E-03  0.7807967E-01  0.2662467E-02 -0.1005218E+00
4870370.  0.1883108E-01  0.4421066E+00 -0.7657447E-03  0.8372109E-01  0.3226499E-02 -0.9630510E-01
4833889.  0.1648655E-01  0.3739542E+00 -0.1251534E-02  0.8524803E-01  0.3763543E-02 -0.9112169E-01
4797407.  0.1457258E-01  0.2931587E+00 -0.1733916E-02  0.8253099E-01  0.4268453E-02 -0.8509824E-01
4760926.  0.1313629E-01  0.2086198E+00 -0.2188934E-02  0.7575029E-01  0.4736768E-02 -0.7836632E-01
4724444.  0.1217385E-01  0.1290358E+00 -0.2594555E-02  0.6537315E-01  0.5164832E-02 -0.7105824E-01
4687963.  0.1163394E-01  0.6225133E-01 -0.2932097E-02  0.5211242E-01  0.5549707E-02 -0.6330702E-01
4651482.  0.1142407E-01  0.1468288E-01 -0.3187554E-02  0.3686318E-01  0.5889241E-02 -0.5524329E-01
4615000.  0.1142024E-01 -0.9129140E-02 -0.3352391E-02  0.2063241E-01  0.6182018E-02 -0.4699406E-01
4578518.  0.1147852E-01 -0.6805399E-02 -0.3423968E-02  0.4463382E-02  0.6427322E-02 -0.3868196E-01
4542037.  0.1144788E-01  0.2175176E-01 -0.3405549E-02 -0.1064054E-01  0.6625121E-02 -0.3042307E-01
4505556.  0.1118322E-01  0.7440174E-01 -0.3305860E-02 -0.2378617E-01  0.6776041E-02 -0.2232553E-01
4469074.  0.1055756E-01  0.1469950E+00 -0.3138278E-02 -0.3424751E-01  0.6881298E-02 -0.1448859E-01
4432593.  0.9472710E-02  0.2337048E+00 -0.2919770E-02 -0.4150835E-01  0.6942640E-02 -0.7002349E-02
4396111.  0.7867425E-02  0.3275169E+00 -0.2669565E-02 -0.4529039E-01  0.6962311E-02  0.5467187E-04
4359630.  0.5722931E-02  0.4207500E+00 -0.2407808E-02 -0.4555986E-01  0.6942964E-02  0.6614753E-02
4323148.  0.3064770E-02  0.5056309E+00 -0.2154129E-02 -0.4251903E-01  0.6887610E-02  0.1262265E-01
4286667. -0.3778072E-04  0.5748405E+00 -0.1926405E-02 -0.3658155E-01  0.6799543E-02  0.1803474E-01
4250185. -0.3476455E-02  0.6220497E+00 -0.1739605E-02 -0.2833269E-01  0.6682266E-02  0.2282011E-01
4213704. -0.7110217E-02  0.6423297E+00 -0.1604987E-02 -0.1848331E-01  0.6539434E-02  0.2695936E-01
4177222. -0.1077504E-01  0.6324859E+00 -0.1529495E-02 -0.7813648E-02  0.6374765E-02  0.3044506E-01
4140741. -0.1429364E-01  0.5912533E+00 -0.1515544E-02  0.2879865E-02  0.6192008E-02  0.3328025E-01
4104259. -0.1748764E-01  0.5193588E+00 -0.1561074E-02  0.1284089E-01  0.5994845E-02  0.3547797E-01
4067778. -0.2018799E-01  0.4194612E+00 -0.1659916E-02  0.2139886E-01  0.5786877E-02  0.3706019E-01
4031296. -0.2224628E-01  0.2959411E+00 -0.1802417E-02  0.2801062E-01  0.5571537E-02  0.3805627E-01
3994815. -0.2354322E-01  0.1546286E+00 -0.1976236E-02  0.3228785E-01  0.5352094E-02  0.3850199E-01
3958333. -0.2399625E-01  0.2384073E-02 -0.2167313E-02  0.3401569E-01  0.5131571E-02  0.3843808E-01
3921852. -0.2356403E-01 -0.1532898E+00 -0.2360848E-02  0.3315707E-01  0.4912776E-02  0.3790849E-01
3885370. -0.2224879E-01 -0.3047651E+00 -0.2542350E-02  0.2984677E-01  0.4698229E-02  0.3695976E-01
3848889. -0.2009588E-01 -0.4447097E+00 -0.2698531E-02  0.2437459E-01  0.4490208E-02  0.3563935E-01
3812407. -0.1719051E-01 -0.5665412E+00 -0.2818163E-02  0.1715933E-01  0.4290693E-02  0.3399475E-01
3775926. -0.1365288E-01 -0.6647695E+00 -0.2892704E-02  0.8718361E-02  0.4101417E-02  0.3207285E-01
3739444. -0.9630316E-02 -0.7353336E+00 -0.2916773E-02 -0.3695060E-03  0.3923826E-02  0.2991911E-01
3702963. -0.5289276E-02 -0.7757776E+00 -0.2888395E-02 -0.9498887E-02  0.3759129E-02  0.2757788E-01
3666482. -0.8050240E-03 -0.7853808E+00 -0.2809049E-02 -0.1807488E-01  0.3608274E-02  0.2509201E-01
3630000.  0.3648079E-02 -0.7651696E+00 -0.2683512E-02 -0.2554414E-01  0.3471962E-02  0.2250390E-01
3630000.  0.3648079E-02 -0.7651626E+00 -0.2683512E-02 -0.2554398E-01  0.3471962E-02  0.2250390E-01
3592500.  0.8020888E-02 -0.7161234E+00 -0.2514118E-02 -0.3172633E-01  0.3347497E-02  0.1978024E-01
3555000.  0.1202906E-01 -0.6420499E+00 -0.2313847E-02 -0.3596510E-01  0.3239138E-02  0.1704098E-01
3517500.  0.1554062E-01 -0.5484117E+00 -0.2095289E-02 -0.3788632E-01  0.3146804E-02  0.1434571E-01
3480000.  0.1845987E-01 -0.4420250E+00 -0.1872922E-02 -0.3722421E-01  0.3070034E-02  0.1176540E-01
3480000.  0.1845987E-01 -0.1513916E-01 -0.5679166E-04  0.3390069E-01  0.3070034E-02 -0.4630177E-01
3409422.  0.1760200E-01  0.1626891E+00 -0.4346692E-03  0.3370964E-01  0.3715190E-02 -0.6653433E-01
3338844.  0.1504316E-01  0.2900512E+00 -0.7914474E-03  0.3022097E-01  0.4473411E-02 -0.6762611E-01
3268266.  0.1138467E-01  0.3611175E+00 -0.1095370E-02  0.2433265E-01  0.5163689E-02 -0.5522075E-01
3197688.  0.7237681E-02  0.3794624E+00 -0.1325468E-02  0.1706316E-01  0.5667604E-02 -0.3486277E-01
3127109.  0.3135988E-02  0.3549187E+00 -0.1471944E-02  0.9387585E-02  0.5924854E-02 -0.1142027E-01
3056531. -0.5153590E-03  0.3004333E+00 -0.1535007E-02  0.2122909E-02  0.5923528E-02  0.1127939E-01
2985953. -0.3459418E-02  0.2293747E+00 -0.1522723E-02 -0.4136040E-02  0.5687564E-02  0.3060155E-01
2915375. -0.5580290E-02  0.1535946E+00 -0.1448423E-02 -0.9033659E-02  0.5263570E-02  0.4506891E-01
2844797. -0.6879410E-02  0.8229856E-01 -0.1328116E-02 -0.1243633E-01  0.4708823E-02  0.5419775E-01
2774219. -0.7443251E-02  0.2161436E-01 -0.1178246E-02 -0.1439115E-01  0.4081531E-02  0.5826072E-01
2703641. -0.7409554E-02 -0.2527179E-01 -0.1013973E-02 -0.1507364E-01  0.3433892E-02  0.5802784E-01
2633062. -0.6937178E-02 -0.5763350E-01 -0.8480449E-03 -0.1473526E-01  0.2807935E-02  0.5452576E-01
2562484. -0.6182406E-02 -0.7654960E-01 -0.6902301E-03 -0.1365621E-01  0.2233860E-02  0.4884030E-01
2491906. -0.5282743E-02 -0.8421700E-01 -0.5472060E-03 -0.1210796E-01  0.1730170E-02  0.4197313E-01
2421328. -0.4348033E-02 -0.8334313E-01 -0.4228143E-03 -0.1032832E-01  0.1305174E-02  0.3475448E-01
2350750. -0.3457578E-02 -0.7666733E-01 -0.3185169E-03 -0.8507527E-02  0.9591302E-03  0.2780466E-01
2280172. -0.2661708E-02 -0.6663970E-01 -0.2339586E-03 -0.6783274E-02  0.6866063E-03  0.2153295E-01
2209594. -0.1986114E-02 -0.5523841E-01 -0.1675402E-03 -0.5243446E-02  0.4787025E-03  0.1616164E-01
2139016. -0.1437518E-02 -0.4390832E-01 -0.1169329E-03 -0.3933209E-02  0.3249199E-03  0.1176405E-01
2068438. -0.1009511E-02 -0.3358459E-01 -0.7950146E-04 -0.2864426E-02  0.2145776E-03  0.8306758E-02
1997859. -0.6877981E-03 -0.2477023E-01 -0.5261783E-04 -0.2025469E-02  0.1377685E-03  0.5689438E-02
1927281. -0.4544605E-03 -0.1763702E-01 -0.3387139E-04 -0.1390297E-02  0.8591240E-04  0.3778339E-02
1856703. -0.2910134E-03 -0.1212925E-01 -0.2118376E-04 -0.9258579E-03  0.5197410E-04  0.2431211E-02
1786125. -0.1804197E-03 -0.8056095E-02 -0.1285518E-04 -0.5976842E-03  0.3046015E-04  0.1514287E-02
1715547. -0.1081570E-03 -0.5164872E-02 -0.7557678E-05 -0.3735926E-03  0.1726515E-04  0.9118091E-03
1644969. -0.6259450E-04 -0.3193095E-02 -0.4296802E-05 -0.2257902E-03  0.9446210E-05  0.5299336E-03
1574391. -0.3490626E-04 -0.1900884E-02 -0.2357311E-05 -0.1317170E-03  0.4977432E-05  0.2967078E-03
1503812. -0.1871577E-04 -0.1087464E-02 -0.1244713E-05 -0.7402012E-04  0.2519076E-05  0.1596759E-03
1433234. -0.9628426E-05 -0.5959877E-03 -0.6303456E-06 -0.4000032E-04  0.1220516E-05  0.8238464E-04
1362656. -0.4753988E-05 -0.3106690E-03 -0.3040876E-06 -0.2080656E-04  0.5635474E-06  0.4064942E-04
1292078. -0.2289570E-05 -0.1495403E-03 -0.1363906E-06 -0.1061773E-04  0.2458422E-06  0.1916563E-04
1221500. -0.1200415E-05 -0.5375716E-04 -0.4850444E-07 -0.6008379E-05  0.9870654E-07  0.8697526E-05
1221500. -0.1200415E-05  0.8673332E-04  0.5241221E-07  0.6534394E-05  0.9870654E-07  0.9217551E-05
1183328. -0.1579341E-05  0.4126440E-04  0.1841347E-07  0.4828863E-05  0.5587592E-07  0.5397814E-05
1145156. -0.1714254E-05  0.5462745E-05 -0.5683091E-08  0.3240173E-05  0.3099852E-07  0.3103798E-05
1106984. -0.1665448E-05 -0.2003715E-04 -0.2080649E-07  0.1847874E-05  0.1682021E-07  0.1749524E-05
1068812. -0.1494027E-05 -0.3561504E-04 -0.2837131E-07  0.7273304E-06  0.8905526E-08  0.9647968E-06
1030641. -0.1255892E-05 -0.4259302E-04 -0.3014715E-07 -0.8158104E-07  0.4587520E-08  0.5192655E-06
 992469. -0.9969201E-06 -0.4292626E-04 -0.2800799E-07 -0.5839175E-06  0.2291108E-08  0.2719403E-06
 954297. -0.7503916E-06 -0.3880271E-04 -0.2367725E-07 -0.8227527E-06  0.1104524E-08  0.1380815E-06
 916125. -0.5367094E-06 -0.3227817E-04 -0.1854365E-07 -0.8638633E-06  0.5111734E-09  0.6766566E-07
 877953. -0.3650278E-06 -0.2501991E-04 -0.1357642E-07 -0.7788454E-06  0.2254806E-09  0.3182006E-07
 839781. -0.2360072E-06 -0.1818751E-04 -0.9334014E-08 -0.6313846E-06  0.9386385E-10  0.1425223E-07
 801609. -0.1448957E-06 -0.1243685E-04 -0.6037798E-08 -0.4695181E-06  0.3634029E-10  0.6017448E-08
 763438. -0.8431709E-07 -0.8007953E-05 -0.3675266E-08 -0.3233332E-06  0.1277546E-10  0.2359059E-08
 725266. -0.4638339E-07 -0.4852379E-05 -0.2102666E-08 -0.2070902E-06  0.3889182E-11  0.8378096E-09
 687094. -0.2403960E-07 -0.2761960E-05 -0.1127963E-08 -0.1235059E-06  0.9033162E-12  0.2564101E-09
 648922. -0.1168826E-07 -0.1472326E-05 -0.5653711E-09 -0.6851500E-07  0.7059977E-13  0.5931532E-10
 610750. -0.5302963E-08 -0.7319493E-06 -0.2635289E-09 -0.3525433E-07 -0.8080488E-13  0.4138267E-11
 572578. -0.2230365E-08 -0.3374661E-06 -0.1135322E-09 -0.1674838E-07 -0.6522742E-13 -0.5716887E-11
 534406. -0.8625540E-09 -0.1432659E-06 -0.4485664E-10 -0.7299124E-08 -0.3280376E-13 -0.4478933E-11
 496234. -0.3036336E-09 -0.5549580E-07 -0.1609451E-10 -0.2893234E-08 -0.1306742E-13 -0.2209678E-11
 458062. -0.9605898E-10 -0.1938807E-07 -0.5179007E-11 -0.1031447E-08 -0.4349133E-14 -0.8593926E-12
 419891. -0.2687373E-10 -0.6018562E-08 -0.1470937E-11 -0.3259346E-09 -0.1221716E-14 -0.2763310E-12
 381719. -0.6509913E-11 -0.1628001E-08 -0.3611159E-12 -0.8955096E-10 -0.2872676E-15 -0.7392921E-13
 343547. -0.1328111E-11 -0.3739399E-09 -0.7454435E-13 -0.2085144E-10 -0.5530797E-16 -0.1621889E-13
 305375. -0.2197451E-12 -0.7041056E-10 -0.1246126E-13 -0.3972906E-11 -0.8417287E-17 -0.2831036E-14
 267203. -0.2796415E-13 -0.1034247E-10 -0.1599920E-14 -0.5895316E-12 -0.9597623E-18 -0.3746381E-15
 229031. -0.2532257E-14 -0.1101900E-11 -0.1459766E-15 -0.6335243E-13 -0.7562071E-19 -0.3485573E-16
 190859. -0.1446391E-15 -0.7604604E-13 -0.8389532E-17 -0.4402937E-14 -0.3631713E-20 -0.2002172E-17
 152688.  0.0000000E+00  0.0000000E+00  0.0000000E+00  0.0000000E+00  0.0000000E+00  0.0000000E+00
 114516.  0.0000000E+00  0.0000000E+00  0.0000000E+00  0.0000000E+00  0.0000000E+00  0.0000000E+00
  76344.  0.0000000E+00  0.0000000E+00  0.0000000E+00  0.0000000E+00  0.0000000E+00  0.0000000E+00
  38172.  0.0000000E+00  0.0000000E+00  0.0000000E+00  0.0000000E+00  0.0000000E+00  0.0000000E+00
      0.  0.0000000E+00  0.0000000E+00  0.0000000E+00  0.0000000E+00  0.0000000E+00  0.0000000E+00
