      25        1 S      740        115.57670        230.90109         14.41435        842.81781      185    7
6371000.  0.4410529E-01 -0.3579379E-01 -0.1432869E-02 -0.4553816E-01 -0.4712479E-11 -0.8317225E-01
6370000.  0.4410896E-01 -0.1101786E-01 -0.1425512E-02 -0.4819806E-01  0.1305539E-04 -0.8317833E-01
6369000.  0.4410874E-01  0.1376740E-01 -0.1417740E-02 -0.5083590E-01  0.2611116E-04 -0.8317710E-01
6368000.  0.4410464E-01  0.3855982E-01 -0.1409555E-02 -0.5345089E-01  0.3916616E-04 -0.8316852E-01
6368000.  0.4410464E-01  0.3855982E-01 -0.1409555E-02 -0.5345089E-01  0.3916616E-04 -0.8316852E-01
6367000.  0.4409664E-01  0.6335720E-01 -0.1400962E-02 -0.5604229E-01  0.5221924E-04 -0.8315262E-01
6366000.  0.4408475E-01  0.8815736E-01 -0.1391963E-02 -0.5860931E-01  0.6526925E-04 -0.8312938E-01
6365000.  0.4406897E-01  0.1129581E+00 -0.1382564E-02 -0.6115121E-01  0.7831504E-04 -0.8309882E-01
6364000.  0.4404929E-01  0.1377573E+00 -0.1372768E-02 -0.6366724E-01  0.9135545E-04 -0.8306093E-01
6363000.  0.4402572E-01  0.1625526E+00 -0.1362579E-02 -0.6615665E-01  0.1043893E-03 -0.8301570E-01
6362000.  0.4399826E-01  0.1873420E+00 -0.1352001E-02 -0.6861872E-01  0.1174156E-03 -0.8296315E-01
6361000.  0.4396691E-01  0.2121232E+00 -0.1341040E-02 -0.7105273E-01  0.1304330E-03 -0.8290327E-01
6360000.  0.4393167E-01  0.2368941E+00 -0.1329698E-02 -0.7345796E-01  0.1434404E-03 -0.8283605E-01
6359000.  0.4389254E-01  0.2616524E+00 -0.1317981E-02 -0.7583372E-01  0.1564367E-03 -0.8276153E-01
6358000.  0.4384953E-01  0.2863959E+00 -0.1305894E-02 -0.7817928E-01  0.1694207E-03 -0.8267970E-01
6357000.  0.4380264E-01  0.3111226E+00 -0.1293440E-02 -0.8049399E-01  0.1823913E-03 -0.8259054E-01
6356000.  0.4375187E-01  0.3358301E+00 -0.1280626E-02 -0.8277716E-01  0.1953473E-03 -0.8249409E-01
6356000.  0.4375187E-01  0.2111730E+00 -0.1280626E-02 -0.6785714E-01  0.1953473E-03 -0.9201398E-01
6355000.  0.4371731E-01  0.2291247E+00 -0.1269856E-02 -0.6937976E-01  0.2097843E-03 -0.9194052E-01
6354000.  0.4367994E-01  0.2470677E+00 -0.1258848E-02 -0.7088354E-01  0.2242092E-03 -0.9186114E-01
6353000.  0.4363975E-01  0.2650009E+00 -0.1247605E-02 -0.7236818E-01  0.2386213E-03 -0.9177586E-01
6352000.  0.4359675E-01  0.2829230E+00 -0.1236130E-02 -0.7383338E-01  0.2530194E-03 -0.9168465E-01
6351000.  0.4355093E-01  0.3008330E+00 -0.1224428E-02 -0.7527886E-01  0.2674028E-03 -0.9158756E-01
6350000.  0.4350231E-01  0.3187296E+00 -0.1212500E-02 -0.7670432E-01  0.2817705E-03 -0.9148456E-01
6349000.  0.4345088E-01  0.3366117E+00 -0.1200350E-02 -0.7810950E-01  0.2961216E-03 -0.9137566E-01
6348000.  0.4339664E-01  0.3544782E+00 -0.1187981E-02 -0.7949412E-01  0.3104551E-03 -0.9126089E-01
6347000.  0.4333960E-01  0.3723279E+00 -0.1175396E-02 -0.8085788E-01  0.3247701E-03 -0.9114022E-01
6346600.  0.4331600E-01  0.3794628E+00 -0.1170302E-02 -0.8139750E-01  0.3304907E-03 -0.9109031E-01
6346600.  0.4331600E-01  0.2170867E+00 -0.1170302E-02 -0.6946214E-01  0.3304907E-03 -0.1061940E+00
6318800.  0.4158960E-01  0.5733743E+00 -0.8119969E-03 -0.9254842E-01  0.7857786E-03 -0.1018529E+00
6291000.  0.3832891E-01  0.9181278E+00 -0.3835538E-03 -0.1013092E+00  0.1213925E-02 -0.9377632E-01
6291000.  0.3832891E-01  0.9300502E+00 -0.3835538E-03 -0.1034236E+00  0.1213925E-02 -0.9377632E-01
6263000.  0.3351224E-01  0.1256444E+01  0.6154324E-04 -0.9645952E-01  0.1601287E-02 -0.8192164E-01
6235000.  0.2734252E-01  0.1543614E+01  0.4421887E-03 -0.7446268E-01  0.1929203E-02 -0.6679531E-01
6207000.  0.2001994E-01  0.1779110E+01  0.6985675E-03 -0.4057999E-01  0.2184333E-02 -0.4889223E-01
6179000.  0.1179630E-01  0.1951985E+01  0.7883224E-03  0.4765181E-03  0.2355789E-02 -0.2883022E-01
6151000.  0.2967334E-02  0.2053270E+01  0.6921800E-03  0.4302552E-01  0.2435637E-02 -0.7331412E-02
6151000.  0.2967334E-02  0.1655268E+01  0.6921800E-03  0.3753630E-01  0.2435637E-02 -0.7495582E-02
6128500. -0.2868840E-02  0.1644248E+01  0.5111538E-03  0.6434917E-01  0.2436438E-02  0.7045243E-02
6106000. -0.8607360E-02  0.1600210E+01  0.2433242E-03  0.8636842E-01  0.2386025E-02  0.2145852E-01
6083500. -0.1413458E-01  0.1524927E+01 -0.9117688E-04  0.1018541E+00  0.2285360E-02  0.3545668E-01
6061000. -0.1934411E-01  0.1420735E+01 -0.4669163E-03  0.1095604E+00  0.2136397E-02  0.4876601E-01
6038500. -0.2413874E-01  0.1290472E+01 -0.8550530E-03  0.1088125E+00  0.1942026E-02  0.6113122E-01
6016000. -0.2843202E-01  0.1137375E+01 -0.1225429E-02  0.9954097E-01  0.1705998E-02  0.7231994E-01
5993500. -0.3214951E-01  0.9650077E+00 -0.1548700E-02  0.8227243E-01  0.1432839E-02  0.8212724E-01
5971000. -0.3522982E-01  0.7771811E+00 -0.1798373E-02  0.5808282E-01  0.1127747E-02  0.9037738E-01
5971000. -0.3522982E-01  0.7053153E+00 -0.1798373E-02  0.5561379E-01  0.1127747E-02  0.9498926E-01
5937667. -0.3815163E-01  0.4116053E+00 -0.1981723E-02  0.1361270E-01  0.6052218E-03  0.1040891E+00
5904333. -0.3954719E-01  0.1237124E+00 -0.1936972E-02 -0.3060667E-01  0.4557681E-04  0.1091620E+00
5871000. -0.3947401E-01 -0.1483102E+00 -0.1667244E-02 -0.7154263E-01 -0.5300576E-03  0.1102225E+00
5837667. -0.3803710E-01 -0.3964182E+00 -0.1201949E-02 -0.1047295E+00 -0.1101056E-02  0.1074264E+00
5804333. -0.3537821E-01 -0.6145318E+00 -0.5902976E-03 -0.1270960E+00 -0.1647926E-02  0.1010467E+00
5771000. -0.3166635E-01 -0.7984103E+00  0.1063362E-03 -0.1370904E+00 -0.2152817E-02  0.9145471E-01
5771000. -0.3166635E-01 -0.7984178E+00  0.1063362E-03 -0.1370848E+00 -0.2152817E-02  0.9145471E-01
5701000. -0.2092134E-01 -0.1133573E+01  0.1621150E-02 -0.1293478E+00 -0.2998937E-02  0.6073015E-01
5701000. -0.2092134E-01 -0.9354827E+00  0.1621150E-02 -0.9700618E-01 -0.2998937E-02  0.6662713E-01
5667333. -0.1573357E-01 -0.1022764E+01  0.2077115E-02 -0.7466980E-01 -0.3308755E-02  0.5035666E-01
5633667. -0.1016658E-01 -0.1078992E+01  0.2402901E-02 -0.4812692E-01 -0.3528696E-02  0.3269883E-01
5600000. -0.4384476E-02 -0.1104190E+01  0.2582429E-02 -0.1969332E-01 -0.3652803E-02  0.1417081E-01
5600000. -0.4384476E-02 -0.1104191E+01  0.2582429E-02 -0.1969464E-01 -0.3652803E-02  0.1417081E-01
5563518.  0.1961616E-02 -0.1106526E+01  0.2607835E-02  0.1081547E-01 -0.3675265E-02 -0.6367149E-02
5527037.  0.8222650E-02 -0.1074776E+01  0.2461047E-02  0.4003335E-01 -0.3580028E-02 -0.2683118E-01
5490556.  0.1420851E-01 -0.1010796E+01  0.2156346E-02  0.6560662E-01 -0.3369342E-02 -0.4658769E-01
5454074.  0.1974217E-01 -0.9172940E+00  0.1720415E-02  0.8558141E-01 -0.3048990E-02 -0.6503470E-01
5417593.  0.2466381E-01 -0.7977113E+00  0.1189634E-02  0.9856021E-01 -0.2628105E-02 -0.8161756E-01
5381111.  0.2883567E-01 -0.6560909E+00  0.6064649E-03  0.1038096E+00 -0.2118773E-02 -0.9584656E-01
5344630.  0.3214414E-01 -0.4969697E+00  0.1563625E-04  0.1012929E+00 -0.1535729E-02 -0.1073059E+00
5308148.  0.3450295E-01 -0.3252072E+00 -0.5399324E-03  0.9164687E-01 -0.8957851E-03 -0.1156670E+00
5271667.  0.3585406E-01 -0.1458772E+00 -0.1022631E-02  0.7609201E-01 -0.2174414E-03 -0.1206930E+00
5235185.  0.3616888E-01  0.3590076E-01 -0.1403257E-02  0.5629903E-01  0.4797974E-03 -0.1222450E+00
5198704.  0.3544794E-01  0.2150589E+00 -0.1663023E-02  0.3422106E-01  0.1175840E-02 -0.1202832E+00
5162222.  0.3372021E-01  0.3867484E+00 -0.1794712E-02  0.1190203E-01  0.1850722E-02 -0.1148655E+00
5125741.  0.3104177E-01  0.5464143E+00 -0.1802613E-02 -0.8706490E-02  0.2485012E-02 -0.1061453E+00
5089259.  0.2749331E-01  0.6899449E+00 -0.1701504E-02 -0.2592122E-01  0.3060486E-02 -0.9436356E-01
5052778.  0.2317806E-01  0.8137232E+00 -0.1514706E-02 -0.3846366E-01  0.3560468E-02 -0.7984351E-01
5016296.  0.1821777E-01  0.9147421E+00 -0.1271429E-02 -0.4556249E-01  0.3970400E-02 -0.6297760E-01
4979815.  0.1275016E-01  0.9906340E+00 -0.1003748E-02 -0.4700068E-01  0.4278098E-02 -0.4421942E-01
4943333.  0.6923892E-02  0.1039738E+01 -0.7433537E-03 -0.4311531E-01  0.4474152E-02 -0.2406750E-01
4906852.  0.8957394E-03  0.1061109E+01 -0.5185589E-03 -0.3474647E-01  0.4552087E-02 -0.3055366E-02
4870370. -0.5174876E-02  0.1054535E+01 -0.3516196E-03 -0.2314170E-01  0.4508550E-02  0.1826638E-01
4833889. -0.1112871E-01  0.1020523E+01 -0.2567969E-03 -0.9829869E-02  0.4343370E-02  0.3934019E-01
4797407. -0.1681208E-01  0.9602655E+00 -0.2391350E-03  0.3529821E-02  0.4059528E-02  0.5961980E-01
4760926. -0.2207936E-01  0.8756036E+00 -0.2941806E-03  0.1530318E-01  0.3663105E-02  0.7857978E-01
4724444. -0.2679775E-01  0.7689510E+00 -0.4085669E-03  0.2403446E-01  0.3163055E-02  0.9573217E-01
4687963. -0.3084924E-01  0.6432393E+00 -0.5614081E-03  0.2857642E-01  0.2571047E-02  0.1106341E+00
4651482. -0.3413422E-01  0.5018163E+00 -0.7264020E-03  0.2819519E-01  0.1901082E-02  0.1229018E+00
4615000. -0.3657318E-01  0.3483547E+00 -0.8743901E-03  0.2263418E-01  0.1169169E-02  0.1322172E+00
4578518. -0.3810821E-01  0.1867649E+00 -0.9761688E-03  0.1213777E-01  0.3929716E-03  0.1383347E+00
4542037. -0.3870428E-01  0.2108644E-01 -0.1005335E-02 -0.2568700E-02 -0.4086605E-03  0.1410871E+00
4505556. -0.3834963E-01 -0.1446261E+00 -0.9408778E-03 -0.2034163E-01 -0.1216196E-02  0.1403894E+00
4469074. -0.3705549E-01 -0.3063930E+00 -0.7693062E-03 -0.3971462E-01 -0.2009854E-02  0.1362387E+00
4432593. -0.3485558E-01 -0.4603890E+00 -0.4861793E-03 -0.5901970E-01 -0.2770009E-02  0.1287151E+00
4396111. -0.3180458E-01 -0.6030614E+00 -0.9682171E-04 -0.7652936E-01 -0.3477806E-02  0.1179776E+00
4359630. -0.2797694E-01 -0.7311776E+00  0.3836755E-03 -0.9059617E-01 -0.4115441E-02  0.1042608E+00
4323148. -0.2346409E-01 -0.8419142E+00  0.9313991E-03 -0.9979145E-01 -0.4666726E-02  0.8786842E-01
4286667. -0.1837283E-01 -0.9328901E+00  0.1515112E-02 -0.1030229E+00 -0.5117333E-02  0.6916686E-01
4250185. -0.1282165E-01 -0.1002228E+01  0.2098568E-02 -0.9962440E-01 -0.5455236E-02  0.4857438E-01
4213704. -0.6938919E-02 -0.1048567E+01  0.2643015E-02 -0.8941497E-01 -0.5670900E-02  0.2655437E-01
4177222. -0.8586152E-03 -0.1071086E+01  0.3110161E-02 -0.7271554E-01 -0.5757560E-02  0.3600628E-02
4140741.  0.5281464E-02 -0.1069502E+01  0.3464906E-02 -0.5033283E-01 -0.5711343E-02 -0.1976919E-01
4104259.  0.1134410E-01 -0.1044061E+01  0.3678067E-02 -0.2349785E-01 -0.5531362E-02 -0.4303011E-01
4067778.  0.1719428E-01 -0.9955223E+00  0.3728501E-02  0.6217864E-02 -0.5219761E-02 -0.6565664E-01
4031296.  0.2270337E-01 -0.9251167E+00  0.3604772E-02  0.3702137E-01 -0.4781622E-02 -0.8713893E-01
3994815.  0.2775047E-01 -0.8345246E+00  0.3306058E-02  0.6702164E-01 -0.4224933E-02 -0.1069894E+00
3958333.  0.3222598E-01 -0.7258076E+00  0.2842282E-02  0.9437184E-01 -0.3560316E-02 -0.1247577E+00
3921852.  0.3603267E-01 -0.6013867E+00  0.2233561E-02  0.1173930E+00 -0.2800922E-02 -0.1400354E+00
3885370.  0.3908838E-01 -0.4639517E+00  0.1508789E-02  0.1346976E+00 -0.1962011E-02 -0.1524692E+00
3848889.  0.4132675E-01 -0.3164358E+00  0.7038162E-03  0.1452802E+00 -0.1060786E-02 -0.1617645E+00
3812407.  0.4269892E-01 -0.1619217E+00 -0.1410888E-03  0.1485835E+00 -0.1158535E-03 -0.1676940E+00
3775926.  0.4317389E-01 -0.3612471E-02 -0.9837421E-03  0.1445295E+00  0.8529770E-03 -0.1701004E+00
3739444.  0.4273919E-01  0.1552650E+00 -0.1782985E-02  0.1335183E+00  0.1825309E-02 -0.1689001E+00
3702963.  0.4140083E-01  0.3114868E+00 -0.2501142E-02  0.1163891E+00  0.2780378E-02 -0.1640849E+00
3666482.  0.3918303E-01  0.4619241E+00 -0.3106510E-02  0.9435152E-01  0.3697664E-02 -0.1557208E+00
3630000.  0.3612747E-01  0.6035815E+00 -0.3575144E-02  0.6889144E-01  0.4557237E-02 -0.1439476E+00
3630000.  0.3612747E-01  0.6035802E+00 -0.3575144E-02  0.6888991E-01  0.4557237E-02 -0.1439476E+00
3592500.  0.3216308E-01  0.7414206E+00 -0.3900358E-02  0.4140129E-01  0.5360594E-02 -0.1284649E+00
3555000.  0.2742653E-01  0.8654529E+00 -0.4061786E-02  0.1353609E-01  0.6063256E-02 -0.1097833E+00
3517500.  0.2200762E-01  0.9728253E+00 -0.4062412E-02 -0.1295516E-01  0.6647361E-02 -0.8824316E-01
3480000.  0.1601208E-01  0.1060988E+01 -0.3915112E-02 -0.3648164E-01  0.7097251E-02 -0.6425272E-01
3480000.  0.1601208E-01  0.1706177E+01 -0.1736268E-02  0.3252405E-01  0.7097251E-02 -0.1146201E+00
3409422. -0.3942218E-02  0.1830066E+01 -0.1899816E-02 -0.3793490E-02  0.7583502E-02  0.2902591E-01
3338844. -0.2310627E-01  0.1569654E+01 -0.1649187E-02 -0.4093065E-01  0.6464052E-02  0.1700459E+00
3268266. -0.3755872E-01  0.9967304E+00 -0.1018398E-02 -0.7122582E-01  0.3935158E-02  0.2790357E+00
3197688. -0.4449812E-01  0.2373483E+00 -0.1198080E-03 -0.8841821E-01  0.4832575E-03  0.3338309E+00
3127109. -0.4269050E-01 -0.5565223E+00  0.8780087E-03 -0.8876387E-01 -0.3218727E-02  0.3233785E+00
3056531. -0.3259262E-01 -0.1236343E+01  0.1781979E-02 -0.7164717E-01 -0.6445083E-02  0.2492846E+00
2985953. -0.1616651E-01 -0.1682587E+01  0.2410064E-02 -0.3962998E-01 -0.8555358E-02  0.1249838E+00
2915375.  0.3549428E-02 -0.1822714E+01  0.2624190E-02  0.2029644E-02 -0.9111002E-02 -0.2711011E-01
2844797.  0.2301793E-01 -0.1639821E+01  0.2355445E-02  0.4628135E-01 -0.7952425E-02 -0.1798241E+00
2774219.  0.3882220E-01 -0.1171641E+01  0.1617644E-02  0.8544514E-01 -0.5225307E-02 -0.3060229E+00
2703641.  0.4822608E-01 -0.5011566E+00  0.5074451E-03  0.1124479E+00 -0.1354345E-02 -0.3831692E+00
2633062.  0.4959344E-01  0.2589823E+00 -0.8088321E-03  0.1219522E+00  0.3028956E-02 -0.3969472E+00
2562484.  0.4261411E-01  0.9852880E+00 -0.2119420E-02  0.1112152E+00  0.7190678E-02 -0.3434448E+00
2491906.  0.2831643E-01  0.1562682E+01 -0.3199016E-02  0.8057056E-01  0.1041445E-01 -0.2296444E+00
2421328.  0.8877954E-02  0.1901233E+01 -0.3843436E-02  0.3346992E-01  0.1211675E-01 -0.7222996E-01
2350750. -0.1272591E-01  0.1948410E+01 -0.3902359E-02 -0.2391416E-01  0.1194106E-01  0.1050316E+00
2280172. -0.3317708E-01  0.1695398E+01 -0.3305488E-02 -0.8346285E-01  0.9817035E-02  0.2749005E+00
2209594. -0.4930494E-01  0.1177122E+01 -0.2078463E-02 -0.1361684E+00  0.5976668E-02  0.4107153E+00
2139016. -0.5854296E-01  0.4662762E+00 -0.3460991E-03 -0.1733375E+00  0.9258125E-03  0.4903031E+00
2068438. -0.5929111E-01 -0.3374664E+00  0.1677811E-02 -0.1877927E+00 -0.4624269E-02  0.4992118E+00
1997859. -0.5113917E-01 -0.1121447E+01  0.3713355E-02 -0.1749248E+00 -0.9855511E-02  0.4328454E+00
1927281. -0.3492710E-01 -0.1775224E+01  0.5447457E-02 -0.1334727E+00 -0.1395756E-01  0.2972415E+00
1856703. -0.1263758E-01 -0.2205125E+01  0.6573760E-02 -0.6592784E-01 -0.1624363E-01  0.1084047E+00
1786125.  0.1285868E-01 -0.2346237E+01  0.6834384E-02  0.2148381E-01 -0.1625077E-01 -0.1096752E+00
1715547.  0.3817070E-01 -0.2170515E+01  0.6059221E-02  0.1192508E+00 -0.1381238E-01 -0.3280598E+00
1644969.  0.5981895E-01 -0.1690167E+01  0.4197988E-02  0.2154231E+00 -0.9093008E-02 -0.5165446E+00
1574391.  0.7467692E-01 -0.9560457E+00  0.1341072E-02  0.2967657E+00 -0.2580920E-02 -0.6475258E+00
1503812.  0.8036863E-01 -0.5138243E-01 -0.2273655E-02  0.3501141E+00  0.4961061E-02 -0.6995641E+00
1433234.  0.7557455E-01  0.9181919E+00 -0.6269264E-02  0.3637896E+00  0.1257994E-01 -0.6602172E+00
1362656.  0.6021214E-01  0.1837253E+01 -0.1015413E-01  0.3289454E+00  0.1924378E-01 -0.5278054E+00
1292078.  0.3546962E-01  0.2594038E+01 -0.1335956E-01  0.2406883E+00  0.2396439E-01 -0.3118982E+00
1221500.  0.3692813E-02  0.3093343E+01 -0.1528847E-01  0.9889140E-01  0.2591866E-01 -0.3248629E-01
1221500.  0.3692813E-02  0.2631434E+01 -0.1462938E-01 -0.9556340E-01  0.2591866E-01 -0.3408603E-01
1183328. -0.1252411E-01  0.2769635E+01 -0.1387485E-01 -0.1469611E+00  0.2567726E-01  0.1159141E+00
1145156. -0.2934109E-01  0.2830317E+01 -0.1296613E-01 -0.1501288E+00  0.2451880E-01  0.2713420E+00
1106984. -0.4627118E-01  0.2806523E+01 -0.1211734E-01 -0.1329370E+00  0.2242343E-01  0.4279278E+00
1068812. -0.6279700E-01  0.2695265E+01 -0.1133488E-01 -0.1348506E+00  0.1939741E-01  0.5812610E+00
1030641. -0.7839734E-01  0.2498481E+01 -0.1038721E-01 -0.1934489E+00  0.1547362E-01  0.7269074E+00
 992469. -0.9257892E-01  0.2223068E+01 -0.8857276E-02 -0.3310986E+00  0.1071093E-01  0.8605517E+00
 954297. -0.1049013E+00  0.1879966E+01 -0.6263264E-02 -0.5461832E+00  0.5193756E-02  0.9780990E+00
 916125. -0.1149981E+00  0.1482441E+01 -0.2209943E-02 -0.8119186E+00 -0.9700211E-03  0.1075803E+01
 877953. -0.1225840E+00  0.1043977E+01  0.3477778E-02 -0.1083385E+01 -0.7651416E-02  0.1150378E+01
 839781. -0.1274503E+00  0.5764008E+00  0.1068335E-01 -0.1310683E+01 -0.1470337E-01  0.1199093E+01
 801609. -0.1294513E+00  0.8877243E-01  0.1901522E-01 -0.1454397E+01 -0.2196432E-01  0.1219851E+01
 763438. -0.1284869E+00 -0.4126034E+00  0.2790974E-01 -0.1498249E+01 -0.2926205E-01  0.1211263E+01
 725266. -0.1244890E+00 -0.9230356E+00  0.3679321E-01 -0.1455205E+01 -0.3641881E-01  0.1172688E+01
 687094. -0.1174183E+00 -0.1437307E+01  0.4525111E-01 -0.1364417E+01 -0.4325476E-01  0.1104261E+01
 648922. -0.1072739E+00 -0.1947307E+01  0.5315592E-01 -0.1280006E+01 -0.4959341E-01  0.1006907E+01
 610750. -0.9411748E-01 -0.2440146E+01  0.6070820E-01 -0.1254397E+01 -0.5526612E-01  0.8823137E+00
 572578. -0.7810444E-01 -0.2897314E+01  0.6837421E-01 -0.1321245E+01 -0.6011660E-01  0.7329038E+00
 534406. -0.5951646E-01 -0.3295485E+01  0.7673276E-01 -0.1483033E+01 -0.6400513E-01  0.5617752E+00
 496234. -0.3878364E-01 -0.3608983E+01  0.8627222E-01 -0.1707303E+01 -0.6681236E-01  0.3726257E+00
 458062. -0.1648766E-01 -0.3813580E+01  0.9719545E-01 -0.1933109E+01 -0.6844270E-01  0.1696611E+00
 419891.  0.6659011E-02 -0.3890776E+01  0.1092909E+00 -0.2086300E+01 -0.6882702E-01 -0.4250399E-01
 381719.  0.2986237E-01 -0.3831800E+01  0.1219145E+00 -0.2099783E+01 -0.6792472E-01 -0.2589866E+00
 343547.  0.5230964E-01 -0.3640043E+01  0.1340902E+00 -0.1933113E+01 -0.6572505E-01 -0.4747258E+00
 305375.  0.7324758E-01 -0.3331665E+01  0.1447160E+00 -0.1586123E+01 -0.6224771E-01 -0.6846333E+00
 267203.  0.9205350E-01 -0.2933559E+01  0.1528207E+00 -0.1102122E+01 -0.5754268E-01 -0.8837208E+00
 229031.  0.1082885E+00 -0.2479367E+01  0.1578052E+00 -0.5598589E+00 -0.5168919E-01 -0.1067226E+01
 190859.  0.1217219E+00 -0.2003999E+01  0.1596054E+00 -0.5542870E-01 -0.4479403E-01 -0.1230734E+01
 152688.  0.1323213E+00 -0.1537853E+01  0.1587272E+00  0.3209382E+00 -0.3698932E-01 -0.1370294E+01
 114516.  0.1402109E+00 -0.1101866E+01  0.1561415E+00  0.5076182E+00 -0.2842854E-01 -0.1482531E+01
  76344.  0.1456034E+00 -0.7046759E+00  0.1530607E+00  0.4875567E+00 -0.1928414E-01 -0.1564714E+01
  38172.  0.1487250E+00 -0.3421903E+00  0.1506498E+00  0.2933858E+00 -0.9742565E-02 -0.1614846E+01
      0.  0.1497502E+00  0.0000000E+00  0.1497708E+00  0.0000000E+00  0.0000000E+00 -0.1631664E+01
