       9       28 S      500        101.96840         13.77453          6.28556        244.17880      185    7
6371000. -0.1805491E-02  0.6396899E+00  0.2000321E-02  0.3805812E-02 -0.4120865E-03  0.1535524E-01
6370000. -0.1905767E-02  0.6379566E+00  0.1999398E-02  0.7945721E-02 -0.4144782E-03  0.1512000E-01
6369000. -0.2005737E-02  0.6357868E+00  0.1997827E-02  0.1208356E-01 -0.4168330E-03  0.1488459E-01
6368000. -0.2105332E-02  0.6331810E+00  0.1995605E-02  0.1621789E-01 -0.4191508E-03  0.1464904E-01
6368000. -0.2105332E-02  0.6331810E+00  0.1995605E-02  0.1621789E-01 -0.4191508E-03  0.1464904E-01
6367000. -0.2204484E-02  0.6301396E+00  0.1992736E-02  0.2034731E-01 -0.4214317E-03  0.1441336E-01
6366000. -0.2303124E-02  0.6266633E+00  0.1989218E-02  0.2447037E-01 -0.4236755E-03  0.1417759E-01
6365000. -0.2401185E-02  0.6227527E+00  0.1985054E-02  0.2858566E-01 -0.4258823E-03  0.1394174E-01
6364000. -0.2498598E-02  0.6184089E+00  0.1980245E-02  0.3269176E-01 -0.4280521E-03  0.1370584E-01
6363000. -0.2595295E-02  0.6136331E+00  0.1974792E-02  0.3678725E-01 -0.4301849E-03  0.1346991E-01
6362000. -0.2691208E-02  0.6084265E+00  0.1968697E-02  0.4087072E-01 -0.4322806E-03  0.1323397E-01
6361000. -0.2786271E-02  0.6027906E+00  0.1961963E-02  0.4494076E-01 -0.4343393E-03  0.1299805E-01
6360000. -0.2880416E-02  0.5967271E+00  0.1954590E-02  0.4899596E-01 -0.4363610E-03  0.1276217E-01
6359000. -0.2973575E-02  0.5902379E+00  0.1946582E-02  0.5303493E-01 -0.4383457E-03  0.1252636E-01
6358000. -0.3065682E-02  0.5833248E+00  0.1937942E-02  0.5705627E-01 -0.4402933E-03  0.1229063E-01
6357000. -0.3156672E-02  0.5759902E+00  0.1928672E-02  0.6105859E-01 -0.4422040E-03  0.1205502E-01
6356000. -0.3246477E-02  0.5682363E+00  0.1918776E-02  0.6504051E-01 -0.4440777E-03  0.1181954E-01
6356000. -0.3246477E-02  0.5080304E+00  0.1918776E-02  0.4131053E-01 -0.4440777E-03  0.1252593E-01
6355000. -0.3325822E-02  0.5029418E+00  0.1912096E-02  0.4379958E-01 -0.4460211E-03  0.1223680E-01
6354000. -0.3404348E-02  0.4975998E+00  0.1905027E-02  0.4627920E-01 -0.4479191E-03  0.1194783E-01
6353000. -0.3482016E-02  0.4920055E+00  0.1897569E-02  0.4874883E-01 -0.4497718E-03  0.1165904E-01
6352000. -0.3558787E-02  0.4861599E+00  0.1889724E-02  0.5120792E-01 -0.4515791E-03  0.1137045E-01
6351000. -0.3634620E-02  0.4800644E+00  0.1881494E-02  0.5365593E-01 -0.4533412E-03  0.1108208E-01
6350000. -0.3709476E-02  0.4737201E+00  0.1872881E-02  0.5609230E-01 -0.4550581E-03  0.1079394E-01
6349000. -0.3783318E-02  0.4671286E+00  0.1863886E-02  0.5851651E-01 -0.4567297E-03  0.1050606E-01
6348000. -0.3856106E-02  0.4602912E+00  0.1854512E-02  0.6092799E-01 -0.4583562E-03  0.1021843E-01
6347000. -0.3927801E-02  0.4532093E+00  0.1844760E-02  0.6332622E-01 -0.4599375E-03  0.9931091E-02
6346600. -0.3956165E-02  0.4503085E+00  0.1840754E-02  0.6428169E-01 -0.4605574E-03  0.9816238E-02
6346600. -0.3956165E-02  0.5605682E+00  0.1840754E-02  0.4528965E-01 -0.4605574E-03  0.1119570E-01
6318800. -0.5993806E-02  0.3509573E+00  0.1544835E-02  0.8888713E-01 -0.4912529E-03  0.2922085E-02
6291000. -0.6846264E-02  0.2324606E-01  0.1081557E-02  0.1211735E+00 -0.4865837E-03 -0.4991161E-02
6291000. -0.6846264E-02  0.2973152E-01  0.1081557E-02  0.1249201E+00 -0.4865837E-03 -0.4991161E-02
6263000. -0.6072951E-02 -0.3898684E+00  0.4875167E-03  0.1423589E+00 -0.4481658E-03 -0.1239914E-01
6235000. -0.3395920E-02 -0.8252681E+00 -0.1418407E-03  0.1408335E+00 -0.3785003E-03 -0.1919063E-01
6207000.  0.1102368E-02 -0.1207117E+01 -0.7230519E-03  0.1207373E+00 -0.2805715E-03 -0.2523889E-01
6179000.  0.7039205E-02 -0.1469822E+01 -0.1180149E-02  0.8504763E-01 -0.1579499E-03 -0.3040240E-01
6151000.  0.1376998E-01 -0.1561339E+01 -0.1455229E-02  0.3891052E-01 -0.1487187E-04 -0.3451939E-01
6151000.  0.1376998E-01 -0.1358583E+01 -0.1455229E-02  0.3231903E-01 -0.1487187E-04 -0.3528122E-01
6128500.  0.1847271E-01 -0.1287874E+01 -0.1508580E-02 -0.2055851E-02  0.1115747E-03 -0.3621015E-01
6106000.  0.2274999E-01 -0.1118630E+01 -0.1442661E-02 -0.3477975E-01  0.2400743E-03 -0.3644724E-01
6083500.  0.2626878E-01 -0.8605468E+00 -0.1267851E-02 -0.6333142E-01  0.3682276E-03 -0.3601975E-01
6061000.  0.2874276E-01 -0.5302021E+00 -0.1002750E-02 -0.8560397E-01  0.4937559E-03 -0.3496844E-01
6038500.  0.2995437E-01 -0.1496877E+00 -0.6724471E-03 -0.1000508E+00  0.6145439E-03 -0.3334440E-01
6016000.  0.2977124E-01  0.2551596E+00 -0.3063543E-03 -0.1057812E+00  0.7286714E-03 -0.3120719E-01
5993500.  0.2815592E-01  0.6567597E+00  0.6419518E-04 -0.1026004E+00  0.8344418E-03 -0.2862291E-01
5971000.  0.2516841E-01  0.1027868E+01  0.4084000E-03 -0.9099763E-01  0.9303967E-03 -0.2566007E-01
5971000.  0.2516841E-01  0.9393748E+00  0.4084000E-03 -0.8388318E-01  0.9303967E-03 -0.2895483E-01
5937667.  0.1919269E-01  0.1319565E+01  0.7786820E-03 -0.5607132E-01  0.1072644E-02 -0.2538951E-01
5904333.  0.1165277E-01  0.1532840E+01  0.9835758E-03 -0.2163077E-01  0.1196003E-02 -0.2178043E-01
5871000.  0.3468255E-02  0.1565971E+01  0.1003379E-02  0.1378543E-01  0.1300910E-02 -0.1837105E-01
5837667. -0.4437288E-02  0.1429769E+01  0.8461440E-03  0.4533576E-01  0.1388874E-02 -0.1532406E-01
5804333. -0.1124907E-01  0.1154000E+01  0.5419832E-03  0.6947880E-01  0.1462050E-02 -0.1272641E-01
5771000. -0.1634297E-01  0.7808821E+00  0.1356789E-03  0.8417076E-01  0.1522872E-02 -0.1060194E-01
5771000. -0.1634297E-01  0.7808999E+00  0.1356789E-03  0.8416860E-01  0.1522872E-02 -0.1060194E-01
5701000. -0.2014094E-01 -0.1045041E+00 -0.8468615E-03  0.8733380E-01  0.1624761E-02 -0.8194198E-02
5701000. -0.2014094E-01 -0.1193895E+00 -0.8468615E-03  0.7358535E-01  0.1624761E-02 -0.2517192E-02
5667333. -0.1860221E-01 -0.4544894E+00 -0.1209081E-02  0.6261595E-01  0.1633609E-02 -0.8404349E-03
5633667. -0.1544695E-01 -0.7275430E+00 -0.1500792E-02  0.4720282E-01  0.1633643E-02  0.8369539E-03
5600000. -0.1105296E-01 -0.9210733E+00 -0.1703350E-02  0.2917773E-01  0.1624589E-02  0.2614204E-02
5600000. -0.1105296E-01 -0.9211194E+00 -0.1703350E-02  0.2917862E-01  0.1624589E-02  0.2614204E-02
5563518. -0.5351996E-02 -0.1052737E+01 -0.1811906E-02  0.8503060E-02  0.1604005E-02  0.4549855E-02
5527037.  0.7976237E-03 -0.1077052E+01 -0.1799952E-02 -0.1258394E-01  0.1572763E-02  0.6337531E-02
5490556.  0.6777158E-02 -0.9941825E+00 -0.1670652E-02 -0.3218117E-01  0.1531705E-02  0.7978186E-02
5454074.  0.1199669E-01 -0.8139290E+00 -0.1437456E-02 -0.4861883E-01  0.1481686E-02  0.9465342E-02
5417593.  0.1594687E-01 -0.5545089E+00 -0.1122405E-02 -0.6059229E-01  0.1423621E-02  0.1078623E-01
5381111.  0.1824261E-01 -0.2405599E+00 -0.7536951E-03 -0.6725743E-01  0.1358506E-02  0.1192435E-01
5344630.  0.1865235E-01  0.9924348E-01 -0.3629689E-03 -0.6827091E-01  0.1287443E-02  0.1286151E-01
5308148.  0.1711401E-01  0.4348724E+00  0.1764827E-04 -0.6378824E-01  0.1211628E-02  0.1358084E-01
5271667.  0.1373536E-01  0.7374706E+00  0.3582004E-03 -0.5441546E-01  0.1132352E-02  0.1406896E-01
5235185.  0.8779895E-02  0.9817677E+00  0.6333439E-03 -0.4112790E-01  0.1050961E-02  0.1431848E-01
5198704.  0.2641481E-02  0.1147939E+01  0.8240996E-03 -0.2516553E-01  0.9688283E-03  0.1432927E-01
5162222. -0.4192247E-02  0.1223017E+01  0.9190798E-03 -0.7910858E-02  0.8872976E-03  0.1410959E-01
5125741. -0.1118012E-01  0.1201590E+01  0.9149252E-03  0.9229079E-02  0.8076493E-03  0.1367604E-01
5089259. -0.1777281E-01  0.1085920E+01  0.8161248E-03  0.2493950E-01  0.7310373E-03  0.1305298E-01
5052778. -0.2345407E-01  0.8854290E+00  0.6342126E-03  0.3809090E-01  0.6584646E-03  0.1227161E-01
5016296. -0.2778039E-01  0.6156532E+00  0.3864529E-03  0.4781613E-01  0.5907323E-03  0.1136800E-01
4979815. -0.3041094E-01  0.2968489E+00  0.9423655E-04  0.5355480E-01  0.5284329E-03  0.1038135E-01
4943333. -0.3113061E-01 -0.4776029E-01 -0.2188036E-03  0.5507494E-01  0.4719224E-03  0.9352155E-02
4906852. -0.2986146E-01 -0.3937313E+00 -0.5285997E-03  0.5246486E-01  0.4213359E-03  0.8319037E-02
4870370. -0.2666444E-01 -0.7172660E+00 -0.8124732E-03  0.4610284E-01  0.3765877E-03  0.7318268E-02
4833889. -0.2173145E-01 -0.9967675E+00 -0.1050597E-02  0.3660834E-01  0.3374018E-03  0.6381337E-02
4797407. -0.1536776E-01 -0.1214294E+01 -0.1227260E-02  0.2477842E-01  0.3033364E-03  0.5533101E-02
4760926. -0.7969122E-02 -0.1356524E+01 -0.1331640E-02  0.1151927E-01  0.2738285E-03  0.4792335E-02
4724444.  0.8153285E-05 -0.1415449E+01 -0.1358254E-02 -0.2227202E-02  0.2482254E-03  0.4170300E-02
4687963.  0.8076911E-02 -0.1388604E+01 -0.1306954E-02 -0.1554807E-01  0.2258329E-03  0.3671300E-02
4651482.  0.1575219E-01 -0.1278935E+01 -0.1182586E-02 -0.2762119E-01  0.2059499E-03  0.3292935E-02
4615000.  0.2258025E-01 -0.1094307E+01 -0.9943268E-03 -0.3776120E-01  0.1879056E-03  0.3027082E-02
4578518.  0.2816434E-01 -0.8467519E+00 -0.7548123E-03 -0.4545250E-01  0.1710916E-03  0.2860789E-02
4542037.  0.3218632E-01 -0.5514929E+00 -0.4790985E-03 -0.5036896E-01  0.1549828E-03  0.2778021E-02
4505556.  0.3442198E-01 -0.2258178E+00 -0.1835374E-03 -0.5237846E-01  0.1391529E-03  0.2760254E-02
4469074.  0.3474912E-01  0.1120602E+00  0.1152993E-03 -0.5153337E-01  0.1232837E-03  0.2788395E-02
4432593.  0.3314991E-01  0.4440851E+00  0.4015991E-03 -0.4805097E-01  0.1071678E-03  0.2843525E-02
4396111.  0.2970670E-01  0.7534415E+00  0.6612303E-03 -0.4228462E-01  0.9070050E-04  0.2908363E-02
4359630.  0.2459297E-01  0.1025345E+01  0.8823657E-03 -0.3469022E-01  0.7386880E-04  0.2968779E-02
4323148.  0.1805876E-01  0.1247775E+01  0.1056017E-02 -0.2578800E-01  0.5673282E-04  0.3012880E-02
4286667.  0.1041467E-01  0.1411879E+01  0.1176253E-02 -0.1612690E-01  0.3940970E-04  0.3033414E-02
4250185.  0.2011412E-02  0.1512236E+01  0.1240295E-02 -0.6248003E-02  0.2204571E-04  0.3026753E-02
4213704. -0.6778197E-02  0.1546855E+01  0.1248361E-02  0.3343923E-02  0.4797193E-05  0.2993760E-02
4177222. -0.1558036E-01  0.1517003E+01  0.1203395E-02  0.1220722E-01 -0.1219874E-04  0.2939584E-02
4140741. -0.2403615E-01  0.1426879E+01  0.1110650E-02  0.1997941E-01 -0.2884508E-04  0.2873744E-02
4104259. -0.3181889E-01  0.1283126E+01  0.9771879E-03  0.2639047E-01 -0.4511269E-04  0.2809795E-02
4067778. -0.3864477E-01  0.1094300E+01  0.8113561E-03  0.3126558E-01 -0.6106210E-04  0.2766142E-02
4031296. -0.4428382E-01  0.8702560E+00  0.6222139E-03  0.3452455E-01 -0.7687194E-04  0.2765004E-02
3994815. -0.4856417E-01  0.6215773E+00  0.4190463E-03  0.3617400E-01 -0.9286150E-04  0.2834175E-02
3958333. -0.5137569E-01  0.3589607E+00  0.2108550E-03  0.3629655E-01 -0.1095278E-03  0.3007292E-02
3921852. -0.5266831E-01  0.9275468E-01  0.6007507E-05  0.3503635E-01 -0.1275764E-03  0.3324554E-02
3885370. -0.5244929E-01 -0.1675234E+00 -0.1881139E-03  0.3258263E-01 -0.1479721E-03  0.3836186E-02
3848889. -0.5077726E-01 -0.4134666E+00 -0.3652769E-03  0.2915269E-01 -0.1719986E-03  0.4604548E-02
3812407. -0.4775497E-01 -0.6380602E+00 -0.5205545E-03  0.2497528E-01 -0.2013458E-03  0.5709202E-02
3775926. -0.4352148E-01 -0.8357455E+00 -0.6503069E-03  0.2027495E-01 -0.2382175E-03  0.7252346E-02
3739444. -0.3824292E-01 -0.1002479E+01 -0.7521449E-03  0.1525620E-01 -0.2854924E-03  0.9367867E-02
3702963. -0.3210508E-01 -0.1135588E+01 -0.8247530E-03  0.1009205E-01 -0.3469294E-03  0.1223321E-01
3666482. -0.2530504E-01 -0.1233615E+01 -0.8676935E-03  0.4911197E-02 -0.4274678E-03  0.1608517E-01
3630000. -0.1804541E-01 -0.1296005E+01 -0.8811127E-03 -0.2118712E-03 -0.5336304E-03  0.2124380E-01
3630000. -0.1804541E-01 -0.1295997E+01 -0.8811127E-03 -0.2115372E-03 -0.5336304E-03  0.2124380E-01
3592500. -0.1030880E-01 -0.1326387E+01 -0.8639830E-03 -0.5624890E-02 -0.6784942E-03  0.2831588E-01
3555000. -0.2508267E-02 -0.1317441E+01 -0.8145960E-03 -0.1119471E-01 -0.8715948E-03  0.3775394E-01
3517500.  0.5118773E-02 -0.1266963E+01 -0.7315332E-03 -0.1710768E-01 -0.1129229E-02  0.5040953E-01
3480000.  0.1231765E-01 -0.1171129E+01 -0.6119380E-03 -0.2367081E-01 -0.1473618E-02  0.6746213E-01
3480000.  0.1231765E-01  0.1486625E+00  0.9464888E-03  0.2080102E-01 -0.1473618E-02  0.2871587E-01
3409422.  0.1047132E-01  0.1788811E+00  0.7297707E-03  0.1819476E-01 -0.1563644E-02 -0.7756506E-02
3338844.  0.8461031E-02  0.1801895E+00  0.5451448E-03  0.1510050E-01 -0.1380742E-02 -0.2264570E-01
3268266.  0.6545143E-02  0.1635290E+00  0.3952545E-03  0.1198666E-01 -0.1104269E-02 -0.2593293E-01
3197688.  0.4870676E-02  0.1379011E+00  0.2785310E-03  0.9148844E-02 -0.8264550E-03 -0.2364324E-01
3127109.  0.3498588E-02  0.1098077E+00  0.1909586E-03  0.6738829E-02 -0.5880686E-03 -0.1923102E-01
3056531.  0.2431478E-02  0.8334854E-01  0.1274660E-03  0.4802656E-02 -0.4013221E-03 -0.1452872E-01
2985953.  0.1637788E-02  0.6066912E-01  0.8287971E-04  0.3317844E-02 -0.2640321E-03 -0.1038732E-01
2915375.  0.1070463E-02  0.4251818E-01  0.5250784E-04  0.2224699E-02 -0.1679971E-03 -0.7098743E-02
2844797.  0.6794517E-03  0.2876710E-01  0.3241660E-04  0.1449150E-02 -0.1035830E-03 -0.4664390E-02
2774219.  0.4190135E-03  0.1882501E-01  0.1950079E-04  0.9175400E-03 -0.6196356E-04 -0.2957227E-02
2703641.  0.2511163E-03  0.1192959E-01  0.1142842E-04  0.5648437E-03 -0.3598539E-04 -0.1812999E-02
2633062.  0.1462487E-03  0.7326438E-02  0.6522489E-05  0.3380982E-03 -0.2029366E-04 -0.1076195E-02
2562484.  0.8275486E-04  0.4362274E-02  0.3623474E-05  0.1967476E-03 -0.1111256E-04 -0.6189661E-03
2491906.  0.4547803E-04  0.2518352E-02  0.1958135E-05  0.1112689E-03 -0.5906617E-05 -0.3450013E-03
2421328.  0.2425849E-04  0.1409361E-02  0.1028561E-05  0.6112328E-04 -0.3045712E-05 -0.1863353E-03
2350750.  0.1255018E-04  0.7642639E-03  0.5246710E-06  0.3259159E-04 -0.1522397E-05 -0.9747737E-04
2280172.  0.6291478E-05  0.4013242E-03  0.2596255E-06  0.1685345E-04 -0.7369392E-06 -0.4935685E-04
2209594.  0.3052708E-05  0.2038911E-03  0.1244724E-06  0.8443004E-05 -0.3450553E-06 -0.2416684E-04
2139016.  0.1431779E-05  0.1001098E-03  0.5773638E-07  0.4092492E-05 -0.1560620E-06 -0.1142912E-04
2068438.  0.6481321E-06  0.4744126E-04  0.2586892E-07  0.1916603E-05 -0.6807079E-07 -0.5213298E-05
1997859.  0.2826716E-06  0.2166476E-04  0.1117536E-07  0.8657644E-06 -0.2858083E-07 -0.2289776E-05
1927281.  0.1185425E-06  0.9516750E-05  0.4645293E-08  0.3765037E-06 -0.1152759E-07 -0.9665557E-06
1856703.  0.4769192E-07  0.4012757E-05  0.1853593E-08  0.1572855E-06 -0.4455632E-08 -0.3912409E-06
1786125.  0.1835978E-07  0.1620188E-05  0.7081366E-09  0.6296189E-07 -0.1645922E-08 -0.1514743E-06
1715547.  0.6743097E-08  0.6246700E-06  0.2582377E-09  0.2408268E-07 -0.5792925E-09 -0.5593010E-07
1644969.  0.2354821E-08  0.2292538E-06  0.8958658E-10  0.8773339E-08 -0.1935751E-09 -0.1962974E-07
1574391.  0.7789125E-09  0.7979514E-07  0.2945106E-10  0.3032842E-08 -0.6116760E-10 -0.6523574E-08
1503812.  0.2429466E-09  0.2623090E-07  0.9134180E-11  0.9905823E-09 -0.1819335E-10 -0.2043804E-08
1433234.  0.7105769E-10  0.8109104E-08  0.2660433E-11  0.3040478E-09 -0.5067312E-11 -0.6005625E-09
1362656.  0.1921738E-10  0.2365355E-08  0.7290469E-12  0.8644415E-10 -0.1314867E-11 -0.1644276E-09
1292078.  0.4020923E-11  0.7537080E-09  0.2135812E-12  0.1877455E-10 -0.3189207E-12 -0.4144149E-10
1221500. -0.3382426E-11  0.8406134E-09  0.2036174E-12 -0.1870231E-10 -0.7529233E-13 -0.1018446E-10
1221500. -0.3382426E-11  0.6216835E-10  0.2410297E-13  0.1776750E-10 -0.7529233E-13 -0.8719182E-11
1183328. -0.2995815E-11 -0.1411451E-09 -0.3227156E-13  0.3466145E-11 -0.3656525E-13 -0.4573995E-11
1145156. -0.2057452E-11 -0.1554237E-09 -0.3647422E-13 -0.1081376E-11 -0.1684735E-13 -0.2248590E-11
1106984. -0.1236254E-11 -0.1155522E-09 -0.2658882E-13 -0.1877496E-11 -0.7393588E-14 -0.1045431E-11
1068812. -0.6767951E-12 -0.7253941E-10 -0.1620151E-13 -0.1508732E-11 -0.3096069E-14 -0.4618123E-12
1030641. -0.3435392E-12 -0.4086364E-10 -0.8819666E-14 -0.9631488E-12 -0.1237560E-14 -0.1942453E-12
 992469. -0.1630031E-12 -0.2116045E-10 -0.4401148E-14 -0.5392216E-12 -0.4718509E-15 -0.7782885E-13
 954297. -0.7255566E-13 -0.1018279E-10 -0.2036511E-14 -0.2740716E-12 -0.1713496E-15 -0.2968465E-13
 916125. -0.3032491E-13 -0.4575511E-11 -0.8781813E-15 -0.1283454E-12 -0.5913324E-16 -0.1076055E-13
 877953. -0.1189096E-13 -0.1922522E-11 -0.3534286E-15 -0.5572946E-13 -0.1933615E-16 -0.3698047E-14
 839781. -0.4365047E-14 -0.7548506E-12 -0.1326523E-15 -0.2248253E-13 -0.5969189E-17 -0.1200998E-14
 801609. -0.1495188E-14 -0.2763359E-12 -0.4632319E-16 -0.8421558E-14 -0.1732028E-17 -0.3671070E-15
 763438. -0.4758517E-15 -0.9398698E-13 -0.1499508E-16 -0.2921666E-14 -0.4699093E-18 -0.1051011E-15
 725266. -0.1399387E-15 -0.2955658E-13 -0.4476859E-17 -0.9348803E-15 -0.1184576E-18 -0.2801458E-16
 687094. -0.3777728E-16 -0.8542311E-14 -0.1225010E-17 -0.2743775E-15 -0.2754342E-19 -0.6904408E-17
 648922. -0.9286954E-17 -0.2252096E-14 -0.3048373E-18 -0.7333407E-16 -0.5855468E-20 -0.1560131E-17
 610750. -0.2059051E-17 -0.5366928E-15 -0.6833365E-19 -0.1769176E-16 -0.1126371E-20 -0.3200077E-18
 572578. -0.4069372E-18 -0.1143295E-15 -0.1363992E-19 -0.3810569E-17 -0.1936149E-21 -0.5887137E-19
 534406. -0.7067336E-19 -0.2147656E-16 -0.2390262E-20 -0.7229434E-18 -0.2929166E-22 -0.9572955E-20
 496234. -0.1059816E-19 -0.3498089E-17 -0.3613570E-21 -0.1188112E-18 -0.3828237E-23 -0.1351564E-20
 458062. -0.1343274E-20 -0.4837444E-18 -0.4611580E-22 -0.1655374E-19 -0.4226839E-24 -0.1612510E-21
 419891.  0.0000000E+00  0.0000000E+00  0.0000000E+00  0.0000000E+00  0.0000000E+00  0.0000000E+00
 381719.  0.0000000E+00  0.0000000E+00  0.0000000E+00  0.0000000E+00  0.0000000E+00  0.0000000E+00
 343547.  0.0000000E+00  0.0000000E+00  0.0000000E+00  0.0000000E+00  0.0000000E+00  0.0000000E+00
 305375.  0.0000000E+00  0.0000000E+00  0.0000000E+00  0.0000000E+00  0.0000000E+00  0.0000000E+00
 267203.  0.0000000E+00  0.0000000E+00  0.0000000E+00  0.0000000E+00  0.0000000E+00  0.0000000E+00
 229031.  0.0000000E+00  0.0000000E+00  0.0000000E+00  0.0000000E+00  0.0000000E+00  0.0000000E+00
 190859.  0.0000000E+00  0.0000000E+00  0.0000000E+00  0.0000000E+00  0.0000000E+00  0.0000000E+00
 152688.  0.0000000E+00  0.0000000E+00  0.0000000E+00  0.0000000E+00  0.0000000E+00  0.0000000E+00
 114516.  0.0000000E+00  0.0000000E+00  0.0000000E+00  0.0000000E+00  0.0000000E+00  0.0000000E+00
  76344.  0.0000000E+00  0.0000000E+00  0.0000000E+00  0.0000000E+00  0.0000000E+00  0.0000000E+00
  38172.  0.0000000E+00  0.0000000E+00  0.0000000E+00  0.0000000E+00  0.0000000E+00  0.0000000E+00
      0.  0.0000000E+00  0.0000000E+00  0.0000000E+00  0.0000000E+00  0.0000000E+00  0.0000000E+00
