       0       16 S       15        407.24890          5.95722          4.40129        279.17889      185    7
6371000.  0.2466354E+00 -0.1412943E+01 -0.1138799E-01 -0.2580234E+00 -0.1233274E-01 -0.2554401E+00
6370000.  0.2468559E+00 -0.1397303E+01 -0.1134744E-01 -0.2586788E+00 -0.1229273E-01 -0.2543490E+00
6369000.  0.2470740E+00 -0.1381632E+01 -0.1130678E-01 -0.2593280E+00 -0.1225289E-01 -0.2532573E+00
6368000.  0.2472897E+00 -0.1365931E+01 -0.1126603E-01 -0.2599711E+00 -0.1221322E-01 -0.2521652E+00
6368000.  0.2472897E+00 -0.1365931E+01 -0.1126603E-01 -0.2599711E+00 -0.1221322E-01 -0.2521652E+00
6367000.  0.2475028E+00 -0.1350200E+01 -0.1122517E-01 -0.2606079E+00 -0.1217373E-01 -0.2510726E+00
6366000.  0.2477135E+00 -0.1334439E+01 -0.1118422E-01 -0.2612385E+00 -0.1213441E-01 -0.2499796E+00
6365000.  0.2479217E+00 -0.1318649E+01 -0.1114317E-01 -0.2618628E+00 -0.1209526E-01 -0.2488861E+00
6364000.  0.2481275E+00 -0.1302830E+01 -0.1110201E-01 -0.2624809E+00 -0.1205628E-01 -0.2477922E+00
6363000.  0.2483307E+00 -0.1286981E+01 -0.1106077E-01 -0.2630927E+00 -0.1201747E-01 -0.2466977E+00
6362000.  0.2485315E+00 -0.1271104E+01 -0.1101942E-01 -0.2636983E+00 -0.1197883E-01 -0.2456028E+00
6361000.  0.2487298E+00 -0.1255199E+01 -0.1097799E-01 -0.2642975E+00 -0.1194037E-01 -0.2445073E+00
6360000.  0.2489255E+00 -0.1239265E+01 -0.1093646E-01 -0.2648905E+00 -0.1190208E-01 -0.2434114E+00
6359000.  0.2491188E+00 -0.1223303E+01 -0.1089483E-01 -0.2654772E+00 -0.1186396E-01 -0.2423150E+00
6358000.  0.2493095E+00 -0.1207314E+01 -0.1085312E-01 -0.2660575E+00 -0.1182601E-01 -0.2412181E+00
6357000.  0.2494978E+00 -0.1191297E+01 -0.1081131E-01 -0.2666315E+00 -0.1178823E-01 -0.2401206E+00
6356000.  0.2496835E+00 -0.1175253E+01 -0.1076942E-01 -0.2671991E+00 -0.1175063E-01 -0.2390227E+00
6356000.  0.2496835E+00 -0.1068321E+01 -0.1076942E-01 -0.2647686E+00 -0.1175063E-01 -0.2933509E+00
6355000.  0.2498502E+00 -0.1056225E+01 -0.1072786E-01 -0.2647832E+00 -0.1170468E-01 -0.2921577E+00
6354000.  0.2500151E+00 -0.1044121E+01 -0.1068629E-01 -0.2647948E+00 -0.1165891E-01 -0.2909654E+00
6353000.  0.2501780E+00 -0.1032010E+01 -0.1064473E-01 -0.2648033E+00 -0.1161334E-01 -0.2897740E+00
6352000.  0.2503391E+00 -0.1019893E+01 -0.1060317E-01 -0.2648087E+00 -0.1156795E-01 -0.2885835E+00
6351000.  0.2504982E+00 -0.1007768E+01 -0.1056160E-01 -0.2648110E+00 -0.1152274E-01 -0.2873939E+00
6350000.  0.2506554E+00 -0.9956374E+00 -0.1052004E-01 -0.2648103E+00 -0.1147773E-01 -0.2862052E+00
6349000.  0.2508107E+00 -0.9834999E+00 -0.1047847E-01 -0.2648065E+00 -0.1143290E-01 -0.2850173E+00
6348000.  0.2509642E+00 -0.9713562E+00 -0.1043691E-01 -0.2647996E+00 -0.1138825E-01 -0.2838303E+00
6347000.  0.2511157E+00 -0.9592061E+00 -0.1039535E-01 -0.2647896E+00 -0.1134380E-01 -0.2826442E+00
6346600.  0.2511757E+00 -0.9543443E+00 -0.1037872E-01 -0.2647848E+00 -0.1132607E-01 -0.2821700E+00
6346600.  0.2511757E+00 -0.1215270E+01 -0.1037872E-01 -0.2640620E+00 -0.1132607E-01 -0.3697513E+00
6318800.  0.2558747E+00 -0.9384851E+00 -0.9248246E-02 -0.2539476E+00 -0.9784711E-02 -0.3369838E+00
6291000.  0.2593670E+00 -0.6624391E+00 -0.8163765E-02 -0.2429698E+00 -0.8383051E-02 -0.3056893E+00
6291000.  0.2593670E+00 -0.6986421E+00 -0.8163765E-02 -0.2417526E+00 -0.8383051E-02 -0.3056893E+00
6263000.  0.2618150E+00 -0.4158050E+00 -0.7126340E-02 -0.2301609E+00 -0.7105656E-02 -0.2758018E+00
6235000.  0.2630266E+00 -0.1363151E+00 -0.6142392E-02 -0.2174084E+00 -0.5957320E-02 -0.2469248E+00
6207000.  0.2630206E+00  0.1380220E+00 -0.5217118E-02 -0.2034540E+00 -0.4934035E-02 -0.2188628E+00
6179000.  0.2618237E+00  0.4053253E+00 -0.4355875E-02 -0.1882653E+00 -0.4032645E-02 -0.1914212E+00
6151000.  0.2594711E+00  0.6636190E+00 -0.3564140E-02 -0.1718196E+00 -0.3250842E-02 -0.1644112E+00
6151000.  0.2594711E+00  0.4125544E+00 -0.3564140E-02 -0.1844077E+00 -0.3250842E-02 -0.1787665E+00
6128500.  0.2577391E+00  0.5666609E+00 -0.2934764E-02 -0.1719531E+00 -0.2648656E-02 -0.1623567E+00
6106000.  0.2554797E+00  0.7111729E+00 -0.2350010E-02 -0.1591435E+00 -0.2103410E-02 -0.1465118E+00
6083500.  0.2527275E+00  0.8457092E+00 -0.1811069E-02 -0.1460144E+00 -0.1613211E-02 -0.1311728E+00
6061000.  0.2495184E+00  0.9699192E+00 -0.1319010E-02 -0.1325990E+00 -0.1176371E-02 -0.1162855E+00
6038500.  0.2458893E+00  0.1083488E+01 -0.8747911E-03 -0.1189264E+00 -0.7913971E-03 -0.1017892E+00
6016000.  0.2418783E+00  0.1186111E+01 -0.4792751E-03 -0.1050222E+00 -0.4570207E-03 -0.8762200E-01
5993500.  0.2375247E+00  0.1277501E+01 -0.1332372E-03 -0.9090969E-01 -0.1721805E-03 -0.7372585E-01
5971000.  0.2328686E+00  0.1357408E+01  0.1626195E-03 -0.7660672E-01  0.6396374E-04 -0.6003380E-01
5971000.  0.2328686E+00  0.1213530E+01  0.1626195E-03 -0.9552106E-01  0.6396374E-04 -0.9051827E-01
5937667.  0.2263189E+00  0.1286889E+01  0.6272939E-03 -0.8222599E-01  0.4985564E-03 -0.7580137E-01
5904333.  0.2194352E+00  0.1341371E+01  0.1024362E-02 -0.6968769E-01  0.8590976E-03 -0.6219659E-01
5871000.  0.2123126E+00  0.1378586E+01  0.1357966E-02 -0.5797976E-01  0.1151221E-02 -0.4964093E-01
5837667.  0.2050369E+00  0.1400136E+01  0.1632586E-02 -0.4714543E-01  0.1380252E-02 -0.3806727E-01
5804333.  0.1976858E+00  0.1407595E+01  0.1852856E-02 -0.3720289E-01  0.1551142E-02 -0.2740103E-01
5771000.  0.1903295E+00  0.1402455E+01  0.2023442E-02 -0.2815413E-01  0.1668441E-02 -0.1757137E-01
5771000.  0.1903295E+00  0.1402483E+01  0.2023442E-02 -0.2815999E-01  0.1668441E-02 -0.1757137E-01
5701000.  0.1746963E+00  0.1430435E+01  0.2163876E-02  0.2467685E-02  0.1700534E-02  0.1158411E-01
5701000.  0.1746963E+00  0.1194040E+01  0.2163876E-02 -0.3888438E-01  0.1700534E-02 -0.3765648E-01
5667333.  0.1683588E+00  0.1202986E+01  0.2354544E-02 -0.3344970E-01  0.1875729E-02 -0.2884366E-01
5633667.  0.1619955E+00  0.1204117E+01  0.2519173E-02 -0.2902626E-01  0.2007389E-02 -0.2117595E-01
5600000.  0.1556435E+00  0.1198882E+01  0.2663041E-02 -0.2558568E-01  0.2101489E-02 -0.1462223E-01
5600000.  0.1556435E+00  0.1198897E+01  0.2663041E-02 -0.2557855E-01  0.2101489E-02 -0.1462223E-01
5563518.  0.1487708E+00  0.1200375E+01  0.2790103E-02 -0.1892396E-01  0.2167552E-02 -0.8613164E-02
5527037.  0.1419093E+00  0.1195184E+01  0.2881138E-02 -0.1298812E-01  0.2201880E-02 -0.3520503E-02
5490556.  0.1350948E+00  0.1184071E+01  0.2940126E-02 -0.7722347E-02  0.2209422E-02  0.7592800E-03
5454074.  0.1283590E+00  0.1167739E+01  0.2970767E-02 -0.3079707E-02  0.2194552E-02  0.4321980E-02
5417593.  0.1217303E+00  0.1146844E+01  0.2976503E-02  0.9839297E-03  0.2161135E-02  0.7251068E-02
5381111.  0.1152326E+00  0.1122002E+01  0.2960519E-02  0.4513497E-02  0.2112571E-02  0.9624272E-02
5344630.  0.1088873E+00  0.1093790E+01  0.2925754E-02  0.7550871E-02  0.2051843E-02  0.1151121E-01
5308148.  0.1027117E+00  0.1062744E+01  0.2874903E-02  0.1013807E-01  0.1981548E-02  0.1297499E-01
5271667.  0.9672104E-01  0.1029353E+01  0.2810437E-02  0.1231290E-01  0.1903951E-02  0.1407122E-01
5235185.  0.9092699E-01  0.9940695E+00  0.2734608E-02  0.1411276E-01  0.1821004E-02  0.1485069E-01
5198704.  0.8533955E-01  0.9573122E+00  0.2649463E-02  0.1557294E-01  0.1734395E-02  0.1535796E-01
5162222.  0.7996574E-01  0.9194582E+00  0.2556846E-02  0.1672684E-01  0.1645559E-02  0.1563421E-01
5125741.  0.7481115E-01  0.8808516E+00  0.2458426E-02  0.1760565E-01  0.1555722E-02  0.1571418E-01
5089259.  0.6987888E-01  0.8418015E+00  0.2355689E-02  0.1823885E-01  0.1465907E-02  0.1563047E-01
5052778.  0.6517095E-01  0.8025876E+00  0.2249966E-02  0.1865402E-01  0.1376976E-02  0.1541078E-01
5016296.  0.6068732E-01  0.7634553E+00  0.2142425E-02  0.1887662E-01  0.1289629E-02  0.1508012E-01
4979815.  0.5642711E-01  0.7246256E+00  0.2034107E-02  0.1893043E-01  0.1204443E-02  0.1466038E-01
4943333.  0.5238780E-01  0.6862879E+00  0.1925908E-02  0.1883717E-01  0.1121869E-02  0.1416997E-01
4906852.  0.4856631E-01  0.6486131E+00  0.1818618E-02  0.1861745E-01  0.1042265E-02  0.1362639E-01
4870370.  0.4495820E-01  0.6117423E+00  0.1712900E-02  0.1828990E-01  0.9658897E-03  0.1304351E-01
4833889.  0.4155872E-01  0.5757974E+00  0.1609331E-02  0.1787090E-01  0.8929376E-03  0.1243357E-01
4797407.  0.3836207E-01  0.5408810E+00  0.1508381E-02  0.1737652E-01  0.8235258E-03  0.1180798E-01
4760926.  0.3536229E-01  0.5070775E+00  0.1410446E-02  0.1682075E-01  0.7577218E-03  0.1117542E-01
4724444.  0.3255265E-01  0.4744497E+00  0.1315837E-02  0.1621594E-01  0.6955393E-03  0.1054371E-01
4687963.  0.2992642E-01  0.4430507E+00  0.1224807E-02  0.1557366E-01  0.6369572E-03  0.9919442E-02
4651482.  0.2747638E-01  0.4129157E+00  0.1137537E-02  0.1490399E-01  0.5819157E-03  0.9307883E-02
4615000.  0.2519516E-01  0.3840673E+00  0.1054156E-02  0.1421600E-01  0.5303272E-03  0.8713574E-02
4578518.  0.2307541E-01  0.3565177E+00  0.9747485E-03  0.1351756E-01  0.4820839E-03  0.8140039E-02
4542037.  0.2110974E-01  0.3302690E+00  0.8993552E-03  0.1281563E-01  0.4370588E-03  0.7590426E-02
4505556.  0.1929067E-01  0.3053128E+00  0.8279764E-03  0.1211631E-01  0.3951071E-03  0.7066903E-02
4469074.  0.1761079E-01  0.2816321E+00  0.7605804E-03  0.1142467E-01  0.3560730E-03  0.6571271E-02
4432593.  0.1606295E-01  0.2592051E+00  0.6971139E-03  0.1074515E-01  0.3197950E-03  0.6104770E-02
4396111.  0.1463997E-01  0.2380010E+00  0.6374933E-03  0.1008134E-01  0.2861019E-03  0.5668256E-02
4359630.  0.1333502E-01  0.2179866E+00  0.5816231E-03  0.9436251E-02  0.2548210E-03  0.5262643E-02
4323148.  0.1214134E-01  0.1991213E+00  0.5293865E-03  0.8812016E-02  0.2257732E-03  0.4888038E-02
4286667.  0.1105252E-01  0.1813642E+00  0.4806612E-03  0.8210561E-02  0.1987813E-03  0.4544878E-02
4250185.  0.1006229E-01  0.1646684E+00  0.4353111E-03  0.7632844E-02  0.1736639E-03  0.4233090E-02
4213704.  0.9164753E-02  0.1489879E+00  0.3932005E-03  0.7079555E-02  0.1502425E-03  0.3952696E-02
4177222.  0.8354196E-02  0.1342731E+00  0.3541872E-03  0.6550616E-02  0.1283364E-03  0.3703644E-02
4140741.  0.7625269E-02  0.1204764E+00  0.3181347E-03  0.6045653E-02  0.1077675E-03  0.3485823E-02
4104259.  0.6972812E-02  0.1075490E+00  0.2849065E-03  0.5563612E-02  0.8835588E-04  0.3299244E-02
4067778.  0.6392017E-02  0.9544496E-01  0.2543776E-03  0.5102852E-02  0.6992398E-04  0.3143814E-02
4031296.  0.5878265E-02  0.8412005E-01  0.2264305E-03  0.4661156E-02  0.5229214E-04  0.3019650E-02
3994815.  0.5427239E-02  0.7353521E-01  0.2009656E-03  0.4235578E-02  0.3528197E-04  0.2926870E-02
3958333.  0.5034775E-02  0.6365610E-01  0.1778996E-03  0.3822355E-02  0.1871230E-04  0.2865693E-02
3921852.  0.4696934E-02  0.5445706E-01  0.1571760E-03  0.3416736E-02  0.2401963E-05  0.2836512E-02
3885370.  0.4409854E-02  0.4592187E-01  0.1387667E-03  0.3012787E-02 -0.1383429E-04  0.2839741E-02
3848889.  0.4169761E-02  0.3804893E-01  0.1226830E-03  0.2603254E-02 -0.3018262E-04  0.2875899E-02
3812407.  0.3972818E-02  0.3085316E-01  0.1089814E-03  0.2178972E-02 -0.4683399E-04  0.2945517E-02
3775926.  0.3815058E-02  0.2437332E-01  0.9777823E-04  0.1728616E-02 -0.6398059E-04  0.3049116E-02
3739444.  0.3692195E-02  0.1867742E-01  0.8926119E-04  0.1238076E-02 -0.8181924E-04  0.3187112E-02
3702963.  0.3599462E-02  0.1387273E-01  0.8370938E-04  0.6897256E-03 -0.1005464E-03  0.3359621E-02
3666482.  0.3531328E-02  0.1011629E-01  0.8151455E-04  0.6143654E-04 -0.1203597E-03  0.3566382E-02
3630000.  0.3481188E-02  0.7630617E-02  0.8321117E-04 -0.6746448E-03 -0.1414533E-03  0.3806319E-02
3630000.  0.3481188E-02  0.7630505E-02  0.8321117E-04 -0.6747030E-03 -0.1414533E-03  0.3806319E-02
3592500.  0.3440019E-02  0.6659685E-02  0.8969235E-04 -0.1556951E-02 -0.1646627E-03  0.4085023E-02
3555000.  0.3398752E-02  0.7752941E-02  0.1019371E-03 -0.2642178E-02 -0.1895980E-03  0.4391879E-02
3517500.  0.3343493E-02  0.1153424E-01  0.1213151E-03 -0.3992367E-02 -0.2164070E-03  0.4720358E-02
3480000.  0.3256073E-02  0.1884168E-01  0.1496103E-03 -0.5687147E-02 -0.2451891E-03  0.5060236E-02
3480000.  0.3256073E-02  0.8189436E-01  0.2173254E-03  0.5560013E-02 -0.2451891E-03 -0.5182028E-02
3409422.  0.2454792E-02  0.6345395E-01  0.1630923E-03  0.4280761E-02 -0.1924833E-03 -0.4338354E-02
3338844.  0.1836314E-02  0.4877314E-01  0.1214853E-03  0.3271377E-02 -0.1488644E-03 -0.3548982E-02
3268266.  0.1362757E-02  0.3718697E-01  0.8980337E-04  0.2481128E-02 -0.1135298E-03 -0.2846203E-02
3197688.  0.1003100E-02  0.2812171E-01  0.6586297E-04  0.1867244E-02 -0.8543563E-04 -0.2242742E-02
3127109.  0.7321904E-03  0.2108958E-01  0.4791344E-04  0.1394117E-02 -0.6347006E-04 -0.1739044E-02
3056531.  0.5298460E-03  0.1568168E-01  0.3456386E-04  0.1032405E-02 -0.4656099E-04 -0.1328390E-02
2985953.  0.3800089E-03  0.1155891E-01  0.2471718E-04  0.7581202E-03 -0.3373309E-04 -0.1000323E-02
2915375.  0.2700328E-03  0.8443607E-02  0.1751619E-04  0.5518687E-03 -0.2413677E-04 -0.7429507E-03
2844797.  0.1900482E-03  0.6110793E-02  0.1229652E-04  0.3981098E-03 -0.1705522E-04 -0.5443826E-03
2774219.  0.1324233E-03  0.4380058E-02  0.8547719E-05  0.2845013E-03 -0.1189922E-04 -0.3935732E-03
2703641.  0.9131274E-04  0.3108216E-02  0.5880981E-05  0.2013287E-03 -0.8195114E-05 -0.2807495E-03
2633062.  0.6228113E-04  0.2182773E-02  0.4002840E-05  0.1410183E-03 -0.5569596E-05 -0.1975723E-03
2562484.  0.4199706E-04  0.1516263E-02  0.2693891E-05  0.9772176E-04 -0.3733848E-05 -0.1371361E-03
2491906.  0.2798136E-04  0.1041319E-02  0.1791558E-05  0.6696076E-04 -0.2468005E-05 -0.9385437E-04
2421328.  0.1840922E-04  0.7066276E-03  0.1176647E-05  0.4534300E-04 -0.1607507E-05 -0.6330715E-04
2350750.  0.1195146E-04  0.4735044E-03  0.7626506E-06  0.3032398E-04 -0.1031108E-05 -0.4206549E-04
2280172.  0.7650646E-05  0.3131007E-03  0.4874594E-06  0.2001445E-04 -0.6508645E-06 -0.2751789E-04
2209594.  0.4825113E-05  0.2041456E-03  0.3069888E-06  0.1302710E-04 -0.4039824E-06 -0.1771000E-04
2139016.  0.2995383E-05  0.1311372E-03  0.1903173E-06  0.8354657E-05 -0.2463355E-06 -0.1120446E-04
2068438.  0.1828498E-05  0.8291578E-04  0.1160288E-06  0.5274464E-05 -0.1474158E-06 -0.6962060E-05
1997859.  0.1096339E-05  0.5154910E-04  0.6948550E-07  0.3274479E-05 -0.8648019E-07 -0.4244341E-05
1927281.  0.6448685E-06  0.3147627E-04  0.4082521E-07  0.1996742E-05 -0.4967043E-07 -0.2535773E-05
1856703.  0.3715938E-06  0.1885225E-04  0.2349975E-07  0.1194413E-05 -0.2789094E-07 -0.1482739E-05
1786125.  0.2094421E-06  0.1105954E-04  0.1323200E-07  0.6998626E-06 -0.1528669E-07 -0.8472832E-06
1715547.  0.1152657E-06  0.6344627E-05  0.7275480E-08  0.4010406E-06 -0.8163187E-08 -0.4723599E-06
1644969.  0.6181784E-07  0.3552985E-05  0.3898807E-08  0.2243231E-06 -0.4238480E-08 -0.2564291E-06
1574391.  0.3223194E-07  0.1938502E-05  0.2031992E-08  0.1222105E-06 -0.2134781E-08 -0.1352590E-06
1503812.  0.1628758E-07  0.1028747E-05  0.1027957E-08  0.6465024E-07 -0.1040251E-08 -0.6914766E-07
1433234.  0.7929447E-08  0.5315397E-06  0.5047628E-09  0.3300550E-07 -0.4889782E-09 -0.3416194E-07
1362656.  0.3642955E-08  0.2718461E-06  0.2435423E-09  0.1589460E-07 -0.2210196E-09 -0.1625395E-07
1292078.  0.1396255E-08  0.1521951E-06  0.1252082E-09  0.6267928E-08 -0.9577526E-10 -0.7420646E-08
1221500. -0.1002882E-09  0.1354240E-06  0.9591936E-10 -0.1022661E-08 -0.3959645E-10 -0.3262505E-08
1221500. -0.1002882E-09 -0.3814103E-09  0.1902761E-12  0.5240676E-09 -0.3959645E-10 -0.3219059E-08
1183328. -0.8999849E-10 -0.2654566E-08 -0.1770012E-11  0.1711479E-09 -0.2412967E-10 -0.2028393E-08
1145156. -0.7190513E-10 -0.3190154E-08 -0.2231545E-11  0.5788731E-11 -0.1445612E-10 -0.1257338E-08
1106984.  0.0000000E+00  0.0000000E+00  0.0000000E+00  0.0000000E+00  0.0000000E+00  0.0000000E+00
1068812.  0.0000000E+00  0.0000000E+00  0.0000000E+00  0.0000000E+00  0.0000000E+00  0.0000000E+00
1030641.  0.0000000E+00  0.0000000E+00  0.0000000E+00  0.0000000E+00  0.0000000E+00  0.0000000E+00
 992469.  0.0000000E+00  0.0000000E+00  0.0000000E+00  0.0000000E+00  0.0000000E+00  0.0000000E+00
 954297.  0.0000000E+00  0.0000000E+00  0.0000000E+00  0.0000000E+00  0.0000000E+00  0.0000000E+00
 916125.  0.0000000E+00  0.0000000E+00  0.0000000E+00  0.0000000E+00  0.0000000E+00  0.0000000E+00
 877953.  0.0000000E+00  0.0000000E+00  0.0000000E+00  0.0000000E+00  0.0000000E+00  0.0000000E+00
 839781.  0.0000000E+00  0.0000000E+00  0.0000000E+00  0.0000000E+00  0.0000000E+00  0.0000000E+00
 801609.  0.0000000E+00  0.0000000E+00  0.0000000E+00  0.0000000E+00  0.0000000E+00  0.0000000E+00
 763438.  0.0000000E+00  0.0000000E+00  0.0000000E+00  0.0000000E+00  0.0000000E+00  0.0000000E+00
 725266.  0.0000000E+00  0.0000000E+00  0.0000000E+00  0.0000000E+00  0.0000000E+00  0.0000000E+00
 687094.  0.0000000E+00  0.0000000E+00  0.0000000E+00  0.0000000E+00  0.0000000E+00  0.0000000E+00
 648922.  0.0000000E+00  0.0000000E+00  0.0000000E+00  0.0000000E+00  0.0000000E+00  0.0000000E+00
 610750.  0.0000000E+00  0.0000000E+00  0.0000000E+00  0.0000000E+00  0.0000000E+00  0.0000000E+00
 572578.  0.0000000E+00  0.0000000E+00  0.0000000E+00  0.0000000E+00  0.0000000E+00  0.0000000E+00
 534406.  0.0000000E+00  0.0000000E+00  0.0000000E+00  0.0000000E+00  0.0000000E+00  0.0000000E+00
 496234.  0.0000000E+00  0.0000000E+00  0.0000000E+00  0.0000000E+00  0.0000000E+00  0.0000000E+00
 458062.  0.0000000E+00  0.0000000E+00  0.0000000E+00  0.0000000E+00  0.0000000E+00  0.0000000E+00
 419891.  0.0000000E+00  0.0000000E+00  0.0000000E+00  0.0000000E+00  0.0000000E+00  0.0000000E+00
 381719.  0.0000000E+00  0.0000000E+00  0.0000000E+00  0.0000000E+00  0.0000000E+00  0.0000000E+00
 343547.  0.0000000E+00  0.0000000E+00  0.0000000E+00  0.0000000E+00  0.0000000E+00  0.0000000E+00
 305375.  0.0000000E+00  0.0000000E+00  0.0000000E+00  0.0000000E+00  0.0000000E+00  0.0000000E+00
 267203.  0.0000000E+00  0.0000000E+00  0.0000000E+00  0.0000000E+00  0.0000000E+00  0.0000000E+00
 229031.  0.0000000E+00  0.0000000E+00  0.0000000E+00  0.0000000E+00  0.0000000E+00  0.0000000E+00
 190859.  0.0000000E+00  0.0000000E+00  0.0000000E+00  0.0000000E+00  0.0000000E+00  0.0000000E+00
 152688.  0.0000000E+00  0.0000000E+00  0.0000000E+00  0.0000000E+00  0.0000000E+00  0.0000000E+00
 114516.  0.0000000E+00  0.0000000E+00  0.0000000E+00  0.0000000E+00  0.0000000E+00  0.0000000E+00
  76344.  0.0000000E+00  0.0000000E+00  0.0000000E+00  0.0000000E+00  0.0000000E+00  0.0000000E+00
  38172.  0.0000000E+00  0.0000000E+00  0.0000000E+00  0.0000000E+00  0.0000000E+00  0.0000000E+00
      0.  0.0000000E+00  0.0000000E+00  0.0000000E+00  0.0000000E+00  0.0000000E+00  0.0000000E+00
