       0       20 S       19        347.87311          5.61323          4.00052        240.93671      185    7
6371000.  0.2408835E+00 -0.1577545E+01 -0.8399916E-02 -0.2492834E+00 -0.9890996E-02 -0.2465390E+00
6370000.  0.2411294E+00 -0.1555995E+01 -0.8360747E-02 -0.2497924E+00 -0.9852400E-02 -0.2452445E+00
6369000.  0.2413720E+00 -0.1534406E+01 -0.8321500E-02 -0.2502939E+00 -0.9814008E-02 -0.2439501E+00
6368000.  0.2416111E+00 -0.1512778E+01 -0.8282175E-02 -0.2507877E+00 -0.9775818E-02 -0.2426558E+00
6368000.  0.2416111E+00 -0.1512778E+01 -0.8282175E-02 -0.2507877E+00 -0.9775818E-02 -0.2426558E+00
6367000.  0.2418468E+00 -0.1491112E+01 -0.8242773E-02 -0.2512740E+00 -0.9737832E-02 -0.2413615E+00
6366000.  0.2420792E+00 -0.1469409E+01 -0.8203295E-02 -0.2517526E+00 -0.9700050E-02 -0.2400674E+00
6365000.  0.2423081E+00 -0.1447669E+01 -0.8163743E-02 -0.2522236E+00 -0.9662470E-02 -0.2387733E+00
6364000.  0.2425337E+00 -0.1425892E+01 -0.8124117E-02 -0.2526869E+00 -0.9625094E-02 -0.2374792E+00
6363000.  0.2427557E+00 -0.1404080E+01 -0.8084419E-02 -0.2531426E+00 -0.9587920E-02 -0.2361852E+00
6362000.  0.2429744E+00 -0.1382231E+01 -0.8044650E-02 -0.2535906E+00 -0.9550950E-02 -0.2348912E+00
6361000.  0.2431897E+00 -0.1360348E+01 -0.8004812E-02 -0.2540309E+00 -0.9514183E-02 -0.2335972E+00
6360000.  0.2434015E+00 -0.1338430E+01 -0.7964904E-02 -0.2544636E+00 -0.9477618E-02 -0.2323032E+00
6359000.  0.2436098E+00 -0.1316479E+01 -0.7924929E-02 -0.2548885E+00 -0.9441257E-02 -0.2310092E+00
6358000.  0.2438147E+00 -0.1294493E+01 -0.7884890E-02 -0.2553057E+00 -0.9405100E-02 -0.2297153E+00
6357000.  0.2440162E+00 -0.1272475E+01 -0.7844784E-02 -0.2557153E+00 -0.9369144E-02 -0.2284213E+00
6356000.  0.2442142E+00 -0.1250424E+01 -0.7804615E-02 -0.2561170E+00 -0.9333393E-02 -0.2271272E+00
6356000.  0.2442142E+00 -0.1146986E+01 -0.7804615E-02 -0.2547282E+00 -0.9333393E-02 -0.2802654E+00
6355000.  0.2443929E+00 -0.1130217E+01 -0.7764643E-02 -0.2545927E+00 -0.9289511E-02 -0.2788687E+00
6354000.  0.2445690E+00 -0.1113444E+01 -0.7724693E-02 -0.2544537E+00 -0.9245849E-02 -0.2774739E+00
6353000.  0.2447424E+00 -0.1096669E+01 -0.7684765E-02 -0.2543114E+00 -0.9202406E-02 -0.2760812E+00
6352000.  0.2449133E+00 -0.1079891E+01 -0.7644859E-02 -0.2541656E+00 -0.9159181E-02 -0.2746904E+00
6351000.  0.2450814E+00 -0.1063111E+01 -0.7604976E-02 -0.2540166E+00 -0.9116175E-02 -0.2733015E+00
6350000.  0.2452470E+00 -0.1046328E+01 -0.7565118E-02 -0.2538642E+00 -0.9073386E-02 -0.2719146E+00
6349000.  0.2454099E+00 -0.1029543E+01 -0.7525283E-02 -0.2537084E+00 -0.9030814E-02 -0.2705296E+00
6348000.  0.2455702E+00 -0.1012757E+01 -0.7485474E-02 -0.2535492E+00 -0.8988461E-02 -0.2691465E+00
6347000.  0.2457278E+00 -0.9959689E+00 -0.7445688E-02 -0.2533867E+00 -0.8946323E-02 -0.2677653E+00
6346600.  0.2457902E+00 -0.9892533E+00 -0.7429782E-02 -0.2533207E+00 -0.8929529E-02 -0.2672134E+00
6346600.  0.2457902E+00 -0.1290771E+01 -0.7429782E-02 -0.2536042E+00 -0.8929529E-02 -0.3529168E+00
6318800.  0.2505721E+00 -0.9021822E+00 -0.6353882E-02 -0.2394378E+00 -0.7472456E-02 -0.3153772E+00
6291000.  0.2536752E+00 -0.5216457E+00 -0.5341067E-02 -0.2246741E+00 -0.6173540E-02 -0.2803672E+00
6291000.  0.2536752E+00 -0.5546153E+00 -0.5341067E-02 -0.2230810E+00 -0.6173540E-02 -0.2803672E+00
6263000.  0.2552694E+00 -0.1727377E+00 -0.4394074E-02 -0.2077075E+00 -0.5014050E-02 -0.2476041E+00
6235000.  0.2552117E+00  0.1966308E+00 -0.3516823E-02 -0.1913316E+00 -0.3994566E-02 -0.2165998E+00
6207000.  0.2535634E+00  0.5506806E+00 -0.2713867E-02 -0.1738882E+00 -0.3108075E-02 -0.1870293E+00
6179000.  0.2503981E+00  0.8864819E+00 -0.1990018E-02 -0.1553242E+00 -0.2348976E-02 -0.1585750E+00
6151000.  0.2458026E+00  0.1200969E+01 -0.1350294E-02 -0.1355996E+00 -0.1713043E-02 -0.1309289E+00
6151000.  0.2458026E+00  0.8802525E+00 -0.1350294E-02 -0.1505981E+00 -0.1713043E-02 -0.1445280E+00
6128500.  0.2423603E+00  0.1066447E+01 -0.8429377E-03 -0.1366968E+00 -0.1231531E-02 -0.1283035E+00
6106000.  0.2382892E+00  0.1236302E+01 -0.3849413E-03 -0.1226498E+00 -0.8058304E-03 -0.1129048E+00
6083500.  0.2336477E+00  0.1389463E+01  0.2322993E-04 -0.1084844E+00 -0.4332007E-03 -0.9823281E-01
6061000.  0.2284952E+00  0.1525615E+01  0.3812004E-03 -0.9422387E-01 -0.1112409E-03 -0.8419397E-01
6038500.  0.2228924E+00  0.1644487E+01  0.6886658E-03 -0.7988505E-01  0.1621119E-03 -0.7068934E-01
6016000.  0.2169006E+00  0.1745821E+01  0.9453706E-03 -0.6547908E-01  0.3885672E-03 -0.5761928E-01
5993500.  0.2105823E+00  0.1829370E+01  0.1151091E-02 -0.5101272E-01  0.5694909E-03 -0.4488749E-01
5971000.  0.2040007E+00  0.1894915E+01  0.1305615E-02 -0.3648492E-01  0.7058938E-03 -0.3238916E-01
5971000.  0.2040007E+00  0.1719000E+01  0.1305615E-02 -0.5629167E-01  0.7058938E-03 -0.5909457E-01
5937667.  0.1948767E+00  0.1764317E+01  0.1567211E-02 -0.4389050E-01  0.9809006E-03 -0.4625993E-01
5904333.  0.1855819E+00  0.1784697E+01  0.1766823E-02 -0.3259759E-01  0.1192251E-02 -0.3473738E-01
5871000.  0.1762396E+00  0.1783058E+01  0.1910257E-02 -0.2241604E-01  0.1346466E-02 -0.2440074E-01
5837667.  0.1669573E+00  0.1762175E+01  0.2003276E-02 -0.1331938E-01  0.1449427E-02 -0.1512325E-01
5804333.  0.1578287E+00  0.1724651E+01  0.2051437E-02 -0.5258250E-02  0.1506335E-02 -0.6774624E-02
5771000.  0.1489350E+00  0.1672862E+01  0.2059996E-02  0.1830133E-02  0.1521720E-02  0.7701660E-03
5771000.  0.1489350E+00  0.1672913E+01  0.2059996E-02  0.1824782E-02  0.1521720E-02  0.7701660E-03
5701000.  0.1308734E+00  0.1598685E+01  0.1900155E-02  0.2716133E-01  0.1388925E-02  0.2339429E-01
5701000.  0.1308734E+00  0.1348272E+01  0.1900155E-02 -0.9058333E-02  0.1388925E-02 -0.1349421E-01
5667333.  0.1238277E+00  0.1316981E+01  0.1938954E-02 -0.5789856E-02  0.1443872E-02 -0.7487421E-02
5633667.  0.1169646E+00  0.1279580E+01  0.1963014E-02 -0.3470650E-02  0.1469957E-02 -0.2560200E-02
5600000.  0.1103108E+00  0.1238060E+01  0.1977206E-02 -0.2046414E-02  0.1472728E-02  0.1344417E-02
5600000.  0.1103108E+00  0.1238082E+01  0.1977206E-02 -0.2040588E-02  0.1472728E-02  0.1344417E-02
5563518.  0.1033149E+00  0.1204463E+01  0.1977541E-02  0.1810667E-02  0.1455250E-02  0.4627994E-02
5527037.  0.9652659E-01  0.1165829E+01  0.1957699E-02  0.5018623E-02  0.1421123E-02  0.7179806E-02
5490556.  0.8997138E-01  0.1123214E+01  0.1921161E-02  0.7653591E-02  0.1374206E-02  0.9112827E-02
5454074.  0.8366917E-01  0.1077544E+01  0.1871018E-02  0.9780264E-02  0.1317749E-02  0.1052684E-01
5417593.  0.7763540E-01  0.1029640E+01  0.1810013E-02  0.1145738E-01  0.1254478E-02  0.1150653E-01
5381111.  0.7188042E-01  0.9802273E+00  0.1740556E-02  0.1274041E-01  0.1186658E-02  0.1212667E-01
5344630.  0.6641129E-01  0.9299472E+00  0.1664763E-02  0.1367929E-01  0.1116163E-02  0.1245164E-01
5308148.  0.6123107E-01  0.8793561E+00  0.1584464E-02  0.1432072E-01  0.1044515E-02  0.1253702E-01
5271667.  0.5634041E-01  0.8289316E+00  0.1501248E-02  0.1470567E-01  0.9729518E-03  0.1242994E-01
5235185.  0.5173688E-01  0.7790814E+00  0.1416467E-02  0.1487201E-01  0.9024524E-03  0.1217105E-01
5198704.  0.4741643E-01  0.7301548E+00  0.1331281E-02  0.1485383E-01  0.8337894E-03  0.1179450E-01
5162222.  0.4337269E-01  0.6824372E+00  0.1246650E-02  0.1468163E-01  0.7675455E-03  0.1132987E-01
5125741.  0.3959825E-01  0.6361659E+00  0.1163384E-02  0.1438258E-01  0.7041584E-03  0.1080103E-01
5089259.  0.3608406E-01  0.5915272E+00  0.1082132E-02  0.1398083E-01  0.6439311E-03  0.1022878E-01
5052778.  0.3282054E-01  0.5486698E+00  0.1003426E-02  0.1349781E-01  0.5870659E-03  0.9629802E-02
5016296.  0.2979698E-01  0.5076996E+00  0.9276707E-03  0.1295214E-01  0.5336717E-03  0.9018013E-02
4979815.  0.2700249E-01  0.4686947E+00  0.8551818E-03  0.1236021E-01  0.4837911E-03  0.8404707E-02
4943333.  0.2442555E-01  0.4316992E+00  0.7861790E-03  0.1173603E-01  0.4374047E-03  0.7798507E-02
4906852.  0.2205469E-01  0.3967376E+00  0.7208146E-03  0.1109201E-01  0.3944518E-03  0.7206915E-02
4870370.  0.1987814E-01  0.3638078E+00  0.6591677E-03  0.1043853E-01  0.3548309E-03  0.6635074E-02
4833889.  0.1788443E-01  0.3328915E+00  0.6012708E-03  0.9784114E-02  0.3184193E-03  0.6086966E-02
4797407.  0.1606201E-01  0.3039544E+00  0.5471040E-03  0.9136347E-02  0.2850694E-03  0.5565789E-02
4760926.  0.1439977E-01  0.2769502E+00  0.4966139E-03  0.8501281E-02  0.2546232E-03  0.5073298E-02
4724444.  0.1288673E-01  0.2518188E+00  0.4497113E-03  0.7883638E-02  0.2269113E-03  0.4610666E-02
4687963.  0.1151243E-01  0.2284953E+00  0.4062869E-03  0.7287414E-02  0.2017622E-03  0.4178433E-02
4651482.  0.1026668E-01  0.2069058E+00  0.3662079E-03  0.6715557E-02  0.1790012E-03  0.3776508E-02
4615000.  0.9139735E-02  0.1869716E+00  0.3293273E-03  0.6170283E-02  0.1584553E-03  0.3404472E-02
4578518.  0.8122396E-02  0.1686115E+00  0.2954891E-03  0.5653122E-02  0.1399560E-03  0.3061518E-02
4542037.  0.7205907E-02  0.1517418E+00  0.2645303E-03  0.5165037E-02  0.1233399E-03  0.2746715E-02
4505556.  0.6381951E-02  0.1362775E+00  0.2362817E-03  0.4706514E-02  0.1084488E-03  0.2458812E-02
4469074.  0.5642706E-02  0.1221327E+00  0.2105732E-03  0.4277565E-02  0.9513195E-04  0.2196494E-02
4432593.  0.4980895E-02  0.1092241E+00  0.1872376E-03  0.3877935E-02  0.8324766E-04  0.1958333E-02
4396111.  0.4389646E-02  0.9746771E-01  0.1661071E-03  0.3507011E-02  0.7266121E-04  0.1742851E-02
4359630.  0.3862623E-02  0.8678339E-01  0.1470207E-03  0.3164016E-02  0.6324721E-04  0.1548674E-02
4323148.  0.3393887E-02  0.7709164E-01  0.1298204E-03  0.2847891E-02  0.5488757E-04  0.1374274E-02
4286667.  0.2977997E-02  0.6831750E-01  0.1143564E-03  0.2557568E-02  0.4747334E-04  0.1218312E-02
4250185.  0.2609887E-02  0.6038747E-01  0.1004836E-03  0.2291743E-02  0.4090254E-04  0.1079394E-02
4213704.  0.2284943E-02  0.5323264E-01  0.8806623E-04  0.2049119E-02  0.3508163E-04  0.9562497E-03
4177222.  0.1998901E-02  0.4678648E-01  0.7697484E-04  0.1828273E-02  0.2992344E-04  0.8476755E-03
4140741.  0.1747897E-02  0.4098703E-01  0.6708929E-04  0.1627812E-02  0.2534810E-04  0.7525443E-03
4104259.  0.1528386E-02  0.3577517E-01  0.5829648E-04  0.1446276E-02  0.2128133E-04  0.6698410E-03
4067778.  0.1337174E-02  0.3109605E-01  0.5049272E-04  0.1282195E-02  0.1765496E-04  0.5986142E-03
4031296.  0.1171348E-02  0.2689817E-01  0.4358187E-04  0.1134085E-02  0.1440548E-04  0.5380367E-03
3994815.  0.1028300E-02  0.2313431E-01  0.3747715E-04  0.1000443E-02  0.1147427E-04  0.4873642E-03
3958333.  0.9056634E-03  0.1976084E-01  0.3209979E-04  0.8797252E-03  0.8806364E-05  0.4459463E-03
3921852.  0.8013233E-03  0.1673863E-01  0.2738061E-04  0.7703304E-03  0.6350499E-05  0.4132451E-03
3885370.  0.7133650E-03  0.1403274E-01  0.2325933E-04  0.6705617E-03  0.4057998E-05  0.3887951E-03
3848889.  0.6400695E-03  0.1161355E-01  0.1968617E-04  0.5786080E-03  0.1882849E-05  0.3722222E-03
3812407.  0.5798636E-03  0.9456719E-02  0.1662189E-04  0.4924272E-03 -0.2192633E-06  0.3632187E-03
3775926.  0.5313015E-03  0.7544845E-02  0.1404010E-04  0.4096977E-03 -0.2290833E-05  0.3615370E-03
3739444.  0.4930094E-03  0.5868475E-02  0.1192849E-04  0.3276855E-03 -0.4373277E-05  0.3669610E-03
3702963.  0.4636437E-03  0.4428523E-02  0.1029221E-04  0.2430857E-03 -0.6506537E-05  0.3792665E-03
3666482.  0.4418169E-03  0.3238872E-02  0.9157322E-05  0.1518004E-03 -0.8729342E-05  0.3981828E-03
3630000.  0.4260158E-03  0.2330604E-02  0.8576314E-05  0.4864936E-04 -0.1107852E-04  0.4232991E-03
3630000.  0.4260158E-03  0.2330581E-02  0.8576314E-05  0.4864076E-04 -0.1107852E-04  0.4232991E-03
3592500.  0.4142237E-03  0.1739388E-02  0.8636722E-05 -0.7319954E-04 -0.1366046E-04  0.4549152E-03
3555000.  0.4046943E-03  0.1580721E-02  0.9495392E-05 -0.2243788E-03 -0.1644324E-04  0.4913111E-03
3517500.  0.3944972E-03  0.1994203E-02  0.1135976E-04 -0.4172975E-03 -0.1945020E-04  0.5307221E-03
3480000.  0.3797026E-03  0.3183306E-02  0.1452195E-04 -0.6685534E-03 -0.2269149E-04  0.5703559E-03
3480000.  0.3797026E-03  0.1224622E-01  0.2015408E-04  0.6579442E-03 -0.2269149E-04 -0.6240322E-03
3409422.  0.2643712E-03  0.8753777E-02  0.1397384E-04  0.4677633E-03 -0.1657221E-04 -0.4840615E-03
3338844.  0.1823072E-03  0.6196738E-02  0.9599088E-05  0.3294908E-03 -0.1188547E-04 -0.3658982E-03
3268266.  0.1244835E-03  0.4343502E-02  0.6531146E-05  0.2299080E-03 -0.8381095E-05 -0.2704669E-03
3197688.  0.8414371E-04  0.3013990E-02  0.4400123E-05  0.1588734E-03 -0.5815572E-05 -0.1959649E-03
3127109.  0.5628575E-04  0.2069969E-02  0.2934341E-05  0.1086958E-03 -0.3973030E-05 -0.1393917E-03
3056531.  0.3724765E-04  0.1406662E-02  0.1936306E-05  0.7360509E-04 -0.2673198E-05 -0.9744407E-04
2985953.  0.2437562E-04  0.9455354E-03  0.1263800E-05  0.4931527E-04 -0.1771653E-05 -0.6699379E-04
2915375.  0.1576836E-04  0.6284484E-03  0.8155200E-06  0.3267856E-04 -0.1156547E-05 -0.4531634E-04
2844797.  0.1007839E-04  0.4128463E-03  0.5200384E-06  0.2140748E-04 -0.7435829E-06 -0.3016500E-04
2774219.  0.6361346E-05  0.2679393E-03  0.3275326E-06  0.1385747E-04 -0.4707339E-06 -0.1976025E-04
2703641.  0.3962956E-05  0.1717098E-03  0.2036318E-06  0.8859121E-05 -0.2933297E-06 -0.1273712E-04
2633062.  0.2435202E-05  0.1085975E-03  0.1248927E-06  0.5590289E-05 -0.1798382E-06 -0.8076585E-05
2562484.  0.1475071E-05  0.6774095E-04  0.7551656E-07  0.3479767E-05 -0.1084261E-06 -0.5036282E-05
2491906.  0.8801056E-06  0.4164787E-04  0.4498188E-07  0.2135190E-05 -0.6424564E-07 -0.3086815E-05
2421328.  0.5168378E-06  0.2521873E-04  0.2637391E-07  0.1290523E-05 -0.3738562E-07 -0.1858557E-05
2350750.  0.2984642E-06  0.1502757E-04  0.1520795E-07  0.7676825E-06 -0.2134855E-07 -0.1098516E-05
2280172.  0.1693295E-06  0.8804400E-05  0.8616031E-08  0.4490453E-06 -0.1195203E-07 -0.6368768E-06
2209594.  0.9427960E-07  0.5066719E-05  0.4790975E-08  0.2580231E-06 -0.6553613E-08 -0.3618473E-06
2139016.  0.5145690E-07  0.2860857E-05  0.2611646E-08  0.1454821E-06 -0.3515524E-08 -0.2012632E-06
2068438.  0.2749501E-07  0.1583012E-05  0.1393864E-08  0.8039277E-07 -0.1842526E-08 -0.1094614E-06
1997859.  0.1436243E-07  0.8572468E-06  0.7273099E-09  0.4348046E-07 -0.9421623E-09 -0.5813470E-07
1927281.  0.7323005E-08  0.4536523E-06  0.3704533E-09  0.2298263E-07 -0.4692870E-09 -0.3010559E-07
1856703.  0.3638081E-08  0.2342138E-06  0.1838631E-09  0.1185248E-07 -0.2272827E-09 -0.1517616E-07
1786125.  0.1757622E-08  0.1177517E-06  0.8874582E-10  0.5952733E-08 -0.1068143E-09 -0.7432890E-08
1715547.  0.8239434E-09  0.5752755E-07  0.4156520E-10  0.2905499E-08 -0.4859874E-10 -0.3529539E-08
1644969.  0.3738882E-09  0.2724471E-07  0.1884214E-10  0.1375108E-08 -0.2134805E-10 -0.1621308E-08
1574391.  0.1638462E-09  0.1246806E-07  0.8240148E-11  0.6296910E-09 -0.9017629E-11 -0.7192699E-09
1503812.  0.0000000E+00  0.0000000E+00  0.0000000E+00  0.0000000E+00  0.0000000E+00  0.0000000E+00
1433234.  0.0000000E+00  0.0000000E+00  0.0000000E+00  0.0000000E+00  0.0000000E+00  0.0000000E+00
1362656.  0.0000000E+00  0.0000000E+00  0.0000000E+00  0.0000000E+00  0.0000000E+00  0.0000000E+00
1292078.  0.0000000E+00  0.0000000E+00  0.0000000E+00  0.0000000E+00  0.0000000E+00  0.0000000E+00
1221500.  0.0000000E+00  0.0000000E+00  0.0000000E+00  0.0000000E+00  0.0000000E+00  0.0000000E+00
1221500.  0.0000000E+00  0.0000000E+00  0.0000000E+00  0.0000000E+00  0.0000000E+00  0.0000000E+00
1183328.  0.0000000E+00  0.0000000E+00  0.0000000E+00  0.0000000E+00  0.0000000E+00  0.0000000E+00
1145156.  0.0000000E+00  0.0000000E+00  0.0000000E+00  0.0000000E+00  0.0000000E+00  0.0000000E+00
1106984.  0.0000000E+00  0.0000000E+00  0.0000000E+00  0.0000000E+00  0.0000000E+00  0.0000000E+00
1068812.  0.0000000E+00  0.0000000E+00  0.0000000E+00  0.0000000E+00  0.0000000E+00  0.0000000E+00
1030641.  0.0000000E+00  0.0000000E+00  0.0000000E+00  0.0000000E+00  0.0000000E+00  0.0000000E+00
 992469.  0.0000000E+00  0.0000000E+00  0.0000000E+00  0.0000000E+00  0.0000000E+00  0.0000000E+00
 954297.  0.0000000E+00  0.0000000E+00  0.0000000E+00  0.0000000E+00  0.0000000E+00  0.0000000E+00
 916125.  0.0000000E+00  0.0000000E+00  0.0000000E+00  0.0000000E+00  0.0000000E+00  0.0000000E+00
 877953.  0.0000000E+00  0.0000000E+00  0.0000000E+00  0.0000000E+00  0.0000000E+00  0.0000000E+00
 839781.  0.0000000E+00  0.0000000E+00  0.0000000E+00  0.0000000E+00  0.0000000E+00  0.0000000E+00
 801609.  0.0000000E+00  0.0000000E+00  0.0000000E+00  0.0000000E+00  0.0000000E+00  0.0000000E+00
 763438.  0.0000000E+00  0.0000000E+00  0.0000000E+00  0.0000000E+00  0.0000000E+00  0.0000000E+00
 725266.  0.0000000E+00  0.0000000E+00  0.0000000E+00  0.0000000E+00  0.0000000E+00  0.0000000E+00
 687094.  0.0000000E+00  0.0000000E+00  0.0000000E+00  0.0000000E+00  0.0000000E+00  0.0000000E+00
 648922.  0.0000000E+00  0.0000000E+00  0.0000000E+00  0.0000000E+00  0.0000000E+00  0.0000000E+00
 610750.  0.0000000E+00  0.0000000E+00  0.0000000E+00  0.0000000E+00  0.0000000E+00  0.0000000E+00
 572578.  0.0000000E+00  0.0000000E+00  0.0000000E+00  0.0000000E+00  0.0000000E+00  0.0000000E+00
 534406.  0.0000000E+00  0.0000000E+00  0.0000000E+00  0.0000000E+00  0.0000000E+00  0.0000000E+00
 496234.  0.0000000E+00  0.0000000E+00  0.0000000E+00  0.0000000E+00  0.0000000E+00  0.0000000E+00
 458062.  0.0000000E+00  0.0000000E+00  0.0000000E+00  0.0000000E+00  0.0000000E+00  0.0000000E+00
 419891.  0.0000000E+00  0.0000000E+00  0.0000000E+00  0.0000000E+00  0.0000000E+00  0.0000000E+00
 381719.  0.0000000E+00  0.0000000E+00  0.0000000E+00  0.0000000E+00  0.0000000E+00  0.0000000E+00
 343547.  0.0000000E+00  0.0000000E+00  0.0000000E+00  0.0000000E+00  0.0000000E+00  0.0000000E+00
 305375.  0.0000000E+00  0.0000000E+00  0.0000000E+00  0.0000000E+00  0.0000000E+00  0.0000000E+00
 267203.  0.0000000E+00  0.0000000E+00  0.0000000E+00  0.0000000E+00  0.0000000E+00  0.0000000E+00
 229031.  0.0000000E+00  0.0000000E+00  0.0000000E+00  0.0000000E+00  0.0000000E+00  0.0000000E+00
 190859.  0.0000000E+00  0.0000000E+00  0.0000000E+00  0.0000000E+00  0.0000000E+00  0.0000000E+00
 152688.  0.0000000E+00  0.0000000E+00  0.0000000E+00  0.0000000E+00  0.0000000E+00  0.0000000E+00
 114516.  0.0000000E+00  0.0000000E+00  0.0000000E+00  0.0000000E+00  0.0000000E+00  0.0000000E+00
  76344.  0.0000000E+00  0.0000000E+00  0.0000000E+00  0.0000000E+00  0.0000000E+00  0.0000000E+00
  38172.  0.0000000E+00  0.0000000E+00  0.0000000E+00  0.0000000E+00  0.0000000E+00  0.0000000E+00
      0.  0.0000000E+00  0.0000000E+00  0.0000000E+00  0.0000000E+00  0.0000000E+00  0.0000000E+00
