      13        8 S      586        152.72150         30.83673          5.29789        277.44879      185    7
6371000. -0.2102414E-01  0.2587294E+00  0.8556996E-02  0.2958114E-01 -0.2987866E-03  0.4233570E-01
6370000. -0.2106421E-01  0.2517804E+00  0.8551658E-02  0.3842084E-01 -0.3054237E-03  0.4223316E-01
6369000. -0.2110318E-01  0.2447470E+00  0.8544934E-02  0.4725456E-01 -0.3120445E-03  0.4212867E-01
6368000. -0.2114104E-01  0.2376297E+00  0.8536824E-02  0.5608084E-01 -0.3186487E-03  0.4202225E-01
6368000. -0.2114104E-01  0.2376297E+00  0.8536824E-02  0.5608084E-01 -0.3186487E-03  0.4202225E-01
6367000. -0.2117777E-01  0.2304289E+00  0.8527330E-02  0.6489823E-01 -0.3252361E-03  0.4191388E-01
6366000. -0.2121337E-01  0.2231449E+00  0.8516452E-02  0.7370529E-01 -0.3318063E-03  0.4180357E-01
6365000. -0.2124782E-01  0.2157781E+00  0.8504193E-02  0.8250058E-01 -0.3383591E-03  0.4169134E-01
6364000. -0.2128110E-01  0.2083290E+00  0.8490554E-02  0.9128265E-01 -0.3448941E-03  0.4157718E-01
6363000. -0.2131321E-01  0.2007980E+00  0.8475537E-02  0.1000501E+00 -0.3514110E-03  0.4146110E-01
6362000. -0.2134413E-01  0.1931856E+00  0.8459147E-02  0.1088014E+00 -0.3579096E-03  0.4134310E-01
6361000. -0.2137385E-01  0.1854922E+00  0.8441384E-02  0.1175351E+00 -0.3643894E-03  0.4122320E-01
6360000. -0.2140236E-01  0.1777184E+00  0.8422251E-02  0.1262499E+00 -0.3708504E-03  0.4110139E-01
6359000. -0.2142964E-01  0.1698646E+00  0.8401752E-02  0.1349443E+00 -0.3772920E-03  0.4097769E-01
6358000. -0.2145568E-01  0.1619314E+00  0.8379890E-02  0.1436169E+00 -0.3837141E-03  0.4085208E-01
6357000. -0.2148047E-01  0.1539192E+00  0.8356669E-02  0.1522662E+00 -0.3901163E-03  0.4072460E-01
6356000. -0.2150399E-01  0.1458288E+00  0.8332091E-02  0.1608908E+00 -0.3964983E-03  0.4059523E-01
6356000. -0.2150399E-01  0.1516047E+00  0.8332091E-02  0.1089680E+00 -0.3964983E-03  0.4527425E-01
6355000. -0.2152734E-01  0.1458365E+00  0.8314539E-02  0.1146893E+00 -0.4035933E-03  0.4512954E-01
6354000. -0.2154977E-01  0.1400175E+00  0.8296088E-02  0.1203982E+00 -0.4106654E-03  0.4498334E-01
6353000. -0.2157129E-01  0.1341481E+00  0.8276744E-02  0.1260941E+00 -0.4177145E-03  0.4483565E-01
6352000. -0.2159188E-01  0.1282286E+00  0.8256505E-02  0.1317765E+00 -0.4247403E-03  0.4468648E-01
6351000. -0.2161154E-01  0.1222593E+00  0.8235377E-02  0.1374445E+00 -0.4317425E-03  0.4453583E-01
6350000. -0.2163026E-01  0.1162405E+00  0.8213360E-02  0.1430977E+00 -0.4387210E-03  0.4438370E-01
6349000. -0.2164803E-01  0.1101725E+00  0.8190456E-02  0.1487354E+00 -0.4456755E-03  0.4423010E-01
6348000. -0.2166484E-01  0.1040555E+00  0.8166669E-02  0.1543570E+00 -0.4526057E-03  0.4407503E-01
6347000. -0.2168069E-01  0.9788994E-01  0.8142001E-02  0.1599620E+00 -0.4595115E-03  0.4391851E-01
6346600. -0.2168676E-01  0.9541018E-01  0.8131887E-02  0.1621991E+00 -0.4622670E-03  0.4385550E-01
6346600. -0.2168676E-01  0.1773035E+00  0.8131887E-02  0.1192314E+00 -0.4622670E-03  0.5141735E-01
6318800. -0.2216900E-01  0.3849987E-01  0.7356843E-02  0.2339673E+00 -0.6765709E-03  0.4665958E-01
6291000. -0.2198079E-01 -0.1290643E+00  0.6113137E-02  0.3328627E+00 -0.8682198E-03  0.4104464E-01
6291000. -0.2198079E-01 -0.1272713E+00  0.6113137E-02  0.3438600E+00 -0.8682198E-03  0.4104464E-01
6263000. -0.2099703E-01 -0.3235603E+00  0.4417130E-02  0.4233978E+00 -0.1034746E-02  0.3460899E-01
6235000. -0.1911663E-01 -0.5335178E+00  0.2435066E-02  0.4732952E+00 -0.1171372E-02  0.2745398E-01
6207000. -0.1630431E-01 -0.7456149E+00  0.3054046E-03  0.4901916E+00 -0.1275164E-02  0.1968652E-01
6179000. -0.1257820E-01 -0.9471918E+00 -0.1823602E-02  0.4730139E+00 -0.1343699E-02  0.1143186E-01
6151000. -0.8013160E-02 -0.1125237E+01 -0.3804142E-02  0.4230348E+00 -0.1375146E-02  0.2835069E-02
6151000. -0.8013160E-02 -0.9280905E+00 -0.3804142E-02  0.3720114E+00 -0.1375146E-02  0.3278401E-02
6128500. -0.4585103E-02 -0.1009770E+01 -0.5021932E-02  0.3154645E+00 -0.1377324E-02 -0.2034592E-02
6106000. -0.9077062E-03 -0.1068823E+01 -0.6018572E-02  0.2472280E+00 -0.1360885E-02 -0.7254481E-02
6083500.  0.2934526E-02 -0.1102777E+01 -0.6757825E-02  0.1702154E+00 -0.1326260E-02 -0.1232441E-01
6061000.  0.6849793E-02 -0.1109983E+01 -0.7214251E-02  0.8760472E-01 -0.1274074E-02 -0.1719126E-01
6038500.  0.1074202E-01 -0.1089680E+01 -0.7373913E-02  0.2710966E-02 -0.1205131E-02 -0.2180614E-01
6016000.  0.1451406E-01 -0.1042012E+01 -0.7234625E-02 -0.8114704E-01 -0.1120401E-02 -0.2612481E-01
5993500.  0.1807082E-01 -0.9680119E+00 -0.6805744E-02 -0.1607722E+00 -0.1021000E-02 -0.3010829E-01
5971000.  0.2132243E-01 -0.8695787E+00 -0.6107529E-02 -0.2332065E+00 -0.9081738E-03 -0.3372245E-01
5971000.  0.2132243E-01 -0.8030657E+00 -0.6107529E-02 -0.2107392E+00 -0.9081738E-03 -0.3651373E-01
5937667.  0.2505482E-01 -0.6189857E+00 -0.4799603E-02 -0.2849174E+00 -0.7056443E-03 -0.4073090E-01
5904333.  0.2776140E-01 -0.4129752E+00 -0.3173014E-02 -0.3322792E+00 -0.4837737E-03 -0.4390883E-01
5871000.  0.2935966E-01 -0.1973818E+00 -0.1370197E-02 -0.3524112E+00 -0.2479222E-03 -0.4608656E-01
5837667.  0.2983068E-01  0.1605156E-01  0.4697683E-03 -0.3468827E+00 -0.3162277E-05 -0.4732588E-01
5804333.  0.2921387E-01  0.2168188E+00  0.2220202E-02 -0.3187820E+00  0.2457984E-03 -0.4770329E-01
5771000.  0.2759945E-01  0.3960991E+00  0.3773357E-02 -0.2722424E+00  0.4946587E-03 -0.4730523E-01
5771000.  0.2759945E-01  0.3961155E+00  0.3773357E-02 -0.2722344E+00  0.4946587E-03 -0.4730523E-01
5701000.  0.2141096E-01  0.7101202E+00  0.6114901E-02 -0.1443735E+00  0.9917817E-03 -0.4265945E-01
5701000.  0.2141096E-01  0.6074769E+00  0.6114901E-02 -0.1176669E+00  0.9917817E-03 -0.4869443E-01
5667333.  0.1797841E-01  0.6863080E+00  0.6562652E-02 -0.5162765E-01  0.1245030E-02 -0.4706965E-01
5633667.  0.1421314E-01  0.7334373E+00  0.6661855E-02  0.1368175E-01  0.1488419E-02 -0.4497637E-01
5600000.  0.1028122E-01  0.7495683E+00  0.6424877E-02  0.7513115E-01  0.1719647E-02 -0.4247303E-01
5600000.  0.1028122E-01  0.7495840E+00  0.6424877E-02  0.7513498E-01  0.1719647E-02 -0.4247303E-01
5563518.  0.5988915E-02  0.7439058E+00  0.5811759E-02  0.1380209E+00  0.1953945E-02 -0.3926294E-01
5527037.  0.1824977E-02  0.7052119E+00  0.4858598E-02  0.1933898E+00  0.2168245E-02 -0.3549966E-01
5490556. -0.2030411E-02  0.6368065E+00  0.3616849E-02  0.2383907E+00  0.2359550E-02 -0.3124132E-01
5454074. -0.5420018E-02  0.5433711E+00  0.2152564E-02  0.2707860E+00  0.2525202E-02 -0.2654829E-01
5417593. -0.8216478E-02  0.4307036E+00  0.5427497E-03  0.2890423E+00  0.2662881E-02 -0.2148318E-01
5381111. -0.1032836E-01  0.3053856E+00 -0.1129158E-02  0.2923947E+00  0.2770646E-02 -0.1610968E-01
5344630. -0.1170314E-01  0.1744581E+00 -0.2777380E-02  0.2808512E+00  0.2846912E-02 -0.1049342E-01
5308148. -0.1232919E-01  0.4503420E-01 -0.4318541E-02  0.2551719E+00  0.2890483E-02 -0.4700592E-02
5271667. -0.1223493E-01 -0.7602712E-01 -0.5675444E-02  0.2168026E+00  0.2900537E-02  0.1201194E-02
5235185. -0.1148648E-01 -0.1824788E+00 -0.6781081E-02  0.1677836E+00  0.2876647E-02  0.7144166E-02
5198704. -0.1018339E-01 -0.2689551E+00 -0.7581432E-02  0.1106367E+00  0.2818773E-02  0.1305963E-01
5162222. -0.8452631E-02 -0.3312388E+00 -0.8038051E-02  0.4821793E-01  0.2727265E-02  0.1887939E-01
5125741. -0.6441804E-02 -0.3664297E+00 -0.8129415E-02 -0.1641757E-01  0.2602872E-02  0.2453530E-01
5089259. -0.4310808E-02 -0.3730716E+00 -0.7851698E-02 -0.8017999E-01  0.2446717E-02  0.2996069E-01
5052778. -0.2223851E-02 -0.3511968E+00 -0.7218562E-02 -0.1400790E+00  0.2260317E-02  0.3509009E-01
5016296. -0.3405137E-03 -0.3022999E+00 -0.6260086E-02 -0.1933742E+00  0.2045536E-02  0.3986102E-01
4979815.  0.1191972E-02 -0.2292541E+00 -0.5021157E-02 -0.2376838E+00  0.1804613E-02  0.4421368E-01
4943333.  0.2246573E-02 -0.1361459E+00 -0.3558876E-02 -0.2710958E+00  0.1540089E-02  0.4809283E-01
4906852.  0.2722553E-02 -0.2808433E-01 -0.1939935E-02 -0.2922356E+00  0.1254838E-02  0.5144770E-01
4870370.  0.2550786E-02  0.8907259E-01 -0.2370466E-03 -0.3003192E+00  0.9519773E-03  0.5423357E-01
4833889.  0.1697222E-02  0.2089749E+00  0.1474126E-02 -0.2951668E+00  0.6348958E-03  0.5641187E-01
4797407.  0.1647396E-03  0.3251062E+00  0.3118821E-02 -0.2772037E+00  0.3071474E-03  0.5795155E-01
4760926. -0.2006523E-02  0.4310637E+00  0.4626170E-02 -0.2474191E+00 -0.2752167E-04  0.5882905E-01
4724444. -0.4741061E-02  0.5208757E+00  0.5932609E-02 -0.2073053E+00 -0.3652906E-03  0.5902919E-01
4687963. -0.7930748E-02  0.5892561E+00  0.6984249E-02 -0.1587875E+00 -0.7022389E-03  0.5854525E-01
4651482. -0.1144001E-01  0.6318598E+00  0.7739322E-02 -0.1041188E+00 -0.1034460E-02  0.5737921E-01
4615000. -0.1511155E-01  0.6454714E+00  0.8169630E-02 -0.4577607E-01 -0.1358083E-02  0.5554157E-01
4578518. -0.1877307E-01  0.6281499E+00  0.8261506E-02  0.1364966E-01 -0.1669305E-02  0.5305139E-01
4542037. -0.2224505E-01  0.5793243E+00  0.8016194E-02  0.7157095E-01 -0.1964452E-02  0.4993554E-01
4505556. -0.2534890E-01  0.4998207E+00  0.7449459E-02  0.1255191E+00 -0.2240048E-02  0.4622835E-01
4469074. -0.2791464E-01  0.3918266E+00  0.6590600E-02  0.1732431E+00 -0.2492824E-02  0.4197055E-01
4432593. -0.2978838E-01  0.2588212E+00  0.5481040E-02  0.2127972E+00 -0.2719748E-02  0.3720921E-01
4396111. -0.3083968E-01  0.1054083E+00  0.4172161E-02  0.2426241E+00 -0.2918093E-02  0.3199556E-01
4359630. -0.3096717E-01 -0.6284211E-01  0.2723159E-02  0.2616034E+00 -0.3085414E-02  0.2638433E-01
4323148. -0.3010359E-01 -0.2396504E+00  0.1198146E-02  0.2690926E+00 -0.3219607E-02  0.2043305E-01
4286667. -0.2821920E-01 -0.4182471E+00 -0.3363406E-03  0.2649428E+00 -0.3318883E-02  0.1419994E-01
4250185. -0.2532352E-01 -0.5916848E+00 -0.1814469E-02  0.2494892E+00 -0.3381802E-02  0.7743185E-02
4213704. -0.2146606E-01 -0.7530798E+00 -0.3173508E-02  0.2235316E+00 -0.3407244E-02  0.1119834E-02
4177222. -0.1673445E-01 -0.8959212E+00 -0.4356675E-02  0.1882838E+00 -0.3394411E-02 -0.5616469E-02
4140741. -0.1125246E-01 -0.1014302E+01 -0.5315069E-02  0.1453239E+00 -0.3342805E-02 -0.1241500E-01
4104259. -0.5174733E-02 -0.1103181E+01 -0.6009787E-02  0.9651089E-01 -0.3252197E-02 -0.1923092E-01
4067778.  0.1317456E-02 -0.1158555E+01 -0.6413122E-02  0.4391374E-01 -0.3122610E-02 -0.2602429E-01
4031296.  0.8024045E-02 -0.1177646E+01 -0.6509638E-02 -0.1028602E-01 -0.2954262E-02 -0.3276275E-01
3994815.  0.1473206E-01 -0.1158990E+01 -0.6296502E-02 -0.6387360E-01 -0.2747554E-02 -0.3942068E-01
3958333.  0.2122484E-01 -0.1102509E+01 -0.5783408E-02 -0.1147004E+00 -0.2502988E-02 -0.4598130E-01
3921852.  0.2728855E-01 -0.1009519E+01 -0.4992039E-02 -0.1607552E+00 -0.2221165E-02 -0.5243539E-01
3885370.  0.3272144E-01 -0.8826761E+00 -0.3954918E-02 -0.2002500E+00 -0.1902681E-02 -0.5878355E-01
3848889.  0.3734003E-01 -0.7259017E+00 -0.2714131E-02 -0.2316761E+00 -0.1548141E-02 -0.6503463E-01
3812407.  0.4098704E-01 -0.5442110E+00 -0.1319338E-02 -0.2538613E+00 -0.1158030E-02 -0.7120765E-01
3775926.  0.4353630E-01 -0.3435724E+00  0.1739792E-03 -0.2660007E+00 -0.7327430E-03 -0.7733003E-01
3739444.  0.4489825E-01 -0.1306540E+00  0.1707016E-02 -0.2676843E+00 -0.2724440E-03 -0.8343914E-01
3702963.  0.4502285E-01  0.8737183E-01  0.3219587E-02 -0.2588978E+00  0.2228945E-03 -0.8958142E-01
3666482.  0.4390201E-01  0.3031177E+00  0.4652673E-02 -0.2400153E+00  0.7536295E-03 -0.9581248E-01
3630000.  0.4156987E-01  0.5092218E+00  0.5950440E-02 -0.2117727E+00  0.1320470E-02 -0.1021987E+00
3630000.  0.4156987E-01  0.5092183E+00  0.5950440E-02 -0.2117710E+00  0.1320470E-02 -0.1021987E+00
3592500.  0.3798549E-01  0.7053707E+00  0.7091772E-02 -0.1746163E+00  0.1941870E-02 -0.1089861E+00
3555000.  0.3331274E-01  0.8778360E+00  0.7990671E-02 -0.1296387E+00  0.2604027E-02 -0.1160604E+00
3517500.  0.2771146E-01  0.1019813E+01  0.8605659E-02 -0.7843430E-01  0.3308868E-02 -0.1235044E+00
3480000.  0.2137887E-01  0.1125444E+01  0.8905376E-02 -0.2283581E-01  0.4058846E-02 -0.1314146E+00
3480000.  0.2137887E-01  0.7280018E+00 -0.1754217E-02  0.4238287E-01  0.4058846E-02 -0.1986637E+00
3409422.  0.1251152E-01  0.8585144E+00 -0.2144135E-02  0.2741258E-01  0.5892854E-02 -0.1305517E+00
3338844.  0.2675238E-02  0.9032951E+00 -0.2351095E-02  0.9609246E-02  0.6921615E-02 -0.5439213E-01
3268266. -0.7206878E-02  0.8683916E+00 -0.2352393E-02 -0.9453238E-02  0.7092646E-02  0.2322475E-01
3197688. -0.1631575E-01  0.7661605E+00 -0.2142707E-02 -0.2823464E-01  0.6424377E-02  0.9618139E-01
3127109. -0.2399381E-01  0.6130158E+00 -0.1732990E-02 -0.4535338E-01  0.4998024E-02  0.1593253E+00
3056531. -0.2977760E-01  0.4273038E+00 -0.1148213E-02 -0.5967651E-01  0.2945026E-02  0.2087931E+00
2985953. -0.3340887E-01  0.2273784E+00 -0.4242084E-03 -0.7037886E-01  0.4315658E-03  0.2421791E+00
2915375. -0.3482539E-01  0.3007011E-01  0.3958732E-03 -0.7696804E-01 -0.2357670E-02  0.2585421E+00
2844797. -0.3413754E-01 -0.1504418E+00  0.1265271E-02 -0.7928147E-01 -0.5235218E-02  0.2582943E+00
2774219. -0.3159466E-01 -0.3033296E+00  0.2137129E-02 -0.7745845E-01 -0.8024748E-02  0.2429931E+00
2703641. -0.2754591E-01 -0.4214211E+00  0.2967606E-02 -0.7189533E-01 -0.1057231E-01  0.2150723E+00
2633062. -0.2239959E-01 -0.5011647E+00  0.3718423E-02 -0.6318711E-01 -0.1275441E-01  0.1775425E+00
2562484. -0.1658494E-01 -0.5422987E+00  0.4358663E-02 -0.5206328E-01 -0.1448265E-01  0.1336959E+00
2491906. -0.1051790E-01 -0.5473524E+00  0.4865977E-02 -0.3932516E-01 -0.1570545E-01  0.8682736E-01
2421328. -0.4573949E-02 -0.5209995E+00  0.5226995E-02 -0.2578470E-01 -0.1640661E-01  0.4000171E-01
2350750.  0.9319910E-03 -0.4693826E+00  0.5437144E-02 -0.1220907E-01 -0.1660175E-01 -0.4128388E-02
2280172.  0.5757911E-02 -0.3994133E+00  0.5499905E-02  0.7192302E-03 -0.1633298E-01 -0.4344640E-01
2209594.  0.9739804E-02 -0.3181664E+00  0.5425701E-02  0.1243536E-01 -0.1566258E-01 -0.7643750E-01
2139016.  0.1279042E-01 -0.2323469E+00  0.5230459E-02  0.2251188E-01 -0.1466619E-01 -0.1022006E+00
2068438.  0.1489287E-01 -0.1478934E+00  0.4934037E-02  0.3066810E-01 -0.1342617E-01 -0.1204148E+00
1997859.  0.1609033E-01 -0.6967530E-01  0.4558580E-02  0.3676799E-01 -0.1202549E-01 -0.1312694E+00
1927281.  0.1647338E-01 -0.1371807E-02  0.4127019E-02  0.4080822E-01 -0.1054272E-01 -0.1353683E+00
1856703.  0.1616643E-01  0.5459245E-01  0.3661623E-02  0.4290452E-01 -0.9047873E-02 -0.1336221E+00
1786125.  0.1531421E-01  0.9694747E-01  0.3182827E-02  0.4326984E-01 -0.7599708E-02 -0.1271342E+00
1715547.  0.1406980E-01  0.1254263E+00  0.2708270E-02  0.4219264E-01 -0.6244205E-02 -0.1170928E+00
1644969.  0.1258475E-01  0.1405179E+00  0.2252058E-02  0.4001978E-01 -0.5014165E-02 -0.1046737E+00
1574391.  0.1100252E-01  0.1431412E+00  0.1824193E-02  0.3714380E-01 -0.3929821E-02 -0.9095744E-01
1503812.  0.9455835E-02  0.1342254E+00  0.1430073E-02  0.3400491E-01 -0.3000276E-02 -0.7686033E-01
1433234.  0.8069760E-02  0.1141151E+00  0.1069855E-02  0.3111953E-01 -0.2225701E-02 -0.6307548E-01
1362656.  0.6972850E-02  0.8162063E-01  0.7372160E-03  0.2915760E-01 -0.1600092E-02 -0.5000407E-01
1292078.  0.6322780E-02  0.3228454E-01  0.4168032E-03  0.2912370E-01 -0.1115099E-02 -0.3764647E-01
1221500.  0.6359663E-02 -0.4515461E-01  0.7858304E-04  0.3276083E-01 -0.7655660E-03 -0.2536867E-01
1221500.  0.6359663E-02  0.1140729E+00  0.5776649E-03 -0.3015728E-01 -0.7655660E-03 -0.2812370E-01
1183328.  0.5413269E-02  0.2012960E+00  0.7449870E-03 -0.2483532E-01 -0.6116864E-03 -0.2335285E-01
1145156.  0.3965554E-02  0.2795272E+00  0.8664348E-03 -0.1511006E-01 -0.4844518E-03 -0.1922089E-01
1106984.  0.2102366E-02  0.3384660E+00  0.9208389E-03 -0.2783763E-02 -0.3801905E-03 -0.1567543E-01
1068812. -0.3664260E-04  0.3706417E+00  0.8986120E-03  0.1013527E-01 -0.2955479E-03 -0.1266316E-01
1030641. -0.2277786E-02  0.3722827E+00  0.8020066E-03  0.2175478E-01 -0.2274922E-03 -0.1013023E-01
 992469. -0.4436902E-02  0.3436014E+00  0.6435606E-03  0.3056941E-01 -0.1733092E-03 -0.8022908E-02
 954297. -0.6342262E-02  0.2885019E+00  0.4432109E-03  0.3563835E-01 -0.1306086E-03 -0.6288722E-02
 916125. -0.7854793E-02  0.2137972E+00  0.2246291E-03  0.3665758E-01 -0.9730674E-04 -0.4877408E-02
 877953. -0.8882222E-02  0.1280905E+00  0.1146562E-04  0.3392402E-01 -0.7161292E-04 -0.3741468E-02
 839781. -0.9386031E-02  0.4051134E-01 -0.1759192E-03  0.2821275E-01 -0.5201021E-04 -0.2837238E-02
 801609. -0.9380924E-02 -0.4049250E-01 -0.3227976E-03  0.2059602E-01 -0.3723018E-04 -0.2125437E-02
 763438. -0.8927645E-02 -0.1081434E+00 -0.4212600E-03  0.1224533E-01 -0.2622668E-04 -0.1571298E-02
 725266. -0.8120771E-02 -0.1579901E+00 -0.4702412E-03  0.4243104E-02 -0.1814691E-04 -0.1144780E-02
 687094. -0.7073910E-02 -0.1881518E+00 -0.4745261E-03 -0.2556756E-02 -0.1230452E-04 -0.8205589E-03
 648922. -0.5904432E-02 -0.1992000E+00 -0.4431008E-03 -0.7615542E-02 -0.8152750E-05 -0.5772185E-03
 610750. -0.4719989E-02 -0.1937113E+00 -0.3871695E-03 -0.1072997E-01 -0.5260956E-05 -0.3973584E-03
 572578. -0.3608386E-02 -0.1756152E+00 -0.3182255E-03 -0.1199680E-01 -0.3292916E-05 -0.2667304E-03
 534406. -0.2631665E-02 -0.1494580E+00 -0.2464664E-03 -0.1173692E-01 -0.1989466E-05 -0.1738013E-03
 496234. -0.1824550E-02 -0.1197054E+00 -0.1797349E-03 -0.1039871E-01 -0.1153438E-05 -0.1093367E-03
 458062. -0.1196696E-02 -0.9018174E-01 -0.1230508E-03 -0.8460762E-02 -0.6371585E-06 -0.6597853E-04
 419891. -0.7377322E-03 -0.6370937E-01 -0.7868493E-04 -0.6351054E-02 -0.3323921E-06 -0.3787861E-04
 381719. -0.4237546E-03 -0.4196604E-01 -0.4663431E-04 -0.4393120E-02 -0.1619285E-06 -0.2048219E-04
 343547. -0.2241495E-03 -0.2555074E-01 -0.2533733E-04 -0.2783612E-02 -0.7259924E-07 -0.1029479E-04
 305375. -0.1074352E-03 -0.1419483E-01 -0.1242475E-04 -0.1598017E-02 -0.2937846E-07 -0.4727260E-05
 267203. -0.4560260E-04 -0.7061068E-02 -0.5376840E-05 -0.8166506E-03 -0.1044306E-07 -0.1936115E-05
 229031. -0.1657265E-04 -0.3057025E-02 -0.1985899E-05 -0.3614486E-03 -0.3135048E-08 -0.6830505E-06
 190859. -0.4892214E-05 -0.1101596E-02 -0.5940804E-06 -0.1325877E-03 -0.7480244E-09 -0.1968279E-06
 152688. -0.1073939E-05 -0.3064204E-03 -0.1318051E-06 -0.3740147E-04 -0.1281560E-09 -0.4238141E-07
 114516. -0.1485087E-06 -0.5708619E-04 -0.1837492E-07 -0.7042092E-05 -0.1303625E-10 -0.5772540E-08
  76344. -0.8912995E-08 -0.5176760E-05 -0.1109114E-08 -0.6433437E-06 -0.5141972E-12 -0.3425575E-09
  38172. -0.7068637E-10 -0.8246519E-07 -0.8825843E-11 -0.1029321E-07 -0.2020034E-14 -0.2695030E-11
      0.  0.0000000E+00  0.0000000E+00  0.0000000E+00  0.0000000E+00  0.0000000E+00  0.0000000E+00
