       0       24 S       23        306.64291          5.32830          3.74861        211.38091      185    7
6371000.  0.2336840E+00 -0.1744984E+01 -0.6614158E-02 -0.2402982E+00 -0.8155508E-02 -0.2367857E+00
6370000.  0.2339557E+00 -0.1717285E+01 -0.6576412E-02 -0.2406608E+00 -0.8118458E-02 -0.2352960E+00
6369000.  0.2342231E+00 -0.1689542E+01 -0.6538610E-02 -0.2410148E+00 -0.8081643E-02 -0.2338071E+00
6368000.  0.2344861E+00 -0.1661755E+01 -0.6500753E-02 -0.2413602E+00 -0.8045061E-02 -0.2323192E+00
6368000.  0.2344861E+00 -0.1661755E+01 -0.6500753E-02 -0.2413602E+00 -0.8045061E-02 -0.2323192E+00
6367000.  0.2347448E+00 -0.1633926E+01 -0.6462842E-02 -0.2416969E+00 -0.8008713E-02 -0.2308322E+00
6366000.  0.2349990E+00 -0.1606055E+01 -0.6424879E-02 -0.2420250E+00 -0.7972597E-02 -0.2293461E+00
6365000.  0.2352489E+00 -0.1578142E+01 -0.6386865E-02 -0.2423444E+00 -0.7936715E-02 -0.2278607E+00
6364000.  0.2354944E+00 -0.1550190E+01 -0.6348802E-02 -0.2426552E+00 -0.7901067E-02 -0.2263763E+00
6363000.  0.2357356E+00 -0.1522198E+01 -0.6310691E-02 -0.2429572E+00 -0.7865651E-02 -0.2248926E+00
6362000.  0.2359723E+00 -0.1494167E+01 -0.6272533E-02 -0.2432505E+00 -0.7830468E-02 -0.2234097E+00
6361000.  0.2362046E+00 -0.1466098E+01 -0.6234329E-02 -0.2435352E+00 -0.7795518E-02 -0.2219276E+00
6360000.  0.2364326E+00 -0.1437992E+01 -0.6196082E-02 -0.2438111E+00 -0.7760800E-02 -0.2204463E+00
6359000.  0.2366560E+00 -0.1409850E+01 -0.6157792E-02 -0.2440782E+00 -0.7726314E-02 -0.2189657E+00
6358000.  0.2368751E+00 -0.1381673E+01 -0.6119461E-02 -0.2443367E+00 -0.7692061E-02 -0.2174858E+00
6357000.  0.2370898E+00 -0.1353460E+01 -0.6081090E-02 -0.2445863E+00 -0.7658041E-02 -0.2160067E+00
6356000.  0.2373000E+00 -0.1325213E+01 -0.6042680E-02 -0.2448273E+00 -0.7624252E-02 -0.2145282E+00
6356000.  0.2373000E+00 -0.1225065E+01 -0.6042680E-02 -0.2444664E+00 -0.7624252E-02 -0.2661619E+00
6355000.  0.2374906E+00 -0.1203431E+01 -0.6004330E-02 -0.2441846E+00 -0.7582600E-02 -0.2645735E+00
6354000.  0.2376778E+00 -0.1181804E+01 -0.5966025E-02 -0.2438995E+00 -0.7541196E-02 -0.2629884E+00
6353000.  0.2378616E+00 -0.1160183E+01 -0.5927765E-02 -0.2436111E+00 -0.7500042E-02 -0.2614067E+00
6352000.  0.2380420E+00 -0.1138569E+01 -0.5889550E-02 -0.2433193E+00 -0.7459135E-02 -0.2598283E+00
6351000.  0.2382190E+00 -0.1116963E+01 -0.5851381E-02 -0.2430242E+00 -0.7418476E-02 -0.2582532E+00
6350000.  0.2383926E+00 -0.1095364E+01 -0.5813260E-02 -0.2427258E+00 -0.7378063E-02 -0.2566814E+00
6349000.  0.2385629E+00 -0.1073773E+01 -0.5775185E-02 -0.2424241E+00 -0.7337897E-02 -0.2551127E+00
6348000.  0.2387297E+00 -0.1052190E+01 -0.5737158E-02 -0.2421190E+00 -0.7297977E-02 -0.2535473E+00
6347000.  0.2388932E+00 -0.1030616E+01 -0.5699179E-02 -0.2418106E+00 -0.7258303E-02 -0.2519851E+00
6346600.  0.2389576E+00 -0.1021989E+01 -0.5684000E-02 -0.2416864E+00 -0.7242502E-02 -0.2513611E+00
6346600.  0.2389576E+00 -0.1362957E+01 -0.5684000E-02 -0.2429519E+00 -0.7242502E-02 -0.3346821E+00
6318800.  0.2437977E+00 -0.8586563E+00 -0.4662938E-02 -0.2250452E+00 -0.5874788E-02 -0.2928789E+00
6291000.  0.2464804E+00 -0.3744772E+00 -0.3720155E-02 -0.2070467E+00 -0.4681053E-02 -0.2548457E+00
6291000.  0.2464804E+00 -0.4040848E+00 -0.3720155E-02 -0.2051297E+00 -0.4681053E-02 -0.2548457E+00
6263000.  0.2472030E+00  0.7119320E-01 -0.2858751E-02 -0.1867735E+00 -0.3638567E-02 -0.2200347E+00
6235000.  0.2458924E+00  0.5206121E+00 -0.2079391E-02 -0.1677741E+00 -0.2743185E-02 -0.1878190E+00
6207000.  0.2426698E+00  0.9406734E+00 -0.1385150E-02 -0.1480217E+00 -0.1984585E-02 -0.1577096E+00
6179000.  0.2376724E+00  0.1327678E+01 -0.7795482E-03 -0.1274220E+00 -0.1354547E-02 -0.1292375E+00
6151000.  0.2310539E+00  0.1677716E+01 -0.2664877E-03 -0.1058971E+00 -0.8468712E-03 -0.1019520E+00
6151000.  0.2310539E+00  0.1299938E+01 -0.2664877E-03 -0.1224972E+00 -0.8468712E-03 -0.1147351E+00
6128500.  0.2260946E+00  0.1504674E+01  0.1408592E-03 -0.1082044E+00 -0.4691347E-03 -0.9936991E-01
6106000.  0.2204539E+00  0.1685796E+01  0.4979133E-03 -0.9401764E-01 -0.1437483E-03 -0.8506442E-01
6083500.  0.2142154E+00  0.1843224E+01  0.8050643E-03 -0.7994439E-01  0.1327751E-03 -0.7167506E-01
6061000.  0.2074629E+00  0.1976904E+01  0.1062718E-02 -0.6598651E-01  0.3634302E-03 -0.5906593E-01
6038500.  0.2002803E+00  0.2086810E+01  0.1271273E-02 -0.5213758E-01  0.5507281E-03 -0.4709810E-01
6016000.  0.1927516E+00  0.2172901E+01  0.1431092E-02 -0.3838377E-01  0.6966882E-03 -0.3563330E-01
5993500.  0.1849609E+00  0.2235113E+01  0.1542478E-02 -0.2470514E-01  0.8028499E-03 -0.2453677E-01
5971000.  0.1769929E+00  0.2273370E+01  0.1605646E-02 -0.1107207E-01  0.8702636E-03 -0.1366596E-01
5971000.  0.1769929E+00  0.2077387E+01  0.1605646E-02 -0.3046852E-01  0.8702636E-03 -0.3683582E-01
5937667.  0.1660992E+00  0.2081742E+01  0.1736786E-02 -0.1988376E-01  0.1034887E-02 -0.2634156E-01
5904333.  0.1552580E+00  0.2057962E+01  0.1815984E-02 -0.1060228E-01  0.1148330E-02 -0.1723902E-01
5871000.  0.1446055E+00  0.2010424E+01  0.1849878E-02 -0.2552472E-02  0.1217389E-02 -0.9346423E-02
5837667.  0.1342552E+00  0.1943111E+01  0.1844674E-02  0.4360749E-02  0.1247934E-02 -0.2487852E-02
5804333.  0.1243005E+00  0.1859589E+01  0.1806032E-02  0.1024883E-01  0.1244920E-02  0.3510114E-02
5771000.  0.1148187E+00  0.1762961E+01  0.1739010E-02  0.1523046E-01  0.1212417E-02  0.8812432E-02
5771000.  0.1148187E+00  0.1763027E+01  0.1739010E-02  0.1522589E-01  0.1212417E-02  0.8812432E-02
5701000.  0.9629095E-01  0.1592350E+01  0.1464544E-02  0.3470448E-01  0.1024799E-02  0.2547257E-01
5701000.  0.9629095E-01  0.1350782E+01  0.1464544E-02  0.4993781E-02  0.1024799E-02 -0.1668383E-02
5667333.  0.8932699E-01  0.1284090E+01  0.1433702E-02  0.6541998E-02  0.1023216E-02  0.2108679E-02
5633667.  0.8272368E-01  0.1214753E+01  0.1396770E-02  0.7311138E-02  0.1004108E-02  0.4978518E-02
5600000.  0.7648867E-01  0.1144981E+01  0.1357682E-02  0.7367793E-02  0.9720691E-03  0.7012188E-02
5600000.  0.7648867E-01  0.1145005E+01  0.1357682E-02  0.7372257E-02  0.9720691E-03  0.7012188E-02
5563518.  0.7010536E-01  0.1084128E+01  0.1310018E-02  0.9188046E-02  0.9274274E-03  0.8484607E-02
5527037.  0.6407640E-01  0.1021486E+01  0.1253386E-02  0.1051798E-01  0.8758793E-03  0.9443822E-02
5490556.  0.5840864E-01  0.9581294E+00  0.1190347E-02  0.1143781E-01  0.8200552E-03  0.9994027E-02
5454074.  0.5310342E-01  0.8949343E+00  0.1123052E-02  0.1201421E-01  0.7620364E-03  0.1022306E-01
5417593.  0.4815799E-01  0.8326241E+00  0.1053301E-02  0.1230532E-01  0.7034530E-03  0.1020266E-01
5381111.  0.4356525E-01  0.7717842E+00  0.9825729E-03  0.1236295E-01  0.6455530E-03  0.9992888E-02
5344630.  0.3931565E-01  0.7128838E+00  0.9120771E-03  0.1223180E-01  0.5892781E-03  0.9642999E-02
5308148.  0.3539678E-01  0.6562834E+00  0.8427753E-03  0.1195124E-01  0.5353084E-03  0.9193222E-02
5271667.  0.3179485E-01  0.6022515E+00  0.7754295E-03  0.1155437E-01  0.4841230E-03  0.8675829E-02
5235185.  0.2849441E-01  0.5509760E+00  0.7106180E-03  0.1106990E-01  0.4360289E-03  0.8116883E-02
5198704.  0.2547945E-01  0.5025827E+00  0.6487737E-03  0.1052229E-01  0.3912058E-03  0.7536842E-02
5162222.  0.2273311E-01  0.4571339E+00  0.5901946E-03  0.9932038E-02  0.3497233E-03  0.6952041E-02
5125741.  0.2023860E-01  0.4146487E+00  0.5350774E-03  0.9316255E-02  0.3115746E-03  0.6374548E-02
5089259.  0.1797886E-01  0.3751020E+00  0.4835236E-03  0.8689054E-02  0.2766876E-03  0.5813824E-02
5052778.  0.1593733E-01  0.3384408E+00  0.4355670E-03  0.8062014E-02  0.2449479E-03  0.5276529E-02
5016296.  0.1409761E-01  0.3045813E+00  0.3911770E-03  0.7444289E-02  0.2162053E-03  0.4767373E-02
4979815.  0.1244404E-01  0.2734239E+00  0.3502807E-03  0.6843185E-02  0.1902906E-03  0.4289435E-02
4943333.  0.1096137E-01  0.2448494E+00  0.3127644E-03  0.6264180E-02  0.1670188E-03  0.3844255E-02
4906852.  0.9635272E-02  0.2187319E+00  0.2784908E-03  0.5711529E-02  0.1462006E-03  0.3432716E-02
4870370.  0.8451980E-02  0.1949341E+00  0.2472982E-03  0.5188123E-02  0.1276425E-03  0.3054553E-02
4833889.  0.7398676E-02  0.1733169E+00  0.2190154E-03  0.4695754E-02  0.1111565E-03  0.2709002E-02
4797407.  0.6463225E-02  0.1537381E+00  0.1934595E-03  0.4235558E-02  0.9655786E-04  0.2394988E-02
4760926.  0.5634406E-02  0.1360573E+00  0.1704462E-03  0.3807899E-02  0.8367111E-04  0.2110928E-02
4724444.  0.4901711E-02  0.1201339E+00  0.1497886E-03  0.3412482E-02  0.7232893E-04  0.1855099E-02
4687963.  0.4255503E-02  0.1058334E+00  0.1313049E-03  0.3048699E-02  0.6237548E-04  0.1625663E-02
4651482.  0.3686850E-02  0.9302441E-01  0.1148160E-03  0.2715520E-02  0.5366490E-04  0.1420671E-02
4615000.  0.3187560E-02  0.8158109E-01  0.1001499E-03  0.2411672E-02  0.4606252E-04  0.1238196E-02
4578518.  0.2750171E-02  0.7138446E-01  0.8714313E-04  0.2135692E-02  0.3944515E-04  0.1076324E-02
4542037.  0.2367881E-02  0.6232199E-01  0.7564102E-04  0.1885993E-02  0.3370022E-04  0.9332379E-03
4505556.  0.2034492E-02  0.5428750E-01  0.6549741E-04  0.1660909E-02  0.2872510E-04  0.8071529E-03
4469074.  0.1744396E-02  0.4718174E-01  0.5657606E-04  0.1458719E-02  0.2442718E-04  0.6964015E-03
4432593.  0.1492556E-02  0.4091302E-01  0.4875118E-04  0.1277733E-02  0.2072340E-04  0.5994146E-03
4396111.  0.1274416E-02  0.3539575E-01  0.4190582E-04  0.1116254E-02  0.1753902E-04  0.5147282E-03
4359630.  0.1085910E-02  0.3055166E-01  0.3593331E-04  0.9726605E-03  0.1480758E-04  0.4410286E-03
4323148.  0.9233847E-03  0.2630827E-01  0.3073551E-04  0.8453573E-03  0.1246966E-04  0.3770612E-03
4286667.  0.7835996E-03  0.2259994E-01  0.2622370E-04  0.7328688E-03  0.1047286E-04  0.3217279E-03
4250185.  0.6636589E-03  0.1936628E-01  0.2231693E-04  0.6337611E-03  0.8770614E-05  0.2740041E-03
4213704.  0.5610096E-03  0.1655290E-01  0.1894262E-04  0.5467163E-03  0.7322082E-05  0.2329836E-03
4177222.  0.4733838E-03  0.1411021E-01  0.1603513E-04  0.4704850E-03  0.6091178E-05  0.1978508E-03
4140741.  0.3987930E-03  0.1199380E-01  0.1353600E-04  0.4039285E-03  0.5046381E-05  0.1678789E-03
4104259.  0.3354820E-03  0.1016348E-01  0.1139278E-04  0.3459850E-03  0.4159948E-05  0.1424285E-03
4067778.  0.2819207E-03  0.8583372E-02  0.9559082E-05  0.2956818E-03  0.3407701E-05  0.1209310E-03
4031296.  0.2367672E-03  0.7221307E-02  0.7993656E-05  0.2521277E-03  0.2768405E-05  0.1028944E-03
3994815.  0.1988587E-03  0.6048738E-02  0.6660302E-05  0.2145090E-03  0.2223535E-05  0.8788949E-04
3958333.  0.1671826E-03  0.5040226E-02  0.5527130E-05  0.1820786E-03  0.1756790E-05  0.7554595E-04
3921852.  0.1408664E-03  0.4173406E-02  0.4566483E-05  0.1541508E-03  0.1353874E-05  0.6555194E-04
3885370.  0.1191550E-03  0.3428580E-02  0.3754371E-05  0.1300882E-03  0.1002094E-05  0.5764137E-04
3848889.  0.1014011E-03  0.2788739E-02  0.3070424E-05  0.1092965E-03  0.6901893E-06  0.5159471E-04
3812407.  0.8704541E-04  0.2239261E-02  0.2497531E-05  0.9119882E-04  0.4080055E-06  0.4723046E-04
3775926.  0.7560715E-04  0.1768075E-02  0.2021929E-05  0.7522430E-04  0.1463600E-06  0.4440184E-04
3739444.  0.6666598E-04  0.1365630E-02  0.1633112E-05  0.6078083E-04 -0.1032002E-06  0.4298863E-04
3702963.  0.5984933E-04  0.1025242E-02  0.1324148E-05  0.4722324E-04 -0.3484666E-06  0.4288853E-04
3666482.  0.5481312E-04  0.7435008E-03  0.1092021E-05  0.3380832E-04 -0.5966943E-06  0.4400677E-04
3630000.  0.5122170E-04  0.5210867E-03  0.9383965E-06  0.1963584E-04 -0.8545726E-06  0.4623720E-04
3630000.  0.5122170E-04  0.5210825E-03  0.9383965E-06  0.1963465E-04 -0.8545726E-06  0.4623720E-04
3592500.  0.4866435E-04  0.3598140E-03  0.8687275E-06  0.3576741E-05 -0.1136016E-05  0.4955196E-04
3555000.  0.4682866E-04  0.2790901E-03  0.9034201E-06 -0.1613376E-04 -0.1439524E-05  0.5368864E-04
3517500.  0.4517190E-04  0.3043969E-03  0.1070039E-05 -0.4167368E-04 -0.1768971E-05  0.5829111E-04
3480000.  0.4295800E-04  0.4768862E-03  0.1411289E-05 -0.7606152E-04 -0.2125531E-05  0.6277951E-04
3480000.  0.4295800E-04  0.1692241E-02  0.1890564E-05  0.7515580E-04 -0.2125531E-05 -0.7234867E-04
3409422.  0.2761069E-04  0.1115811E-02  0.1210490E-05  0.4932029E-04 -0.1441565E-05 -0.5194157E-04
3338844.  0.1754473E-04  0.7273518E-03  0.7664736E-06  0.3201039E-04 -0.9572379E-06 -0.3624595E-04
3268266.  0.1101848E-04  0.4686235E-03  0.4797942E-06  0.2054192E-04 -0.6232424E-06 -0.2467563E-04
3197688.  0.6836817E-05  0.2983386E-03  0.2968073E-06  0.1302977E-04 -0.3982571E-06 -0.1642824E-04
3127109.  0.4189613E-05  0.1876108E-03  0.1813745E-06  0.8166201E-05 -0.2499195E-06 -0.1071321E-04
3056531.  0.2534559E-05  0.1164970E-03  0.1094391E-06  0.5055036E-05 -0.1540708E-06 -0.6850349E-05
2985953.  0.1512974E-05  0.7139945E-04  0.6516994E-07  0.3089253E-05 -0.9332083E-07 -0.4297838E-05
2915375.  0.8907105E-06  0.4317137E-04  0.3827971E-07  0.1862919E-05 -0.5553372E-07 -0.2646573E-05
2844797.  0.5168571E-06  0.2573905E-04  0.2216583E-07  0.1107931E-05 -0.3246197E-07 -0.1599799E-05
2774219.  0.2954359E-06  0.1512293E-04  0.1264496E-07  0.6494616E-06 -0.1863362E-07 -0.9492161E-06
2703641.  0.1662339E-06  0.8750882E-05  0.7101811E-08  0.3750032E-06 -0.1049875E-07 -0.5526925E-06
2633062.  0.9200547E-07  0.4983520E-05  0.3923818E-08  0.2131311E-06 -0.5803077E-08 -0.3156856E-06
2562484.  0.5004956E-07  0.2791038E-05  0.2131022E-08  0.1191411E-06 -0.3144752E-08 -0.1767941E-06
2491906.  0.2673568E-07  0.1535939E-05  0.1136616E-08  0.6544976E-07 -0.1669517E-08 -0.9701716E-07
2421328.  0.1401088E-07  0.8297816E-06  0.5947893E-09  0.3530076E-07 -0.8675531E-09 -0.5212799E-07
2350750.  0.7195521E-08  0.4396420E-06  0.3050508E-09  0.1867458E-07 -0.4408354E-09 -0.2740031E-07
2280172.  0.3617232E-08  0.2281916E-06  0.1531553E-09  0.9678894E-08 -0.2188025E-09 -0.1407567E-07
2209594.  0.1777683E-08  0.1158873E-06  0.7517678E-10  0.4908853E-08 -0.1059452E-09 -0.7058644E-08
2139016.  0.8528905E-09  0.5750636E-07  0.3602504E-10  0.2432981E-08 -0.4997374E-10 -0.3451254E-08
2068438.  0.3989015E-09  0.2783837E-07  0.1682566E-10  0.1176815E-08 -0.2292192E-10 -0.1643325E-08
1997859.  0.1816692E-09  0.1311615E-07  0.7641502E-11  0.5549515E-09 -0.1019157E-10 -0.7618960E-09
1927281.  0.0000000E+00  0.0000000E+00  0.0000000E+00  0.0000000E+00  0.0000000E+00  0.0000000E+00
1856703.  0.0000000E+00  0.0000000E+00  0.0000000E+00  0.0000000E+00  0.0000000E+00  0.0000000E+00
1786125.  0.0000000E+00  0.0000000E+00  0.0000000E+00  0.0000000E+00  0.0000000E+00  0.0000000E+00
1715547.  0.0000000E+00  0.0000000E+00  0.0000000E+00  0.0000000E+00  0.0000000E+00  0.0000000E+00
1644969.  0.0000000E+00  0.0000000E+00  0.0000000E+00  0.0000000E+00  0.0000000E+00  0.0000000E+00
1574391.  0.0000000E+00  0.0000000E+00  0.0000000E+00  0.0000000E+00  0.0000000E+00  0.0000000E+00
1503812.  0.0000000E+00  0.0000000E+00  0.0000000E+00  0.0000000E+00  0.0000000E+00  0.0000000E+00
1433234.  0.0000000E+00  0.0000000E+00  0.0000000E+00  0.0000000E+00  0.0000000E+00  0.0000000E+00
1362656.  0.0000000E+00  0.0000000E+00  0.0000000E+00  0.0000000E+00  0.0000000E+00  0.0000000E+00
1292078.  0.0000000E+00  0.0000000E+00  0.0000000E+00  0.0000000E+00  0.0000000E+00  0.0000000E+00
1221500.  0.0000000E+00  0.0000000E+00  0.0000000E+00  0.0000000E+00  0.0000000E+00  0.0000000E+00
1221500.  0.0000000E+00  0.0000000E+00  0.0000000E+00  0.0000000E+00  0.0000000E+00  0.0000000E+00
1183328.  0.0000000E+00  0.0000000E+00  0.0000000E+00  0.0000000E+00  0.0000000E+00  0.0000000E+00
1145156.  0.0000000E+00  0.0000000E+00  0.0000000E+00  0.0000000E+00  0.0000000E+00  0.0000000E+00
1106984.  0.0000000E+00  0.0000000E+00  0.0000000E+00  0.0000000E+00  0.0000000E+00  0.0000000E+00
1068812.  0.0000000E+00  0.0000000E+00  0.0000000E+00  0.0000000E+00  0.0000000E+00  0.0000000E+00
1030641.  0.0000000E+00  0.0000000E+00  0.0000000E+00  0.0000000E+00  0.0000000E+00  0.0000000E+00
 992469.  0.0000000E+00  0.0000000E+00  0.0000000E+00  0.0000000E+00  0.0000000E+00  0.0000000E+00
 954297.  0.0000000E+00  0.0000000E+00  0.0000000E+00  0.0000000E+00  0.0000000E+00  0.0000000E+00
 916125.  0.0000000E+00  0.0000000E+00  0.0000000E+00  0.0000000E+00  0.0000000E+00  0.0000000E+00
 877953.  0.0000000E+00  0.0000000E+00  0.0000000E+00  0.0000000E+00  0.0000000E+00  0.0000000E+00
 839781.  0.0000000E+00  0.0000000E+00  0.0000000E+00  0.0000000E+00  0.0000000E+00  0.0000000E+00
 801609.  0.0000000E+00  0.0000000E+00  0.0000000E+00  0.0000000E+00  0.0000000E+00  0.0000000E+00
 763438.  0.0000000E+00  0.0000000E+00  0.0000000E+00  0.0000000E+00  0.0000000E+00  0.0000000E+00
 725266.  0.0000000E+00  0.0000000E+00  0.0000000E+00  0.0000000E+00  0.0000000E+00  0.0000000E+00
 687094.  0.0000000E+00  0.0000000E+00  0.0000000E+00  0.0000000E+00  0.0000000E+00  0.0000000E+00
 648922.  0.0000000E+00  0.0000000E+00  0.0000000E+00  0.0000000E+00  0.0000000E+00  0.0000000E+00
 610750.  0.0000000E+00  0.0000000E+00  0.0000000E+00  0.0000000E+00  0.0000000E+00  0.0000000E+00
 572578.  0.0000000E+00  0.0000000E+00  0.0000000E+00  0.0000000E+00  0.0000000E+00  0.0000000E+00
 534406.  0.0000000E+00  0.0000000E+00  0.0000000E+00  0.0000000E+00  0.0000000E+00  0.0000000E+00
 496234.  0.0000000E+00  0.0000000E+00  0.0000000E+00  0.0000000E+00  0.0000000E+00  0.0000000E+00
 458062.  0.0000000E+00  0.0000000E+00  0.0000000E+00  0.0000000E+00  0.0000000E+00  0.0000000E+00
 419891.  0.0000000E+00  0.0000000E+00  0.0000000E+00  0.0000000E+00  0.0000000E+00  0.0000000E+00
 381719.  0.0000000E+00  0.0000000E+00  0.0000000E+00  0.0000000E+00  0.0000000E+00  0.0000000E+00
 343547.  0.0000000E+00  0.0000000E+00  0.0000000E+00  0.0000000E+00  0.0000000E+00  0.0000000E+00
 305375.  0.0000000E+00  0.0000000E+00  0.0000000E+00  0.0000000E+00  0.0000000E+00  0.0000000E+00
 267203.  0.0000000E+00  0.0000000E+00  0.0000000E+00  0.0000000E+00  0.0000000E+00  0.0000000E+00
 229031.  0.0000000E+00  0.0000000E+00  0.0000000E+00  0.0000000E+00  0.0000000E+00  0.0000000E+00
 190859.  0.0000000E+00  0.0000000E+00  0.0000000E+00  0.0000000E+00  0.0000000E+00  0.0000000E+00
 152688.  0.0000000E+00  0.0000000E+00  0.0000000E+00  0.0000000E+00  0.0000000E+00  0.0000000E+00
 114516.  0.0000000E+00  0.0000000E+00  0.0000000E+00  0.0000000E+00  0.0000000E+00  0.0000000E+00
  76344.  0.0000000E+00  0.0000000E+00  0.0000000E+00  0.0000000E+00  0.0000000E+00  0.0000000E+00
  38172.  0.0000000E+00  0.0000000E+00  0.0000000E+00  0.0000000E+00  0.0000000E+00  0.0000000E+00
      0.  0.0000000E+00  0.0000000E+00  0.0000000E+00  0.0000000E+00  0.0000000E+00  0.0000000E+00
