       8        5 S      443        240.13271         30.30913         12.30258        612.39008      185    7
6371000.  0.9257679E-01  0.1233098E-01  0.7216905E-02 -0.8535988E-01 -0.3436921E-03 -0.1725160E+00
6370000.  0.9257389E-01  0.2457172E-01  0.7230070E-02 -0.8239008E-01 -0.3166093E-03 -0.1725725E+00
6369000.  0.9256908E-01  0.3680604E-01  0.7242769E-02 -0.7940965E-01 -0.2895179E-03 -0.1726256E+00
6368000.  0.9256233E-01  0.4903365E-01  0.7254999E-02 -0.7641877E-01 -0.2624184E-03 -0.1726754E+00
6368000.  0.9256233E-01  0.4903365E-01  0.7254999E-02 -0.7641877E-01 -0.2624184E-03 -0.1726754E+00
6367000.  0.9255368E-01  0.6125428E-01  0.7266758E-02 -0.7341763E-01 -0.2353114E-03 -0.1727219E+00
6366000.  0.9254311E-01  0.7346762E-01  0.7278045E-02 -0.7040644E-01 -0.2081973E-03 -0.1727650E+00
6365000.  0.9253062E-01  0.8567341E-01  0.7288860E-02 -0.6738539E-01 -0.1810767E-03 -0.1728047E+00
6364000.  0.9251621E-01  0.9787136E-01  0.7299198E-02 -0.6435465E-01 -0.1539502E-03 -0.1728410E+00
6363000.  0.9249990E-01  0.1100612E+00  0.7309061E-02 -0.6131444E-01 -0.1268182E-03 -0.1728740E+00
6362000.  0.9248167E-01  0.1222426E+00  0.7318446E-02 -0.5826495E-01 -0.9968135E-04 -0.1729037E+00
6361000.  0.9246152E-01  0.1344153E+00  0.7327351E-02 -0.5520637E-01 -0.7254007E-04 -0.1729299E+00
6360000.  0.9243947E-01  0.1465791E+00  0.7335776E-02 -0.5213889E-01 -0.4539493E-04 -0.1729528E+00
6359000.  0.9241550E-01  0.1587336E+00  0.7343718E-02 -0.4906273E-01 -0.1824646E-04 -0.1729724E+00
6358000.  0.9238964E-01  0.1708786E+00  0.7351177E-02 -0.4597808E-01  0.8904814E-05 -0.1729886E+00
6357000.  0.9236187E-01  0.1830138E+00  0.7358151E-02 -0.4288513E-01  0.3605836E-04 -0.1730014E+00
6356000.  0.9233218E-01  0.1951389E+00  0.7364640E-02 -0.3978409E-01  0.6321365E-04 -0.1730108E+00
6356000.  0.9233218E-01  0.1304916E+00  0.7364640E-02 -0.5777450E-01  0.6321365E-04 -0.1931012E+00
6355000.  0.9231101E-01  0.1393508E+00  0.7373545E-02 -0.5570098E-01  0.9352533E-04 -0.1931299E+00
6354000.  0.9228844E-01  0.1482041E+00  0.7382125E-02 -0.5362160E-01  0.1238413E-03 -0.1931559E+00
6353000.  0.9226448E-01  0.1570514E+00  0.7390378E-02 -0.5153644E-01  0.1541612E-03 -0.1931792E+00
6352000.  0.9223914E-01  0.1658926E+00  0.7398303E-02 -0.4944559E-01  0.1844845E-03 -0.1931999E+00
6351000.  0.9221241E-01  0.1747275E+00  0.7405899E-02 -0.4734913E-01  0.2148108E-03 -0.1932179E+00
6350000.  0.9218429E-01  0.1835560E+00  0.7413167E-02 -0.4524717E-01  0.2451398E-03 -0.1932332E+00
6349000.  0.9215479E-01  0.1923779E+00  0.7420104E-02 -0.4313978E-01  0.2754709E-03 -0.1932459E+00
6348000.  0.9212390E-01  0.2011930E+00  0.7426709E-02 -0.4102706E-01  0.3058038E-03 -0.1932559E+00
6347000.  0.9209163E-01  0.2100012E+00  0.7432983E-02 -0.3890910E-01  0.3361382E-03 -0.1932633E+00
6346600.  0.9207833E-01  0.2135226E+00  0.7435399E-02 -0.3806047E-01  0.3482722E-03 -0.1932655E+00
6346600.  0.9207833E-01  0.1389174E+00  0.7435399E-02 -0.5329889E-01  0.3482722E-03 -0.2253719E+00
6318800.  0.9108337E-01  0.3168254E+00  0.7565767E-02 -0.5996259E-02  0.1332099E-02 -0.2252782E+00
6291000.  0.8931724E-01  0.4920825E+00  0.7484630E-02  0.4343448E-01  0.2311795E-02 -0.2234736E+00
6291000.  0.8931724E-01  0.5001937E+00  0.7484630E-02  0.4842695E-01  0.2311795E-02 -0.2234736E+00
6263000.  0.8673383E-01  0.6745020E+00  0.7156069E-02  0.1010994E+00  0.3286525E-02 -0.2197978E+00
6235000.  0.8339807E-01  0.8422832E+00  0.6596991E-02  0.1530847E+00  0.4241141E-02 -0.2143202E+00
6207000.  0.7934223E-01  0.1001942E+01  0.5813623E-02  0.2029267E+00  0.5167731E-02 -0.2070468E+00
6179000.  0.7460520E-01  0.1152042E+01  0.4818513E-02  0.2492124E+00  0.6058448E-02 -0.1980003E+00
6151000.  0.6923187E-01  0.1291305E+01  0.3630261E-02  0.2906062E+00  0.6905581E-02 -0.1872216E+00
6151000.  0.6923187E-01  0.1037647E+01  0.3630261E-02  0.2463762E+00  0.6905581E-02 -0.1910519E+00
6128500.  0.6545654E-01  0.1099013E+01  0.2719323E-02  0.2689274E+00  0.7568296E-02 -0.1841237E+00
6106000.  0.6147904E-01  0.1152172E+01  0.1734976E-02  0.2878987E+00  0.8205220E-02 -0.1764527E+00
6083500.  0.5732801E-01  0.1197317E+01  0.6903499E-03  0.3030248E+00  0.8813799E-02 -0.1680790E+00
6061000.  0.5303134E-01  0.1234704E+01 -0.4005940E-03  0.3141003E+00  0.9391629E-02 -0.1590461E+00
6038500.  0.4861585E-01  0.1264654E+01 -0.1523286E-02  0.3209869E+00  0.9936457E-02 -0.1493975E+00
6016000.  0.4410721E-01  0.1287528E+01 -0.2662786E-02  0.3236114E+00  0.1044619E-01 -0.1391787E+00
5993500.  0.3952969E-01  0.1303725E+01 -0.3804000E-02  0.3219611E+00  0.1091890E-01 -0.1284371E+00
5971000.  0.3490610E-01  0.1313694E+01 -0.4931909E-02  0.3160902E+00  0.1135281E-01 -0.1172197E+00
5971000.  0.3490610E-01  0.1180960E+01 -0.4931909E-02  0.2765847E+00  0.1135281E-01 -0.1217892E+00
5937667.  0.2879343E-01  0.1154319E+01 -0.6313962E-02  0.2508872E+00  0.1194892E-01 -0.1059890E+00
5904333.  0.2283953E-01  0.1120527E+01 -0.7549612E-02  0.2208225E+00  0.1246109E-01 -0.8972463E-01
5871000.  0.1707729E-01  0.1081409E+01 -0.8619275E-02  0.1876538E+00  0.1288724E-01 -0.7313660E-01
5837667.  0.1153017E-01  0.1038537E+01 -0.9509854E-02  0.1525528E+00  0.1322605E-01 -0.5635370E-01
5804333.  0.6214037E-02  0.9932513E+00 -0.1021409E-01  0.1165813E+00  0.1347680E-01 -0.3949408E-01
5771000.  0.1138876E-02  0.9466541E+00 -0.1072991E-01  0.8067770E-01  0.1363938E-01 -0.2266776E-01
5771000.  0.1138876E-02  0.9466502E+00 -0.1072991E-01  0.8067465E-01  0.1363938E-01 -0.2266776E-01
5701000. -0.9098319E-02  0.9151367E+00 -0.1123483E-01  0.1076342E-01  0.1369424E-01  0.1267152E-01
5701000. -0.9098319E-02  0.7404206E+00 -0.1123483E-01  0.7992259E-02  0.1369424E-01  0.1523601E-01
5667333. -0.1294892E-01  0.7168817E+00 -0.1119797E-01 -0.2161102E-01  0.1357155E-01  0.3116481E-01
5633667. -0.1667472E-01  0.6932458E+00 -0.1101025E-01 -0.4904843E-01  0.1336529E-01  0.4685383E-01
5600000. -0.2027560E-01  0.6695613E+00 -0.1068392E-01 -0.7402945E-01  0.1307692E-01  0.6222919E-01
5600000. -0.2027560E-01  0.6695532E+00 -0.1068392E-01 -0.7403354E-01  0.1307692E-01  0.6222919E-01
5563518. -0.2404477E-01  0.6469280E+00 -0.1018193E-01 -0.1009837E+00  0.1267384E-01  0.7848113E-01
5527037. -0.2768479E-01  0.6244891E+00 -0.9531409E-02 -0.1258488E+00  0.1217905E-01  0.9424892E-01
5490556. -0.3119696E-01  0.6022774E+00 -0.8745411E-02 -0.1482407E+00  0.1159556E-01  0.1094501E+00
5454074. -0.3458264E-01  0.5802649E+00 -0.7839051E-02 -0.1678308E+00  0.1092682E-01  0.1240070E+00
5417593. -0.3784254E-01  0.5583549E+00 -0.6829218E-02 -0.1843514E+00  0.1017676E-01  0.1378472E+00
5381111. -0.4097699E-01  0.5363895E+00 -0.5734028E-02 -0.1976058E+00  0.9349636E-02  0.1509049E+00
5344630. -0.4398495E-01  0.5141677E+00 -0.4572656E-02 -0.2074621E+00  0.8450154E-02  0.1631189E+00
5308148. -0.4686444E-01  0.4914477E+00 -0.3364700E-02 -0.2138599E+00  0.7483252E-02  0.1744352E+00
5271667. -0.4961169E-01  0.4679576E+00 -0.2130059E-02 -0.2168003E+00  0.6454266E-02  0.1848053E+00
5235185. -0.5222160E-01  0.4434071E+00 -0.8882976E-03 -0.2163512E+00  0.5368681E-02  0.1941872E+00
5198704. -0.5468712E-01  0.4175021E+00  0.3414446E-03 -0.2126404E+00  0.4232320E-02  0.2025448E+00
5162222. -0.5699979E-01  0.3899487E+00  0.1541058E-02 -0.2058513E+00  0.3051077E-02  0.2098480E+00
5125741. -0.5914924E-01  0.3604678E+00  0.2693496E-02 -0.1962174E+00  0.1831123E-02  0.2160736E+00
5089259. -0.6112378E-01  0.3288017E+00  0.3783307E-02 -0.1840161E+00  0.5786158E-03  0.2212035E+00
5052778. -0.6291015E-01  0.2947275E+00  0.4796619E-02 -0.1695638E+00 -0.7000648E-03  0.2252260E+00
5016296. -0.6449410E-01  0.2580580E+00  0.5721572E-02 -0.1532051E+00 -0.1998629E-02  0.2281352E+00
4979815. -0.6586026E-01  0.2186569E+00  0.6548248E-02 -0.1353101E+00 -0.3310625E-02  0.2299306E+00
4943333. -0.6699280E-01  0.1764358E+00  0.7268989E-02 -0.1162619E+00 -0.4629762E-02  0.2306181E+00
4906852. -0.6787540E-01  0.1313702E+00  0.7878277E-02 -0.9645572E-01 -0.5949649E-02  0.2302070E+00
4870370. -0.6849188E-01  0.8349135E-01  0.8372935E-02 -0.7628439E-01 -0.7264109E-02  0.2287134E+00
4833889. -0.6882635E-01  0.3289600E-01  0.8751959E-02 -0.5613533E-01 -0.8566931E-02  0.2261579E+00
4797407. -0.6886369E-01 -0.2025636E-01  0.9016576E-02 -0.3638367E-01 -0.9852168E-02  0.2225638E+00
4760926. -0.6858989E-01 -0.7573806E-01  0.9170081E-02 -0.1738562E-01 -0.1111389E-01  0.2179610E+00
4724444. -0.6799236E-01 -0.1332667E+00  0.9217748E-02  0.5301398E-03 -0.1234647E-01  0.2123815E+00
4687963. -0.6706040E-01 -0.1924906E+00  0.9166654E-02  0.1706210E-01 -0.1354436E-01  0.2058618E+00
4651482. -0.6578542E-01 -0.2530113E+00  0.9025499E-02  0.3194545E-01 -0.1470232E-01  0.1984414E+00
4615000. -0.6416118E-01 -0.3143778E+00  0.8804384E-02  0.4495343E-01 -0.1581534E-01  0.1901619E+00
4578518. -0.6218432E-01 -0.3760909E+00  0.8514607E-02  0.5589993E-01 -0.1687860E-01  0.1810687E+00
4542037. -0.5985440E-01 -0.4376172E+00  0.8168409E-02  0.6464240E-01 -0.1788754E-01  0.1712081E+00
4505556. -0.5717406E-01 -0.4983933E+00  0.7778705E-02  0.7108349E-01 -0.1883794E-01  0.1606286E+00
4469074. -0.5414915E-01 -0.5578372E+00  0.7358830E-02  0.7517098E-01 -0.1972584E-01  0.1493797E+00
4432593. -0.5078920E-01 -0.6153455E+00  0.6922329E-02  0.7689723E-01 -0.2054751E-01  0.1375131E+00
4396111. -0.4710682E-01 -0.6703193E+00  0.6482615E-02  0.7629896E-01 -0.2129961E-01  0.1250797E+00
4359630. -0.4311845E-01 -0.7221634E+00  0.6052814E-02  0.7345489E-01 -0.2197899E-01  0.1121310E+00
4323148. -0.3884344E-01 -0.7702972E+00  0.5645446E-02  0.6848342E-01 -0.2258289E-01  0.9871873E-01
4286667. -0.3430490E-01 -0.8141599E+00  0.5272283E-02  0.6154004E-01 -0.2310877E-01  0.8489371E-01
4250185. -0.2952855E-01 -0.8532292E+00  0.4944074E-02  0.5281274E-01 -0.2355443E-01  0.7070574E-01
4213704. -0.2454351E-01 -0.8870204E+00  0.4670441E-02  0.4251960E-01 -0.2391792E-01  0.5620422E-01
4177222. -0.1938100E-01 -0.9150993E+00  0.4459654E-02  0.3090238E-01 -0.2419759E-01  0.4143541E-01
4140741. -0.1407512E-01 -0.9370865E+00  0.4318561E-02  0.1822411E-01 -0.2439203E-01  0.2644537E-01
4104259. -0.8661403E-02 -0.9526670E+00  0.4252444E-02  0.4761580E-02 -0.2450011E-01  0.1127596E-01
4067778. -0.3177573E-02 -0.9615918E+00  0.4264974E-02 -0.9196738E-02 -0.2452090E-01 -0.4031640E-02
4031296.  0.2338021E-02 -0.9636858E+00  0.4358158E-02 -0.2335890E-01 -0.2445374E-01 -0.1944113E-01
3994815.  0.7845648E-02 -0.9588514E+00  0.4532315E-02 -0.3743128E-01 -0.2429813E-01 -0.3491773E-01
3958333.  0.1330582E-01 -0.9470636E+00  0.4786116E-02 -0.5112669E-01 -0.2405377E-01 -0.5043203E-01
3921852.  0.1867859E-01 -0.9283891E+00  0.5116581E-02 -0.6416569E-01 -0.2372055E-01 -0.6595670E-01
3885370.  0.2392515E-01 -0.9029650E+00  0.5519207E-02 -0.7628413E-01 -0.2329843E-01 -0.8147051E-01
3848889.  0.2900718E-01 -0.8710126E+00  0.5987983E-02 -0.8723471E-01 -0.2278757E-01 -0.9695494E-01
3812407.  0.3388837E-01 -0.8328263E+00  0.6515591E-02 -0.9679250E-01 -0.2218815E-01 -0.1123981E+00
3775926.  0.3853380E-01 -0.7887853E+00  0.7093439E-02 -0.1047560E+00 -0.2150045E-01 -0.1277916E+00
3739444.  0.4291146E-01 -0.7393308E+00  0.7711920E-02 -0.1109524E+00 -0.2072473E-01 -0.1431339E+00
3702963.  0.4699151E-01 -0.6849748E+00  0.8360455E-02 -0.1152372E+00 -0.1986132E-01 -0.1584280E+00
3666482.  0.5074765E-01 -0.6262904E+00  0.9027775E-02 -0.1174978E+00 -0.1891045E-01 -0.1736836E+00
3630000.  0.5415692E-01 -0.5638984E+00  0.9702061E-02 -0.1176529E+00 -0.1787227E-01 -0.1889183E+00
3630000.  0.5415692E-01 -0.5638978E+00  0.9702061E-02 -0.1176525E+00 -0.1787227E-01 -0.1889183E+00
3592500.  0.5729037E-01 -0.5002535E+00  0.1039002E-01 -0.1157083E+00 -0.1671412E-01 -0.2046231E+00
3555000.  0.6004016E-01 -0.4336639E+00  0.1105944E-01 -0.1113434E+00 -0.1546320E-01 -0.2204440E+00
3517500.  0.6239128E-01 -0.3649240E+00  0.1169597E-01 -0.1045328E+00 -0.1411875E-01 -0.2364116E+00
3480000.  0.6433351E-01 -0.2948757E+00  0.1228523E-01 -0.9528725E-01 -0.1267978E-01 -0.2525644E+00
3480000.  0.6433351E-01 -0.8278006E+00  0.3644564E-02  0.1110456E+00 -0.1267978E-01 -0.4549312E+00
3409422.  0.7216424E-01 -0.5847790E+00  0.2303008E-02  0.1305216E+00 -0.7270490E-02 -0.5186269E+00
3338844.  0.7728358E-01 -0.3400037E+00  0.7675050E-03  0.1460005E+00 -0.1257975E-02 -0.5636919E+00
3268266.  0.7972625E-01 -0.1029934E+00 -0.9159794E-03  0.1572055E+00  0.5148117E-02 -0.5896740E+00
3197688.  0.7962359E-01  0.1183419E+00 -0.2699325E-02  0.1640233E+00  0.1173746E-01 -0.5968864E+00
3127109.  0.7718544E-01  0.3177361E+00 -0.4534024E-02  0.1664896E+00  0.1830706E-01 -0.5863054E+00
3056531.  0.7268221E-01  0.4905306E+00 -0.6372627E-02  0.1647703E+00  0.2466763E-01 -0.5594592E+00
2985953.  0.6642715E-01  0.6336084E+00 -0.8170239E-02  0.1591439E+00  0.3064960E-01 -0.5183100E+00
2915375.  0.5876017E-01  0.7452628E+00 -0.9885559E-02  0.1499821E+00  0.3610688E-01 -0.4651339E+00
2844797.  0.5003284E-01  0.8250656E+00 -0.1148182E-01  0.1377275E+00  0.4091984E-01 -0.4024087E+00
2774219.  0.4059525E-01  0.8736895E+00 -0.1292745E-01  0.1228748E+00  0.4499689E-01 -0.3327063E+00
2703641.  0.3078463E-01  0.8927480E+00 -0.1419660E-01  0.1059564E+00  0.4827502E-01 -0.2585957E+00
2633062.  0.2091582E-01  0.8846222E+00 -0.1526943E-01  0.8751966E-01  0.5071927E-01 -0.1825548E+00
2562484.  0.1127431E-01  0.8522669E+00 -0.1613212E-01  0.6810999E-01  0.5232121E-01 -0.1069033E+00
2491906.  0.2109999E-02  0.7990601E+00 -0.1677688E-01  0.4826537E-01  0.5309703E-01 -0.3373597E-01
2421328. -0.6366075E-02  0.7286339E+00 -0.1720178E-01  0.2849921E-01  0.5308463E-01  0.3511912E-01
2350750. -0.1398391E-01  0.6447418E+00 -0.1741035E-01  0.9283826E-02  0.5234053E-01  0.9813411E-01
2280172. -0.2061499E-01  0.5510957E+00 -0.1741111E-01 -0.8946556E-02  0.5093643E-01  0.1541014E+00
2209594. -0.2617119E-01  0.4512634E+00 -0.1721720E-01 -0.2580570E-01  0.4895557E-01  0.2021404E+00
2139016. -0.3060259E-01  0.3485500E+00 -0.1684567E-01 -0.4095753E-01  0.4648917E-01  0.2416950E+00
2068438. -0.3389402E-01  0.2459149E+00 -0.1631710E-01 -0.5411835E-01  0.4363285E-01  0.2725209E+00
1997859. -0.3606067E-01  0.1458538E+00 -0.1565485E-01 -0.6505247E-01  0.4048323E-01  0.2946670E+00
1927281. -0.3714252E-01  0.5035394E-01 -0.1488475E-01 -0.7355892E-01  0.3713508E-01  0.3084475E+00
1856703. -0.3719820E-01 -0.3923993E-01 -0.1403467E-01 -0.7946730E-01  0.3367814E-01  0.3144163E+00
1786125. -0.3629736E-01 -0.1222999E+00 -0.1313427E-01 -0.8261263E-01  0.3019491E-01  0.3133363E+00
1715547. -0.3451183E-01 -0.1990870E+00 -0.1221521E-01 -0.8280034E-01  0.2675840E-01  0.3061546E+00
1644969. -0.3190462E-01 -0.2709839E+00 -0.1131164E-01 -0.7976218E-01  0.2343019E-01  0.2939852E+00
1574391. -0.2851557E-01 -0.3408758E+00 -0.1046145E-01 -0.7307217E-01  0.2025857E-01  0.2781103E+00
1503812. -0.2434123E-01 -0.4138207E+00 -0.9708712E-02 -0.6201372E-01  0.1727658E-01  0.2600083E+00
1433234. -0.1930526E-01 -0.4982165E+00 -0.9108018E-02 -0.4535975E-01  0.1449955E-01  0.2414392E+00
1362656. -0.1321037E-01 -0.6079270E+00 -0.8732066E-02 -0.2097810E-01  0.1192089E-01  0.2246193E+00
1292078. -0.5658645E-02 -0.7662066E+00 -0.8685231E-02  0.1487195E-01  0.9505431E-02  0.2125735E+00
1221500.  0.4089599E-02 -0.1013194E+01 -0.9127951E-02  0.6887321E-01  0.7177133E-02  0.2098165E+00
1221500.  0.4089599E-02  0.2527692E+01  0.1726481E-01  0.6871820E-01  0.7177133E-02  0.2080449E+00
1183328. -0.1151686E-01  0.2664766E+01  0.1648110E-01  0.1914939E+00  0.6015564E-02  0.1802142E+00
1145156. -0.2763342E-01  0.2697180E+01  0.1499408E-01  0.3022969E+00  0.5011623E-02  0.1553835E+00
1106984. -0.4362480E-01  0.2623186E+01  0.1289553E-01  0.3946697E+00  0.4148116E-02  0.1332954E+00
1068812. -0.5886287E-01  0.2446882E+01  0.1031140E-01  0.4637178E+00  0.3409331E-02  0.1137133E+00
1030641. -0.7276036E-01  0.2177840E+01  0.7391701E-02  0.5063503E+00  0.2780931E-02  0.9641843E-01
 992469. -0.8480306E-01  0.1830364E+01  0.4299066E-02  0.5213817E+00  0.2249796E-02  0.8120837E-01
 954297. -0.9457329E-01  0.1422562E+01  0.1197824E-02  0.5094850E+00  0.1804010E-02  0.6789875E-01
 916125. -0.1017707E+00  0.9751546E+00 -0.1757000E-02  0.4730308E+00  0.1432715E-02  0.5631513E-01
 877953. -0.1062237E+00  0.5102063E+00 -0.4428993E-02  0.4158087E+00  0.1126053E-02  0.4629834E-01
 839781. -0.1078937E+00  0.4979686E-01 -0.6707851E-02  0.3426788E+00  0.8750899E-03  0.3769827E-01
 801609. -0.1068713E+00 -0.3852326E+00 -0.8514551E-02  0.2591531E+00  0.6717673E-03  0.3037303E-01
 763438. -0.1033653E+00 -0.7764145E+00 -0.9804013E-02  0.1709909E+00  0.5088513E-03  0.2419041E-01
 725266. -0.9768550E-01 -0.1108646E+01 -0.1056538E-01  0.8375544E-01  0.3798676E-03  0.1902422E-01
 687094. -0.9022050E-01 -0.1370824E+01 -0.1081961E-01  0.2481840E-02  0.2790955E-03  0.1475414E-01
 648922. -0.8141215E-01 -0.1556338E+01 -0.1061541E-01 -0.6865606E-01  0.2014995E-03  0.1126990E-01
 610750. -0.7172812E-01 -0.1663180E+01 -0.1002339E-01 -0.1265589E+00  0.1426934E-03  0.8464816E-02
 572578. -0.6163456E-01 -0.1693799E+01 -0.9129136E-02 -0.1693283E+00  0.9890697E-04  0.6240536E-02
 534406. -0.5157062E-01 -0.1654682E+01 -0.8025929E-02 -0.1962977E+00  0.6693496E-04  0.4506652E-02
 496234. -0.4192605E-01 -0.1555698E+01 -0.6807485E-02 -0.2079704E+00  0.4409138E-04  0.3180192E-02
 458062. -0.3302339E-01 -0.1409262E+01 -0.5561343E-02 -0.2058725E+00  0.2816426E-04  0.2186159E-02
 419891. -0.2510574E-01 -0.1229384E+01 -0.4363391E-02 -0.1923391E+00  0.1736355E-04  0.1458736E-02
 381719. -0.1832945E-01 -0.1030627E+01 -0.3273645E-02 -0.1702534E+00  0.1026856E-04  0.9401847E-03
 343547. -0.1276500E-01 -0.8271374E+00 -0.2334022E-02 -0.1427594E+00  0.5778410E-05  0.5817608E-03
 305375. -0.8401562E-02 -0.6316978E+00 -0.1567472E-02 -0.1129860E+00  0.3059936E-05  0.3426250E-03
 267203. -0.5157852E-02 -0.4549223E+00 -0.9789517E-03 -0.8376902E-01  0.1501093E-05  0.1897618E-03
 229031. -0.2897027E-02 -0.3046584E+00 -0.5578407E-03 -0.5744114E-01  0.6663719E-06  0.9707581E-04
 190859. -0.1444603E-02 -0.1855785E+00 -0.2814962E-03 -0.3565961E-01  0.2580262E-06  0.4456377E-04
 152688. -0.6080465E-03 -0.9903505E-01 -0.1196189E-03 -0.1931519E-01  0.8189871E-07  0.1748237E-04
 114516. -0.1964873E-03 -0.4313438E-01 -0.3893717E-04 -0.8507438E-02  0.1894391E-07  0.5340083E-05
  76344. -0.3939877E-04 -0.1307273E-01 -0.7847760E-05 -0.2598566E-02  0.2448937E-08  0.1027915E-05
  38172. -0.2484643E-05 -0.1656262E-02 -0.4964207E-06 -0.3307442E-03  0.7569736E-10  0.6331620E-07
      0.  0.0000000E+00  0.0000000E+00  0.0000000E+00  0.0000000E+00  0.0000000E+00  0.0000000E+00
