       2       45 S      209        117.57480          7.48276          5.84816        163.20630      185    7
6371000. -0.5977074E-01 -0.1220337E+01 -0.1557780E-02  0.5821297E-01  0.2213450E-02  0.1089494E-01
6370000. -0.5957609E-01 -0.1259928E+01 -0.1566796E-02  0.5666123E-01  0.2211752E-02  0.1073423E-01
6369000. -0.5937525E-01 -0.1299088E+01 -0.1575566E-02  0.5508893E-01  0.2210080E-02  0.1056784E-01
6368000. -0.5916829E-01 -0.1337810E+01 -0.1584088E-02  0.5349639E-01  0.2208435E-02  0.1039576E-01
6368000. -0.5916829E-01 -0.1337810E+01 -0.1584088E-02  0.5349639E-01  0.2208435E-02  0.1039576E-01
6367000. -0.5895530E-01 -0.1376086E+01 -0.1592359E-02  0.5188395E-01  0.2206817E-02  0.1021795E-01
6366000. -0.5873634E-01 -0.1413910E+01 -0.1600375E-02  0.5025194E-01  0.2205228E-02  0.1003438E-01
6365000. -0.5851147E-01 -0.1451274E+01 -0.1608133E-02  0.4860070E-01  0.2203668E-02  0.9845035E-02
6364000. -0.5828077E-01 -0.1488171E+01 -0.1615631E-02  0.4693059E-01  0.2202138E-02  0.9649877E-02
6363000. -0.5804432E-01 -0.1524594E+01 -0.1622865E-02  0.4524196E-01  0.2200639E-02  0.9448880E-02
6362000. -0.5780219E-01 -0.1560536E+01 -0.1629832E-02  0.4353515E-01  0.2199172E-02  0.9242017E-02
6361000. -0.5755446E-01 -0.1595991E+01 -0.1636530E-02  0.4181055E-01  0.2197738E-02  0.9029259E-02
6360000. -0.5730120E-01 -0.1630951E+01 -0.1642956E-02  0.4006849E-01  0.2196338E-02  0.8810577E-02
6359000. -0.5704249E-01 -0.1665410E+01 -0.1649108E-02  0.3830937E-01  0.2194972E-02  0.8585943E-02
6358000. -0.5677842E-01 -0.1699361E+01 -0.1654982E-02  0.3653355E-01  0.2193643E-02  0.8355326E-02
6357000. -0.5650905E-01 -0.1732799E+01 -0.1660576E-02  0.3474141E-01  0.2192349E-02  0.8118700E-02
6356000. -0.5623448E-01 -0.1765717E+01 -0.1665887E-02  0.3293333E-01  0.2191094E-02  0.7876033E-02
6356000. -0.5623448E-01 -0.1444776E+01 -0.1665887E-02  0.4156069E-01  0.2191094E-02  0.2011200E-01
6355000. -0.5600569E-01 -0.1470363E+01 -0.1672346E-02  0.4073995E-01  0.2187944E-02  0.2002855E-01
6354000. -0.5577291E-01 -0.1495710E+01 -0.1678676E-02  0.3990994E-01  0.2184807E-02  0.1994218E-01
6353000. -0.5553617E-01 -0.1520815E+01 -0.1684874E-02  0.3907076E-01  0.2181684E-02  0.1985287E-01
6352000. -0.5529551E-01 -0.1545674E+01 -0.1690940E-02  0.3822251E-01  0.2178575E-02  0.1976061E-01
6351000. -0.5505096E-01 -0.1570284E+01 -0.1696873E-02  0.3736530E-01  0.2175481E-02  0.1966540E-01
6350000. -0.5480257E-01 -0.1594642E+01 -0.1702670E-02  0.3649924E-01  0.2172401E-02  0.1956723E-01
6349000. -0.5455038E-01 -0.1618744E+01 -0.1708330E-02  0.3562444E-01  0.2169338E-02  0.1946607E-01
6348000. -0.5429443E-01 -0.1642587E+01 -0.1713853E-02  0.3474101E-01  0.2166291E-02  0.1936193E-01
6347000. -0.5403475E-01 -0.1666169E+01 -0.1719236E-02  0.3384906E-01  0.2163260E-02  0.1925479E-01
6346600. -0.5392985E-01 -0.1675528E+01 -0.1721350E-02  0.3348992E-01  0.2162053E-02  0.1921109E-01
6346600. -0.5392985E-01 -0.1683556E+01 -0.1721350E-02  0.3963602E-01  0.2162053E-02  0.3801564E-01
6318800. -0.4543133E-01 -0.2195038E+01 -0.1872702E-02  0.2903617E-01  0.1997285E-02  0.3743676E-01
6291000. -0.3494813E-01 -0.2586834E+01 -0.1969299E-02  0.1469874E-01  0.1835842E-02  0.3651340E-01
6291000. -0.3494813E-01 -0.2650728E+01 -0.1969299E-02  0.1405971E-01  0.1835842E-02  0.3651340E-01
6263000. -0.2271725E-01 -0.2883843E+01 -0.1989816E-02 -0.5074968E-02  0.1679420E-02  0.3462596E-01
6235000. -0.9891659E-02 -0.2918274E+01 -0.1922777E-02 -0.2551270E-01  0.1531790E-02  0.3253061E-01
6207000.  0.2626335E-02 -0.2743426E+01 -0.1766111E-02 -0.4557765E-01  0.1393618E-02  0.3034182E-01
6179000.  0.1392362E-01 -0.2365113E+01 -0.1525168E-02 -0.6359156E-01  0.1265046E-02  0.2818328E-01
6151000.  0.2314927E-01 -0.1805761E+01 -0.1212434E-02 -0.7800830E-01  0.1145660E-02  0.2618301E-01
6151000.  0.2314927E-01 -0.1665929E+01 -0.1212434E-02 -0.7162187E-01  0.1145660E-02  0.2490227E-01
6128500.  0.2821350E-01 -0.1195298E+01 -0.9515407E-03 -0.7569638E-01  0.1058418E-02  0.2450062E-01
6106000.  0.3155508E-01 -0.6936705E+00 -0.6808390E-03 -0.7716994E-01  0.9726087E-03  0.2409617E-01
6083500.  0.3309988E-01 -0.1810516E+00 -0.4095146E-03 -0.7606102E-01  0.8881909E-03  0.2371684E-01
6061000.  0.3284398E-01  0.3229086E+00 -0.1465006E-03 -0.7249207E-01  0.8050319E-03  0.2338728E-01
6038500.  0.3085116E-01  0.7996640E+00  0.9986887E-04 -0.6667759E-01  0.7229126E-03  0.2313239E-01
6016000.  0.2724771E-01  0.1232428E+01  0.3221568E-03 -0.5890812E-01  0.6415232E-03  0.2297855E-01
5993500.  0.2221532E-01  0.1606713E+01  0.5140603E-03 -0.4953255E-01  0.5604564E-03  0.2295504E-01
5971000.  0.1598213E-01  0.1910760E+01  0.6705857E-03 -0.3894024E-01  0.4791911E-03  0.2309749E-01
5971000.  0.1598213E-01  0.1774630E+01  0.6705857E-03 -0.3645014E-01  0.4791911E-03  0.2100529E-01
5937667.  0.5976146E-02  0.2024998E+01  0.8251720E-03 -0.2273553E-01  0.3734195E-03  0.1940066E-01
5904333. -0.4953702E-02  0.2129844E+01  0.9103328E-03 -0.1006528E-01  0.2765052E-03  0.1761032E-01
5871000. -0.1608752E-01  0.2106646E+01  0.9336471E-03  0.8091700E-03  0.1895233E-03  0.1560192E-01
5837667. -0.2681599E-01  0.1979192E+01  0.9057379E-03  0.9471497E-02  0.1136432E-03  0.1336623E-01
5804333. -0.3666295E-01  0.1774081E+01  0.8386403E-03  0.1578622E-01  0.5005043E-04  0.1090478E-01
5771000. -0.4529167E-01  0.1517941E+01  0.7445109E-03  0.1983332E-01 -0.7691500E-07  0.8219229E-02
5771000. -0.4529167E-01  0.1518045E+01  0.7445109E-03  0.1983433E-01 -0.7691500E-07  0.8219229E-02
5701000. -0.5895154E-01  0.9585530E+00  0.5164875E-03  0.2057477E-01 -0.4376383E-04 -0.5203508E-03
5701000. -0.5895154E-01  0.8532943E+00  0.5164875E-03  0.3017841E-01 -0.4376383E-04  0.1609597E-01
5667333. -0.6262358E-01  0.5423449E+00  0.3647433E-03  0.2721298E-01 -0.1135443E-03  0.1053948E-01
5633667. -0.6475065E-01  0.2691168E+00  0.2290304E-03  0.2416077E-01 -0.1573352E-03  0.6224424E-02
5600000. -0.6553682E-01  0.3478538E-01  0.1090658E-03  0.2129421E-01 -0.1812125E-03  0.2981716E-02
5600000. -0.6553682E-01  0.3479712E-01  0.1090658E-03  0.2129165E-01 -0.1812125E-03  0.2981716E-02
5563518. -0.6511785E-01 -0.1743059E+00 -0.9665711E-06  0.1720925E-01 -0.1908576E-03  0.5589649E-03
5527037. -0.6361623E-01 -0.3438089E+00 -0.8882403E-04  0.1354729E-01 -0.1892726E-03 -0.9915960E-03
5490556. -0.6125053E-01 -0.4766428E+00 -0.1569094E-03  0.1030233E-01 -0.1806626E-03 -0.1931682E-02
5454074. -0.5822124E-01 -0.5761386E+00 -0.2075909E-03  0.7466250E-02 -0.1679501E-03 -0.2450883E-02
5417593. -0.5470927E-01 -0.6458791E+00 -0.2431726E-03  0.5026115E-02 -0.1531385E-03 -0.2683837E-02
5381111. -0.5087417E-01 -0.6895885E+00 -0.2658711E-03  0.2962576E-02 -0.1375743E-03 -0.2727070E-02
5344630. -0.4685453E-01 -0.7109901E+00 -0.2777763E-03  0.1252144E-02 -0.1221385E-03 -0.2648584E-02
5308148. -0.4276738E-01 -0.7137179E+00 -0.2808317E-03 -0.1334187E-03 -0.1073826E-03 -0.2495984E-02
5271667. -0.3870992E-01 -0.7012159E+00 -0.2768120E-03 -0.1224194E-02 -0.9363268E-04 -0.2301818E-02
5235185. -0.3475984E-01 -0.6766867E+00 -0.2673131E-03 -0.2052594E-02 -0.8105770E-04 -0.2088478E-02
5198704. -0.3097773E-01 -0.6430407E+00 -0.2537435E-03 -0.2651560E-02 -0.6972336E-04 -0.1870624E-02
5162222. -0.2740804E-01 -0.6028625E+00 -0.2373225E-03 -0.3053735E-02 -0.5962418E-04 -0.1658202E-02
5125741. -0.2408175E-01 -0.5584036E+00 -0.2190872E-03 -0.3290462E-02 -0.5071215E-04 -0.1456820E-02
5089259. -0.2101757E-01 -0.5115763E+00 -0.1998986E-03 -0.3391311E-02 -0.4291207E-04 -0.1270174E-02
5052778. -0.1822452E-01 -0.4639717E+00 -0.1804564E-03 -0.3383484E-02 -0.3613465E-04 -0.1099855E-02
5016296. -0.1570308E-01 -0.4168692E+00 -0.1613107E-03 -0.3291405E-02 -0.3028398E-04 -0.9464599E-03
4979815. -0.1344753E-01 -0.3712728E+00 -0.1428818E-03 -0.3136656E-02 -0.2526360E-04 -0.8097923E-03
4943333. -0.1144687E-01 -0.3279293E+00 -0.1254729E-03 -0.2937789E-02 -0.2097991E-04 -0.6889652E-03
4906852. -0.9686672E-02 -0.2873713E+00 -0.1092912E-03 -0.2710618E-02 -0.1734469E-04 -0.5831571E-03
4870370. -0.8149851E-02 -0.2499366E+00 -0.9445929E-04 -0.2468114E-02 -0.1427532E-04 -0.4910650E-03
4833889. -0.6818011E-02 -0.2158091E+00 -0.8103508E-04 -0.2220606E-02 -0.1169723E-04 -0.4113974E-03
4797407. -0.5671930E-02 -0.1850430E+00 -0.6902203E-04 -0.1976297E-02 -0.9542379E-05 -0.3430053E-03
4760926. -0.4692514E-02 -0.1575928E+00 -0.5838405E-04 -0.1741288E-02 -0.7750064E-05 -0.2845811E-03
4724444. -0.3861046E-02 -0.1333332E+00 -0.4905429E-04 -0.1519867E-02 -0.6266494E-05 -0.2349682E-03
4687963. -0.3159790E-02 -0.1120870E+00 -0.4094650E-04 -0.1314937E-02 -0.5044424E-05 -0.1930791E-03
4651482. -0.2572076E-02 -0.9363685E-01 -0.3396076E-04 -0.1128142E-02 -0.4042568E-05 -0.1578912E-03
4615000. -0.2082557E-02 -0.7774367E-01 -0.2799071E-04 -0.9601710E-03 -0.3225169E-05 -0.1284983E-03
4578518. -0.1677316E-02 -0.6415915E-01 -0.2292860E-04 -0.8109597E-03 -0.2561502E-05 -0.1040683E-03
4542037. -0.1343856E-02 -0.5263453E-01 -0.1866869E-04 -0.6798859E-03 -0.2025255E-05 -0.8388449E-04
4505556. -0.1071071E-02 -0.4292743E-01 -0.1510976E-04 -0.5659285E-03 -0.1594012E-05 -0.6729047E-04
4469074. -0.8492116E-03 -0.3480792E-01 -0.1215730E-04 -0.4677973E-03 -0.1248864E-05 -0.5372172E-04
4432593. -0.6698182E-03 -0.2806284E-01 -0.9724897E-05 -0.3840655E-03 -0.9739593E-06 -0.4268126E-04
4396111. -0.5255806E-03 -0.2249634E-01 -0.7734255E-05 -0.3132297E-03 -0.7560683E-06 -0.3374181E-04
4359630. -0.4102707E-03 -0.1793257E-01 -0.6115913E-05 -0.2538011E-03 -0.5842067E-06 -0.2654962E-04
4323148. -0.3185993E-03 -0.1421450E-01 -0.4808652E-05 -0.2043298E-03 -0.4492977E-06 -0.2078606E-04
4286667. -0.2461314E-03 -0.1120464E-01 -0.3759432E-05 -0.1634681E-03 -0.3439215E-06 -0.1619614E-04
4250185. -0.1891594E-03 -0.8782974E-02 -0.2922535E-05 -0.1299633E-03 -0.2620045E-06 -0.1255764E-04
4213704. -0.1446208E-03 -0.6846588E-02 -0.2259158E-05 -0.1026915E-03 -0.1986416E-06 -0.9688959E-05
4177222. -0.1099931E-03 -0.5307486E-02 -0.1736513E-05 -0.8064714E-04 -0.1498646E-06 -0.7439629E-05
4140741. -0.8322175E-04 -0.4091558E-02 -0.1327263E-05 -0.6295324E-04 -0.1124993E-06 -0.5684949E-05
4104259. -0.6263816E-04 -0.3136580E-02 -0.1008712E-05 -0.4884730E-04 -0.8400801E-07 -0.4324611E-05
4067778. -0.4690160E-04 -0.2390980E-02 -0.7622493E-06 -0.3767758E-04 -0.6238007E-07 -0.3275673E-05
4031296. -0.3493817E-04 -0.1812188E-02 -0.5726733E-06 -0.2889178E-04 -0.4602601E-07 -0.2472606E-05
3994815. -0.2589622E-04 -0.1365455E-02 -0.4277081E-06 -0.2202747E-04 -0.3369565E-07 -0.1862569E-05
3958333. -0.1910286E-04 -0.1022522E-02 -0.3174788E-06 -0.1670021E-04 -0.2440733E-07 -0.1403918E-05
3921852. -0.1403155E-04 -0.7606469E-03 -0.2341245E-06 -0.1259405E-04 -0.1739038E-07 -0.1064611E-05
3885370. -0.1027208E-04 -0.5615891E-03 -0.1714132E-06 -0.9450879E-05 -0.1203499E-07 -0.8199872E-06
3848889. -0.7508011E-05 -0.4108585E-03 -0.1244520E-06 -0.7062294E-05 -0.7853545E-08 -0.6521375E-06
3812407. -0.5496654E-05 -0.2969722E-03 -0.8941679E-07 -0.5260020E-05 -0.4443713E-08 -0.5488542E-06
3775926. -0.4053995E-05 -0.2109180E-03 -0.6335276E-07 -0.3909009E-05 -0.1458304E-08 -0.5031795E-06
3739444. -0.3041582E-05 -0.1456585E-03 -0.4399860E-07 -0.2899718E-05  0.1424572E-08 -0.5130693E-06
3702963. -0.2356575E-05 -0.9579159E-04 -0.2966685E-07 -0.2140837E-05  0.4528491E-08 -0.5812719E-06
3666482. -0.1922932E-05 -0.5730195E-04 -0.1915908E-07 -0.1550795E-05  0.8206776E-08 -0.7153081E-06
3630000. -0.1683870E-05 -0.2748930E-04 -0.1174084E-07 -0.1047138E-05  0.1286834E-07 -0.9269281E-06
3630000. -0.1683870E-05 -0.2748910E-04 -0.1174084E-07 -0.1047094E-05  0.1286834E-07 -0.9269281E-06
3592500. -0.1593459E-05 -0.4471825E-05 -0.7047848E-08 -0.5347928E-06  0.1919726E-07 -0.1241420E-05
3555000. -0.1615122E-05  0.1022715E-04 -0.5756896E-08  0.1392950E-06  0.2770702E-07 -0.1670005E-05
3517500. -0.1689600E-05  0.1237221E-04 -0.9463796E-08  0.1214500E-05  0.3908913E-07 -0.2215903E-05
3480000. -0.1716688E-05 -0.8300282E-05 -0.2163029E-07  0.3103223E-05  0.5396113E-07 -0.2844738E-05
3480000. -0.1716688E-05 -0.1185729E-03 -0.4371304E-07 -0.3062048E-05  0.5396113E-07  0.2555257E-05
3409422. -0.7885656E-06 -0.5628641E-04 -0.1987342E-07 -0.1436182E-05  0.3009745E-07  0.1723444E-05
3338844. -0.3530566E-06 -0.2602156E-04 -0.8814530E-08 -0.6567987E-06  0.1535073E-07  0.9815117E-06
3268266. -0.1540272E-06 -0.1171501E-04 -0.3812653E-08 -0.2928056E-06  0.7340454E-08  0.5070267E-06
3197688. -0.6545350E-07 -0.5134936E-05 -0.1607500E-08 -0.1272028E-06  0.3332816E-08  0.2445418E-06
3127109. -0.2707897E-07 -0.2190545E-05 -0.6602614E-09 -0.5382418E-07  0.1446966E-08  0.1116986E-06
3056531. -0.1090045E-07 -0.9090651E-06 -0.2640227E-09 -0.2217085E-07  0.6032091E-09  0.4869883E-07
2985953. -0.4266337E-08 -0.3667708E-06 -0.1027037E-09 -0.8884011E-08  0.2420393E-09  0.2035747E-07
2915375. -0.1622211E-08 -0.1437594E-06 -0.3883028E-10 -0.3460289E-08  0.9360357E-10  0.8180935E-08
2844797. -0.5986804E-09 -0.5469527E-07 -0.1425502E-10 -0.1308878E-08  0.3490982E-10  0.3165064E-08
2774219. -0.2142221E-09 -0.2017941E-07 -0.5075736E-11 -0.4803197E-09  0.1255668E-10  0.1179639E-08
2703641. -0.7424084E-10 -0.7210924E-08 -0.1750643E-11 -0.1708242E-09  0.4353812E-11  0.4236355E-09
2633062. -0.2490835E-10 -0.2490207E-08 -0.5835660E-12 -0.5885789E-10  0.1452429E-11  0.1467236E-09
2562484.  0.0000000E+00  0.0000000E+00  0.0000000E+00  0.0000000E+00  0.0000000E+00  0.0000000E+00
2491906.  0.0000000E+00  0.0000000E+00  0.0000000E+00  0.0000000E+00  0.0000000E+00  0.0000000E+00
2421328.  0.0000000E+00  0.0000000E+00  0.0000000E+00  0.0000000E+00  0.0000000E+00  0.0000000E+00
2350750.  0.0000000E+00  0.0000000E+00  0.0000000E+00  0.0000000E+00  0.0000000E+00  0.0000000E+00
2280172.  0.0000000E+00  0.0000000E+00  0.0000000E+00  0.0000000E+00  0.0000000E+00  0.0000000E+00
2209594.  0.0000000E+00  0.0000000E+00  0.0000000E+00  0.0000000E+00  0.0000000E+00  0.0000000E+00
2139016.  0.0000000E+00  0.0000000E+00  0.0000000E+00  0.0000000E+00  0.0000000E+00  0.0000000E+00
2068438.  0.0000000E+00  0.0000000E+00  0.0000000E+00  0.0000000E+00  0.0000000E+00  0.0000000E+00
1997859.  0.0000000E+00  0.0000000E+00  0.0000000E+00  0.0000000E+00  0.0000000E+00  0.0000000E+00
1927281.  0.0000000E+00  0.0000000E+00  0.0000000E+00  0.0000000E+00  0.0000000E+00  0.0000000E+00
1856703.  0.0000000E+00  0.0000000E+00  0.0000000E+00  0.0000000E+00  0.0000000E+00  0.0000000E+00
1786125.  0.0000000E+00  0.0000000E+00  0.0000000E+00  0.0000000E+00  0.0000000E+00  0.0000000E+00
1715547.  0.0000000E+00  0.0000000E+00  0.0000000E+00  0.0000000E+00  0.0000000E+00  0.0000000E+00
1644969.  0.0000000E+00  0.0000000E+00  0.0000000E+00  0.0000000E+00  0.0000000E+00  0.0000000E+00
1574391.  0.0000000E+00  0.0000000E+00  0.0000000E+00  0.0000000E+00  0.0000000E+00  0.0000000E+00
1503812.  0.0000000E+00  0.0000000E+00  0.0000000E+00  0.0000000E+00  0.0000000E+00  0.0000000E+00
1433234.  0.0000000E+00  0.0000000E+00  0.0000000E+00  0.0000000E+00  0.0000000E+00  0.0000000E+00
1362656.  0.0000000E+00  0.0000000E+00  0.0000000E+00  0.0000000E+00  0.0000000E+00  0.0000000E+00
1292078.  0.0000000E+00  0.0000000E+00  0.0000000E+00  0.0000000E+00  0.0000000E+00  0.0000000E+00
1221500.  0.0000000E+00  0.0000000E+00  0.0000000E+00  0.0000000E+00  0.0000000E+00  0.0000000E+00
1221500.  0.0000000E+00  0.0000000E+00  0.0000000E+00  0.0000000E+00  0.0000000E+00  0.0000000E+00
1183328.  0.0000000E+00  0.0000000E+00  0.0000000E+00  0.0000000E+00  0.0000000E+00  0.0000000E+00
1145156.  0.0000000E+00  0.0000000E+00  0.0000000E+00  0.0000000E+00  0.0000000E+00  0.0000000E+00
1106984.  0.0000000E+00  0.0000000E+00  0.0000000E+00  0.0000000E+00  0.0000000E+00  0.0000000E+00
1068812.  0.0000000E+00  0.0000000E+00  0.0000000E+00  0.0000000E+00  0.0000000E+00  0.0000000E+00
1030641.  0.0000000E+00  0.0000000E+00  0.0000000E+00  0.0000000E+00  0.0000000E+00  0.0000000E+00
 992469.  0.0000000E+00  0.0000000E+00  0.0000000E+00  0.0000000E+00  0.0000000E+00  0.0000000E+00
 954297.  0.0000000E+00  0.0000000E+00  0.0000000E+00  0.0000000E+00  0.0000000E+00  0.0000000E+00
 916125.  0.0000000E+00  0.0000000E+00  0.0000000E+00  0.0000000E+00  0.0000000E+00  0.0000000E+00
 877953.  0.0000000E+00  0.0000000E+00  0.0000000E+00  0.0000000E+00  0.0000000E+00  0.0000000E+00
 839781.  0.0000000E+00  0.0000000E+00  0.0000000E+00  0.0000000E+00  0.0000000E+00  0.0000000E+00
 801609.  0.0000000E+00  0.0000000E+00  0.0000000E+00  0.0000000E+00  0.0000000E+00  0.0000000E+00
 763438.  0.0000000E+00  0.0000000E+00  0.0000000E+00  0.0000000E+00  0.0000000E+00  0.0000000E+00
 725266.  0.0000000E+00  0.0000000E+00  0.0000000E+00  0.0000000E+00  0.0000000E+00  0.0000000E+00
 687094.  0.0000000E+00  0.0000000E+00  0.0000000E+00  0.0000000E+00  0.0000000E+00  0.0000000E+00
 648922.  0.0000000E+00  0.0000000E+00  0.0000000E+00  0.0000000E+00  0.0000000E+00  0.0000000E+00
 610750.  0.0000000E+00  0.0000000E+00  0.0000000E+00  0.0000000E+00  0.0000000E+00  0.0000000E+00
 572578.  0.0000000E+00  0.0000000E+00  0.0000000E+00  0.0000000E+00  0.0000000E+00  0.0000000E+00
 534406.  0.0000000E+00  0.0000000E+00  0.0000000E+00  0.0000000E+00  0.0000000E+00  0.0000000E+00
 496234.  0.0000000E+00  0.0000000E+00  0.0000000E+00  0.0000000E+00  0.0000000E+00  0.0000000E+00
 458062.  0.0000000E+00  0.0000000E+00  0.0000000E+00  0.0000000E+00  0.0000000E+00  0.0000000E+00
 419891.  0.0000000E+00  0.0000000E+00  0.0000000E+00  0.0000000E+00  0.0000000E+00  0.0000000E+00
 381719.  0.0000000E+00  0.0000000E+00  0.0000000E+00  0.0000000E+00  0.0000000E+00  0.0000000E+00
 343547.  0.0000000E+00  0.0000000E+00  0.0000000E+00  0.0000000E+00  0.0000000E+00  0.0000000E+00
 305375.  0.0000000E+00  0.0000000E+00  0.0000000E+00  0.0000000E+00  0.0000000E+00  0.0000000E+00
 267203.  0.0000000E+00  0.0000000E+00  0.0000000E+00  0.0000000E+00  0.0000000E+00  0.0000000E+00
 229031.  0.0000000E+00  0.0000000E+00  0.0000000E+00  0.0000000E+00  0.0000000E+00  0.0000000E+00
 190859.  0.0000000E+00  0.0000000E+00  0.0000000E+00  0.0000000E+00  0.0000000E+00  0.0000000E+00
 152688.  0.0000000E+00  0.0000000E+00  0.0000000E+00  0.0000000E+00  0.0000000E+00  0.0000000E+00
 114516.  0.0000000E+00  0.0000000E+00  0.0000000E+00  0.0000000E+00  0.0000000E+00  0.0000000E+00
  76344.  0.0000000E+00  0.0000000E+00  0.0000000E+00  0.0000000E+00  0.0000000E+00  0.0000000E+00
  38172.  0.0000000E+00  0.0000000E+00  0.0000000E+00  0.0000000E+00  0.0000000E+00  0.0000000E+00
      0.  0.0000000E+00  0.0000000E+00  0.0000000E+00  0.0000000E+00  0.0000000E+00  0.0000000E+00
