      24        6 S      739        103.17640         59.68891          7.20892        248.13950      185    7
6371000. -0.1306036E-01  0.1289399E+00  0.7190462E-02  0.2025082E-01 -0.5053108E-04  0.2498250E-01
6370000. -0.1307987E-01  0.1196377E+00  0.7185983E-02  0.3681549E-01 -0.5444831E-04  0.2493036E-01
6369000. -0.1309791E-01  0.1102435E+00  0.7178905E-02  0.5336867E-01 -0.5835714E-04  0.2487551E-01
6368000. -0.1311447E-01  0.1007581E+00  0.7169231E-02  0.6990437E-01 -0.6225715E-04  0.2481796E-01
6368000. -0.1311447E-01  0.1007581E+00  0.7169231E-02  0.6990437E-01 -0.6225715E-04  0.2481796E-01
6367000. -0.1312954E-01  0.9118272E-01  0.7156962E-02  0.8641658E-01 -0.6614791E-04  0.2475771E-01
6366000. -0.1314309E-01  0.8151849E-01  0.7142104E-02  0.1028993E+00 -0.7002901E-04  0.2469476E-01
6365000. -0.1315512E-01  0.7176657E-01  0.7124661E-02  0.1193466E+00 -0.7390001E-04  0.2462912E-01
6364000. -0.1316562E-01  0.6192818E-01  0.7104641E-02  0.1357524E+00 -0.7776050E-04  0.2456080E-01
6363000. -0.1317456E-01  0.5200455E-01  0.7082048E-02  0.1521109E+00 -0.8161006E-04  0.2448980E-01
6362000. -0.1318194E-01  0.4199698E-01  0.7056892E-02  0.1684160E+00 -0.8544826E-04  0.2441614E-01
6361000. -0.1318774E-01  0.3190679E-01  0.7029182E-02  0.1846618E+00 -0.8927469E-04  0.2433981E-01
6360000. -0.1319195E-01  0.2173532E-01  0.6998926E-02  0.2008425E+00 -0.9308894E-04  0.2426083E-01
6359000. -0.1319456E-01  0.1148398E-01  0.6966136E-02  0.2169521E+00 -0.9689057E-04  0.2417921E-01
6358000. -0.1319555E-01  0.1154202E-02  0.6930824E-02  0.2329848E+00 -0.1006792E-03  0.2409494E-01
6357000. -0.1319492E-01 -0.9252554E-02  0.6893001E-02  0.2489348E+00 -0.1044544E-03  0.2400805E-01
6356000. -0.1319264E-01 -0.1973478E-01  0.6852682E-02  0.2647963E+00 -0.1082157E-03  0.2391854E-01
6356000. -0.1319264E-01  0.1470764E-01  0.6852682E-02  0.1677947E+00 -0.1082157E-03  0.2678911E-01
6355000. -0.1319436E-01  0.7206737E-02  0.6825513E-02  0.1783870E+00 -0.1124135E-03  0.2669808E-01
6354000. -0.1319490E-01 -0.3441551E-03  0.6796685E-02  0.1889370E+00 -0.1165967E-03  0.2660493E-01
6353000. -0.1319425E-01 -0.7944264E-02  0.6766205E-02  0.1994421E+00 -0.1207652E-03  0.2650968E-01
6352000. -0.1319240E-01 -0.1559281E-01  0.6734078E-02  0.2098999E+00 -0.1249186E-03  0.2641233E-01
6351000. -0.1318935E-01 -0.2328898E-01  0.6700315E-02  0.2203076E+00 -0.1290566E-03  0.2631290E-01
6350000. -0.1318509E-01 -0.3103198E-01  0.6664922E-02  0.2306628E+00 -0.1331787E-03  0.2621137E-01
6349000. -0.1317961E-01 -0.3882097E-01  0.6627908E-02  0.2409630E+00 -0.1372848E-03  0.2610777E-01
6348000. -0.1317290E-01 -0.4665510E-01  0.6589281E-02  0.2512055E+00 -0.1413744E-03  0.2600210E-01
6347000. -0.1316496E-01 -0.5453352E-01  0.6549051E-02  0.2613880E+00 -0.1454473E-03  0.2589438E-01
6346600. -0.1316144E-01 -0.5769709E-01  0.6532513E-02  0.2654436E+00 -0.1470717E-03  0.2585071E-01
6346600. -0.1316144E-01  0.2108710E-01  0.6532513E-02  0.1856343E+00 -0.1470717E-03  0.3043991E-01
6318800. -0.1288727E-01 -0.1513846E+00  0.5268029E-02  0.3867013E+00 -0.2729694E-03  0.2705103E-01
6291000. -0.1180997E-01 -0.3445407E+00  0.3240883E-02  0.5308997E+00 -0.3813750E-03  0.2244549E-01
6291000. -0.1180997E-01 -0.3479987E+00  0.3240883E-02  0.5480201E+00 -0.3813750E-03  0.2244549E-01
6263000. -0.9832584E-02 -0.5507673E+00  0.6506533E-03  0.6154248E+00 -0.4677533E-03  0.1669958E-01
6235000. -0.6994849E-02 -0.7357532E+00 -0.2029798E-02  0.5885732E+00 -0.5269047E-03  0.1009745E-01
6207000. -0.3424362E-02 -0.8806098E+00 -0.4390238E-02  0.4716950E+00 -0.5556586E-03  0.2916906E-02
6179000.  0.6573722E-03 -0.9654548E+00 -0.6069693E-02  0.2826767E+00 -0.5521674E-03 -0.4519400E-02
6151000.  0.4952205E-02 -0.9757367E+00 -0.6811062E-02  0.5029065E-01 -0.5160805E-03 -0.1185497E-01
6151000.  0.4952205E-02 -0.8112363E+00 -0.6811062E-02  0.4275717E-01 -0.5160805E-03 -0.1212895E-01
6128500.  0.7734395E-02 -0.7580056E+00 -0.6654100E-02 -0.1306366E+00 -0.4655185E-03 -0.1644045E-01
6106000.  0.1026282E-01 -0.6681039E+00 -0.5904268E-02 -0.2905540E+00 -0.4004719E-03 -0.2031556E-01
6083500.  0.1241552E-01 -0.5461931E+00 -0.4633866E-02 -0.4233584E+00 -0.3226444E-03 -0.2366476E-01
6061000.  0.1409087E-01 -0.3990424E+00 -0.2958976E-02 -0.5180584E+00 -0.2340282E-03 -0.2641441E-01
6038500.  0.1521412E-01 -0.2350292E+00 -0.1028514E-02 -0.5671704E+00 -0.1368465E-03 -0.2850739E-01
6016000.  0.1574206E-01 -0.6351225E-01  0.9891996E-03 -0.5672451E+00 -0.3349386E-04 -0.2990391E-01
5993500.  0.1566526E-01  0.1058494E+00  0.2921079E-02 -0.5190328E+00  0.7352604E-04 -0.3058194E-01
5971000.  0.1500792E-01  0.2637892E+00  0.4603900E-02 -0.4273087E+00  0.1816615E-03 -0.3053614E-01
5971000.  0.1500792E-01  0.2441790E+00  0.4603900E-02 -0.3814565E+00  0.1816615E-03 -0.3250080E-01
5937667.  0.1325310E-01  0.4171145E+00  0.6124818E-02 -0.1939178E+00  0.3500877E-03 -0.3164016E-01
5904333.  0.1075029E-01  0.5289109E+00  0.6601593E-02  0.1174539E-01  0.5103489E-03 -0.2940510E-01
5871000.  0.7829899E-02  0.5770797E+00  0.6029182E-02  0.2020244E+00  0.6557017E-03 -0.2597522E-01
5837667.  0.4813130E-02  0.5672745E+00  0.4561319E-02  0.3503714E+00  0.7804210E-03 -0.2155265E-01
5804333.  0.1974713E-02  0.5111949E+00  0.2466043E-02  0.4398941E+00  0.8798724E-03 -0.1635128E-01
5771000. -0.4819538E-03  0.4240803E+00  0.7265638E-04  0.4641225E+00  0.9505465E-03 -0.1058973E-01
5771000. -0.4819538E-03  0.4240862E+00  0.7265638E-04  0.4641074E+00  0.9505465E-03 -0.1058973E-01
5701000. -0.4079158E-02  0.2274578E+00 -0.4622594E-02  0.3481453E+00  0.9956001E-03  0.2534806E-02
5701000. -0.4079158E-02  0.1787304E+00 -0.4622594E-02  0.2752371E+00  0.9956001E-03  0.3684574E-02
5667333. -0.4828302E-02  0.1075232E+00 -0.5777694E-02  0.1587943E+00  0.9595330E-03  0.9938217E-02
5633667. -0.5248487E-02  0.5493794E-01 -0.6281140E-02  0.3114111E-01  0.8910247E-03  0.1593240E-01
5600000. -0.5446216E-02  0.2346821E-01 -0.6112883E-02 -0.9312835E-01  0.7919257E-03  0.2148566E-01
5600000. -0.5446216E-02  0.2346019E-01 -0.6112883E-02 -0.9313280E-01  0.7919257E-03  0.2148566E-01
5563518. -0.5533001E-02  0.1079288E-01 -0.5221631E-02 -0.2148269E+00  0.6532996E-03  0.2678876E-01
5527037. -0.5611595E-02  0.1988199E-01 -0.3703838E-02 -0.3098086E+00  0.4869527E-03  0.3113895E-01
5490556. -0.5791138E-02  0.4482814E-01 -0.1745853E-02 -0.3671182E+00  0.2988214E-03  0.3437378E-01
5454074. -0.6139313E-02  0.7723459E-01  0.4164513E-03 -0.3805551E+00  0.9565479E-04  0.3637198E-01
5417593. -0.6671437E-02  0.1074396E+00  0.2526675E-02 -0.3492571E+00 -0.1152157E-03  0.3705791E-01
5381111. -0.7347217E-02  0.1258960E+00  0.4339012E-02 -0.2776404E+00 -0.3261856E-03  0.3640422E-01
5344630. -0.8075150E-02  0.1244971E+00  0.5646355E-02 -0.1747212E+00 -0.5296113E-03  0.3443255E-01
5308148. -0.8724302E-02  0.9771561E-01  0.6303818E-02 -0.5292474E-01 -0.7181333E-03  0.3121234E-01
5271667. -0.9141408E-02  0.4340639E-01  0.6243773E-02  0.7342731E-01 -0.8849000E-03  0.2685834E-01
5235185. -0.9171681E-02 -0.3681046E-01  0.5481987E-02  0.1898236E+00 -0.1023853E-02  0.2152510E-01
5198704. -0.8680333E-02 -0.1376115E+00  0.4113998E-02  0.2831912E+00 -0.1129904E-02  0.1540184E-01
5162222. -0.7572456E-02 -0.2505023E+00  0.2302410E-02  0.3433509E+00 -0.1199141E-02  0.8703507E-02
5125741. -0.5808959E-02 -0.3646887E+00  0.2574164E-03  0.3640598E+00 -0.1228929E-02  0.1664081E-02
5089259. -0.3416157E-02 -0.4682758E+00 -0.1788089E-02  0.3436157E+00 -0.1218009E-02 -0.5474239E-02
5052778. -0.4888158E-03 -0.5495527E+00 -0.3604529E-02  0.2849253E+00 -0.1166513E-02 -0.1246827E-01
5016296.  0.2815272E-02 -0.5983252E+00 -0.4991442E-02  0.1950653E+00 -0.1075940E-02 -0.1908429E-01
4979815.  0.6286718E-02 -0.6070586E+00 -0.5798693E-02  0.8442095E-01 -0.9490922E-03 -0.2510455E-01
4943333.  0.9683196E-02 -0.5717753E+00 -0.5942331E-02 -0.3453999E-01 -0.7899406E-03 -0.3033588E-01
4906852.  0.1275076E-01 -0.4925768E+00 -0.5412465E-02 -0.1486412E+00 -0.6034970E-03 -0.3461401E-01
4870370.  0.1524839E-01 -0.3737318E+00 -0.4273152E-02 -0.2454572E+00 -0.3955969E-03 -0.3780960E-01
4833889.  0.1697048E-01 -0.2233617E+00 -0.2654427E-02 -0.3146024E+00 -0.1727338E-03 -0.3982997E-01
4797407.  0.1776749E-01 -0.5269266E-01 -0.7371161E-03 -0.3488217E+00  0.5820132E-04 -0.4062095E-01
4760926.  0.1756055E-01  0.1249636E+00  0.1266917E-02 -0.3446792E+00  0.2900941E-03 -0.4016734E-01
4724444.  0.1634997E-01  0.2954994E+00  0.3138095E-02 -0.3028561E+00  0.5158763E-03 -0.3849112E-01
4687963.  0.1421609E-01  0.4453130E+00  0.4672091E-02 -0.2280106E+00  0.7286822E-03 -0.3564949E-01
4651482.  0.1131240E-01  0.5626313E+00  0.5701534E-02 -0.1282144E+00  0.9220853E-03 -0.3173142E-01
4615000.  0.7851831E-02  0.6385977E+00  0.6112945E-02 -0.1406153E-01  0.1090248E-02 -0.2685359E-01
4578518.  0.4087866E-02  0.6680885E+00  0.5858052E-02  0.1024555E+00  0.1228062E-02 -0.2115653E-01
4542037.  0.2914310E-03  0.6501784E+00  0.4958321E-02  0.2092016E+00  0.1331281E-02 -0.1479959E-01
4505556. -0.3273665E-02  0.5881771E+00  0.3502079E-02  0.2951456E+00  0.1396620E-02 -0.7955967E-02
4469074. -0.6373880E-02  0.4892601E+00  0.1634964E-02  0.3514529E+00  0.1421814E-02 -0.8081273E-03
4432593. -0.8825934E-02  0.3637465E+00 -0.4550520E-03  0.3723445E+00  0.1405654E-02  0.6456196E-02
4396111. -0.1051248E-01  0.2240508E+00 -0.2557262E-02  0.3556426E+00  0.1348010E-02  0.1364976E-01
4359630. -0.1139023E-01  0.8348971E-01 -0.4459054E-02  0.3029372E+00  0.1249820E-02  0.2058821E-01
4323148. -0.1149169E-01 -0.4504269E-01 -0.5967511E-02  0.2193760E+00  0.1113048E-02  0.2709611E-01
4286667. -0.1091905E-01 -0.1502826E+00 -0.6927997E-02  0.1131289E+00  0.9406442E-03  0.3300837E-01
4250185. -0.9831605E-02 -0.2236866E+00 -0.7239440E-02 -0.5471177E-02  0.7364462E-03  0.3817573E-01
4213704. -0.8427997E-02 -0.2602042E+00 -0.6863704E-02 -0.1249340E+00  0.5051174E-03  0.4246619E-01
4177222. -0.6924442E-02 -0.2587356E+00 -0.5829007E-02 -0.2337624E+00  0.2519940E-03  0.4576907E-01
4140741. -0.5532088E-02 -0.2221834E+00 -0.4226904E-02 -0.3215359E+00 -0.1699240E-04  0.4799667E-01
4104259. -0.4434559E-02 -0.1571177E+00 -0.2202941E-02 -0.3799157E+00 -0.2955090E-03  0.4908696E-01
4067778. -0.3769035E-02 -0.7309601E-01  0.5719227E-04 -0.4033944E+00 -0.5769148E-03  0.4900500E-01
4031296. -0.3611626E-02  0.1832428E-01  0.2345891E-02 -0.3897996E+00 -0.8544800E-03  0.4774418E-01
3994815. -0.3969294E-02  0.1047386E+00  0.4452860E-02 -0.3404493E+00 -0.1121490E-02  0.4532700E-01
3958333. -0.4778595E-02  0.1741656E+00  0.6185265E-02 -0.2599866E+00 -0.1371469E-02  0.4180462E-01
3921852. -0.5911487E-02  0.2162388E+00  0.7385128E-02 -0.1559133E+00 -0.1598292E-02  0.3725661E-01
3885370. -0.7187937E-02  0.2232883E+00  0.7944041E-02 -0.3784618E-01 -0.1796388E-02  0.3178868E-01
3848889. -0.8393570E-02  0.1911448E+00  0.7812531E-02  0.8337777E-01 -0.1960840E-02  0.2553131E-01
3812407. -0.9301530E-02  0.1196212E+00  0.7004219E-02  0.1967373E+00 -0.2087561E-02  0.1863556E-01
3775926. -0.9695558E-02  0.1263255E-01  0.5594070E-02  0.2920102E+00 -0.2173365E-02  0.1127047E-01
3739444. -0.9393037E-02 -0.1220855E+00  0.3710868E-02  0.3607187E+00 -0.2216083E-02  0.3617250E-02
3702963. -0.8265208E-02 -0.2735906E+00  0.1525360E-02  0.3968538E+00 -0.2214605E-02 -0.4133871E-02
3666482. -0.6252884E-02 -0.4286940E+00 -0.7658505E-03  0.3974010E+00 -0.2168922E-02 -0.1179050E-01
3630000. -0.3376075E-02 -0.5731025E+00 -0.2958068E-02  0.3625599E+00 -0.2080119E-02 -0.1916235E-01
3630000. -0.3376075E-02 -0.5731002E+00 -0.2958068E-02  0.3625559E+00 -0.2080119E-02 -0.1916235E-01
3592500.  0.3822231E-03 -0.6984519E+00 -0.4908320E-02  0.2948203E+00 -0.1946119E-02 -0.2628092E-01
3555000.  0.4768238E-02 -0.7841926E+00 -0.6373372E-02  0.1989669E+00 -0.1771952E-02 -0.3278102E-01
3517500.  0.9513058E-02 -0.8187344E+00 -0.7212725E-02  0.8388625E-01 -0.1561768E-02 -0.3849188E-01
3480000.  0.1429066E-01 -0.7944436E+00 -0.7344321E-02 -0.3960818E-01 -0.1320675E-02 -0.4325906E-01
3480000.  0.1429066E-01 -0.8450483E+00  0.6794510E-03  0.2490678E-01 -0.1320675E-02 -0.8821160E-01
3409422.  0.2140132E-01 -0.4137126E+00  0.3158912E-03  0.3939757E-01 -0.1174600E-04 -0.1424921E+00
3338844.  0.2313798E-01  0.1037129E+00 -0.1583077E-03  0.4445408E-01  0.1693134E-02 -0.1583189E+00
3268266.  0.1925723E-01  0.5802324E+00 -0.6290490E-03  0.3876808E-01  0.3341263E-02 -0.1325871E+00
3197688.  0.1083011E-01  0.9098429E+00 -0.9817346E-03  0.2353524E-01  0.4501203E-02 -0.7203694E-01
3127109. -0.1144983E-03  0.1028077E+01 -0.1127294E-02  0.2063136E-02  0.4861320E-02  0.8959496E-02
3056531. -0.1110977E-01  0.9209059E+00 -0.1021427E-02 -0.2102964E-01  0.4294996E-02  0.9205118E-01
2985953. -0.1980601E-01  0.6221181E+00 -0.6736310E-03 -0.4082359E-01  0.2881665E-02  0.1590755E+00
2915375. -0.2444132E-01  0.2015270E+00 -0.1449037E-03 -0.5309559E-01  0.8832210E-03  0.1958038E+00
2844797. -0.2414836E-01 -0.2522977E+00  0.4646668E-03 -0.5512005E-01 -0.1315455E-02  0.1945814E+00
2774219. -0.1905805E-01 -0.6507300E+00  0.1035448E-02 -0.4614157E-01 -0.3287074E-02  0.1554627E+00
2703641. -0.1020550E-01 -0.9215628E+00  0.1450941E-02 -0.2746384E-01 -0.4646344E-02  0.8578296E-01
2633062.  0.7217178E-03 -0.1020607E+01  0.1619351E-02 -0.2168297E-02 -0.5121978E-02 -0.1592837E-02
2562484.  0.1172869E-01 -0.9369906E+00  0.1490322E-02  0.2545791E-01 -0.4603986E-02 -0.9088690E-01
2491906.  0.2088298E-01 -0.6921114E+00  0.1064256E-02  0.5067147E-01 -0.3159678E-02 -0.1663582E+00
2421328.  0.2663998E-01 -0.3331727E+00  0.3929711E-03  0.6906140E-01 -0.1017779E-02 -0.2150133E+00
2350750.  0.2807542E-01  0.7690857E-01 -0.4280052E-03  0.7724988E-01  0.1474122E-02 -0.2286537E+00
2280172.  0.2499544E-01  0.4711325E+00 -0.1273897E-02  0.7339922E-01  0.3909701E-02 -0.2049686E+00
2209594.  0.1791913E-01  0.7894934E+00 -0.2009388E-02  0.5746195E-01  0.5890329E-02 -0.1475809E+00
2139016.  0.7949395E-02  0.9878040E+00 -0.2508535E-02  0.3115118E-01  0.7086558E-02 -0.6513671E-01
2068438. -0.3435860E-02  0.1043140E+01 -0.2672911E-02 -0.2346644E-02  0.7285248E-02  0.3032887E-01
1997859. -0.1463161E-01  0.9553868E+00 -0.2445364E-02 -0.3885779E-01  0.6416033E-02  0.1254250E+00
1927281. -0.2414950E-01  0.7451924E+00 -0.1817726E-02 -0.7381978E-01  0.4554809E-02  0.2074760E+00
1856703. -0.3082311E-01  0.4489117E+00 -0.8315915E-03 -0.1029106E+00  0.1905335E-02  0.2663275E+00
1786125. -0.3394457E-01  0.1117773E+00  0.4275074E-03 -0.1226034E+00 -0.1236221E-02  0.2956134E+00
1715547. -0.3332172E-01 -0.2195676E+00  0.1841386E-02 -0.1305850E+00 -0.4527308E-02  0.2933690E+00
1644969. -0.2925466E-01 -0.5039349E+00  0.3274103E-02 -0.1259831E+00 -0.7627962E-02  0.2619616E+00
1574391. -0.2244397E-01 -0.7109380E+00  0.4588207E-02 -0.1093836E+00 -0.1024564E-01  0.2074339E+00
1503812. -0.1385092E-01 -0.8242229E+00  0.5660074E-02 -0.8264669E-01 -0.1217029E-01  0.1384352E+00
1433234. -0.4535347E-02 -0.8423813E+00  0.6392123E-02 -0.4855281E-01 -0.1329639E-01  0.6498869E-01
1362656.  0.4505977E-02 -0.7777979E+00  0.6720553E-02 -0.1032321E-01 -0.1363170E-01 -0.2650484E-02
1292078.  0.1247784E-01 -0.6539731E+00  0.6617125E-02  0.2893729E-01 -0.1329519E-01 -0.5473321E-01
1221500.  0.1889179E-01 -0.5022542E+00  0.6084593E-02  0.6684225E-01 -0.1251053E-01 -0.8202241E-01
1221500.  0.1889179E-01  0.1148954E+01  0.1529543E-01 -0.1875761E-01 -0.1251053E-01 -0.9020641E-01
1183328.  0.1163621E-01  0.1167197E+01  0.1395021E-01  0.4587567E+00 -0.1188275E-01 -0.1181990E+00
1145156.  0.6128460E-02  0.5811914E+00  0.1008769E-01  0.7931469E+00 -0.1110774E-01 -0.1393879E+00
1106984.  0.5471303E-02 -0.3991287E+00  0.5001073E-02  0.8531966E+00 -0.1022547E-01 -0.1540655E+00
1068812.  0.1093425E-01 -0.1389613E+01  0.4731953E-03  0.6121120E+00 -0.9273740E-02 -0.1626524E+00
1030641.  0.2129058E-01 -0.1967489E+01 -0.1901869E-02  0.1575558E+00 -0.8287505E-02 -0.1656937E+00
 992469.  0.3306431E-01 -0.1829595E+01 -0.1323440E-02 -0.3421018E+00 -0.7298002E-02 -0.1638544E+00
 954297.  0.4164449E-01 -0.9153018E+00  0.1913165E-02 -0.7011517E+00 -0.6332250E-02 -0.1579007E+00
 916125.  0.4291264E-01  0.5518243E+00  0.6522278E-02 -0.7851702E+00 -0.5412424E-02 -0.1486662E+00
 877953.  0.3481996E-01  0.2122057E+01  0.1069504E-01 -0.5591618E+00 -0.4555614E-02 -0.1370084E+00
 839781.  0.1835351E-01  0.3259907E+01  0.1274808E-01 -0.9832554E-01 -0.3773830E-02 -0.1237551E+00
 801609. -0.2475306E-02  0.3520621E+01  0.1171489E-01  0.4409508E+00 -0.3074334E-02 -0.1096565E+00
 763438. -0.2165857E-01  0.2703180E+01  0.7671557E-02  0.8777576E+00 -0.2460232E-02 -0.9535212E-01
 725266. -0.3293337E-01  0.9276543E+00  0.1692038E-02  0.1069524E+01 -0.1931126E-02 -0.8135284E-01
 687094. -0.3168088E-01 -0.1389474E+01 -0.4532740E-02  0.9583886E+00 -0.1483985E-02 -0.6804685E-01
 648922. -0.1638658E-01 -0.3654775E+01 -0.9265276E-02  0.5860984E+00 -0.1113769E-02 -0.5571319E-01
 610750.  0.1081068E-01 -0.5273148E+01 -0.1127453E-01  0.7408178E-01 -0.8140341E-03 -0.4454638E-01
 572578.  0.4464646E-01 -0.5822258E+01 -0.1018654E-01 -0.4217760E+00 -0.5773744E-03 -0.3467491E-01
 534406.  0.7816018E-01 -0.5171052E+01 -0.6531151E-02 -0.7640998E+00 -0.3957785E-03 -0.2617437E-01
 496234.  0.1045715E+00 -0.3506900E+01 -0.1496060E-02 -0.8758906E+00 -0.2609292E-03 -0.1907090E-01
 458062.  0.1190256E+00 -0.1266623E+01  0.3501385E-02 -0.7580205E+00 -0.1645078E-03 -0.1333843E-01
 419891.  0.1196962E+00  0.1002214E+01  0.7262792E-02 -0.4789221E+00 -0.9850987E-04 -0.8898448E-02
 381719.  0.1079640E+00  0.2802691E+01  0.9127263E-02 -0.1431441E+00 -0.5555984E-04 -0.5618698E-02
 343547.  0.8769248E-01  0.3820030E+01  0.9070466E-02  0.1476047E+00 -0.2920609E-04 -0.3327165E-02
 305375.  0.6390503E-01  0.3985653E+01  0.7585265E-02  0.3265239E+00 -0.1411354E-04 -0.1825721E-02
 267203.  0.4132421E-01  0.3459127E+01  0.5418635E-02  0.3763152E+00 -0.6153108E-05 -0.9138793E-03
 229031.  0.2323385E-01  0.2542957E+01  0.3281487E-02  0.3239512E+00 -0.2354597E-05 -0.4080814E-03
 190859.  0.1096846E-01  0.1565506E+01  0.1638443E-02  0.2205959E+00 -0.7577314E-06 -0.1569453E-03
 152688.  0.4090230E-02  0.7755390E+00  0.6371915E-03  0.1169935E+00 -0.1907801E-06 -0.4901870E-04
 114516.  0.1071732E-02  0.2830276E+00  0.1721432E-03  0.4472775E-01 -0.3273312E-07 -0.1111066E-04
  76344.  0.1513693E-03  0.6175089E-01  0.2482515E-04  0.1005960E-01 -0.2792333E-08 -0.1409274E-05
  38172.  0.4931811E-05  0.4092760E-02  0.8186958E-06  0.6783166E-03 -0.4288301E-10 -0.4311648E-07
      0.  0.0000000E+00  0.0000000E+00  0.0000000E+00  0.0000000E+00  0.0000000E+00  0.0000000E+00
