       2        7 S      171        536.98767          9.93944          7.41164        211.46440      185    7
6371000. -0.1301356E+00 -0.1008894E+01 -0.5042055E-01  0.7971507E-01  0.4098685E-01 -0.8248949E-01
6370000. -0.1299770E+00 -0.1012515E+01 -0.5043281E-01  0.7647413E-01  0.4099980E-01 -0.8241600E-01
6369000. -0.1298178E+00 -0.1016113E+01 -0.5044456E-01  0.7323058E-01  0.4101273E-01 -0.8234337E-01
6368000. -0.1296580E+00 -0.1019689E+01 -0.5045580E-01  0.6998446E-01  0.4102565E-01 -0.8227161E-01
6368000. -0.1296580E+00 -0.1019689E+01 -0.5045580E-01  0.6998446E-01  0.4102565E-01 -0.8227161E-01
6367000. -0.1294977E+00 -0.1023242E+01 -0.5046653E-01  0.6673580E-01  0.4103855E-01 -0.8220071E-01
6366000. -0.1293368E+00 -0.1026772E+01 -0.5047675E-01  0.6348463E-01  0.4105145E-01 -0.8213069E-01
6365000. -0.1291754E+00 -0.1030280E+01 -0.5048646E-01  0.6023100E-01  0.4106434E-01 -0.8206153E-01
6364000. -0.1290134E+00 -0.1033765E+01 -0.5049566E-01  0.5697495E-01  0.4107721E-01 -0.8199325E-01
6363000. -0.1288508E+00 -0.1037227E+01 -0.5050434E-01  0.5371650E-01  0.4109007E-01 -0.8192584E-01
6362000. -0.1286878E+00 -0.1040667E+01 -0.5051252E-01  0.5045569E-01  0.4110293E-01 -0.8185931E-01
6361000. -0.1285241E+00 -0.1044083E+01 -0.5052018E-01  0.4719256E-01  0.4111577E-01 -0.8179365E-01
6360000. -0.1283600E+00 -0.1047477E+01 -0.5052733E-01  0.4392715E-01  0.4112861E-01 -0.8172888E-01
6359000. -0.1281953E+00 -0.1050848E+01 -0.5053397E-01  0.4065948E-01  0.4114143E-01 -0.8166497E-01
6358000. -0.1280301E+00 -0.1054196E+01 -0.5054010E-01  0.3738961E-01  0.4115424E-01 -0.8160196E-01
6357000. -0.1278644E+00 -0.1057521E+01 -0.5054571E-01  0.3411756E-01  0.4116705E-01 -0.8153982E-01
6356000. -0.1276981E+00 -0.1060822E+01 -0.5055081E-01  0.3084338E-01  0.4117984E-01 -0.8147858E-01
6356000. -0.1276981E+00 -0.9187168E+00 -0.5055081E-01  0.4927063E-01  0.4117984E-01 -0.5369295E-01
6355000. -0.1275537E+00 -0.9213426E+00 -0.5055839E-01  0.4737316E-01  0.4118825E-01 -0.5352487E-01
6354000. -0.1274089E+00 -0.9239557E+00 -0.5056568E-01  0.4547441E-01  0.4119664E-01 -0.5335742E-01
6353000. -0.1272637E+00 -0.9265561E+00 -0.5057267E-01  0.4357441E-01  0.4120500E-01 -0.5319061E-01
6352000. -0.1271180E+00 -0.9291437E+00 -0.5057936E-01  0.4167316E-01  0.4121334E-01 -0.5302444E-01
6351000. -0.1269720E+00 -0.9317185E+00 -0.5058575E-01  0.3977069E-01  0.4122165E-01 -0.5285891E-01
6350000. -0.1268255E+00 -0.9342805E+00 -0.5059184E-01  0.3786699E-01  0.4122993E-01 -0.5269401E-01
6349000. -0.1266787E+00 -0.9368297E+00 -0.5059764E-01  0.3596209E-01  0.4123819E-01 -0.5252976E-01
6348000. -0.1265315E+00 -0.9393662E+00 -0.5060313E-01  0.3405600E-01  0.4124643E-01 -0.5236615E-01
6347000. -0.1263838E+00 -0.9418897E+00 -0.5060833E-01  0.3214873E-01  0.4125463E-01 -0.5220318E-01
6346600. -0.1263246E+00 -0.9428955E+00 -0.5061032E-01  0.3138550E-01  0.4125791E-01 -0.5213817E-01
6346600. -0.1263246E+00 -0.1068037E+01 -0.5061032E-01  0.4588065E-01  0.4125791E-01 -0.8090614E-02
6318800. -0.1215274E+00 -0.1129731E+01 -0.5073714E-01  0.1213761E-01  0.4128087E-01 -0.2500773E-02
6291000. -0.1164748E+00 -0.1185018E+01 -0.5071542E-01 -0.2217755E-01  0.4128033E-01  0.2675442E-02
6291000. -0.1164748E+00 -0.1231114E+01 -0.5071542E-01 -0.2622874E-01  0.4128033E-01  0.2675442E-02
6263000. -0.1109538E+00 -0.1280060E+01 -0.5051722E-01 -0.6403059E-01  0.4125900E-01  0.6956101E-02
6235000. -0.1052353E+00 -0.1320941E+01 -0.5015214E-01 -0.1021466E+00  0.4121986E-01  0.1078175E-01
6207000. -0.9935549E-01 -0.1353350E+01 -0.4961914E-01 -0.1404180E+00  0.4116491E-01  0.1414244E-01
6179000. -0.9335256E-01 -0.1376912E+01 -0.4891789E-01 -0.1786836E+00  0.4109624E-01  0.1702931E-01
6151000. -0.8726613E-01 -0.1391291E+01 -0.4804879E-01 -0.2167773E+00  0.4101593E-01  0.1943655E-01
6151000. -0.8726613E-01 -0.1324365E+01 -0.4804879E-01 -0.1843408E+00  0.4101593E-01  0.2426459E-01
6128500. -0.8257855E-01 -0.1329654E+01 -0.4735890E-01 -0.2062303E+00  0.4092402E-01  0.2774678E-01
6106000. -0.7788042E-01 -0.1330352E+01 -0.4659301E-01 -0.2273747E+00  0.4082024E-01  0.3097771E-01
6083500. -0.7318778E-01 -0.1326559E+01 -0.4575381E-01 -0.2477426E+00  0.4070551E-01  0.3395542E-01
6061000. -0.6851631E-01 -0.1318372E+01 -0.4484409E-01 -0.2673042E+00  0.4058070E-01  0.3667941E-01
6038500. -0.6388136E-01 -0.1305897E+01 -0.4386676E-01 -0.2860353E+00  0.4044673E-01  0.3914738E-01
6016000. -0.5929786E-01 -0.1289254E+01 -0.4282476E-01 -0.3039148E+00  0.4030450E-01  0.4135687E-01
5993500. -0.5478031E-01 -0.1268558E+01 -0.4172116E-01 -0.3209229E+00  0.4015492E-01  0.4330653E-01
5971000. -0.5034282E-01 -0.1243934E+01 -0.4055905E-01 -0.3370461E+00  0.3999893E-01  0.4499312E-01
5971000. -0.5034282E-01 -0.1199717E+01 -0.4055905E-01 -0.2987648E+00  0.3999893E-01  0.5158342E-01
5937667. -0.4418831E-01 -0.1152282E+01 -0.3897553E-01 -0.3060773E+00  0.3971744E-01  0.5596481E-01
5904333. -0.3828986E-01 -0.1101909E+01 -0.3736092E-01 -0.3106870E+00  0.3941386E-01  0.6002724E-01
5871000. -0.3266118E-01 -0.1049353E+01 -0.3572864E-01 -0.3128953E+00  0.3908986E-01  0.6377144E-01
5837667. -0.2731171E-01 -0.9952807E+00 -0.3409048E-01 -0.3129833E+00  0.3874711E-01  0.6719827E-01
5804333. -0.2224770E-01 -0.9402767E+00 -0.3245679E-01 -0.3112131E+00  0.3838725E-01  0.7030756E-01
5771000. -0.1747292E-01 -0.8848571E+00 -0.3083673E-01 -0.3078229E+00  0.3801196E-01  0.7309937E-01
5771000. -0.1747292E-01 -0.8849556E+00 -0.3083673E-01 -0.3078133E+00  0.3801196E-01  0.7309937E-01
5701000. -0.8347299E-02 -0.7740116E+00 -0.2739394E-01 -0.3181543E+00  0.3718686E-01  0.7677634E-01
5701000. -0.8347299E-02 -0.7158081E+00 -0.2739394E-01 -0.2551264E+00  0.3718686E-01  0.7912914E-01
5667333. -0.4711320E-02 -0.6603112E+00 -0.2606198E-01 -0.2488607E+00  0.3675885E-01  0.8284790E-01
5633667. -0.1365207E-02 -0.6061850E+00 -0.2476501E-01 -0.2419130E+00  0.3631146E-01  0.8646512E-01
5600000.  0.1699016E-02 -0.5536258E+00 -0.2350628E-01 -0.2343940E+00  0.3584521E-01  0.8998176E-01
5600000.  0.1699016E-02 -0.5536699E+00 -0.2350628E-01 -0.2344039E+00  0.3584521E-01  0.8998176E-01
5563518.  0.4755636E-02 -0.5138381E+00 -0.2217343E-01 -0.2310345E+00  0.3531959E-01  0.9353049E-01
5527037.  0.7582171E-02 -0.4733593E+00 -0.2086129E-01 -0.2271922E+00  0.3477484E-01  0.9667028E-01
5490556.  0.1017547E-01 -0.4323973E+00 -0.1957241E-01 -0.2229144E+00  0.3421325E-01  0.9941509E-01
5454074.  0.1253327E-01 -0.3910988E+00 -0.1830916E-01 -0.2182368E+00  0.3363703E-01  0.1017785E+00
5417593.  0.1465391E-01 -0.3496060E+00 -0.1707379E-01 -0.2131931E+00  0.3304835E-01  0.1037736E+00
5381111.  0.1653679E-01 -0.3080572E+00 -0.1586823E-01 -0.2078181E+00  0.3244925E-01  0.1054132E+00
5344630.  0.1818186E-01 -0.2665788E+00 -0.1469435E-01 -0.2021445E+00  0.3184177E-01  0.1067099E+00
5308148.  0.1958996E-01 -0.2252904E+00 -0.1355370E-01 -0.1962052E+00  0.3122780E-01  0.1076759E+00
5271667.  0.2076242E-01 -0.1843044E+00 -0.1244779E-01 -0.1900302E+00  0.3060924E-01  0.1083228E+00
5235185.  0.2170133E-01 -0.1437241E+00 -0.1137780E-01 -0.1836492E+00  0.2998784E-01  0.1086621E+00
5198704.  0.2240926E-01 -0.1036488E+00 -0.1034491E-01 -0.1770914E+00  0.2936537E-01  0.1087047E+00
5162222.  0.2288939E-01 -0.6416521E-01 -0.9349977E-02 -0.1703840E+00  0.2874346E-01  0.1084613E+00
5125741.  0.2314533E-01 -0.2536081E-01 -0.8393844E-02 -0.1635534E+00  0.2812376E-01  0.1079420E+00
5089259.  0.2318119E-01  0.1269258E-01 -0.7477092E-02 -0.1566243E+00  0.2750777E-01  0.1071567E+00
5052778.  0.2300149E-01  0.4992187E-01 -0.6600266E-02 -0.1496210E+00  0.2689705E-01  0.1061146E+00
5016296.  0.2261111E-01  0.8626769E-01 -0.5763680E-02 -0.1425651E+00  0.2629298E-01  0.1048247E+00
4979815.  0.2201529E-01  0.1216713E+00 -0.4967618E-02 -0.1354781E+00  0.2569701E-01  0.1032954E+00
4943333.  0.2121954E-01  0.1560841E+00 -0.4212159E-02 -0.1283791E+00  0.2511045E-01  0.1015343E+00
4906852.  0.2022972E-01  0.1894588E+00 -0.3497359E-02 -0.1212872E+00  0.2453463E-01  0.9954929E-01
4870370.  0.1905183E-01  0.2217577E+00 -0.2823090E-02 -0.1142188E+00  0.2397079E-01  0.9734685E-01
4833889.  0.1769219E-01  0.2529459E+00 -0.2189209E-02 -0.1071892E+00  0.2342018E-01  0.9493335E-01
4797407.  0.1615717E-01  0.2829960E+00 -0.1595419E-02 -0.1002128E+00  0.2288397E-01  0.9231472E-01
4760926.  0.1445344E-01  0.3118819E+00 -0.1041410E-02 -0.9330229E-01  0.2236334E-01  0.8949601E-01
4724444.  0.1258765E-01  0.3395854E+00 -0.5267427E-03 -0.8646814E-01  0.2185941E-01  0.8648164E-01
4687963.  0.1056670E-01  0.3660881E+00 -0.5097924E-04 -0.7972048E-01  0.2137329E-01  0.8327562E-01
4651482.  0.8397462E-02  0.3913791E+00  0.3864128E-03 -0.7306708E-01  0.2090608E-01  0.7988096E-01
4615000.  0.6086833E-02  0.4154496E+00  0.7860029E-03 -0.6651422E-01  0.2045882E-01  0.7630002E-01
4578518.  0.3641888E-02  0.4382916E+00  0.1148370E-02 -0.6006681E-01  0.2003260E-01  0.7253448E-01
4542037.  0.1069743E-02  0.4599009E+00  0.1474118E-02 -0.5372816E-01  0.1962848E-01  0.6858532E-01
4505556. -0.1622602E-02  0.4802749E+00  0.1763886E-02 -0.4749964E-01  0.1924750E-01  0.6445237E-01
4469074. -0.4428147E-02  0.4994126E+00  0.2018310E-02 -0.4138063E-01  0.1889070E-01  0.6013452E-01
4432593. -0.7339651E-02  0.5173111E+00  0.2237999E-02 -0.3536936E-01  0.1855917E-01  0.5563008E-01
4396111. -0.1035018E-01  0.5339692E+00  0.2423570E-02 -0.2946138E-01  0.1825397E-01  0.5093586E-01
4359630. -0.1345245E-01  0.5493848E+00  0.2575589E-02 -0.2365095E-01  0.1797621E-01  0.4604788E-01
4323148. -0.1663950E-01  0.5635522E+00  0.2694598E-02 -0.1792934E-01  0.1772699E-01  0.4096080E-01
4286667. -0.1990401E-01  0.5764641E+00  0.2781074E-02 -0.1228673E-01  0.1750750E-01  0.3566810E-01
4250185. -0.2323891E-01  0.5881080E+00  0.2835436E-02 -0.6709684E-02  0.1731892E-01  0.3016179E-01
4213704. -0.2663673E-01  0.5984671E+00  0.2858014E-02 -0.1183251E-02  0.1716250E-01  0.2443277E-01
4177222. -0.3009023E-01  0.6075165E+00  0.2849048E-02  0.4311230E-02  0.1703955E-01  0.1846969E-01
4140741. -0.3359162E-01  0.6152244E+00  0.2808663E-02  0.9794388E-02  0.1695145E-01  0.1226038E-01
4104259. -0.3713331E-01  0.6215490E+00  0.2736853E-02  0.1529092E-01  0.1689964E-01  0.5789663E-02
4067778. -0.4070703E-01  0.6264343E+00  0.2633468E-02  0.2082860E-01  0.1688567E-01 -0.9581439E-03
4031296. -0.4430453E-01  0.6298122E+00  0.2498177E-02  0.2643942E-01  0.1691118E-01 -0.8002481E-02
3994815. -0.4791677E-01  0.6315964E+00  0.2330468E-02  0.3215927E-01  0.1697792E-01 -0.1536375E-01
3958333. -0.5153451E-01  0.6316799E+00  0.2129591E-02  0.3802928E-01  0.1708778E-01 -0.2306574E-01
3921852. -0.5514745E-01  0.6299335E+00  0.1894569E-02  0.4409557E-01  0.1724278E-01 -0.3113486E-01
3885370. -0.5874489E-01  0.6261986E+00  0.1624118E-02  0.5041063E-01  0.1744511E-01 -0.3960082E-01
3848889. -0.6231471E-01  0.6202870E+00  0.1316664E-02  0.5703274E-01  0.1769712E-01 -0.4849608E-01
3812407. -0.6584400E-01  0.6119695E+00  0.9702450E-03  0.6402889E-01  0.1800139E-01 -0.5785739E-01
3775926. -0.6931805E-01  0.6009758E+00  0.5825277E-03  0.7147373E-01  0.1836069E-01 -0.6772491E-01
3739444. -0.7272083E-01  0.5869840E+00  0.1506841E-03  0.7945207E-01  0.1877806E-01 -0.7814445E-01
3702963. -0.7603391E-01  0.5696128E+00 -0.3285841E-03  0.8805913E-01  0.1925677E-01 -0.8916502E-01
3666482. -0.7923681E-01  0.5484130E+00 -0.8591926E-03  0.9740321E-01  0.1980045E-01 -0.1008431E+00
3630000. -0.8230618E-01  0.5228518E+00 -0.1445722E-02  0.1076071E+00  0.2041304E-01 -0.1132389E+00
3630000. -0.8230618E-01  0.5228499E+00 -0.1445722E-02  0.1076075E+00  0.2041304E-01 -0.1132389E+00
3592500. -0.8530096E-01  0.4938079E+00 -0.2112071E-02  0.1190116E+00  0.2111900E-01 -0.1267738E+00
3555000. -0.8810744E-01  0.4587131E+00 -0.2849298E-02  0.1317218E+00  0.2190711E-01 -0.1411651E+00
3517500. -0.9068718E-01  0.4165910E+00 -0.3665662E-02  0.1459365E+00  0.2278267E-01 -0.1565043E+00
3480000. -0.9299555E-01  0.3662987E+00 -0.4570673E-02  0.1618836E+00  0.2375155E-01 -0.1728924E+00
3480000. -0.9299555E-01 -0.6549686E+00 -0.1638802E-01 -0.1399874E+00  0.2375155E-01  0.1196333E+00
3409422. -0.8578201E-01 -0.6460118E+00 -0.1487934E-01 -0.1323306E+00  0.2234067E-01  0.1340737E+00
3338844. -0.7870908E-01 -0.6298481E+00 -0.1345704E-01 -0.1244175E+00  0.2080148E-01  0.1429679E+00
3268266. -0.7184827E-01 -0.6079431E+00 -0.1212320E-01 -0.1163797E+00  0.1918999E-01  0.1472766E+00
3197688. -0.6525591E-01 -0.5815833E+00 -0.1087859E-01 -0.1083245E+00  0.1755219E-01  0.1478499E+00
3127109. -0.5897488E-01 -0.5518951E+00 -0.9722863E-02 -0.1003453E+00  0.1592522E-01  0.1454354E+00
3056531. -0.5303669E-01 -0.5198545E+00 -0.8654750E-02 -0.9252127E-01  0.1433851E-01  0.1406867E+00
2985953. -0.4746255E-01 -0.4863006E+00 -0.7672152E-02 -0.8491591E-01  0.1281468E-01  0.1341703E+00
2915375. -0.4226513E-01 -0.4519512E+00 -0.6772354E-02 -0.7758024E-01  0.1137055E-01  0.1263726E+00
2844797. -0.3744979E-01 -0.4174131E+00 -0.5952131E-02 -0.7055590E-01  0.1001796E-01  0.1177071E+00
2774219. -0.3301573E-01 -0.3831936E+00 -0.5207848E-02 -0.6387471E-01  0.8764544E-02  0.1085218E+00
2703641. -0.2895702E-01 -0.3497108E+00 -0.4535572E-02 -0.5755885E-01  0.7614397E-02  0.9910568E-01
2633062. -0.2526350E-01 -0.3173035E+00 -0.3931158E-02 -0.5162378E-01  0.6568719E-02  0.8969413E-01
2562484. -0.2192181E-01 -0.2862413E+00 -0.3390343E-02 -0.4607937E-01  0.5626396E-02  0.8047663E-01
2491906. -0.1891580E-01 -0.2567295E+00 -0.2908770E-02 -0.4092814E-01  0.4784410E-02  0.7160095E-01
2421328. -0.1622741E-01 -0.2289205E+00 -0.2482092E-02 -0.3616814E-01  0.4038327E-02  0.6317839E-01
2350750. -0.1383716E-01 -0.2029183E+00 -0.2106003E-02 -0.3179401E-01  0.3382656E-02  0.5528916E-01
2280172. -0.1172464E-01 -0.1787855E+00 -0.1776274E-02 -0.2779613E-01  0.2811169E-02  0.4798688E-01
2209594. -0.9868972E-02 -0.1565498E+00 -0.1488808E-02 -0.2416194E-01  0.2317175E-02  0.4130219E-01
2139016. -0.8249121E-02 -0.1362090E+00 -0.1239654E-02 -0.2087640E-01  0.1893751E-02  0.3524683E-01
2068438. -0.6844223E-02 -0.1177362E+00 -0.1025045E-02 -0.1792254E-01  0.1533935E-02  0.2981684E-01
1997859. -0.5633811E-02 -0.1010848E+00 -0.8414036E-03 -0.1528164E-01  0.1230874E-02  0.2499581E-01
1927281. -0.4598065E-02 -0.8619423E-01 -0.6853808E-03 -0.1293339E-01  0.9779695E-03  0.2075759E-01
1856703. -0.3717847E-02 -0.7299411E-01 -0.5538498E-03 -0.1085627E-01  0.7689405E-03  0.1706845E-01
1786125. -0.2974835E-02 -0.6141136E-01 -0.4439325E-03 -0.9027317E-02  0.5979162E-03  0.1388950E-01
1715547. -0.2351495E-02 -0.5137838E-01 -0.3530155E-03 -0.7421664E-02  0.4594766E-03  0.1117842E-01
1644969. -0.1830960E-02 -0.4284528E-01 -0.2787746E-03 -0.6011757E-02  0.3486822E-03  0.8891074E-02
1574391. -0.1396731E-02 -0.3579931E-01 -0.2192145E-03 -0.4765240E-02  0.2610854E-03  0.6982992E-02
1503812. -0.1032091E-02 -0.3029943E-01 -0.1727416E-03 -0.3641041E-02  0.1927269E-03  0.5410526E-02
1433234. -0.7190136E-03 -0.2654023E-01 -0.1382992E-03 -0.2581812E-02  0.1401230E-03  0.4132171E-02
1362656. -0.4360223E-03 -0.2497517E-01 -0.1156205E-03 -0.1498511E-02  0.1002301E-03  0.3109724E-02
1292078. -0.1541248E-03 -0.2656712E-01 -0.1057332E-03 -0.2392280E-03  0.7040170E-04  0.2310205E-02
1221500.  0.1713892E-03 -0.3331544E-01 -0.1119766E-03  0.1477109E-02  0.4831471E-04  0.1708951E-02
1221500.  0.1713892E-03 -0.1078888E-03  0.1416538E-05 -0.8865297E-03  0.4831471E-04  0.1634705E-02
1183328.  0.1686801E-03  0.9542180E-03  0.5782304E-05 -0.5828163E-03  0.3929938E-04  0.1380088E-02
1145156.  0.1605884E-03  0.1698853E-02  0.8533776E-05 -0.3458925E-03  0.3171445E-04  0.1156812E-02
1106984.  0.1488422E-03  0.2183044E-02  0.1004003E-04 -0.1655335E-03  0.2537966E-04  0.9623626E-03
1068812.  0.1348469E-03  0.2457549E-02  0.1061169E-04 -0.3245011E-04  0.2012986E-04  0.7942236E-03
1030641.  0.1197224E-03  0.2567065E-02  0.1050652E-04  0.6171118E-04  0.1581494E-04  0.6499271E-03
 992469.  0.1043372E-03  0.2550484E-02  0.9934987E-05  0.1243868E-03  0.1229908E-04  0.5270594E-03
 954297.  0.8934436E-04  0.2441179E-02  0.9065734E-05  0.1621052E-03  0.9460982E-05  0.4233093E-03
 916125.  0.7521256E-04  0.2267381E-02  0.8030908E-05  0.1805318E-03  0.7192758E-05  0.3364768E-03
 877953.  0.6225558E-04  0.2052548E-02  0.6931148E-05  0.1845234E-03  0.5399329E-05  0.2644864E-03
 839781.  0.5066010E-04  0.1815758E-02  0.5840361E-05  0.1781574E-03  0.3997635E-05  0.2054030E-03
 801609.  0.4051042E-04  0.1572150E-02  0.4810132E-05  0.1648166E-03  0.2915774E-05  0.1574398E-03
 763438.  0.3181119E-04  0.1333341E-02  0.3873800E-05  0.1472278E-03  0.2092112E-05  0.1189622E-03
 725266.  0.2450625E-04  0.1107844E-02  0.3050038E-05  0.1275471E-03  0.1474293E-05  0.8848750E-04
 687094.  0.1849729E-04  0.9015141E-03  0.2346255E-05  0.1074131E-03  0.1018435E-05  0.6469018E-04
 648922.  0.1365768E-04  0.7179492E-03  0.1761376E-05  0.8802248E-04  0.6881310E-06  0.4639309E-04
 610750.  0.9844989E-05  0.5588754E-03  0.1288326E-05  0.7019265E-04  0.4535865E-06  0.3256532E-04
 572578.  0.6911152E-05  0.4245189E-03  0.9161091E-06  0.5442498E-04  0.2907642E-06  0.2231424E-04
 534406.  0.4710361E-05  0.3139477E-03  0.6315194E-06  0.4096517E-04  0.1805811E-06  0.1487742E-04
 496234.  0.3105088E-05  0.2253820E-03  0.4205052E-06  0.2985919E-04  0.1081551E-06  0.9613324E-05
 458062.  0.1970304E-05  0.1564714E-03  0.2692090E-06  0.2100412E-04  0.6211200E-07  0.5990839E-05
 419891.  0.1196176E-05  0.1045382E-03  0.1647243E-06  0.1419352E-04  0.3395648E-07  0.3578355E-05
 381719.  0.6893292E-06  0.6677814E-04  0.9558414E-07  0.9156581E-05  0.1750784E-07  0.2032294E-05
 343547.  0.3731709E-06  0.4043818E-04  0.5205828E-07  0.5592237E-05  0.8409837E-08  0.1086025E-05
 305375.  0.1871068E-06  0.2294373E-04  0.2623928E-07  0.3196199E-05  0.3701499E-08  0.5383487E-06
 267203.  0.8517934E-07  0.1199727E-04  0.1199933E-07  0.1681723E-05  0.1458452E-08  0.2426574E-06
 229031.  0.3419580E-07  0.5643118E-05  0.4835686E-08  0.7951755E-06  0.4971921E-09  0.9659112E-07
 190859.  0.1157036E-07  0.2299379E-05  0.1641390E-08  0.3254081E-06  0.1390968E-09  0.3245034E-07
 152688.  0.3058631E-08  0.7619558E-06  0.4350098E-09  0.1082055E-06  0.2923005E-10  0.8528866E-08
 114516.  0.5479483E-09  0.1823789E-06  0.7807834E-10  0.2596519E-07  0.3907799E-11  0.1520905E-08
  76344.  0.0000000E+00  0.0000000E+00  0.0000000E+00  0.0000000E+00  0.0000000E+00  0.0000000E+00
  38172.  0.0000000E+00  0.0000000E+00  0.0000000E+00  0.0000000E+00  0.0000000E+00  0.0000000E+00
      0.  0.0000000E+00  0.0000000E+00  0.0000000E+00  0.0000000E+00  0.0000000E+00  0.0000000E+00
