      23        6 S      731        103.70300         59.38584         16.62262        130.76961      185    7
6371000. -0.2214820E-01 -0.5310404E-01 -0.4272200E-02  0.1787601E-01  0.6520818E-04  0.4130988E-01
6370000. -0.2213866E-01 -0.6856787E-01 -0.4274242E-02  0.8141024E-02  0.5872136E-04  0.4134445E-01
6369000. -0.2212668E-01 -0.8398435E-01 -0.4274755E-02 -0.1605453E-02  0.5222946E-04  0.4137455E-01
6368000. -0.2211229E-01 -0.9935170E-01 -0.4273738E-02 -0.1135994E-01  0.4573320E-04  0.4140015E-01
6368000. -0.2211229E-01 -0.9935170E-01 -0.4273738E-02 -0.1135994E-01  0.4573320E-04  0.4140015E-01
6367000. -0.2209550E-01 -0.1146682E+00 -0.4271189E-02 -0.2111893E-01  0.3923326E-04  0.4142125E-01
6366000. -0.2207630E-01 -0.1299322E+00 -0.4267108E-02 -0.3087894E-01  0.3273037E-04  0.4143785E-01
6365000. -0.2205471E-01 -0.1451419E+00 -0.4261495E-02 -0.4063647E-01  0.2622523E-04  0.4144995E-01
6364000. -0.2203074E-01 -0.1602957E+00 -0.4254351E-02 -0.5038801E-01  0.1971854E-04  0.4145755E-01
6363000. -0.2200439E-01 -0.1753920E+00 -0.4245678E-02 -0.6013006E-01  0.1321101E-04  0.4146064E-01
6362000. -0.2197568E-01 -0.1904291E+00 -0.4235476E-02 -0.6985913E-01  0.6703346E-05  0.4145922E-01
6361000. -0.2194462E-01 -0.2054054E+00 -0.4223749E-02 -0.7957172E-01  0.1962624E-06  0.4145329E-01
6360000. -0.2191120E-01 -0.2203194E+00 -0.4210498E-02 -0.8926434E-01 -0.6309536E-05  0.4144285E-01
6359000. -0.2187546E-01 -0.2351695E+00 -0.4195727E-02 -0.9893351E-01 -0.1281334E-04  0.4142789E-01
6358000. -0.2183738E-01 -0.2499542E+00 -0.4179442E-02 -0.1085757E+00 -0.1931445E-04  0.4140842E-01
6357000. -0.2179699E-01 -0.2646719E+00 -0.4161645E-02 -0.1181876E+00 -0.2581214E-04  0.4138445E-01
6356000. -0.2175430E-01 -0.2793212E+00 -0.4142342E-02 -0.1277655E+00 -0.3230572E-04  0.4135596E-01
6356000. -0.2175430E-01 -0.1936694E+00 -0.4142342E-02 -0.7012077E-01 -0.3230572E-04  0.4608944E-01
6355000. -0.2172306E-01 -0.2043896E+00 -0.4130833E-02 -0.7652339E-01 -0.3953941E-04  0.4608159E-01
6354000. -0.2169014E-01 -0.2150684E+00 -0.4118320E-02 -0.8291313E-01 -0.4677157E-04  0.4607010E-01
6353000. -0.2165555E-01 -0.2257052E+00 -0.4104805E-02 -0.8928844E-01 -0.5400166E-04  0.4605500E-01
6352000. -0.2161929E-01 -0.2362991E+00 -0.4090291E-02 -0.9564779E-01 -0.6122908E-04  0.4603627E-01
6351000. -0.2158137E-01 -0.2468493E+00 -0.4074780E-02 -0.1019896E+00 -0.6845329E-04  0.4601391E-01
6350000. -0.2154180E-01 -0.2573550E+00 -0.4058275E-02 -0.1083124E+00 -0.7567369E-04  0.4598793E-01
6349000. -0.2150058E-01 -0.2678155E+00 -0.4040780E-02 -0.1146146E+00 -0.8288974E-04  0.4595833E-01
6348000. -0.2145773E-01 -0.2782300E+00 -0.4022297E-02 -0.1208948E+00 -0.9010085E-04  0.4592511E-01
6347000. -0.2141324E-01 -0.2885978E+00 -0.4002829E-02 -0.1271513E+00 -0.9730647E-04  0.4588826E-01
6346600. -0.2139499E-01 -0.2927317E+00 -0.3994768E-02 -0.1296469E+00 -0.1001870E-03  0.4587251E-01
6346600. -0.2139499E-01 -0.2039462E+00 -0.3994768E-02 -0.8185565E-01 -0.1001870E-03  0.5333263E-01
6318800. -0.2006668E-01 -0.4006954E+00 -0.3352340E-02 -0.2094615E+00 -0.3303377E-03  0.5176812E-01
6291000. -0.1793916E-01 -0.5693324E+00 -0.2207079E-02 -0.3094991E+00 -0.5486222E-03  0.4790565E-01
6291000. -0.1793916E-01 -0.5772830E+00 -0.2207079E-02 -0.3203161E+00 -0.5486222E-03  0.4790565E-01
6263000. -0.1508681E-01 -0.7149845E+00 -0.6501001E-03 -0.3795885E+00 -0.7463497E-03  0.4171871E-01
6235000. -0.1170504E-01 -0.8183224E+00  0.1048482E-02 -0.3838768E+00 -0.9123938E-03  0.3353586E-01
6207000. -0.7941826E-02 -0.8889950E+00  0.2641613E-02 -0.3321335E+00 -0.1038691E-02  0.2369487E-01
6179000. -0.3934468E-02 -0.9299526E+00  0.3896069E-02 -0.2316161E+00 -0.1118853E-02  0.1261737E-01
6151000.  0.1931792E-03 -0.9441749E+00  0.4626957E-02 -0.9678297E-01 -0.1148496E-02  0.7904874E-03
6151000.  0.1931792E-03 -0.7455198E+00  0.4626957E-02 -0.8455698E-01 -0.1148496E-02  0.7797997E-03
6128500.  0.2791039E-02 -0.7246053E+00  0.4735323E-02  0.2345429E-01 -0.1136881E-02 -0.7346142E-02
6106000.  0.5304207E-02 -0.6977159E+00  0.4464806E-02  0.1284973E+00 -0.1096803E-02 -0.1530680E-01
6083500.  0.7712747E-02 -0.6653680E+00  0.3841487E-02  0.2218790E+00 -0.1029187E-02 -0.2290941E-01
6061000.  0.9997063E-02 -0.6272526E+00  0.2920259E-02  0.2960872E+00 -0.9356228E-03 -0.2997311E-01
6038500.  0.1213522E-01 -0.5823844E+00  0.1779560E-02  0.3453852E+00 -0.8183093E-03 -0.3633274E-01
6016000.  0.1410090E-01 -0.5293130E+00  0.5143027E-03  0.3662330E+00 -0.6799969E-03 -0.4184251E-01
5993500.  0.1586225E-01 -0.4664024E+00 -0.7723275E-03  0.3575083E+00 -0.5239113E-03 -0.4637933E-01
5971000.  0.1738178E-01 -0.3921355E+00 -0.1977522E-02  0.3205318E+00 -0.3536705E-03 -0.4984454E-01
5971000.  0.1738178E-01 -0.3587328E+00 -0.1977522E-02  0.2829442E+00 -0.3536705E-03 -0.5211996E-01
5937667.  0.1891349E-01 -0.2239043E+00 -0.3219100E-02  0.1867054E+00 -0.7194475E-04 -0.5514120E-01
5904333.  0.1969717E-01 -0.7335194E-01 -0.3896996E-02  0.7084204E-01  0.2188289E-03 -0.5558299E-01
5871000.  0.1966211E-01  0.8800507E-01 -0.3960735E-02 -0.4493629E-01  0.5053611E-03 -0.5354999E-01
5837667.  0.1877042E-01  0.2526759E+00 -0.3456563E-02 -0.1438047E+00  0.7752195E-03 -0.4925177E-01
5804333.  0.1702829E-01  0.4114593E+00 -0.2506704E-02 -0.2137557E+00  0.1017293E-02 -0.4298057E-01
5771000.  0.1449227E-01  0.5545463E+00 -0.1281610E-02 -0.2484551E+00  0.1222149E-02 -0.3509028E-01
5771000.  0.1449227E-01  0.5545496E+00 -0.1281610E-02 -0.2484476E+00  0.1222149E-02 -0.3509028E-01
5701000.  0.6850422E-02  0.8149847E+00  0.1443384E-02 -0.2222501E+00  0.1495257E-02 -0.1391861E-01
5701000.  0.6850422E-02  0.6766686E+00  0.1443384E-02 -0.1770488E+00  0.1495257E-02 -0.1584950E-01
5667333.  0.3122853E-02  0.7282441E+00  0.2245547E-02 -0.1240693E+00  0.1552850E-02 -0.5900118E-02
5633667. -0.7828719E-03  0.7438565E+00  0.2735519E-02 -0.6024465E-01  0.1557423E-02  0.4158032E-02
5600000. -0.4674837E-02  0.7231451E+00  0.2877308E-02  0.6404058E-02  0.1509319E-02  0.1398115E-01
5600000. -0.4674837E-02  0.7231506E+00  0.2877308E-02  0.6403953E-02  0.1509319E-02  0.1398115E-01
5563518. -0.8678917E-02  0.6687894E+00  0.2641460E-02  0.7492293E-01  0.1400071E-02  0.2405772E-01
5527037. -0.1226302E-01  0.5773407E+00  0.2039214E-02  0.1330440E+00  0.1235498E-02  0.3324733E-01
5490556. -0.1523190E-01  0.4551715E+00  0.1151370E-02  0.1736617E+00  0.1021639E-02  0.4122165E-01
5454074. -0.1743343E-01  0.3108781E+00  0.9316071E-04  0.1919574E+00  0.7662642E-03  0.4770392E-01
5417593. -0.1876909E-01  0.1545066E+00 -0.1000319E-02  0.1858993E+00  0.4785844E-03  0.5247657E-01
5381111. -0.1919999E-01 -0.3384621E-02 -0.1990912E-02  0.1564050E+00  0.1688426E-03  0.5538668E-01
5344630. -0.1874693E-01 -0.1526316E+00 -0.2753667E-02  0.1071501E+00 -0.1519994E-03  0.5634782E-01
5308148. -0.1748555E-01 -0.2843668E+00 -0.3191532E-02  0.4406421E-01 -0.4727125E-03  0.5534095E-01
5271667. -0.1553704E-01 -0.3916940E+00 -0.3246097E-02 -0.2540061E-01 -0.7821128E-03  0.5241257E-01
5235185. -0.1305493E-01 -0.4702038E+00 -0.2903891E-02 -0.9316590E-01 -0.1069495E-02  0.4767063E-01
5198704. -0.1021061E-01 -0.5181715E+00 -0.2197322E-02 -0.1514422E+00 -0.1324905E-02  0.4128008E-01
5162222. -0.7177363E-02 -0.5365193E+00 -0.1200386E-02 -0.1936081E+00 -0.1539507E-02  0.3345484E-01
5125741. -0.4116696E-02 -0.5284877E+00 -0.2003272E-04 -0.2149091E+00 -0.1705793E-02  0.2445189E-01
5089259. -0.1165759E-02 -0.4991194E+00  0.1216270E-02 -0.2129507E+00 -0.1817841E-02  0.1456042E-01
5052778.  0.1570388E-02 -0.4545741E+00  0.2374534E-02 -0.1879074E+00 -0.1871448E-02  0.4094752E-02
5016296.  0.4023680E-02 -0.4013785E+00  0.3329148E-02 -0.1424513E+00 -0.1864263E-02 -0.6617621E-02
4979815.  0.6162425E-02 -0.3456905E+00  0.3976115E-02 -0.8142170E-01 -0.1795827E-02 -0.1724358E-01
4943333.  0.7987767E-02 -0.2926360E+00  0.4244118E-02 -0.1125673E-01 -0.1667572E-02 -0.2745657E-01
4906852.  0.9525832E-02 -0.2458226E+00  0.4101599E-02  0.6070662E-01 -0.1482773E-02 -0.3694349E-01
4870370.  0.1081844E-01 -0.2070297E+00  0.3559672E-02  0.1270365E+00 -0.1246418E-02 -0.4541615E-01
4833889.  0.1191203E-01 -0.1761499E+00  0.2670491E-02  0.1809682E+00 -0.9650814E-03 -0.5261721E-01
4797407.  0.1284743E-01 -0.1513334E+00  0.1521232E-02  0.2171102E+00 -0.6466723E-03 -0.5832883E-01
4760926.  0.1365063E-01 -0.1293550E+00  0.2248530E-03  0.2319600E+00 -0.3002558E-03 -0.6237778E-01
4724444.  0.1432647E-01 -0.1061239E+00 -0.1092019E-02  0.2242343E+00  0.6428864E-04 -0.6464076E-01
4687963.  0.1485530E-01 -0.7730422E-01 -0.2301887E-02  0.1949569E+00  0.4364858E-03 -0.6504693E-01
4651482.  0.1519351E-01 -0.3895368E-01 -0.3289522E-02  0.1473070E+00  0.8056411E-03 -0.6358016E-01
4615000.  0.1527748E-01  0.1187462E-01 -0.3963235E-02  0.8625618E-01  0.1161123E-02 -0.6027841E-01
4578518.  0.1503079E-01  0.7663579E-01 -0.4263652E-02  0.1803727E-01  0.1492649E-02 -0.5523276E-01
4542037.  0.1437379E-01  0.1549640E+00 -0.4169198E-02 -0.5050568E-01  0.1790606E-02 -0.4858392E-01
4505556.  0.1323450E-01  0.2445424E+00 -0.3697574E-02 -0.1126176E+00  0.2046334E-02 -0.4051761E-01
4469074.  0.1155961E-01  0.3411842E+00 -0.2903271E-02 -0.1622975E+00  0.2252348E-02 -0.3125852E-01
4432593.  0.9324631E-02  0.4391094E+00 -0.1871645E-02 -0.1948759E+00  0.2402533E-02 -0.2106449E-01
4396111.  0.6541419E-02  0.5314362E+00 -0.7097762E-03 -0.2074584E+00  0.2492337E-02 -0.1021681E-01
4359630.  0.3263268E-02  0.6107695E+00  0.4642787E-03 -0.1991724E+00  0.2518862E-02  0.9861311E-03
4323148. -0.4146942E-03  0.6698964E+00  0.1533548E-02 -0.1712166E+00  0.2480946E-02  0.1223944E-01
4286667. -0.4357820E-02  0.7024727E+00  0.2393431E-02 -0.1267129E+00  0.2379179E-02  0.2323830E-01
4250185. -0.8399609E-02  0.7036697E+00  0.2962016E-02 -0.7035920E-01  0.2215860E-02  0.3368859E-01
4213704. -0.1235108E-01  0.6706917E+00  0.3187642E-02 -0.7959029E-02  0.1994945E-02  0.4331251E-01
4177222. -0.1601438E-01  0.6031222E+00  0.3053681E-02  0.5417088E-01  0.1721890E-02  0.5185774E-01
4140741. -0.1919610E-01  0.5030820E+00  0.2579707E-02  0.1098051E+00  0.1403538E-02  0.5910179E-01
4104259. -0.2172242E-01  0.3751357E+00  0.1819168E-02  0.1534202E+00  0.1047875E-02  0.6485844E-01
4067778. -0.2345177E-01  0.2260204E+00  0.8539659E-03  0.1807026E+00  0.6638785E-03  0.6898078E-01
4031296. -0.2428641E-01  0.6413542E-01 -0.2138628E-03  0.1889547E+00  0.2612043E-03  0.7136420E-01
3994815. -0.2417993E-01 -0.1010647E+00 -0.1271942E-02  0.1773262E+00 -0.1499716E-03  0.7194764E-01
3958333. -0.2314127E-01 -0.2598357E+00 -0.2208624E-02  0.1468761E+00 -0.5592951E-03  0.7071400E-01
3921852. -0.2123433E-01 -0.4028734E+00 -0.2923446E-02  0.1004560E+00 -0.9563918E-03  0.6768872E-01
3885370. -0.1857304E-01 -0.5220748E+00 -0.3336839E-02  0.4242175E-01 -0.1331195E-02  0.6293820E-01
3848889. -0.1531305E-01 -0.6111402E+00 -0.3397481E-02 -0.2177564E-01 -0.1674088E-02  0.5656718E-01
3812407. -0.1163937E-01 -0.6660739E+00 -0.3087180E-02 -0.8611368E-01 -0.1976192E-02  0.4871430E-01
3775926. -0.7752996E-02 -0.6854538E+00 -0.2422599E-02 -0.1445407E+00 -0.2229476E-02  0.3954906E-01
3739444. -0.3855020E-02 -0.6705072E+00 -0.1453719E-02 -0.1915409E+00 -0.2426985E-02  0.2926557E-01
3702963. -0.1326929E-03 -0.6249517E+00 -0.2594976E-03 -0.2226155E+00 -0.2562914E-02  0.1807953E-01
3666482.  0.3254671E-02 -0.5546373E+00  0.1059343E-02 -0.2346889E+00 -0.2632752E-02  0.6221053E-02
3630000.  0.6186066E-02 -0.4670024E+00  0.2389195E-02 -0.2263643E+00 -0.2633333E-02 -0.6069846E-02
3630000.  0.6186066E-02 -0.4670015E+00  0.2389195E-02 -0.2263619E+00 -0.2633333E-02 -0.6069846E-02
3592500.  0.8652785E-02 -0.3702369E+00  0.3647853E-02 -0.1978634E+00 -0.2559823E-02 -0.1892930E-01
3555000.  0.1054271E-01 -0.2725344E+00  0.4680354E-02 -0.1500041E+00 -0.2410511E-02 -0.3178076E-01
3517500.  0.1187649E-01 -0.1826424E+00  0.5383076E-02 -0.8657946E-01 -0.2186250E-02 -0.4435081E-01
3480000.  0.1272297E-01 -0.1080580E+00  0.5679377E-02 -0.1289503E-01 -0.1889486E-02 -0.5637246E-01
3480000.  0.1272297E-01 -0.4725600E+00  0.3728587E-03  0.2260345E-01 -0.1889486E-02 -0.9639368E-01
3409422.  0.1611276E-01 -0.1285570E+00  0.7554948E-04  0.2996710E-01 -0.6569463E-03 -0.1216138E+00
3338844.  0.1550149E-01  0.2345096E+00 -0.2641156E-03  0.3008520E-01  0.6976507E-03 -0.1180115E+00
3268266.  0.1116527E-01  0.5311235E+00 -0.5637145E-03  0.2286633E-01  0.1854492E-02 -0.8667316E-01
3197688.  0.4215222E-02  0.6985454E+00 -0.7493348E-03  0.9892476E-02  0.2542640E-02 -0.3507677E-01
3127109. -0.3722430E-02  0.7075785E+00 -0.7719995E-03 -0.6011234E-02  0.2600053E-02  0.2502913E-01
3056531. -0.1089778E-01  0.5648520E+00 -0.6179656E-03 -0.2142810E-01  0.2005563E-02  0.8045524E-01
2985953. -0.1581169E-01  0.3075433E+00 -0.3112642E-03 -0.3307335E-01  0.8786475E-03  0.1194472E+00
2915375. -0.1749877E-01 -0.7202424E-02  0.9146678E-04 -0.3843983E-01 -0.5500294E-03  0.1340031E+00
2844797. -0.1567731E-01 -0.3153295E+00  0.5123462E-03 -0.3625557E-01 -0.1988806E-02  0.1212506E+00
2774219. -0.1075381E-01 -0.5586101E+00  0.8672995E-03 -0.2668525E-01 -0.3144370E-02  0.8371721E-01
2703641. -0.3699013E-02 -0.6947902E+00  0.1081842E-02 -0.1126288E-01 -0.3778180E-02  0.2855926E-01
2633062.  0.4167139E-02 -0.7036967E+00  0.1104754E-02  0.7412266E-02 -0.3749658E-02 -0.3400180E-01
2562484.  0.1143231E-01 -0.5887671E+00  0.9173997E-03  0.2614443E-01 -0.3039339E-02 -0.9266882E-01
2491906.  0.1684269E-01 -0.3743658E+00  0.5373317E-03  0.4168822E-01 -0.1749372E-02 -0.1371054E+00
2421328.  0.1950388E-01 -0.9984813E-01  0.1585904E-04  0.5127690E-01 -0.8296887E-04 -0.1596447E+00
2350750.  0.1900500E-01  0.1882244E+00 -0.5697575E-03  0.5305140E-01  0.1692069E-02 -0.1564251E+00
2280172.  0.1545303E-01  0.4442253E+00 -0.1128016E-02  0.4632924E-01  0.3288521E-02 -0.1278107E+00
2209594.  0.9421490E-02  0.6306044E+00 -0.1566829E-02  0.3168406E-01  0.4445544E-02 -0.7809450E-01
2139016.  0.1830327E-02  0.7230152E+00 -0.1806992E-02  0.1083547E-01  0.4967689E-02 -0.1459927E-01
2068438. -0.6216990E-02  0.7128695E+00 -0.1793510E-02 -0.1362255E-01  0.4751507E-02  0.5362670E-01
1997859. -0.1360966E-01  0.6071781E+00 -0.1503224E-02 -0.3860449E-01  0.3796553E-02  0.1172786E+00
1927281. -0.1939022E-01  0.4260873E+00 -0.9479155E-03 -0.6096345E-01  0.2200420E-02  0.1681835E+00
1856703. -0.2287842E-01  0.1986424E+00 -0.1725855E-03 -0.7791153E-01  0.1395895E-03  0.2004180E+00
1786125. -0.2374171E-01 -0.4228940E-01  0.7504935E-03 -0.8736274E-01 -0.2159701E-02  0.2110022E+00
1715547. -0.2200889E-01 -0.2651536E+00  0.1730950E-02 -0.8816261E-01 -0.4455764E-02  0.2001258E+00
1644969. -0.1803023E-01 -0.4441054E+00  0.2671260E-02 -0.8017609E-01 -0.6525744E-02  0.1709293E+00
1574391. -0.1239555E-01 -0.5621365E+00  0.3477843E-02 -0.6422941E-01 -0.8195449E-02  0.1289437E+00
1503812. -0.5826062E-02 -0.6126462E+00  0.4070779E-02 -0.4191932E-01 -0.9361798E-02  0.8134389E-01
1433234.  0.9419762E-03 -0.5994543E+00  0.4390749E-02 -0.1531543E-01 -0.1000684E-01  0.3622706E-01
1362656.  0.7267326E-02 -0.5355543E+00  0.4402294E-02  0.1341547E-01 -0.1020515E-01  0.2149407E-02
1292078.  0.1269434E-01 -0.4411187E+00  0.4092536E-02  0.4243814E-01 -0.1012878E-01 -0.1175249E-01
1221500.  0.1702128E-01 -0.3415464E+00  0.3464899E-02  0.7073103E-01 -0.1005891E-01  0.5403979E-02
1221500.  0.1702128E-01  0.4564689E+01  0.3116890E-01  0.7379000E-01 -0.1005891E-01 -0.1969709E-02
1183328. -0.9913029E-02  0.4089110E+01  0.2620669E-01  0.1538990E+01 -0.9914603E-02 -0.4473547E-01
1145156. -0.2821017E-01  0.1752153E+01  0.1380074E-01  0.2473573E+01 -0.9540069E-02 -0.7887951E-01
1106984. -0.2870252E-01 -0.1672462E+01 -0.1604481E-02  0.2503946E+01 -0.8985850E-02 -0.1047838E+00
1068812. -0.8529592E-02 -0.4914647E+01 -0.1431234E-01  0.1599422E+01 -0.8299978E-02 -0.1229119E+00
1030641.  0.2715898E-01 -0.6654808E+01 -0.1953199E-01  0.8292585E-01 -0.7527355E-02 -0.1338619E+00
 992469.  0.6640790E-01 -0.6015821E+01 -0.1518770E-01 -0.1491861E+01 -0.6708718E-02 -0.1384093E+00
 954297.  0.9428082E-01 -0.2921006E+01 -0.2706623E-02 -0.2546556E+01 -0.5879668E-02 -0.1375115E+00
 916125.  0.9808555E-01  0.1815392E+01  0.1348384E-01 -0.2689284E+01 -0.5069604E-02 -0.1322624E+00
 877953.  0.7219963E-01  0.6708297E+01  0.2753999E-01 -0.1852955E+01 -0.4301152E-02 -0.1238125E+00
 839781.  0.2079049E-01  0.1006532E+02  0.3426632E-01 -0.3131779E+00 -0.3590152E-02 -0.1132577E+00
 801609. -0.4260530E-01  0.1054162E+02  0.3091131E-01  0.1415676E+01 -0.2946291E-02 -0.1015425E+00
 763438. -0.9863365E-01  0.7600312E+01  0.1807202E-01  0.2764099E+01 -0.2374226E-02 -0.8939927E-01
 725266. -0.1277526E+00  0.1722924E+01 -0.5733104E-03  0.3302262E+01 -0.1874867E-02 -0.7733466E-01
 687094. -0.1161556E+00 -0.5701123E+01 -0.1955315E-01  0.2876907E+01 -0.1446718E-02 -0.6566821E-01
 648922. -0.6014276E-01 -0.1277268E+02 -0.3342417E-01  0.1647147E+01 -0.1086779E-02 -0.5459049E-01
 610750.  0.3245753E-01 -0.1763969E+02 -0.3847647E-01  0.1285124E-01 -0.7910934E-03 -0.4424159E-01
 572578.  0.1442368E+00 -0.1903471E+02 -0.3376225E-01 -0.1531693E+01 -0.5548948E-03 -0.3475703E-01
 534406.  0.2528860E+00 -0.1662544E+02 -0.2116062E-01 -0.2563040E+01 -0.3725570E-03 -0.2628931E-01
 496234.  0.3371361E+00 -0.1107534E+02 -0.4542812E-02 -0.2854979E+01 -0.2375191E-03 -0.1899226E-01
 458062.  0.3821509E+00 -0.3807544E+01  0.1159853E-01 -0.2426913E+01 -0.1423925E-03 -0.1298193E-01
 419891.  0.3828171E+00  0.3439648E+01  0.2354730E-01 -0.1506049E+01 -0.7928591E-04 -0.8304338E-02
 381719.  0.3441091E+00  0.9117295E+01  0.2932845E-01 -0.4259599E+00 -0.4033482E-04 -0.4900540E-02
 343547.  0.2786646E+00  0.1226795E+02  0.2897661E-01  0.4953731E+00 -0.1831791E-04 -0.2619275E-02
 305375.  0.2025539E+00  0.1271293E+02  0.2412799E-01  0.1053768E+01 -0.7162695E-05 -0.1233244E-02
 267203.  0.1306965E+00  0.1098377E+02  0.1717883E-01  0.1201494E+01 -0.2261630E-05 -0.4895477E-03
 229031.  0.7334792E-01  0.8048279E+01  0.1037608E-01  0.1028373E+01 -0.4940504E-06 -0.1506756E-03
 190859.  0.3457486E-01  0.4942574E+01  0.5170038E-02  0.6976590E+00 -0.3018334E-07 -0.2819699E-04
 152688.  0.1287780E-01  0.2443997E+01  0.2007400E-02  0.3690430E+00  0.2510609E-07  0.1099540E-05
 114516.  0.3371184E-02  0.8907148E+00  0.5416659E-03  0.1408320E+00  0.9465531E-08  0.2414739E-05
  76344.  0.4758322E-03  0.1941558E+00  0.7804955E-04  0.3163571E-01  0.1159568E-08  0.5358700E-06
  38172.  0.1549729E-04  0.1286139E-01  0.2572689E-05  0.2131698E-02  0.2115123E-10  0.2056188E-07
      0.  0.0000000E+00  0.0000000E+00  0.0000000E+00  0.0000000E+00  0.0000000E+00  0.0000000E+00
