      11       16 S      544        123.45830         19.65093          6.80399        283.74249      185    7
6371000. -0.4020160E-02  0.4044514E+00  0.3753711E-02  0.7773871E-02 -0.3804249E-03  0.1404831E-01
6370000. -0.4083471E-02  0.4022281E+00  0.3752043E-02  0.1347336E-01 -0.3826170E-03  0.1388380E-01
6369000. -0.4146418E-02  0.3998044E+00  0.3749481E-02  0.1917053E-01 -0.3847833E-03  0.1371874E-01
6368000. -0.4208968E-02  0.3971805E+00  0.3746025E-02  0.2486399E-01 -0.3869236E-03  0.1355313E-01
6368000. -0.4208968E-02  0.3971805E+00  0.3746025E-02  0.2486399E-01 -0.3869236E-03  0.1355313E-01
6367000. -0.4271091E-02  0.3943566E+00  0.3741676E-02  0.3055233E-01 -0.3890379E-03  0.1338699E-01
6366000. -0.4332756E-02  0.3913330E+00  0.3736435E-02  0.3623417E-01 -0.3911261E-03  0.1322034E-01
6365000. -0.4393929E-02  0.3881101E+00  0.3730302E-02  0.4190811E-01 -0.3931880E-03  0.1305317E-01
6364000. -0.4454582E-02  0.3846882E+00  0.3723280E-02  0.4757276E-01 -0.3952237E-03  0.1288551E-01
6363000. -0.4514681E-02  0.3810678E+00  0.3715368E-02  0.5322674E-01 -0.3972331E-03  0.1271736E-01
6362000. -0.4574197E-02  0.3772494E+00  0.3706571E-02  0.5886865E-01 -0.3992160E-03  0.1254875E-01
6361000. -0.4633098E-02  0.3732337E+00  0.3696889E-02  0.6449711E-01 -0.4011724E-03  0.1237967E-01
6360000. -0.4691353E-02  0.3690211E+00  0.3686325E-02  0.7011075E-01 -0.4031022E-03  0.1221014E-01
6359000. -0.4748932E-02  0.3646125E+00  0.3674880E-02  0.7570818E-01 -0.4050054E-03  0.1204018E-01
6358000. -0.4805803E-02  0.3600086E+00  0.3662559E-02  0.8128803E-01 -0.4068819E-03  0.1186980E-01
6357000. -0.4861936E-02  0.3552101E+00  0.3649363E-02  0.8684892E-01 -0.4087316E-03  0.1169901E-01
6356000. -0.4917301E-02  0.3502179E+00  0.3635296E-02  0.9238951E-01 -0.4105544E-03  0.1152782E-01
6356000. -0.4917301E-02  0.3161556E+00  0.3635296E-02  0.5916419E-01 -0.4105544E-03  0.1259777E-01
6355000. -0.4966663E-02  0.3127958E+00  0.3625727E-02  0.6276764E-01 -0.4125157E-03  0.1239309E-01
6354000. -0.5015489E-02  0.3093143E+00  0.3615593E-02  0.6636152E-01 -0.4144449E-03  0.1218812E-01
6353000. -0.5063758E-02  0.3057117E+00  0.3604895E-02  0.6994526E-01 -0.4163418E-03  0.1198285E-01
6352000. -0.5111452E-02  0.3019882E+00  0.3593636E-02  0.7351825E-01 -0.4182066E-03  0.1177730E-01
6351000. -0.5158552E-02  0.2981443E+00  0.3581817E-02  0.7707993E-01 -0.4200390E-03  0.1157148E-01
6350000. -0.5205040E-02  0.2941805E+00  0.3569439E-02  0.8062973E-01 -0.4218391E-03  0.1136539E-01
6349000. -0.5250896E-02  0.2900973E+00  0.3556506E-02  0.8416705E-01 -0.4236068E-03  0.1115906E-01
6348000. -0.5296102E-02  0.2858952E+00  0.3543018E-02  0.8769133E-01 -0.4253422E-03  0.1095248E-01
6347000. -0.5340639E-02  0.2815748E+00  0.3528978E-02  0.9120200E-01 -0.4270450E-03  0.1074567E-01
6346600. -0.5358262E-02  0.2798136E+00  0.3523208E-02  0.9260233E-01 -0.4277171E-03  0.1066289E-01
6346600. -0.5358262E-02  0.3550126E+00  0.3523208E-02  0.6541599E-01 -0.4277171E-03  0.1253123E-01
6318800. -0.6669398E-02  0.2342127E+00  0.3083422E-02  0.1345436E+00 -0.4692328E-03  0.6485467E-02
6291000. -0.7308212E-02  0.4902647E-01  0.2367727E-02  0.1908656E+00 -0.4843005E-03  0.4287648E-03
6291000. -0.7308212E-02  0.5445582E-01  0.2367727E-02  0.1971192E+00 -0.4843005E-03  0.4287648E-03
6263000. -0.7027184E-02 -0.1888689E+00  0.1406469E-02  0.2366410E+00 -0.4730804E-03 -0.5507609E-02
6235000. -0.5610488E-02 -0.4576975E+00  0.3224284E-03  0.2525336E+00 -0.4362113E-03 -0.1122435E-01
6207000. -0.3010192E-02 -0.7223197E+00 -0.7762999E-03  0.2432846E+00 -0.3749108E-03 -0.1660608E-01
6179000.  0.6866051E-03 -0.9515281E+00 -0.1780566E-02  0.2099290E+00 -0.2909141E-03 -0.2153185E-01
6151000.  0.5258318E-02 -0.1115882E+01 -0.2591205E-02  0.1559368E+00 -0.1865078E-03 -0.2587135E-01
6151000.  0.5258318E-02 -0.9584228E+00 -0.2591205E-02  0.1360565E+00 -0.1865078E-03 -0.2616227E-01
6128500.  0.8740556E-02 -0.1005454E+01 -0.2987872E-02  0.8767701E-01 -0.9094159E-04 -0.2787285E-01
6106000.  0.1229966E-01 -0.1001415E+01 -0.3205884E-02  0.3538928E-01  0.9753827E-05 -0.2906464E-01
6083500.  0.1575128E-01 -0.9445343E+00 -0.3236865E-02 -0.1772582E-01  0.1137272E-03 -0.2972854E-01
6061000.  0.1891007E-01 -0.8360366E+00 -0.3083294E-02 -0.6863061E-01  0.2191132E-03 -0.2986559E-01
6038500.  0.2160023E-01 -0.6800533E+00 -0.2758052E-02 -0.1145001E+00  0.3240667E-03 -0.2948596E-01
6016000.  0.2366529E-01 -0.4833622E+00 -0.2283395E-02 -0.1528732E+00  0.4267935E-03 -0.2860851E-01
5993500.  0.2497684E-01 -0.2549863E+00 -0.1689442E-02 -0.1817762E+00  0.5255816E-03 -0.2726049E-01
5971000.  0.2544156E-01 -0.5683696E-02 -0.1012276E-02 -0.1998169E+00  0.6188262E-03 -0.2547527E-01
5971000.  0.2544156E-01 -0.1624556E-01 -0.1012276E-02 -0.1809133E+00  0.6188262E-03 -0.2880578E-01
5937667.  0.2462854E-01  0.3243993E+00 -0.5489266E-04 -0.1814772E+00  0.7620665E-03 -0.2582622E-01
5904333.  0.2210113E-01  0.6341853E+00  0.8521369E-03 -0.1622644E+00  0.8879829E-03 -0.2222027E-01
5871000.  0.1809173E-01  0.8872240E+00  0.1616110E-02 -0.1276249E+00  0.9938794E-03 -0.1821038E-01
5837667.  0.1294825E-01  0.1065360E+01  0.2169839E-02 -0.8280740E-01  0.1078182E-02 -0.1399663E-01
5804333.  0.7091642E-02  0.1158829E+01  0.2474391E-02 -0.3326334E-01  0.1140281E-02 -0.9746942E-02
5771000.  0.9728874E-03  0.1166005E+01  0.2518598E-02  0.1591586E-01  0.1180344E-02 -0.5592669E-02
5771000.  0.9728874E-03  0.1166056E+01  0.2518598E-02  0.1591540E-01  0.1180344E-02 -0.5592669E-02
5701000. -0.1111189E-01  0.9769804E+00  0.1821744E-02  0.1065881E+00  0.1194583E-02  0.2969400E-02
5701000. -0.1111189E-01  0.8344823E+00  0.1821744E-02  0.8729448E-01  0.1194583E-02  0.6101443E-02
5667333. -0.1508172E-01  0.6612953E+00  0.1295824E-02  0.1102688E+00  0.1156252E-02  0.8361059E-02
5633667. -0.1804474E-01  0.4560306E+00  0.6725398E-03  0.1240774E+00  0.1106663E-02  0.1036810E-01
5600000. -0.1987220E-01  0.2340734E+00  0.8079339E-06  0.1286432E+00  0.1047048E-02  0.1216361E-01
5600000. -0.1987220E-01  0.2340750E+00  0.8079339E-06  0.1286483E+00  0.1047048E-02  0.1216361E-01
5563518. -0.2051398E-01 -0.1028890E-01 -0.7342742E-03  0.1264134E+00  0.9722353E-03  0.1394201E-01
5527037. -0.1976737E-01 -0.2478888E+00 -0.1428273E-02  0.1144307E+00  0.8876559E-03  0.1557543E-01
5490556. -0.1772091E-01 -0.4615892E+00 -0.2028197E-02  0.9379149E-01  0.7941395E-03  0.1706354E-01
5454074. -0.1455576E-01 -0.6363118E+00 -0.2489083E-02  0.6618816E-01  0.6925135E-03  0.1840712E-01
5417593. -0.1053134E-01 -0.7600480E+00 -0.2776999E-02  0.3376741E-01  0.5836085E-03  0.1960691E-01
5381111. -0.5964646E-02 -0.8246707E+00 -0.2871218E-02 -0.1049392E-02  0.4682441E-03  0.2066174E-01
5344630. -0.1207441E-02 -0.8263754E+00 -0.2765222E-02 -0.3574540E-01  0.3472663E-03  0.2156775E-01
5308148.  0.3380128E-02 -0.7658616E+00 -0.2466718E-02 -0.6789730E-01  0.2215384E-03  0.2231831E-01
5271667.  0.7453965E-02 -0.6481620E+00 -0.1996669E-02 -0.9533253E-01  0.9198334E-04  0.2290393E-01
5235185.  0.1071066E-01 -0.4821956E+00 -0.1387357E-02 -0.1162760E+00 -0.4042951E-04  0.2331318E-01
5198704.  0.1290706E-01 -0.2800897E+00 -0.6799057E-03 -0.1294487E+00 -0.1746469E-03  0.2353336E-01
5162222.  0.1387673E-01 -0.5625674E-01  0.7890704E-04 -0.1341380E+00 -0.3095578E-03  0.2355214E-01
5125741.  0.1353988E-01  0.1735785E+00  0.8398224E-03 -0.1302183E+00 -0.4439684E-03  0.2335831E-01
5089259.  0.1190784E-01  0.3934935E+00  0.1554601E-02 -0.1181363E+00 -0.5766441E-03  0.2294385E-01
5052778.  0.9081424E-02  0.5883724E+00  0.2179003E-02 -0.9885877E-01 -0.7063001E-03  0.2230459E-01
5016296.  0.5242982E-02  0.7449169E+00  0.2675681E-02 -0.7378481E-01 -0.8316565E-03  0.2144156E-01
4979815.  0.6442748E-03  0.8524299E+00  0.3016239E-02 -0.4464276E-01 -0.9514422E-03  0.2036174E-01
4943333. -0.4411244E-02  0.9034810E+00  0.3182854E-02 -0.1336047E-01 -0.1064457E-02  0.1907823E-01
4906852. -0.9587385E-02  0.8943003E+00  0.3168995E-02  0.1805845E-01 -0.1169581E-02  0.1761069E-01
4870370. -0.1453790E-01  0.8249542E+00  0.2979500E-02  0.4767037E-01 -0.1265838E-02  0.1598481E-01
4833889. -0.1892721E-01  0.6992736E+00  0.2629910E-02  0.7370285E-01 -0.1352402E-02  0.1423189E-01
4797407. -0.2245233E-01  0.5245563E+00  0.2145130E-02  0.9466338E-01 -0.1428650E-02  0.1238714E-01
4760926. -0.2486043E-01  0.3110765E+00  0.1557674E-02  0.1094132E+00 -0.1494164E-02  0.1048988E-01
4724444. -0.2596469E-01  0.7138810E-01  0.9053602E-03  0.1172252E+00 -0.1548761E-02  0.8580818E-02
4687963. -0.2565483E-01 -0.1804094E+00  0.2289938E-03  0.1178089E+00 -0.1592491E-02  0.6701439E-02
4651482. -0.2390364E-01 -0.4295740E+00 -0.4302657E-03  0.1113096E+00 -0.1625642E-02  0.4892308E-02
4615000. -0.2076803E-01 -0.6615658E+00 -0.1033279E-02  0.9828164E-01 -0.1648727E-02  0.3191509E-02
4578518. -0.1638578E-01 -0.8628660E+00 -0.1545102E-02  0.7963883E-01 -0.1662466E-02  0.1633890E-02
4542037. -0.1096738E-01 -0.1021748E+01 -0.1936906E-02  0.5658731E-01 -0.1667770E-02  0.2494904E-03
4505556. -0.4783490E-02 -0.1128913E+01 -0.2187431E-02  0.3054192E-01 -0.1665703E-02 -0.9367611E-03
4469074.  0.1850107E-02 -0.1177950E+01 -0.2283894E-02  0.3037413E-02 -0.1657457E-02 -0.1905728E-02
4432593.  0.8589426E-02 -0.1165643E+01 -0.2222427E-02 -0.2436035E-01 -0.1644318E-02 -0.2644057E-02
4396111.  0.1508228E-01 -0.1092096E+01 -0.2007990E-02 -0.5014849E-01 -0.1627631E-02 -0.3144257E-02
4359630.  0.2098577E-01 -0.9606702E+00 -0.1653803E-02 -0.7296180E-01 -0.1608770E-02 -0.3403701E-02
4323148.  0.2598563E-01 -0.7777268E+00 -0.1180300E-02 -0.9164649E-01 -0.1589106E-02 -0.3424729E-02
4286667.  0.2981126E-01 -0.5522732E+00 -0.6138407E-03 -0.1053095E+00 -0.1569994E-02 -0.3212348E-02
4250185.  0.3225032E-01 -0.2953947E+00  0.1500545E-04 -0.1133577E+00 -0.1552748E-02 -0.2774342E-02
4213704.  0.3315827E-01 -0.1969850E-01  0.6731045E-03 -0.1155134E+00 -0.1538637E-02 -0.2118850E-02
4177222.  0.3246554E-01  0.2614149E+00  0.1326715E-02 -0.1118157E+00 -0.1528884E-02 -0.1252966E-02
4140741.  0.3018009E-01  0.5343829E+00  0.1943116E-02 -0.1026035E+00 -0.1524679E-02 -0.1815509E-03
4104259.  0.2638603E-01  0.7862167E+00  0.2492383E-02 -0.8848254E-01 -0.1527197E-02  0.1095523E-02
4067778.  0.2123922E-01  0.1005064E+01  0.2948656E-02 -0.7028264E-01 -0.1537627E-02  0.2583731E-02
4031296.  0.1495814E-01  0.1180814E+01  0.3291397E-02 -0.4900245E-01 -0.1557216E-02  0.4297336E-02
3994815.  0.7813879E-02  0.1305488E+01  0.3506093E-02 -0.2575376E-01 -0.1587316E-02  0.6260022E-02
3958333.  0.1154580E-03  0.1373600E+01  0.3584794E-02 -0.1696205E-02 -0.1629451E-02  0.8507721E-02
3921852. -0.7803411E-02  0.1382315E+01  0.3526182E-02  0.2201764E-01 -0.1685387E-02  0.1109027E-01
3885370. -0.1560144E-01  0.1331527E+01  0.3335373E-02  0.4430259E-01 -0.1757225E-02  0.1407410E-01
3848889. -0.2294357E-01  0.1223787E+01  0.3023412E-02  0.6418503E-01 -0.1847495E-02  0.1754452E-01
3812407. -0.2951724E-01  0.1064080E+01  0.2606461E-02  0.8084714E-01 -0.1959285E-02  0.2160961E-01
3775926. -0.3504409E-01  0.8595669E+00  0.2104899E-02  0.9365186E-01 -0.2096364E-02  0.2640301E-01
3739444. -0.3929262E-01  0.6191671E+00  0.1542130E-02  0.1021652E+00 -0.2263364E-02  0.3208956E-01
3702963. -0.4208603E-01  0.3531552E+00  0.9435047E-03  0.1061603E+00 -0.2465950E-02  0.3887057E-01
3666482. -0.4330928E-01  0.7264139E-01  0.3350371E-03  0.1056158E+00 -0.2711072E-02  0.4699130E-01
3630000. -0.4291213E-01 -0.2108976E+00 -0.2576923E-03  0.1007007E+00 -0.3007239E-02  0.5675187E-01
3630000. -0.4291213E-01 -0.2108971E+00 -0.2576923E-03  0.1007004E+00 -0.3007239E-02  0.5675187E-01
3592500. -0.4082649E-01 -0.4955699E+00 -0.8254510E-03  0.9152649E-01 -0.3375782E-02  0.6885705E-01
3555000. -0.3711595E-01 -0.7610554E+00 -0.1327480E-02  0.7844727E-01 -0.3822808E-02  0.8350290E-01
3517500. -0.3192735E-01 -0.9959818E+00 -0.1742349E-02  0.6201223E-01 -0.4364865E-02  0.1012516E+00
3480000. -0.2547136E-01 -0.1190105E+01 -0.2052187E-02  0.4287459E-01 -0.5022204E-02  0.1228044E+00
3480000. -0.2547136E-01 -0.4742386E+00  0.1395364E-02 -0.4921165E-01 -0.5022204E-02  0.2029268E+00
3409422. -0.1956086E-01 -0.5793925E+00  0.1892636E-02 -0.4011226E-01 -0.7033824E-02  0.1588539E+00
3338844. -0.1291515E-01 -0.6087583E+00  0.2276691E-02 -0.2900600E-01 -0.8521460E-02  0.1092637E+00
3268266. -0.6302421E-02 -0.5761716E+00  0.2532861E-02 -0.1723377E-01 -0.9453859E-02  0.5941848E-01
3197688. -0.3133006E-03 -0.4992340E+00  0.2660284E-02 -0.5928776E-02 -0.9852881E-02  0.1357670E-01
3127109.  0.4662000E-02 -0.3960505E+00  0.2669114E-02  0.4060849E-02 -0.9780633E-02 -0.2527648E-01
3056531.  0.8425394E-02 -0.2829308E+00  0.2577203E-02  0.1219398E-01 -0.9324997E-02 -0.5546496E-01
2985953.  0.1094271E-01 -0.1729549E+00  0.2406760E-02  0.1821877E-01 -0.8585693E-02 -0.7649299E-01
2915375.  0.1230367E-01 -0.7538641E-01  0.2181387E-02  0.2212671E-01 -0.7662483E-02 -0.8880500E-01
2844797.  0.1267952E-01  0.4272521E-02  0.1923702E-02  0.2409380E-01 -0.6646284E-02 -0.9350461E-01
2774219.  0.1228361E-01  0.6381534E-01  0.1653644E-02  0.2441671E-01 -0.5613441E-02 -0.9207543E-01
2703641.  0.1133878E-01  0.1036047E+00  0.1387475E-02  0.2345355E-01 -0.4622905E-02 -0.8613658E-01
2633062.  0.1005329E-01  0.1257811E+00  0.1137378E-02  0.2157560E-01 -0.3715838E-02 -0.7725199E-01
2562484.  0.8605332E-02  0.1335156E+00  0.9115306E-03  0.1913042E-01 -0.2917049E-02 -0.6680017E-01
2491906.  0.7135273E-02  0.1303706E+00  0.7145074E-03  0.1641676E-01 -0.2237435E-02 -0.5589909E-01
2421328.  0.5744120E-02  0.1198231E+00  0.5479050E-03  0.1367265E-01 -0.1677101E-02 -0.4538057E-01
2350750.  0.4496400E-02  0.1049419E+00  0.4110379E-03  0.1107220E-01 -0.1228486E-02 -0.3580083E-01
2280172.  0.3425754E-02  0.8821670E-01  0.3016328E-03  0.8728977E-02 -0.8792427E-03 -0.2747508E-01
2209594.  0.2541766E-02  0.7149903E-01  0.2164563E-03  0.6704503E-02 -0.6146516E-03 -0.2052468E-01
2139016.  0.1836936E-02  0.5603217E-01  0.1518327E-03  0.5018882E-02 -0.4194850E-03 -0.1492861E-01
2068438.  0.1292996E-02  0.4253384E-01  0.1040416E-03  0.3661973E-02 -0.2793104E-03 -0.1057184E-01
1997859.  0.8861264E-03  0.3130664E-01  0.6959322E-04  0.2603767E-02 -0.1812940E-03 -0.7286779E-02
1927281.  0.5909390E-03  0.2235337E-01  0.4539968E-04  0.1803330E-02 -0.1145987E-03 -0.4885825E-02
1856703.  0.3831610E-03  0.1548292E-01  0.2885283E-04  0.1215725E-02 -0.7046314E-04 -0.3184271E-02
1786125.  0.2412976E-03  0.1039901E-01  0.1784081E-04  0.7970454E-03 -0.4208514E-04 -0.2015119E-02
1715547.  0.1473983E-03  0.6767491E-02  0.1071704E-04  0.5075893E-03 -0.2437688E-04 -0.1236656E-02
1644969.  0.8720169E-04  0.4262504E-02  0.6243081E-05  0.3135572E-03 -0.1366759E-04 -0.7348114E-03
1574391.  0.4987480E-04  0.2594208E-02  0.3519296E-05  0.1875888E-03 -0.7401335E-05 -0.4219678E-03
1503812.  0.2752983E-04  0.1521875E-02  0.1914313E-05  0.1085261E-03 -0.3860789E-05 -0.2336864E-03
1433234.  0.1465968E-04  0.8562624E-03  0.9999013E-06  0.6072371E-04 -0.1933364E-05 -0.1245236E-03
1362656.  0.7588825E-05  0.4544411E-03  0.4946133E-06  0.3317071E-04 -0.9246032E-06 -0.6371418E-04
1292078.  0.4016455E-05  0.2088178E-03  0.2169617E-06  0.1873586E-04 -0.4179102E-06 -0.3125942E-04
1221500.  0.2724398E-05  0.2680384E-04  0.4435419E-07  0.1397865E-04 -0.1744035E-06 -0.1455377E-04
1221500.  0.2724398E-05 -0.1270966E-03 -0.8567807E-07 -0.1465657E-04 -0.1744035E-06 -0.1573399E-04
1183328.  0.3209459E-05 -0.3959881E-04 -0.1356827E-07 -0.9593920E-05 -0.1006377E-06 -0.9396308E-05
1145156.  0.3252948E-05  0.2087348E-04  0.3138565E-07 -0.5582507E-05 -0.5693925E-07 -0.5511618E-05
1106984.  0.3005723E-05  0.5813873E-04  0.5531082E-07 -0.2563470E-05 -0.3153006E-07 -0.3170467E-05
1068812.  0.2593753E-05  0.7664189E-04  0.6392054E-07 -0.4530738E-06 -0.1705221E-07 -0.1785253E-05
1030641.  0.2115356E-05  0.8110322E-04  0.6231195E-07  0.8708690E-06 -0.8984587E-08 -0.9819066E-06
 992469.  0.1640792E-05  0.7608288E-04  0.5474868E-07  0.1561936E-05 -0.4597997E-08 -0.5261330E-06
 954297.  0.1214513E-05  0.6559232E-04  0.4452451E-07  0.1786929E-05 -0.2277353E-08 -0.2738158E-06
 916125.  0.8592546E-06  0.5283452E-04  0.3394460E-07  0.1705875E-05 -0.1086801E-08 -0.1378783E-06
 877953.  0.5812855E-06  0.4009849E-04  0.2441736E-07  0.1455883E-05 -0.4969350E-09 -0.6686750E-07
 839781.  0.3758346E-06  0.2879656E-04  0.1662444E-07  0.1141496E-05 -0.2161124E-09 -0.3105102E-07
 801609.  0.2319608E-06  0.1960507E-04  0.1072489E-07  0.8328014E-06 -0.8848577E-10 -0.1369977E-07
 763438.  0.1364037E-06  0.1265679E-04  0.6553858E-08  0.5688321E-06 -0.3360018E-10 -0.5682518E-08
 725266.  0.7622578E-07  0.7740586E-05  0.3787994E-08  0.3646682E-06 -0.1153556E-10 -0.2181456E-08
 687094.  0.4034734E-07  0.4475423E-05  0.2065612E-08  0.2194631E-06 -0.3404281E-11 -0.7543262E-09
 648922.  0.2014549E-07  0.2438797E-05  0.1058984E-08  0.1237927E-06 -0.7509353E-12 -0.2229369E-09
 610750.  0.9440272E-08  0.1247386E-05  0.5080739E-09  0.6524664E-07 -0.4128559E-13 -0.4840062E-10
 572578.  0.4125933E-08  0.5956383E-06  0.2267802E-09  0.3198565E-07  0.7523847E-13 -0.1873264E-11
 534406.  0.1668961E-08  0.2637320E-06  0.9347698E-10  0.1449357E-07  0.5557992E-13  0.5427359E-11
 496234.  0.6188779E-09  0.1073494E-06  0.3525134E-10  0.6020955E-08  0.2649184E-13  0.3843439E-11
 458062.  0.2078704E-09  0.3973219E-07  0.1201973E-10  0.2268940E-08  0.1001344E-13  0.1785595E-11
 419891.  0.6228806E-10  0.1318612E-07  0.3650276E-11  0.7650484E-09  0.3140970E-14  0.6543304E-12
 381719.  0.1632488E-10  0.3852835E-08  0.9681313E-12  0.2266815E-09  0.8218961E-15  0.1967355E-12
 343547.  0.3646030E-11  0.9674717E-09  0.2185033E-12  0.5762118E-10  0.1767772E-15  0.4846516E-13
 305375.  0.6697915E-12  0.2020200E-09  0.4050999E-13  0.1216059E-10  0.3032874E-16  0.9563793E-14
 267203.  0.9629588E-13  0.3349107E-10  0.5870524E-14  0.2034522E-11  0.3953540E-17  0.1449172E-14
 229031.  0.1007283E-13  0.4118297E-11  0.6182394E-15  0.2521288E-12  0.3633001E-18  0.1573905E-15
 190859.  0.6846834E-15  0.3379921E-12  0.4225582E-16  0.2082339E-13  0.2092915E-19  0.1085962E-16
 152688.  0.0000000E+00  0.0000000E+00  0.0000000E+00  0.0000000E+00  0.0000000E+00  0.0000000E+00
 114516.  0.0000000E+00  0.0000000E+00  0.0000000E+00  0.0000000E+00  0.0000000E+00  0.0000000E+00
  76344.  0.0000000E+00  0.0000000E+00  0.0000000E+00  0.0000000E+00  0.0000000E+00  0.0000000E+00
  38172.  0.0000000E+00  0.0000000E+00  0.0000000E+00  0.0000000E+00  0.0000000E+00  0.0000000E+00
      0.  0.0000000E+00  0.0000000E+00  0.0000000E+00  0.0000000E+00  0.0000000E+00  0.0000000E+00
