       2       50 S      214        108.37940          7.31391          5.68303        160.22510      185    7
6371000.  0.5760423E-01  0.1052976E+01  0.1095939E-02 -0.5650830E-01 -0.1800103E-02 -0.1682284E-01
6370000.  0.5743539E-01  0.1098379E+01  0.1104712E-02 -0.5527189E-01 -0.1797481E-02 -0.1658612E-01
6369000.  0.5725945E-01  0.1143356E+01  0.1113289E-02 -0.5401243E-01 -0.1794897E-02 -0.1634356E-01
6368000.  0.5707648E-01  0.1187899E+01  0.1121667E-02 -0.5273022E-01 -0.1792351E-02 -0.1609510E-01
6368000.  0.5707648E-01  0.1187899E+01  0.1121667E-02 -0.5273022E-01 -0.1792351E-02 -0.1609510E-01
6367000.  0.5688656E-01  0.1231997E+01  0.1129841E-02 -0.5142558E-01 -0.1789845E-02 -0.1584072E-01
6366000.  0.5668976E-01  0.1275640E+01  0.1137809E-02 -0.5009882E-01 -0.1787379E-02 -0.1558038E-01
6365000.  0.5648614E-01  0.1318818E+01  0.1145567E-02 -0.4875027E-01 -0.1784954E-02 -0.1531406E-01
6364000.  0.5627577E-01  0.1361522E+01  0.1153112E-02 -0.4738025E-01 -0.1782572E-02 -0.1504171E-01
6363000.  0.5605875E-01  0.1403741E+01  0.1160440E-02 -0.4598909E-01 -0.1780232E-02 -0.1476331E-01
6362000.  0.5583514E-01  0.1445468E+01  0.1167548E-02 -0.4457716E-01 -0.1777937E-02 -0.1447882E-01
6361000.  0.5560501E-01  0.1486691E+01  0.1174433E-02 -0.4314478E-01 -0.1775687E-02 -0.1418821E-01
6360000.  0.5536846E-01  0.1527402E+01  0.1181091E-02 -0.4169231E-01 -0.1773484E-02 -0.1389145E-01
6359000.  0.5512555E-01  0.1567592E+01  0.1187520E-02 -0.4022012E-01 -0.1771327E-02 -0.1358849E-01
6358000.  0.5487638E-01  0.1607251E+01  0.1193716E-02 -0.3872857E-01 -0.1769218E-02 -0.1327931E-01
6357000.  0.5462103E-01  0.1646372E+01  0.1199677E-02 -0.3721802E-01 -0.1767159E-02 -0.1296387E-01
6356000.  0.5435958E-01  0.1684945E+01  0.1205398E-02 -0.3568886E-01 -0.1765149E-02 -0.1264214E-01
6356000.  0.5435958E-01  0.1359486E+01  0.1205398E-02 -0.4266191E-01 -0.1765149E-02 -0.2447015E-01
6355000.  0.5414384E-01  0.1389352E+01  0.1212042E-02 -0.4198644E-01 -0.1761321E-02 -0.2429904E-01
6354000.  0.5392344E-01  0.1418972E+01  0.1218578E-02 -0.4130038E-01 -0.1757521E-02 -0.2412524E-01
6353000.  0.5369841E-01  0.1448340E+01  0.1225006E-02 -0.4060384E-01 -0.1753748E-02 -0.2394871E-01
6352000.  0.5346879E-01  0.1477452E+01  0.1231324E-02 -0.3989691E-01 -0.1750003E-02 -0.2376946E-01
6351000.  0.5323462E-01  0.1506304E+01  0.1237530E-02 -0.3917971E-01 -0.1746286E-02 -0.2358746E-01
6350000.  0.5299594E-01  0.1534890E+01  0.1243623E-02 -0.3845234E-01 -0.1742599E-02 -0.2340271E-01
6349000.  0.5275280E-01  0.1563208E+01  0.1249601E-02 -0.3771491E-01 -0.1738940E-02 -0.2321518E-01
6348000.  0.5250523E-01  0.1591251E+01  0.1255462E-02 -0.3696753E-01 -0.1735311E-02 -0.2302486E-01
6347000.  0.5225328E-01  0.1619018E+01  0.1261205E-02 -0.3621030E-01 -0.1731712E-02 -0.2283173E-01
6346600.  0.5215129E-01  0.1630045E+01  0.1263469E-02 -0.3590468E-01 -0.1730281E-02 -0.2275369E-01
6346600.  0.5215129E-01  0.1591848E+01  0.1263469E-02 -0.4083563E-01 -0.1730281E-02 -0.4093808E-01
6318800.  0.4384356E-01  0.2198367E+01  0.1423878E-02 -0.3190407E-01 -0.1557547E-02 -0.3823618E-01
6291000.  0.3315881E-01  0.2672683E+01  0.1535736E-02 -0.1874824E-01 -0.1396519E-02 -0.3558502E-01
6291000.  0.3315881E-01  0.2735518E+01  0.1535736E-02 -0.1830257E-01 -0.1396519E-02 -0.3558502E-01
6263000.  0.2041517E-01  0.3026755E+01  0.1576934E-02 -0.2852201E-04 -0.1247333E-02 -0.3231529E-01
6235000.  0.6901819E-02  0.3081506E+01  0.1533631E-02  0.1984808E-01 -0.1112335E-02 -0.2914077E-01
6207000. -0.6301243E-02  0.2884903E+01  0.1402879E-02  0.3944712E-01 -0.9909258E-03 -0.2614745E-01
6179000. -0.1809794E-01  0.2444714E+01  0.1190081E-02  0.5687839E-01 -0.8820821E-03 -0.2344185E-01
6151000. -0.2747682E-01  0.1791555E+01  0.9086502E-03  0.7041472E-01 -0.7842787E-03 -0.2114412E-01
6151000. -0.2747682E-01  0.1639618E+01  0.9086502E-03  0.6546247E-01 -0.7842787E-03 -0.1962395E-01
6128500. -0.3230909E-01  0.1089836E+01  0.6704933E-03  0.6895411E-01 -0.7158550E-03 -0.1913095E-01
6106000. -0.3513847E-01  0.5096620E+00  0.4248467E-03  0.6970147E-01 -0.6490943E-03 -0.1868636E-01
6083500. -0.3590356E-01 -0.7495043E-01  0.1813496E-03  0.6775584E-01 -0.5837844E-03 -0.1831286E-01
6061000. -0.3463342E-01 -0.6388878E+00 -0.5075942E-04  0.6329036E-01 -0.5196383E-03 -0.1803077E-01
6038500. -0.3144274E-01 -0.1158947E+01 -0.2630442E-03  0.5658298E-01 -0.4562949E-03 -0.1786229E-01
6016000. -0.2652342E-01 -0.1614748E+01 -0.4482039E-03  0.4799495E-01 -0.3933086E-03 -0.1783334E-01
5993500. -0.2013326E-01 -0.1989441E+01 -0.6003262E-03  0.3794738E-01 -0.3301329E-03 -0.1797553E-01
5971000. -0.1258252E-01 -0.2270238E+01 -0.7150570E-03  0.2689764E-01 -0.2660935E-03 -0.1833030E-01
5971000. -0.1258252E-01 -0.2114830E+01 -0.7150570E-03  0.2532940E-01 -0.2660935E-03 -0.1668314E-01
5937667. -0.9609617E-03 -0.2297476E+01 -0.8127845E-03  0.1222124E-01 -0.1827267E-03 -0.1516514E-01
5904333.  0.1116310E-01 -0.2310842E+01 -0.8457769E-03  0.7263318E-03 -0.1076708E-03 -0.1349485E-01
5871000.  0.2297557E-01 -0.2184008E+01 -0.8243555E-03 -0.8503830E-02 -0.4185765E-04 -0.1162817E-01
5837667.  0.3383344E-01 -0.1952015E+01 -0.7612378E-03 -0.1519405E-01  0.1363232E-04 -0.9546810E-02
5804333.  0.4328213E-01 -0.1651186E+01 -0.6697675E-03 -0.1936420E-01  0.5764860E-04 -0.7239576E-02
5771000.  0.5105178E-01 -0.1315672E+01 -0.5626138E-03 -0.2124082E-01  0.8896130E-04 -0.4686025E-02
5771000.  0.5105178E-01 -0.1315768E+01 -0.5626138E-03 -0.2124198E-01  0.8896130E-04 -0.4686025E-02
5701000.  0.6182725E-01 -0.6555518E+00 -0.3460261E-03 -0.1706349E-01  0.9197251E-04  0.4592890E-02
5701000.  0.6182725E-01 -0.5935012E+00 -0.3460261E-03 -0.2802647E-01  0.9197251E-04 -0.1283399E-01
5667333.  0.6404924E-01 -0.2570571E+00 -0.2087262E-03 -0.2396306E-01  0.1447306E-03 -0.7400153E-02
5633667.  0.6464624E-01  0.2171712E-01 -0.9225257E-04 -0.2018979E-01  0.1727109E-03 -0.3405661E-02
5600000.  0.6391548E-01  0.2463301E+00  0.5593812E-05 -0.1694923E-01  0.1828284E-03 -0.6100584E-03
5600000.  0.6391548E-01  0.2463267E+00  0.5593812E-05 -0.1694654E-01  0.1828284E-03 -0.6100584E-03
5563518.  0.6193508E-01  0.4365227E+00  0.9017648E-04 -0.1270876E-01  0.1804359E-03  0.1275760E-02
5527037.  0.5901135E-01  0.5769329E+00  0.1523804E-03 -0.9120974E-02  0.1698086E-03  0.2324075E-02
5490556.  0.5541050E-01  0.6741098E+00  0.1957606E-03 -0.6124401E-02  0.1548585E-03  0.2825537E-02
5454074.  0.5136159E-01  0.7344443E+00  0.2235391E-03 -0.3662048E-02  0.1381079E-03  0.2979962E-02
5417593.  0.4705815E-01  0.7640337E+00  0.2386144E-03 -0.1678442E-02  0.1211348E-03  0.2921586E-02
5381111.  0.4265945E-01  0.7685915E+00  0.2435694E-03 -0.1180740E-03  0.1048811E-03  0.2740666E-02
5344630.  0.3829384E-01  0.7533483E+00  0.2406731E-03  0.1072641E-02  0.8986769E-04  0.2496385E-02
5308148.  0.3406073E-01  0.7230029E+00  0.2318911E-03  0.1946007E-02  0.7633933E-04  0.2226785E-02
5271667.  0.3003476E-01  0.6816821E+00  0.2188998E-03  0.2550836E-02  0.6436910E-04  0.1955298E-02
5235185.  0.2626809E-01  0.6329402E+00  0.2031032E-03  0.2933077E-02  0.5392313E-04  0.1696004E-02
5198704.  0.2279459E-01  0.5797720E+00  0.1856541E-03  0.3134762E-02  0.4490827E-04  0.1456446E-02
5162222.  0.1963215E-01  0.5246302E+00  0.1674754E-03  0.3193684E-02  0.3719838E-04  0.1240461E-02
5125741.  0.1678639E-01  0.4694762E+00  0.1492880E-03  0.3143126E-02  0.3065580E-04  0.1048815E-02
5089259.  0.1425272E-01  0.4158178E+00  0.1316332E-03  0.3011914E-02  0.2514130E-04  0.8811455E-03
5052778.  0.1201933E-01  0.3647726E+00  0.1149018E-03  0.2824498E-02  0.2052189E-04  0.7359311E-03
5016296.  0.1006879E-01  0.3171116E+00  0.9935486E-04  0.2601079E-02  0.1667401E-04  0.6112963E-03
4979815.  0.8380280E-02  0.2733250E+00  0.8515072E-04  0.2358050E-02  0.1348587E-04  0.5051593E-03
4943333.  0.6930720E-02  0.2336634E+00  0.7236260E-04  0.2108244E-02  0.1085785E-04  0.4152906E-03
4906852.  0.5696288E-02  0.1981966E+00  0.6100042E-04  0.1861531E-02  0.8702481E-05  0.3397689E-03
4870370.  0.4653064E-02  0.1668455E+00  0.5102414E-04  0.1625062E-02  0.6943174E-05  0.2766188E-03
4833889.  0.3778012E-02  0.1394295E+00  0.4236076E-04  0.1403713E-02  0.5514357E-05  0.2240850E-03
4797407.  0.3049258E-02  0.1156927E+00  0.3491348E-04  0.1200623E-02  0.4359506E-05  0.1806722E-03
4760926.  0.2446616E-02  0.9533481E-01  0.2857281E-04  0.1017432E-02  0.3430598E-05  0.1449573E-03
4724444.  0.1951636E-02  0.7802864E-01  0.2322265E-04  0.8546055E-03  0.2687050E-05  0.1157356E-03
4687963.  0.1547819E-02  0.6344228E-01  0.1874731E-04  0.7118146E-03  0.2094796E-05  0.9195541E-04
4651482.  0.1220524E-02  0.5124777E-01  0.1503442E-04  0.5880968E-03  0.1625355E-05  0.7269842E-04
4615000.  0.9569500E-03  0.4113249E-01  0.1197843E-04  0.4820951E-03  0.1255097E-05  0.5718926E-04
4578518.  0.7460449E-03  0.3280571E-01  0.9482471E-05  0.3922137E-03  0.9645365E-06  0.4476059E-04
4542037.  0.5783443E-03  0.2600188E-01  0.7459160E-05  0.3167445E-03  0.7376706E-06  0.3485930E-04
4505556.  0.4458190E-03  0.2048222E-01  0.5830855E-05  0.2539616E-03  0.5614167E-06  0.2701078E-04
4469074.  0.3417303E-03  0.1603566E-01  0.4529710E-05  0.2021899E-03  0.4251727E-06  0.2082370E-04
4432593.  0.2604779E-03  0.1247846E-01  0.3497290E-05  0.1598623E-03  0.3203967E-06  0.1597123E-04
4396111.  0.1974310E-03  0.9651821E-02  0.2683658E-05  0.1255364E-03  0.2402378E-06  0.1218484E-04
4359630.  0.1488068E-03  0.7420813E-02  0.2046805E-05  0.9792174E-04  0.1792309E-06  0.9249429E-05
4323148.  0.1115280E-03  0.5671401E-02  0.1551614E-05  0.7587449E-04  0.1330378E-06  0.6983529E-05
4286667.  0.8311921E-04  0.4308650E-02  0.1169132E-05  0.5840686E-04  0.9824782E-07  0.5245612E-05
4250185.  0.6159735E-04  0.3253872E-02  0.8756139E-06  0.4466784E-04  0.7218086E-07  0.3919197E-05
4213704.  0.4539058E-04  0.2442739E-02  0.6518388E-06  0.3394059E-04  0.5275534E-07  0.2912586E-05
4177222.  0.3325803E-04  0.1822896E-02  0.4823228E-06  0.2562364E-04  0.3835501E-07  0.2153034E-05
4140741.  0.2422996E-04  0.1352257E-02  0.3547393E-06  0.1922128E-04  0.2773774E-07  0.1582953E-05
4104259.  0.1755160E-04  0.9971348E-03  0.2593220E-06  0.1432680E-04  0.1995092E-07  0.1157732E-05
4067778.  0.1264122E-04  0.7308691E-03  0.1884184E-06  0.1061092E-04  0.1427037E-07  0.8422367E-06
4031296.  0.9052277E-05  0.5324635E-03  0.1360615E-06  0.7809083E-05  0.1014764E-07  0.6096634E-06
3994815.  0.6445234E-05  0.3855481E-03  0.9764568E-07  0.5710985E-05  0.7169984E-08  0.4393096E-06
3958333.  0.4563032E-05  0.2774227E-03  0.6963368E-07  0.4150574E-05  0.5028179E-08  0.3154336E-06
3921852.  0.3212836E-05  0.1983284E-03  0.4933507E-07  0.2998104E-05  0.3491559E-08  0.2262472E-06
3885370.  0.2250673E-05  0.1408023E-03  0.3471366E-07  0.2152841E-05  0.2388036E-08  0.1628897E-06
3848889.  0.1570039E-05  0.9918873E-04  0.2424243E-07  0.1537424E-05  0.1589260E-08  0.1189060E-06
3812407.  0.1092584E-05  0.6921840E-04  0.1678182E-07  0.1092661E-05  0.9982033E-09  0.8970051E-07
3775926.  0.7612536E-06  0.4769687E-04  0.1148951E-07  0.7736764E-06  0.5397376E-09  0.7219808E-07
3739444.  0.5348044E-06  0.3224383E-04  0.7746793E-08  0.5464716E-06  0.1525737E-09  0.6458473E-07
3702963.  0.3837853E-06  0.2110362E-04  0.5105767E-08  0.3851277E-06 -0.2173533E-09  0.6614943E-07
3666482.  0.2873513E-06  0.1300020E-04  0.3249693E-08  0.2692318E-06 -0.6230126E-09  0.7719274E-07
3630000.  0.2308211E-06  0.7047578E-05  0.1969016E-08  0.1813312E-06 -0.1121702E-08  0.9890121E-07
3630000.  0.2308211E-06  0.7047532E-05  0.1969016E-08  0.1813248E-06 -0.1121702E-08  0.9890121E-07
3592500.  0.2031572E-06  0.2600848E-05  0.1127991E-08  0.1045916E-06 -0.1801350E-08  0.1345058E-06
3555000.  0.1972740E-06 -0.3322567E-06  0.7608107E-09  0.1569671E-07 -0.2736380E-08  0.1859988E-06
3517500.  0.2031839E-06 -0.1250005E-05  0.1036324E-08 -0.1215304E-06 -0.4023637E-08  0.2539698E-06
3480000.  0.2049859E-06  0.1468815E-05  0.2408038E-08 -0.3708689E-06 -0.5748497E-08  0.3328327E-06
3480000.  0.2049859E-06  0.1590688E-04  0.4668922E-08  0.3666499E-06 -0.5748497E-08 -0.3119687E-06
3409422.  0.8556815E-07  0.6856234E-05  0.1929919E-08  0.1562677E-06 -0.2950442E-08 -0.1924604E-06
3338844.  0.3472910E-07  0.2871276E-05  0.7763140E-09  0.6478111E-07 -0.1372903E-08 -0.9952419E-07
3268266.  0.1370008E-07  0.1168104E-05  0.3037525E-09  0.2611293E-07 -0.5957285E-09 -0.4649028E-07
3197688.  0.5250511E-08  0.4614972E-06  0.1155441E-09  0.1023061E-07 -0.2444323E-09 -0.2021006E-07
3127109.  0.1953760E-08  0.1769843E-06  0.4270018E-10  0.3893499E-08 -0.9555944E-10 -0.8295641E-08
3056531.  0.7054095E-09  0.6584681E-07  0.1531954E-10  0.1438439E-08 -0.3575239E-10 -0.3240754E-08
2985953.  0.2469192E-09  0.2374904E-07  0.5330955E-11  0.5154792E-09 -0.1283310E-10 -0.1210347E-08
2915375.  0.8372325E-10  0.8295767E-08  0.1797372E-11  0.1790385E-09 -0.4424596E-11 -0.4333253E-09
2844797.  0.2749645E-10  0.2800854E-08  0.5859305E-12  0.6026855E-10 -0.1464074E-11 -0.1491335E-09
2774219.  0.0000000E+00  0.0000000E+00  0.0000000E+00  0.0000000E+00  0.0000000E+00  0.0000000E+00
2703641.  0.0000000E+00  0.0000000E+00  0.0000000E+00  0.0000000E+00  0.0000000E+00  0.0000000E+00
2633062.  0.0000000E+00  0.0000000E+00  0.0000000E+00  0.0000000E+00  0.0000000E+00  0.0000000E+00
2562484.  0.0000000E+00  0.0000000E+00  0.0000000E+00  0.0000000E+00  0.0000000E+00  0.0000000E+00
2491906.  0.0000000E+00  0.0000000E+00  0.0000000E+00  0.0000000E+00  0.0000000E+00  0.0000000E+00
2421328.  0.0000000E+00  0.0000000E+00  0.0000000E+00  0.0000000E+00  0.0000000E+00  0.0000000E+00
2350750.  0.0000000E+00  0.0000000E+00  0.0000000E+00  0.0000000E+00  0.0000000E+00  0.0000000E+00
2280172.  0.0000000E+00  0.0000000E+00  0.0000000E+00  0.0000000E+00  0.0000000E+00  0.0000000E+00
2209594.  0.0000000E+00  0.0000000E+00  0.0000000E+00  0.0000000E+00  0.0000000E+00  0.0000000E+00
2139016.  0.0000000E+00  0.0000000E+00  0.0000000E+00  0.0000000E+00  0.0000000E+00  0.0000000E+00
2068438.  0.0000000E+00  0.0000000E+00  0.0000000E+00  0.0000000E+00  0.0000000E+00  0.0000000E+00
1997859.  0.0000000E+00  0.0000000E+00  0.0000000E+00  0.0000000E+00  0.0000000E+00  0.0000000E+00
1927281.  0.0000000E+00  0.0000000E+00  0.0000000E+00  0.0000000E+00  0.0000000E+00  0.0000000E+00
1856703.  0.0000000E+00  0.0000000E+00  0.0000000E+00  0.0000000E+00  0.0000000E+00  0.0000000E+00
1786125.  0.0000000E+00  0.0000000E+00  0.0000000E+00  0.0000000E+00  0.0000000E+00  0.0000000E+00
1715547.  0.0000000E+00  0.0000000E+00  0.0000000E+00  0.0000000E+00  0.0000000E+00  0.0000000E+00
1644969.  0.0000000E+00  0.0000000E+00  0.0000000E+00  0.0000000E+00  0.0000000E+00  0.0000000E+00
1574391.  0.0000000E+00  0.0000000E+00  0.0000000E+00  0.0000000E+00  0.0000000E+00  0.0000000E+00
1503812.  0.0000000E+00  0.0000000E+00  0.0000000E+00  0.0000000E+00  0.0000000E+00  0.0000000E+00
1433234.  0.0000000E+00  0.0000000E+00  0.0000000E+00  0.0000000E+00  0.0000000E+00  0.0000000E+00
1362656.  0.0000000E+00  0.0000000E+00  0.0000000E+00  0.0000000E+00  0.0000000E+00  0.0000000E+00
1292078.  0.0000000E+00  0.0000000E+00  0.0000000E+00  0.0000000E+00  0.0000000E+00  0.0000000E+00
1221500.  0.0000000E+00  0.0000000E+00  0.0000000E+00  0.0000000E+00  0.0000000E+00  0.0000000E+00
1221500.  0.0000000E+00  0.0000000E+00  0.0000000E+00  0.0000000E+00  0.0000000E+00  0.0000000E+00
1183328.  0.0000000E+00  0.0000000E+00  0.0000000E+00  0.0000000E+00  0.0000000E+00  0.0000000E+00
1145156.  0.0000000E+00  0.0000000E+00  0.0000000E+00  0.0000000E+00  0.0000000E+00  0.0000000E+00
1106984.  0.0000000E+00  0.0000000E+00  0.0000000E+00  0.0000000E+00  0.0000000E+00  0.0000000E+00
1068812.  0.0000000E+00  0.0000000E+00  0.0000000E+00  0.0000000E+00  0.0000000E+00  0.0000000E+00
1030641.  0.0000000E+00  0.0000000E+00  0.0000000E+00  0.0000000E+00  0.0000000E+00  0.0000000E+00
 992469.  0.0000000E+00  0.0000000E+00  0.0000000E+00  0.0000000E+00  0.0000000E+00  0.0000000E+00
 954297.  0.0000000E+00  0.0000000E+00  0.0000000E+00  0.0000000E+00  0.0000000E+00  0.0000000E+00
 916125.  0.0000000E+00  0.0000000E+00  0.0000000E+00  0.0000000E+00  0.0000000E+00  0.0000000E+00
 877953.  0.0000000E+00  0.0000000E+00  0.0000000E+00  0.0000000E+00  0.0000000E+00  0.0000000E+00
 839781.  0.0000000E+00  0.0000000E+00  0.0000000E+00  0.0000000E+00  0.0000000E+00  0.0000000E+00
 801609.  0.0000000E+00  0.0000000E+00  0.0000000E+00  0.0000000E+00  0.0000000E+00  0.0000000E+00
 763438.  0.0000000E+00  0.0000000E+00  0.0000000E+00  0.0000000E+00  0.0000000E+00  0.0000000E+00
 725266.  0.0000000E+00  0.0000000E+00  0.0000000E+00  0.0000000E+00  0.0000000E+00  0.0000000E+00
 687094.  0.0000000E+00  0.0000000E+00  0.0000000E+00  0.0000000E+00  0.0000000E+00  0.0000000E+00
 648922.  0.0000000E+00  0.0000000E+00  0.0000000E+00  0.0000000E+00  0.0000000E+00  0.0000000E+00
 610750.  0.0000000E+00  0.0000000E+00  0.0000000E+00  0.0000000E+00  0.0000000E+00  0.0000000E+00
 572578.  0.0000000E+00  0.0000000E+00  0.0000000E+00  0.0000000E+00  0.0000000E+00  0.0000000E+00
 534406.  0.0000000E+00  0.0000000E+00  0.0000000E+00  0.0000000E+00  0.0000000E+00  0.0000000E+00
 496234.  0.0000000E+00  0.0000000E+00  0.0000000E+00  0.0000000E+00  0.0000000E+00  0.0000000E+00
 458062.  0.0000000E+00  0.0000000E+00  0.0000000E+00  0.0000000E+00  0.0000000E+00  0.0000000E+00
 419891.  0.0000000E+00  0.0000000E+00  0.0000000E+00  0.0000000E+00  0.0000000E+00  0.0000000E+00
 381719.  0.0000000E+00  0.0000000E+00  0.0000000E+00  0.0000000E+00  0.0000000E+00  0.0000000E+00
 343547.  0.0000000E+00  0.0000000E+00  0.0000000E+00  0.0000000E+00  0.0000000E+00  0.0000000E+00
 305375.  0.0000000E+00  0.0000000E+00  0.0000000E+00  0.0000000E+00  0.0000000E+00  0.0000000E+00
 267203.  0.0000000E+00  0.0000000E+00  0.0000000E+00  0.0000000E+00  0.0000000E+00  0.0000000E+00
 229031.  0.0000000E+00  0.0000000E+00  0.0000000E+00  0.0000000E+00  0.0000000E+00  0.0000000E+00
 190859.  0.0000000E+00  0.0000000E+00  0.0000000E+00  0.0000000E+00  0.0000000E+00  0.0000000E+00
 152688.  0.0000000E+00  0.0000000E+00  0.0000000E+00  0.0000000E+00  0.0000000E+00  0.0000000E+00
 114516.  0.0000000E+00  0.0000000E+00  0.0000000E+00  0.0000000E+00  0.0000000E+00  0.0000000E+00
  76344.  0.0000000E+00  0.0000000E+00  0.0000000E+00  0.0000000E+00  0.0000000E+00  0.0000000E+00
  38172.  0.0000000E+00  0.0000000E+00  0.0000000E+00  0.0000000E+00  0.0000000E+00  0.0000000E+00
      0.  0.0000000E+00  0.0000000E+00  0.0000000E+00  0.0000000E+00  0.0000000E+00  0.0000000E+00
