       9       21 S      493        120.71680         15.42344         14.72047         88.95862      185    7
6371000. -0.6340987E-09  0.3069483E-07  0.1663001E-09  0.8003988E-09 -0.2476264E-10  0.1740540E-08
6370000. -0.6388887E-09  0.3033692E-07  0.1661546E-09  0.1053547E-08 -0.2503492E-10  0.1728813E-08
6369000. -0.6436213E-09  0.2996377E-07  0.1659694E-09  0.1306392E-08 -0.2530535E-10  0.1717010E-08
6368000. -0.6482942E-09  0.2957543E-07  0.1657445E-09  0.1558870E-08 -0.2557393E-10  0.1705133E-08
6368000. -0.6482942E-09  0.2957543E-07  0.1657445E-09  0.1558870E-08 -0.2557393E-10  0.1705133E-08
6367000. -0.6529050E-09  0.2917194E-07  0.1654801E-09  0.1810918E-08 -0.2584063E-10  0.1693183E-08
6366000. -0.6574511E-09  0.2875334E-07  0.1651761E-09  0.2062472E-08 -0.2610545E-10  0.1681159E-08
6365000. -0.6619305E-09  0.2831968E-07  0.1648326E-09  0.2313469E-08 -0.2636838E-10  0.1669063E-08
6364000. -0.6663405E-09  0.2787103E-07  0.1644499E-09  0.2563847E-08 -0.2662940E-10  0.1656896E-08
6363000. -0.6706790E-09  0.2740745E-07  0.1640278E-09  0.2813543E-08 -0.2688851E-10  0.1644659E-08
6362000. -0.6749435E-09  0.2692898E-07  0.1635667E-09  0.3062494E-08 -0.2714570E-10  0.1632352E-08
6361000. -0.6791319E-09  0.2643572E-07  0.1630665E-09  0.3310639E-08 -0.2740094E-10  0.1619977E-08
6360000. -0.6832416E-09  0.2592773E-07  0.1625274E-09  0.3557913E-08 -0.2765424E-10  0.1607534E-08
6359000. -0.6872704E-09  0.2540508E-07  0.1619496E-09  0.3804257E-08 -0.2790558E-10  0.1595024E-08
6358000. -0.6912160E-09  0.2486787E-07  0.1613332E-09  0.4049607E-08 -0.2815495E-10  0.1582448E-08
6357000. -0.6950762E-09  0.2431617E-07  0.1606784E-09  0.4293903E-08 -0.2840234E-10  0.1569807E-08
6356000. -0.6988486E-09  0.2375008E-07  0.1599853E-09  0.4537084E-08 -0.2864774E-10  0.1557101E-08
6356000. -0.6988486E-09  0.2210622E-07  0.1599853E-09  0.3079813E-08 -0.2864774E-10  0.1709163E-08
6355000. -0.7022877E-09  0.2171281E-07  0.1594898E-09  0.3234370E-08 -0.2891484E-10  0.1694141E-08
6354000. -0.7056644E-09  0.2131054E-07  0.1589700E-09  0.3388370E-08 -0.2917957E-10  0.1679075E-08
6353000. -0.7089771E-09  0.2089944E-07  0.1584261E-09  0.3541789E-08 -0.2944194E-10  0.1663966E-08
6352000. -0.7122247E-09  0.2047956E-07  0.1578582E-09  0.3694600E-08 -0.2970192E-10  0.1648813E-08
6351000. -0.7154057E-09  0.2005095E-07  0.1572664E-09  0.3846779E-08 -0.2995953E-10  0.1633618E-08
6350000. -0.7185187E-09  0.1961366E-07  0.1566507E-09  0.3998301E-08 -0.3021475E-10  0.1618380E-08
6349000. -0.7215624E-09  0.1916774E-07  0.1560112E-09  0.4149142E-08 -0.3046758E-10  0.1603102E-08
6348000. -0.7245354E-09  0.1871325E-07  0.1553482E-09  0.4299276E-08 -0.3071800E-10  0.1587783E-08
6347000. -0.7274364E-09  0.1825023E-07  0.1546616E-09  0.4448680E-08 -0.3096601E-10  0.1572425E-08
6346600. -0.7285764E-09  0.1806266E-07  0.1543805E-09  0.4508231E-08 -0.3106454E-10  0.1566271E-08
6346600. -0.7285764E-09  0.2484367E-07  0.1543805E-09  0.3331633E-08 -0.3106454E-10  0.1820315E-08
6318800. -0.8129640E-09  0.1301701E-07  0.1335402E-09  0.6139236E-08 -0.3803762E-10  0.1372986E-08
6291000. -0.8357882E-09 -0.3183419E-08  0.1016949E-09  0.8335730E-08 -0.4302731E-10  0.9123533E-09
6291000. -0.8357882E-09 -0.2877557E-08  0.1016949E-09  0.8589598E-08 -0.4302731E-10  0.9123533E-09
6263000. -0.7800807E-09 -0.2285016E-07  0.6044253E-10  0.1002086E-07 -0.4601076E-10  0.4446860E-09
6235000. -0.6331548E-09 -0.4403140E-07  0.1511901E-10  0.1042781E-07 -0.4693569E-10 -0.2318547E-10
6207000. -0.3945580E-09 -0.6418379E-07 -0.2966285E-10  0.9778125E-08 -0.4581810E-10 -0.4834262E-09
6179000. -0.7383985E-10 -0.8103292E-07 -0.6938820E-10  0.8148302E-08 -0.4271053E-10 -0.9271904E-09
6151000.  0.3098111E-09 -0.9250658E-07 -0.1001049E-09  0.5715687E-08 -0.3770713E-10 -0.1344375E-08
6151000.  0.3098111E-09 -0.7843549E-07 -0.1001049E-09  0.4972112E-08 -0.3770713E-10 -0.1361516E-08
6128500.  0.5924131E-09 -0.8098918E-07 -0.1140910E-09  0.2919654E-08 -0.3254510E-10 -0.1556854E-08
6106000.  0.8773557E-09 -0.7973733E-07 -0.1206004E-09  0.7595553E-09 -0.2674665E-10 -0.1721666E-08
6083500.  0.1151074E-08 -0.7464457E-07 -0.1194815E-09 -0.1379016E-08 -0.2042204E-10 -0.1854657E-08
6061000.  0.1400255E-08 -0.6588874E-07 -0.1110316E-09 -0.3372311E-08 -0.1368504E-10 -0.1955145E-08
6038500.  0.1612577E-08 -0.5384877E-07 -0.9596507E-10 -0.5108830E-08 -0.6650815E-11 -0.2022994E-08
6016000.  0.1777374E-08 -0.3908048E-07 -0.7535978E-10 -0.6495170E-08  0.5658817E-12 -0.2058592E-08
5993500.  0.1886212E-08 -0.2228354E-07 -0.5058465E-10 -0.7460537E-08  0.7852612E-11 -0.2062835E-08
5971000.  0.1933319E-08 -0.4261838E-08 -0.2321376E-10 -0.7959915E-08  0.1510075E-10 -0.2036974E-08
5971000.  0.1933319E-08 -0.4351889E-08 -0.2321376E-10 -0.7312982E-08  0.1510075E-10 -0.2290062E-08
5937667.  0.1891227E-08  0.2015986E-07  0.1469128E-10 -0.7032173E-08  0.2694907E-10 -0.2230476E-08
5904333.  0.1727141E-08  0.4194705E-07  0.4900741E-10 -0.5971035E-08  0.3836247E-10 -0.2125991E-08
5871000.  0.1460071E-08  0.5928975E-07  0.7616907E-10 -0.4335043E-08  0.4914086E-10 -0.1989998E-08
5837667.  0.1116474E-08  0.7106388E-07  0.9377028E-10 -0.2355538E-08  0.5915164E-10 -0.1834379E-08
5804333.  0.7270743E-09  0.7675862E-07  0.1006184E-09 -0.2610104E-09  0.6831895E-10 -0.1668900E-08
5771000.  0.3237816E-09  0.7643222E-07  0.9665894E-10  0.1744695E-08  0.7661114E-10 -0.1500993E-08
5771000.  0.3237816E-09  0.7643550E-07  0.9665894E-10  0.1744630E-08  0.7661114E-10 -0.1500993E-08
5701000. -0.4565215E-09  0.6181672E-07  0.5648788E-10  0.5351856E-08  0.9099712E-10 -0.1111138E-08
5701000. -0.4565215E-09  0.5250961E-07  0.5648788E-10  0.4351402E-08  0.9099712E-10 -0.9824611E-09
5667333. -0.7036682E-09  0.4063167E-07  0.3123903E-10  0.5143347E-08  0.9594722E-10 -0.8916326E-09
5633667. -0.8827255E-09  0.2691494E-07  0.2783027E-11  0.5565238E-08  0.1004250E-09 -0.8033627E-09
5600000. -0.9866921E-09  0.1237856E-07 -0.2694529E-10  0.5628571E-08  0.1044372E-09 -0.7147850E-09
5600000. -0.9866921E-09  0.1237824E-07 -0.2694529E-10  0.5628789E-08  0.1044372E-09 -0.7147850E-09
5563518. -0.1012054E-08 -0.3504545E-08 -0.5881357E-10  0.5438196E-08  0.1082470E-09 -0.6151502E-09
5527037. -0.9478308E-09 -0.1872490E-07 -0.8852764E-10  0.4882802E-08  0.1114744E-09 -0.5114848E-09
5490556. -0.8009317E-09 -0.3221425E-07 -0.1141272E-09  0.4010957E-08  0.1140981E-09 -0.4043859E-09
5454074. -0.5839823E-09 -0.4305231E-07 -0.1339878E-09  0.2890865E-08  0.1161002E-09 -0.2944910E-09
5417593. -0.3143341E-09 -0.5052364E-07 -0.1469174E-09  0.1604873E-08  0.1174667E-09 -0.1825410E-09
5381111. -0.1271318E-10 -0.5416093E-07 -0.1522221E-09  0.2428605E-09  0.1181885E-09 -0.6945224E-10
5344630.  0.2982087E-09 -0.5376492E-07 -0.1497281E-09 -0.1104039E-08  0.1182621E-09  0.4364199E-10
5308148.  0.5954370E-09 -0.4940962E-07 -0.1397718E-09 -0.2349850E-08  0.1176911E-09  0.1554165E-09
5271667.  0.8571176E-09 -0.4142698E-07 -0.1231555E-09 -0.3418831E-08  0.1164876E-09  0.2643530E-09
5235185.  0.1063997E-08 -0.3037670E-07 -0.1010730E-09 -0.4250075E-08  0.1146721E-09  0.3688254E-09
5198704.  0.1200556E-08 -0.1700405E-07 -0.7501970E-10 -0.4800366E-08  0.1122754E-09  0.4671264E-09
5162222.  0.1255960E-08 -0.2184495E-08 -0.4668009E-10 -0.5046077E-08  0.1093374E-09  0.5575964E-09
5125741.  0.1224623E-08  0.1313203E-07 -0.1782006E-10 -0.4983405E-08  0.1059076E-09  0.6386363E-09
5089259.  0.1106453E-08  0.2798515E-07  0.9830929E-11 -0.4627536E-08  0.1020441E-09  0.7088651E-09
5052778.  0.9067687E-09  0.4145899E-07  0.3467706E-10 -0.4010621E-08  0.9781234E-10  0.7671240E-09
5016296.  0.6358489E-09  0.5273865E-07  0.5535103E-10 -0.3178770E-08  0.9328319E-10  0.8125803E-09
4979815.  0.3082747E-09  0.6115199E-07  0.7077905E-10 -0.2188618E-08  0.8853179E-10  0.8447446E-09
4943333. -0.5805634E-10  0.6620622E-07  0.8023378E-10 -0.1103181E-08  0.8363450E-10  0.8635033E-09
4906852. -0.4429529E-09  0.6760887E-07  0.8335658E-10  0.1199342E-10  0.7866776E-10  0.8691268E-09
4870370. -0.8251920E-09  0.6527830E-07  0.8016188E-10  0.1093010E-08  0.7370484E-10  0.8622568E-09
4833889. -0.1183641E-08  0.5934081E-07  0.7101740E-10  0.2080934E-08  0.6881488E-10  0.8438757E-09
4797407. -0.1498494E-08  0.5011691E-07  0.5660538E-10  0.2925050E-08  0.6406010E-10  0.8152314E-09
4760926. -0.1752250E-08  0.3809761E-07  0.3787106E-10  0.3585005E-08  0.5949526E-10  0.7778456E-09
4724444. -0.1930653E-08  0.2391062E-07  0.1595482E-10  0.4032555E-08  0.5516546E-10  0.7333832E-09
4687963. -0.2023332E-08  0.8285020E-08 -0.7875416E-11  0.4252241E-08  0.5110643E-10  0.6836141E-09
4651482. -0.2024288E-08 -0.7992999E-08 -0.3230213E-10  0.4241506E-08  0.4734325E-10  0.6303459E-09
4615000. -0.1932080E-08 -0.2412153E-07 -0.5602850E-10  0.4009954E-08  0.4389081E-10  0.5753322E-09
4578518. -0.1749811E-08 -0.3932310E-07 -0.7784329E-10  0.3578083E-08  0.4075436E-10  0.5202437E-09
4542037. -0.1484882E-08 -0.5288343E-07 -0.9667985E-10  0.2975527E-08  0.3793006E-10  0.4665711E-09
4505556. -0.1148504E-08 -0.6418494E-07 -0.1116634E-09  0.2238869E-08  0.3540584E-10  0.4156307E-09
4469074. -0.7550847E-09 -0.7273152E-07 -0.1221427E-09  0.1409311E-08  0.3316280E-10  0.3685026E-09
4432593. -0.3215111E-09 -0.7816705E-07 -0.1277092E-09  0.5303654E-09  0.3117668E-10  0.3260358E-09
4396111.  0.1337680E-09 -0.8028725E-07 -0.1282052E-09 -0.3546415E-09  0.2941886E-10  0.2888225E-09
4359630.  0.5915263E-09 -0.7904163E-07 -0.1237152E-09 -0.1204512E-08  0.2785822E-10  0.2572218E-09
4323148.  0.1032729E-08 -0.7452888E-07 -0.1145487E-09 -0.1982213E-08  0.2646205E-10  0.2313724E-09
4286667.  0.1439262E-08 -0.6698657E-07 -0.1012127E-09 -0.2656197E-08  0.2519748E-10  0.2112530E-09
4250185.  0.1794769E-08 -0.5677185E-07 -0.8437481E-10 -0.3201645E-08  0.2403210E-10  0.1966773E-09
4213704.  0.2085198E-08 -0.4434241E-07 -0.6482578E-10 -0.3600989E-08  0.2293494E-10  0.1873956E-09
4177222.  0.2299372E-08 -0.3022903E-07 -0.4343335E-10 -0.3844259E-08  0.2187637E-10  0.1831430E-09
4140741.  0.2429282E-08 -0.1501227E-07 -0.2110328E-10 -0.3928855E-08  0.2082836E-10  0.1836911E-09
4104259.  0.2470334E-08  0.7075827E-09  0.1266273E-11 -0.3859086E-08  0.1976361E-10  0.1889821E-09
4067778.  0.2421363E-08  0.1633274E-07  0.2281727E-10 -0.3645350E-08  0.1865483E-10  0.1991298E-09
4031296.  0.2284554E-08  0.3129477E-07  0.4276856E-10 -0.3303090E-08  0.1747290E-10  0.2146359E-09
3994815.  0.2065233E-08  0.4507164E-07  0.6043695E-10 -0.2851649E-08  0.1618482E-10  0.2364152E-09
3958333.  0.1771516E-08  0.5720742E-07  0.7525996E-10 -0.2312922E-08  0.1475058E-10  0.2659883E-09
3921852.  0.1413943E-08  0.6732136E-07  0.8680323E-10 -0.1710157E-08  0.1311941E-10  0.3056717E-09
3885370.  0.1004960E-08  0.7511804E-07  0.9476747E-10 -0.1066584E-08  0.1122444E-10  0.3587527E-09
3848889.  0.5584984E-09  0.8038824E-07  0.9898280E-10 -0.4043582E-09  0.8976682E-11  0.4297973E-09
3812407.  0.8939440E-10  0.8300814E-07  0.9940090E-10  0.2566172E-09  0.6256265E-11  0.5250090E-09
3775926. -0.3869846E-09  0.8293238E-07  0.9607895E-10  0.8994384E-09  0.2902329E-11  0.6526858E-09
3739444. -0.8552672E-09  0.8018475E-07  0.8915997E-10  0.1511093E-08 -0.1301316E-11  0.8238576E-09
3702963. -0.1300331E-08  0.7484400E-07  0.7884986E-10  0.2082903E-08 -0.6643260E-11  0.1053081E-08
3666482. -0.1707663E-08  0.6702712E-07  0.6538981E-10  0.2611084E-08 -0.1350841E-10  0.1359534E-08
3630000. -0.2063476E-08  0.5686948E-07  0.4902775E-10  0.3097026E-08 -0.2240836E-10  0.1768516E-08
3630000. -0.2063476E-08  0.5686916E-07  0.4902775E-10  0.3097033E-08 -0.2240836E-10  0.1768516E-08
3592500. -0.2362299E-08  0.4427829E-07  0.2942387E-10  0.3559693E-08 -0.3439556E-10  0.2332653E-08
3555000. -0.2580215E-08  0.2938894E-07  0.7163162E-11  0.4001955E-08 -0.5024847E-10  0.3090947E-08
3517500. -0.2703834E-08  0.1223817E-07 -0.1767871E-10  0.4439961E-08 -0.7128407E-10  0.4105596E-08
3480000. -0.2719781E-08 -0.7211034E-08 -0.4514051E-10  0.4896591E-08 -0.9924455E-10  0.5459927E-08
3480000. -0.2719781E-08  0.8004554E-08 -0.1241347E-10 -0.4956341E-08 -0.9924455E-10  0.1401524E-07
3409422. -0.2795330E-08  0.6775220E-08  0.4443985E-10 -0.5307102E-08 -0.2702235E-09  0.1671764E-07
3338844. -0.2896180E-08  0.1267276E-07  0.1054276E-09 -0.5728348E-08 -0.4680736E-09  0.1899521E-07
3268266. -0.3105362E-08  0.2651956E-07  0.1722394E-09 -0.6389939E-08 -0.6923702E-09  0.2162314E-07
3197688. -0.3519004E-08  0.4996550E-07  0.2486760E-09 -0.7507045E-08 -0.9514741E-09  0.2542507E-07
3127109. -0.4259500E-08  0.8625183E-07  0.3413171E-09 -0.9373368E-08 -0.1263582E-08  0.3137343E-07
3056531. -0.5498902E-08  0.1413422E-06  0.4606884E-09 -0.1242136E-07 -0.1659189E-08  0.4075264E-07
2985953. -0.7498555E-08  0.2257883E-06  0.6233368E-09 -0.1732775E-07 -0.2185917E-08  0.5542299E-07
2915375. -0.1067611E-07  0.3579647E-06  0.8554558E-09 -0.2519751E-07 -0.2917058E-08  0.7825027E-07
2844797. -0.1572121E-07  0.5698820E-06  0.1199264E-08 -0.3789013E-07 -0.3966345E-08  0.1138225E-06
2774219. -0.2379976E-07  0.9178931E-06  0.1724308E-08 -0.5861076E-07 -0.5513191E-08  0.1696730E-06
2703641. -0.3692307E-07  0.1502779E-05  0.2547805E-08 -0.9300411E-07 -0.7846015E-08  0.2584102E-06
2633062. -0.5863022E-07  0.2508225E-05  0.3871913E-08 -0.1512224E-06 -0.1143745E-07  0.4015038E-06
2562484. -0.9527459E-07  0.4275936E-05  0.6053246E-08 -0.2519161E-06 -0.1707642E-07  0.6361213E-06
2491906. -0.1585114E-06  0.7455825E-05  0.9735910E-08 -0.4301411E-06 -0.2610504E-07  0.1027746E-05
2421328. -0.2702066E-06  0.1331279E-04  0.1611126E-07 -0.7533486E-06 -0.4084917E-07  0.1693797E-05
2350750. -0.4723662E-06  0.2436896E-04  0.2743805E-07 -0.1354565E-05 -0.6541659E-07  0.2848747E-05
2280172. -0.8477255E-06  0.4578304E-04  0.4811067E-07 -0.2503059E-05 -0.1072040E-06  0.4891862E-05
2209594. -0.1563577E-05  0.8839319E-04  0.8691252E-07 -0.4758974E-05 -0.1797969E-06  0.8581076E-05
2139016. -0.2967688E-05  0.1756228E-03  0.1619047E-06 -0.9321572E-05 -0.3086596E-06  0.1538427E-04
2068438. -0.5804458E-05  0.3596317E-03  0.3113531E-06 -0.1883772E-04 -0.5425228E-06  0.2820262E-04
1997859. -0.1171753E-04  0.7603211E-03  0.6189356E-06 -0.3934074E-04 -0.9766377E-06  0.5288933E-04
1927281. -0.2445677E-04  0.1662715E-02  0.1273829E-05 -0.8505908E-04 -0.1801144E-05  0.1014927E-03
1856703. -0.5288321E-04  0.3769242E-02  0.2719248E-05 -0.1907945E-03 -0.3403742E-05  0.1993066E-03
1786125. -0.1187320E-03  0.8878687E-02  0.6033620E-05 -0.4450354E-03 -0.6591078E-05  0.4003808E-03
1715547. -0.2774938E-03  0.2179107E-01  0.1394941E-04 -0.1082331E-02 -0.1307262E-04  0.8218695E-03
1644969. -0.6770647E-03  0.5589533E-01  0.3369756E-04 -0.2752781E-02 -0.2652429E-04  0.1719554E-02
1574391. -0.1730335E-02  0.1503672E+00  0.8533035E-04 -0.7347238E-02 -0.5490577E-04  0.3648018E-02
1503812. -0.4649426E-02  0.4259380E+00  0.2273466E-03 -0.2066024E-01 -0.1153005E-03  0.7763634E-02
1433234. -0.1319205E-01  0.1276226E+01  0.6400330E-03 -0.6148400E-01 -0.2427204E-03  0.1618480E-01
1362656. -0.3972437E-01  0.4066256E+01  0.1913431E-02 -0.1946656E+00 -0.4985494E-03  0.3106719E-01
1292078. -0.1276953E+00  0.1386157E+02  0.6110008E-02 -0.6597326E+00 -0.9281164E-03  0.4318057E-01
1221500. -0.4412093E+00  0.5092147E+02  0.2098222E-01 -0.2410506E+01 -0.1131746E-02 -0.4504784E-01
1221500. -0.4412093E+00  0.9582211E+01  0.4888440E-02  0.2326720E+01 -0.1131746E-02  0.1460858E+00
1183328. -0.4336540E+00 -0.9243242E+01 -0.4123715E-02  0.8451011E+00 -0.1412807E-02 -0.2070390E-01
1145156. -0.3556696E+00 -0.1530377E+02 -0.6742641E-02  0.1229951E+00 -0.1128777E-02 -0.6178600E-01
1106984. -0.2626161E+00 -0.1509072E+02 -0.6436083E-02 -0.1749118E+00 -0.7604008E-03 -0.5735236E-01
1068812. -0.1797722E+00 -0.1234803E+02 -0.5077651E-02 -0.2541173E+00 -0.4632506E-03 -0.4136078E-01
1030641. -0.1156689E+00 -0.9059907E+01 -0.3584812E-02 -0.2344203E+00 -0.2624092E-03 -0.2626580E-01
 992469. -0.7043360E-01 -0.6139759E+01 -0.2333974E-02 -0.1808543E+00 -0.1400151E-03 -0.1531873E-01
 954297. -0.4072496E-01 -0.3895885E+01 -0.1420756E-02 -0.1250641E+00 -0.7082949E-04 -0.8356816E-02
 916125. -0.2238652E-01 -0.2330077E+01 -0.8139585E-03 -0.7963125E-01 -0.3407040E-04 -0.4302407E-02
 877953. -0.1169693E-01 -0.1317458E+01 -0.4401409E-03 -0.4725984E-01 -0.1559547E-04 -0.2098843E-02
 839781. -0.5801914E-02 -0.7047499E+00 -0.2247791E-03 -0.2628899E-01 -0.6788490E-05 -0.9714439E-03
 801609. -0.2726155E-02 -0.3563997E+00 -0.1083153E-03 -0.1373445E-01 -0.2804693E-05 -0.4263880E-03
 763438. -0.1209829E-02 -0.1700595E+00 -0.4914304E-04 -0.6737455E-02 -0.1096656E-05 -0.1771362E-03
 725266. -0.5051389E-03 -0.7633153E-01 -0.2092400E-04 -0.3097373E-02 -0.4042200E-06 -0.6942490E-04
 687094. -0.1974952E-03 -0.3209903E-01 -0.8324590E-05 -0.1330077E-02 -0.1397603E-06 -0.2556346E-04
 648922. -0.7188570E-04 -0.1258124E-01 -0.3077751E-05 -0.5310492E-03 -0.4504945E-07 -0.8793313E-05
 610750. -0.2418843E-04 -0.4566742E-02 -0.1050264E-05 -0.1959502E-03 -0.1343704E-07 -0.2806321E-05
 572578. -0.7459802E-05 -0.1522981E-02 -0.3280296E-06 -0.6631163E-04 -0.3675015E-08 -0.8239012E-06
 534406. -0.2086633E-05 -0.4620973E-03 -0.9280796E-07 -0.2038494E-04 -0.9113864E-09 -0.2201832E-06
 496234. -0.5225689E-06 -0.1260210E-03 -0.2348254E-07 -0.5624709E-05 -0.2021476E-09 -0.5286935E-07
 458062. -0.1152927E-06 -0.3042324E-04 -0.5228976E-08 -0.1372159E-05 -0.3942032E-10 -0.1122261E-07
 419891. -0.2195576E-07 -0.6377220E-05 -0.1004061E-08 -0.2903223E-06 -0.6613828E-11 -0.2063002E-08
 381719. -0.3514577E-08 -0.1131906E-05 -0.1619140E-09 -0.5195959E-07 -0.9282555E-12 -0.3198056E-09
 343547. -0.4568841E-09 -0.1645822E-06 -0.2117961E-10 -0.7607631E-08 -0.1051251E-12 -0.4016622E-10
 305375.  0.0000000E+00  0.0000000E+00  0.0000000E+00  0.0000000E+00  0.0000000E+00  0.0000000E+00
 267203.  0.0000000E+00  0.0000000E+00  0.0000000E+00  0.0000000E+00  0.0000000E+00  0.0000000E+00
 229031.  0.0000000E+00  0.0000000E+00  0.0000000E+00  0.0000000E+00  0.0000000E+00  0.0000000E+00
 190859.  0.0000000E+00  0.0000000E+00  0.0000000E+00  0.0000000E+00  0.0000000E+00  0.0000000E+00
 152688.  0.0000000E+00  0.0000000E+00  0.0000000E+00  0.0000000E+00  0.0000000E+00  0.0000000E+00
 114516.  0.0000000E+00  0.0000000E+00  0.0000000E+00  0.0000000E+00  0.0000000E+00  0.0000000E+00
  76344.  0.0000000E+00  0.0000000E+00  0.0000000E+00  0.0000000E+00  0.0000000E+00  0.0000000E+00
  38172.  0.0000000E+00  0.0000000E+00  0.0000000E+00  0.0000000E+00  0.0000000E+00  0.0000000E+00
      0.  0.0000000E+00  0.0000000E+00  0.0000000E+00  0.0000000E+00  0.0000000E+00  0.0000000E+00
