      11        0 S       12        101.16700        791.36810         -1.00000        830.53082      185    3
6371000. -0.3843481E-01  0.3020653E-01
6370000. -0.3843735E-01  0.2043202E-02
6369000. -0.3843546E-01 -0.2612921E-01
6368000. -0.3842914E-01 -0.5430748E-01
6368000. -0.3842914E-01 -0.5430748E-01
6367000. -0.3841841E-01 -0.8248837E-01
6366000. -0.3840325E-01 -0.1106686E+00
6365000. -0.3838367E-01 -0.1388450E+00
6364000. -0.3835966E-01 -0.1670143E+00
6363000. -0.3833124E-01 -0.1951732E+00
6362000. -0.3829839E-01 -0.2233186E+00
6361000. -0.3826113E-01 -0.2514471E+00
6360000. -0.3821946E-01 -0.2795556E+00
6359000. -0.3817338E-01 -0.3076408E+00
6358000. -0.3812288E-01 -0.3356994E+00
6357000. -0.3806799E-01 -0.3637283E+00
6356000. -0.3800870E-01 -0.3917241E+00
6356000. -0.3800870E-01 -0.2488694E+00
6355000. -0.3796805E-01 -0.2692049E+00
6354000. -0.3792420E-01 -0.2895244E+00
6353000. -0.3787716E-01 -0.3098260E+00
6352000. -0.3782694E-01 -0.3301081E+00
6351000. -0.3777353E-01 -0.3503689E+00
6350000. -0.3771695E-01 -0.3706069E+00
6349000. -0.3765719E-01 -0.3908202E+00
6348000. -0.3759426E-01 -0.4110073E+00
6347000. -0.3752817E-01 -0.4311662E+00
6346600. -0.3750084E-01 -0.4392216E+00
6346600. -0.3750084E-01 -0.2565487E+00
6318800. -0.3550497E-01 -0.6563854E+00
6291000. -0.3180275E-01 -0.1035458E+01
6291000. -0.3180275E-01 -0.1048685E+01
6263000. -0.2641518E-01 -0.1394565E+01
6235000. -0.1963263E-01 -0.1680562E+01
6207000. -0.1175516E-01 -0.1890343E+01
6179000. -0.3148020E-02 -0.2010723E+01
6151000.  0.5774008E-02 -0.2032465E+01
6151000.  0.5774008E-02 -0.1640150E+01
6128500.  0.1144442E-01 -0.1564186E+01
6106000.  0.1677520E-01 -0.1448410E+01
6083500.  0.2163265E-01 -0.1296884E+01
6061000.  0.2589888E-01 -0.1114445E+01
6038500.  0.2947418E-01 -0.9065580E+00
6016000.  0.3227902E-01 -0.6791284E+00
5993500.  0.3425524E-01 -0.4383434E+00
5971000.  0.3536681E-01 -0.1905086E+00
5971000.  0.3536681E-01 -0.1747393E+00
5937667.  0.3537035E-01  0.1691407E+00
5904333.  0.3365356E-01  0.4806293E+00
5871000.  0.3041775E-01  0.7482185E+00
5837667.  0.2591462E-01  0.9640653E+00
5804333.  0.2042769E-01  0.1123748E+01
5771000.  0.1425602E-01  0.1225890E+01
5771000.  0.1425602E-01  0.1225905E+01
5701000. -0.8539879E-04  0.1344603E+01
5701000. -0.8539879E-04  0.1112500E+01
5667333. -0.5890200E-02  0.1077708E+01
5633667. -0.1140827E-01  0.1004704E+01
5600000. -0.1644939E-01  0.8979723E+00
5600000. -0.1644939E-01  0.8979749E+00
5563518. -0.2120333E-01  0.7570899E+00
5527037. -0.2506518E-01  0.5876130E+00
5490556. -0.2789240E-01  0.3970180E+00
5454074. -0.2958688E-01  0.1933138E+00
5417593. -0.3009700E-01 -0.1526464E-01
5381111. -0.2941824E-01 -0.2206050E+00
5344630. -0.2759158E-01 -0.4149680E+00
5308148. -0.2470036E-01 -0.5912954E+00
5271667. -0.2086622E-01 -0.7433905E+00
5235185. -0.1624289E-01 -0.8661433E+00
5198704. -0.1101045E-01 -0.9556373E+00
5162222. -0.5367171E-02 -0.1009266E+01
5125741.  0.4769741E-03 -0.1025748E+01
5089259.  0.6309155E-02 -0.1005151E+01
5052778.  0.1191999E-01 -0.9488212E+00
5016296.  0.1711193E-01 -0.8593046E+00
4979815.  0.2170454E-01 -0.7402250E+00
4943333.  0.2554137E-01 -0.5961127E+00
4906852.  0.2849369E-01 -0.4322536E+00
4870370.  0.3046503E-01 -0.2544604E+00
4833889.  0.3139304E-01 -0.6890282E-01
4797407.  0.3125127E-01  0.1181390E+00
4760926.  0.3004915E-01  0.3004418E+00
4724444.  0.2783089E-01  0.4720759E+00
4687963.  0.2467369E-01  0.6275454E+00
4651482.  0.2068431E-01  0.7619877E+00
4615000.  0.1599518E-01  0.8712906E+00
4578518.  0.1076013E-01  0.9521976E+00
4542037.  0.5148977E-02  0.1002404E+01
4505556. -0.6584057E-03  0.1020601E+01
4469074. -0.6477548E-02  0.1006490E+01
4432593. -0.1212467E-01  0.9607710E+00
4396111. -0.1742337E-01  0.8851002E+00
4359630. -0.2220878E-01  0.7820321E+00
4323148. -0.2633347E-01  0.6548994E+00
4286667. -0.2967063E-01  0.5077290E+00
4250185. -0.3211855E-01  0.3450785E+00
4213704. -0.3360254E-01  0.1719249E+00
4177222. -0.3407735E-01 -0.6525217E-02
4140741. -0.3352786E-01 -0.1849535E+00
4104259. -0.3196923E-01 -0.3581247E+00
4067778. -0.2944619E-01 -0.5209978E+00
4031296. -0.2603117E-01 -0.6689039E+00
3994815. -0.2182233E-01 -0.7976403E+00
3958333. -0.1693982E-01 -0.9036069E+00
3921852. -0.1152301E-01 -0.9838832E+00
3885370. -0.5725276E-02 -0.1036307E+01
3848889.  0.2892878E-03 -0.1059513E+01
3812407.  0.6351770E-02 -0.1052966E+01
3775926.  0.1229193E-01 -0.1016963E+01
3739444.  0.1794419E-01 -0.9526043E+00
3702963.  0.2315086E-01 -0.8617557E+00
3666482.  0.2776746E-01 -0.7469848E+00
3630000.  0.3166592E-01 -0.6114711E+00
3630000.  0.3166592E-01 -0.6114689E+00
3592500.  0.3481787E-01 -0.4565879E+00
3555000.  0.3701060E-01 -0.2862785E+00
3517500.  0.3816678E-01 -0.1051893E+00
3480000.  0.3823755E-01  0.8167215E-01
3480000.  0.3823755E-01  0.9265342E-01
3409422.  0.3182928E-01  0.1031979E+01
3338844.  0.1651234E-01  0.1666194E+01
3268266. -0.3385801E-02  0.1844073E+01
3197688. -0.2255255E-01  0.1540668E+01
3127109. -0.3608463E-01  0.8512385E+00
3056531. -0.4065593E-01 -0.4189306E-01
2985953. -0.3521856E-01 -0.9187367E+00
2915375. -0.2112521E-01 -0.1574260E+01
2844797. -0.1705288E-02 -0.1862840E+01
2774219.  0.1856552E-01 -0.1726138E+01
2703641.  0.3509245E-01 -0.1200486E+01
2633062.  0.4415777E-01 -0.4042723E+00
2562484.  0.4368434E-01  0.4903182E+00
2491906.  0.3363072E-01  0.1294544E+01
2421328.  0.1595970E-01  0.1841369E+01
2350750. -0.5788919E-02  0.2017623E+01
2280172. -0.2722075E-01  0.1784428E+01
2209594. -0.4395586E-01  0.1182940E+01
2139016. -0.5247729E-01  0.3251207E+00
2068438. -0.5080475E-01 -0.6280493E+00
1997859. -0.3887637E-01 -0.1496559E+01
1927281. -0.1857939E-01 -0.2113991E+01
1856703.  0.6571291E-02 -0.2357226E+01
1786125.  0.3204161E-01 -0.2168180E+01
1715547.  0.5306823E-01 -0.1564230E+01
1644969.  0.6549361E-01 -0.6359274E+00
1574391.  0.6650718E-01  0.4673982E+00
1503812.  0.5517078E-01  0.1561597E+01
1433234.  0.3264490E-01  0.2457167E+01
1362656.  0.2076571E-02  0.2989761E+01
1292078. -0.3183091E-01  0.3046662E+01
1221500. -0.6350232E-01  0.2585463E+01
1221500. -0.6350232E-01  0.2159384E+01
1183328. -0.7529565E-01  0.1759893E+01
1145156. -0.8439577E-01  0.1262594E+01
1106984. -0.9026028E-01  0.6826761E+00
1068812. -0.9244862E-01  0.3886335E-01
1030641. -0.9064158E-01 -0.6472018E+00
 992469. -0.8465611E-01 -0.1351794E+01
 954297. -0.7445606E-01 -0.2049804E+01
 916125. -0.6015718E-01 -0.2715760E+01
 877953. -0.4202691E-01 -0.3324654E+01
 839781. -0.2047872E-01 -0.3852909E+01
 801609.  0.3939060E-02 -0.4279209E+01
 763438.  0.3055840E-01 -0.4585279E+01
 725266.  0.5861489E-01 -0.4756629E+01
 687094.  0.8726779E-01 -0.4783042E+01
 648922.  0.1156298E+00 -0.4659012E+01
 610750.  0.1427954E+00 -0.4384027E+01
 572578.  0.1678713E+00 -0.3962611E+01
 534406.  0.1900060E+00 -0.3404242E+01
 496234.  0.2084192E+00 -0.2723098E+01
 458062.  0.2224285E+00 -0.1937612E+01
 419891.  0.2314733E+00 -0.1069943E+01
 381719.  0.2351353E+00 -0.1451266E+00
 343547.  0.2331529E+00  0.8095015E+00
 305375.  0.2254325E+00  0.1765405E+01
 267203.  0.2120533E+00  0.2693648E+01
 229031.  0.1932664E+00  0.3565905E+01
 190859.  0.1694884E+00  0.4355422E+01
 152688.  0.1412901E+00  0.5037813E+01
 114516.  0.1093772E+00  0.5591913E+01
  76344.  0.7457294E-01  0.6000472E+01
  38172.  0.3778982E-01  0.6250644E+01
      0.  0.0000000E+00  0.0000000E+00
