       1        0 S        2        613.11932        130.57870         -1.00000       1498.18994      185    3
6371000. -0.1800487E+00  0.1417508E+00
6370000. -0.1800707E+00  0.1380489E+00
6369000. -0.1800921E+00  0.1343455E+00
6368000. -0.1801128E+00  0.1306404E+00
6368000. -0.1801128E+00  0.1306404E+00
6367000. -0.1801331E+00  0.1269336E+00
6366000. -0.1801527E+00  0.1232253E+00
6365000. -0.1801717E+00  0.1195154E+00
6364000. -0.1801902E+00  0.1158039E+00
6363000. -0.1802081E+00  0.1120908E+00
6362000. -0.1802254E+00  0.1083762E+00
6361000. -0.1802421E+00  0.1046600E+00
6360000. -0.1802582E+00  0.1009422E+00
6359000. -0.1802738E+00  0.9722295E-01
6358000. -0.1802888E+00  0.9350217E-01
6357000. -0.1803032E+00  0.8977988E-01
6356000. -0.1803170E+00  0.8605609E-01
6356000. -0.1803170E+00  0.8788552E-01
6355000. -0.1803305E+00  0.8519820E-01
6354000. -0.1803437E+00  0.8250982E-01
6353000. -0.1803564E+00  0.7982039E-01
6352000. -0.1803688E+00  0.7712990E-01
6351000. -0.1803807E+00  0.7443838E-01
6350000. -0.1803921E+00  0.7174581E-01
6349000. -0.1804032E+00  0.6905222E-01
6348000. -0.1804138E+00  0.6635761E-01
6347000. -0.1804240E+00  0.6366196E-01
6346600. -0.1804280E+00  0.6258342E-01
6346600. -0.1804280E+00  0.1066472E+00
6318800. -0.1807776E+00  0.5334325E-01
6291000. -0.1808913E+00 -0.1468665E-02
6291000. -0.1808913E+00  0.2003018E-02
6263000. -0.1807738E+00 -0.5573543E-01
6235000. -0.1803992E+00 -0.1149647E+00
6207000. -0.1797611E+00 -0.1756424E+00
6179000. -0.1788533E+00 -0.2377233E+00
6151000. -0.1776696E+00 -0.3011509E+00
6151000. -0.1776696E+00 -0.2132535E+00
6128500. -0.1768577E+00 -0.2463839E+00
6106000. -0.1759302E+00 -0.2787596E+00
6083500. -0.1748897E+00 -0.3103775E+00
6061000. -0.1737388E+00 -0.3412355E+00
6038500. -0.1724803E+00 -0.3713369E+00
6016000. -0.1711168E+00 -0.4006805E+00
5993500. -0.1696511E+00 -0.4292662E+00
5971000. -0.1680857E+00 -0.4571014E+00
5971000. -0.1680857E+00 -0.4019848E+00
5937667. -0.1659214E+00 -0.4248960E+00
5904333. -0.1636439E+00 -0.4452799E+00
5871000. -0.1612660E+00 -0.4633477E+00
5837667. -0.1587992E+00 -0.4792953E+00
5804333. -0.1562539E+00 -0.4933068E+00
5771000. -0.1536402E+00 -0.5055411E+00
5771000. -0.1536402E+00 -0.5055322E+00
5701000. -0.1477279E+00 -0.5700746E+00
5701000. -0.1477279E+00 -0.4560117E+00
5667333. -0.1452587E+00 -0.4783037E+00
5633667. -0.1426748E+00 -0.4994881E+00
5600000. -0.1399817E+00 -0.5196033E+00
5600000. -0.1399817E+00 -0.5195949E+00
5563518. -0.1369413E+00 -0.5422119E+00
5527037. -0.1337735E+00 -0.5641081E+00
5490556. -0.1304823E+00 -0.5853003E+00
5454074. -0.1270717E+00 -0.6058093E+00
5417593. -0.1235457E+00 -0.6256493E+00
5381111. -0.1199078E+00 -0.6448339E+00
5344630. -0.1161621E+00 -0.6633781E+00
5308148. -0.1123118E+00 -0.6812981E+00
5271667. -0.1083608E+00 -0.6986033E+00
5235185. -0.1043123E+00 -0.7153059E+00
5198704. -0.1001700E+00 -0.7314170E+00
5162222. -0.9593700E-01 -0.7469499E+00
5125741. -0.9161680E-01 -0.7619095E+00
5089259. -0.8721244E-01 -0.7763094E+00
5052778. -0.8272732E-01 -0.7901556E+00
5016296. -0.7816436E-01 -0.8034587E+00
4979815. -0.7352688E-01 -0.8162262E+00
4943333. -0.6881769E-01 -0.8284656E+00
4906852. -0.6404003E-01 -0.8401842E+00
4870370. -0.5919662E-01 -0.8513883E+00
4833889. -0.5429064E-01 -0.8620849E+00
4797407. -0.4932470E-01 -0.8722827E+00
4760926. -0.4430193E-01 -0.8819870E+00
4724444. -0.3922484E-01 -0.8912049E+00
4687963. -0.3409649E-01 -0.8999407E+00
4651482. -0.2891948E-01 -0.9082032E+00
4615000. -0.2369636E-01 -0.9159986E+00
4578518. -0.1842992E-01 -0.9233316E+00
4542037. -0.1312295E-01 -0.9302108E+00
4505556. -0.7777862E-02 -0.9366424E+00
4469074. -0.2397066E-02 -0.9426342E+00
4432593.  0.3016645E-02 -0.9481912E+00
4396111.  0.8461094E-02 -0.9533204E+00
4359630.  0.1393357E-01 -0.9580329E+00
4323148.  0.1943200E-01 -0.9623339E+00
4286667.  0.2495374E-01 -0.9662324E+00
4250185.  0.3049683E-01 -0.9697360E+00
4213704.  0.3605872E-01 -0.9728552E+00
4177222.  0.4163754E-01 -0.9755976E+00
4140741.  0.4723087E-01 -0.9779744E+00
4104259.  0.5283692E-01 -0.9799962E+00
4067778.  0.5845342E-01 -0.9816731E+00
4031296.  0.6407870E-01 -0.9830168E+00
3994815.  0.6971061E-01 -0.9840406E+00
3958333.  0.7534764E-01 -0.9847543E+00
3921852.  0.8098775E-01 -0.9851750E+00
3885370.  0.8662962E-01 -0.9853150E+00
3848889.  0.9227137E-01 -0.9851902E+00
3812407.  0.9791183E-01 -0.9848143E+00
3775926.  0.1035493E+00 -0.9842056E+00
3739444.  0.1091828E+00 -0.9833819E+00
3702963.  0.1148109E+00 -0.9823602E+00
3666482.  0.1204326E+00 -0.9811615E+00
3630000.  0.1260471E+00 -0.9798023E+00
3630000.  0.1260471E+00 -0.9797980E+00
3592500.  0.1318217E+00 -0.9822903E+00
3555000.  0.1376102E+00 -0.9845586E+00
3517500.  0.1434115E+00 -0.9866148E+00
3480000.  0.1492243E+00 -0.9884763E+00
3480000.  0.1492243E+00 -0.1753584E+01
3409422.  0.1681531E+00 -0.1663324E+01
3338844.  0.1860679E+00 -0.1570620E+01
3268266.  0.2029445E+00 -0.1475963E+01
3197688.  0.2187638E+00 -0.1379785E+01
3127109.  0.2335110E+00 -0.1282453E+01
3056531.  0.2471750E+00 -0.1184302E+01
2985953.  0.2597485E+00 -0.1085619E+01
2915375.  0.2712270E+00 -0.9866656E+00
2844797.  0.2816089E+00 -0.8876765E+00
2774219.  0.2908951E+00 -0.7888672E+00
2703641.  0.2990885E+00 -0.6904370E+00
2633062.  0.3061946E+00 -0.5925664E+00
2562484.  0.3122202E+00 -0.4954351E+00
2491906.  0.3171748E+00 -0.3992092E+00
2421328.  0.3210691E+00 -0.3040502E+00
2350750.  0.3239158E+00 -0.2101071E+00
2280172.  0.3257293E+00 -0.1175356E+00
2209594.  0.3265255E+00 -0.2648390E-01
2139016.  0.3263223E+00  0.6289580E-01
2068438.  0.3251387E+00  0.1504685E+00
1997859.  0.3229957E+00  0.2360753E+00
1927281.  0.3199159E+00  0.3195828E+00
1856703.  0.3159234E+00  0.4008356E+00
1786125.  0.3110438E+00  0.4796994E+00
1715547.  0.3053045E+00  0.5560316E+00
1644969.  0.2987342E+00  0.6296900E+00
1574391.  0.2913634E+00  0.7005318E+00
1503812.  0.2832240E+00  0.7684234E+00
1433234.  0.2743495E+00  0.8332268E+00
1362656.  0.2647749E+00  0.8948159E+00
1292078.  0.2545363E+00  0.9530682E+00
1221500.  0.2436715E+00  0.1007858E+01
1221500.  0.2436715E+00  0.9620571E+00
1183328.  0.2378234E+00  0.9899596E+00
1145156.  0.2318104E+00  0.1017069E+01
1106984.  0.2256374E+00  0.1043385E+01
1068812.  0.2193092E+00  0.1068893E+01
1030641.  0.2128307E+00  0.1093579E+01
 992469.  0.2062066E+00  0.1117452E+01
 954297.  0.1994420E+00  0.1140475E+01
 916125.  0.1925419E+00  0.1162672E+01
 877953.  0.1855114E+00  0.1184011E+01
 839781.  0.1783556E+00  0.1204497E+01
 801609.  0.1710796E+00  0.1224120E+01
 763438.  0.1636889E+00  0.1242870E+01
 725266.  0.1561882E+00  0.1260741E+01
 687094.  0.1485831E+00  0.1277739E+01
 648922.  0.1408788E+00  0.1293841E+01
 610750.  0.1330808E+00  0.1309053E+01
 572578.  0.1251942E+00  0.1323370E+01
 534406.  0.1172246E+00  0.1336787E+01
 496234.  0.1091773E+00  0.1349291E+01
 458062.  0.1010578E+00  0.1360888E+01
 419891.  0.9287177E-01  0.1371562E+01
 381719.  0.8462431E-01  0.1381331E+01
 343547.  0.7632110E-01  0.1390169E+01
 305375.  0.6796768E-01  0.1398090E+01
 267203.  0.5956957E-01  0.1405083E+01
 229031.  0.5113237E-01  0.1411144E+01
 190859.  0.4266162E-01  0.1416281E+01
 152688.  0.3416308E-01  0.1420491E+01
 114516.  0.2564191E-01  0.1423761E+01
  76344.  0.1710397E-01  0.1426088E+01
  38172.  0.8554942E-02  0.1427444E+01
      0.  0.0000000E+00  0.0000000E+00
