       3        0 S        4        305.81009        261.79761         -1.00000       1081.52600      185    3
6371000. -0.1202529E+00  0.9461018E-01
6370000. -0.1202670E+00  0.8489661E-01
6369000. -0.1202796E+00  0.7517889E-01
6368000. -0.1202906E+00  0.6545714E-01
6368000. -0.1202906E+00  0.6545714E-01
6367000. -0.1203001E+00  0.5573149E-01
6366000. -0.1203081E+00  0.4600206E-01
6365000. -0.1203145E+00  0.3626896E-01
6364000. -0.1203195E+00  0.2653231E-01
6363000. -0.1203229E+00  0.1679225E-01
6362000. -0.1203247E+00  0.7048896E-02
6361000. -0.1203251E+00 -0.2697639E-02
6360000. -0.1203239E+00 -0.1244723E-01
6359000. -0.1203212E+00 -0.2219975E-01
6358000. -0.1203169E+00 -0.3195508E-01
6357000. -0.1203111E+00 -0.4171310E-01
6356000. -0.1203038E+00 -0.5147368E-01
6356000. -0.1203038E+00 -0.1242409E-01
6355000. -0.1203013E+00 -0.1951015E-01
6354000. -0.1202977E+00 -0.2659826E-01
6353000. -0.1202930E+00 -0.3368838E-01
6352000. -0.1202871E+00 -0.4078043E-01
6351000. -0.1202802E+00 -0.4787435E-01
6350000. -0.1202721E+00 -0.5497007E-01
6349000. -0.1202629E+00 -0.6206754E-01
6348000. -0.1202526E+00 -0.6916668E-01
6347000. -0.1202412E+00 -0.7626744E-01
6346600. -0.1202363E+00 -0.7910818E-01
6346600. -0.1202363E+00 -0.3407718E-02
6318800. -0.1199102E+00 -0.1466145E+00
6291000. -0.1189525E+00 -0.2927733E+00
6291000. -0.1189525E+00 -0.2955345E+00
6263000. -0.1173205E+00 -0.4474596E+00
6235000. -0.1150172E+00 -0.6009101E+00
6207000. -0.1120376E+00 -0.7550625E+00
6179000. -0.1083806E+00 -0.9090577E+00
6151000. -0.1040487E+00 -0.1061983E+01
6151000. -0.1040487E+00 -0.8380306E+00
6128500. -0.1009501E+00 -0.9161235E+00
6106000. -0.9758258E-01 -0.9903075E+00
6083500. -0.9396012E-01 -0.1060476E+01
6061000. -0.9009709E-01 -0.1126539E+01
6038500. -0.8600810E-01 -0.1188428E+01
6016000. -0.8170801E-01 -0.1246083E+01
5993500. -0.7721186E-01 -0.1299456E+01
5971000. -0.7253480E-01 -0.1348529E+01
5971000. -0.7253480E-01 -0.1214957E+01
5937667. -0.6610638E-01 -0.1240834E+01
5904333. -0.5956580E-01 -0.1257899E+01
5871000. -0.5295737E-01 -0.1266978E+01
5837667. -0.4632063E-01 -0.1268850E+01
5804333. -0.3969111E-01 -0.1264258E+01
5771000. -0.3310125E-01 -0.1253881E+01
5771000. -0.3310125E-01 -0.1253894E+01
5701000. -0.1904931E-01 -0.1299783E+01
5701000. -0.1904931E-01 -0.1072379E+01
5667333. -0.1338183E-01 -0.1071821E+01
5633667. -0.7728596E-02 -0.1067088E+01
5600000. -0.2110722E-02 -0.1058413E+01
5600000. -0.2110722E-02 -0.1058415E+01
5563518.  0.3938125E-02 -0.1053570E+01
5527037.  0.9947107E-02 -0.1044572E+01
5490556.  0.1589302E-01 -0.1031565E+01
5454074.  0.2175350E-01 -0.1014701E+01
5417593.  0.2750658E-01 -0.9941340E+00
5381111.  0.3313181E-01 -0.9700204E+00
5344630.  0.3860906E-01 -0.9425266E+00
5308148.  0.4391975E-01 -0.9118214E+00
5271667.  0.4904568E-01 -0.8780730E+00
5235185.  0.5397019E-01 -0.8414527E+00
5198704.  0.5867708E-01 -0.8021390E+00
5162222.  0.6315170E-01 -0.7603086E+00
5125741.  0.6737988E-01 -0.7161403E+00
5089259.  0.7134901E-01 -0.6698142E+00
5052778.  0.7504702E-01 -0.6215137E+00
5016296.  0.7846332E-01 -0.5714185E+00
4979815.  0.8158799E-01 -0.5197140E+00
4943333.  0.8441249E-01 -0.4665790E+00
4906852.  0.8692901E-01 -0.4121993E+00
4870370.  0.8913106E-01 -0.3567533E+00
4833889.  0.9101295E-01 -0.3004236E+00
4797407.  0.9257023E-01 -0.2433875E+00
4760926.  0.9379929E-01 -0.1858256E+00
4724444.  0.9469766E-01 -0.1279096E+00
4687963.  0.9526380E-01 -0.6981687E-01
4651482.  0.9549718E-01 -0.1171628E-01
4615000.  0.9539825E-01  0.4622557E-01
4578518.  0.9496839E-01  0.1038419E+00
4542037.  0.9420995E-01  0.1609707E+00
4505556.  0.9312615E-01  0.2174552E+00
4469074.  0.9172108E-01  0.2731440E+00
4432593.  0.8999982E-01  0.3278839E+00
4396111.  0.8796811E-01  0.3815326E+00
4359630.  0.8563273E-01  0.4339500E+00
4323148.  0.8300097E-01  0.4850031E+00
4286667.  0.8008116E-01  0.5345595E+00
4250185.  0.7688209E-01  0.5824984E+00
4213704.  0.7341351E-01  0.6287005E+00
4177222.  0.6968552E-01  0.6730561E+00
4140741.  0.6570919E-01  0.7154581E+00
4104259.  0.6149576E-01  0.7558105E+00
4067778.  0.5705749E-01  0.7940190E+00
4031296.  0.5240664E-01  0.8300008E+00
3994815.  0.4755645E-01  0.8636774E+00
3958333.  0.4252006E-01  0.8949761E+00
3921852.  0.3731155E-01  0.9238375E+00
3885370.  0.3194474E-01  0.9502052E+00
3848889.  0.2643435E-01  0.9740290E+00
3812407.  0.2079478E-01  0.9952676E+00
3775926.  0.1504122E-01  0.1013890E+01
3739444.  0.9188425E-02  0.1029871E+01
3702963.  0.3251895E-02  0.1043190E+01
3666482. -0.2753267E-02  0.1053841E+01
3630000. -0.8811920E-02  0.1061816E+01
3630000. -0.8811920E-02  0.1061813E+01
3592500. -0.1509570E-01  0.1072875E+01
3555000. -0.2143637E-01  0.1081134E+01
3517500. -0.2781728E-01  0.1086544E+01
3480000. -0.3422157E-01  0.1089072E+01
3480000. -0.3422157E-01  0.1798481E+01
3409422. -0.5352524E-01  0.1679180E+01
3338844. -0.7127271E-01  0.1518516E+01
3268266. -0.8703921E-01  0.1322569E+01
3197688. -0.1004682E+00  0.1097554E+01
3127109. -0.1112724E+00  0.8496792E+00
3056531. -0.1192322E+00  0.5850804E+00
2985953. -0.1241957E+00  0.3097066E+00
2915375. -0.1260754E+00  0.2927056E-01
2844797. -0.1248455E+00 -0.2508148E+00
2774219. -0.1205384E+00 -0.5254788E+00
2703641. -0.1132404E+00 -0.7900343E+00
2633062. -0.1030874E+00 -0.1040218E+01
2562484. -0.9026048E-01 -0.1272185E+01
2491906. -0.7498057E-01 -0.1482561E+01
2421328. -0.5750338E-01 -0.1668434E+01
2350750. -0.3811419E-01 -0.1827385E+01
2280172. -0.1712249E-01 -0.1957461E+01
2209594.  0.5143253E-02 -0.2057195E+01
2139016.  0.2834099E-01 -0.2125596E+01
2068438.  0.5212037E-01 -0.2162155E+01
1997859.  0.7612815E-01 -0.2166798E+01
1927281.  0.1000119E+00 -0.2139918E+01
1856703.  0.1234267E+00 -0.2082315E+01
1786125.  0.1460387E+00 -0.1995204E+01
1715547.  0.1675293E+00 -0.1880174E+01
1644969.  0.1875999E+00 -0.1739165E+01
1574391.  0.2059747E+00 -0.1574438E+01
1503812.  0.2224052E+00 -0.1388546E+01
1433234.  0.2366718E+00 -0.1184305E+01
1362656.  0.2485881E+00 -0.9647510E+00
1292078.  0.2580022E+00 -0.7331133E+00
1221500.  0.2647989E+00 -0.4927925E+00
1221500.  0.2647989E+00 -0.3010149E+00
1183328.  0.2662372E+00 -0.1788530E+00
1145156.  0.2669403E+00 -0.5567466E-01
1106984.  0.2669033E+00  0.6813272E-01
1068812.  0.2661236E+00  0.1921686E+00
1030641.  0.2646011E+00  0.3160335E+00
 992469.  0.2623378E+00  0.4393571E+00
 954297.  0.2593383E+00  0.5617236E+00
 916125.  0.2556093E+00  0.6827838E+00
 877953.  0.2511600E+00  0.8021344E+00
 839781.  0.2460016E+00  0.9194222E+00
 801609.  0.2401475E+00  0.1034282E+01
 763438.  0.2336135E+00  0.1146355E+01
 725266.  0.2264171E+00  0.1255305E+01
 687094.  0.2185781E+00  0.1360815E+01
 648922.  0.2101181E+00  0.1462542E+01
 610750.  0.2010606E+00  0.1560194E+01
 572578.  0.1914309E+00  0.1653479E+01
 534406.  0.1812562E+00  0.1742115E+01
 496234.  0.1705650E+00  0.1825825E+01
 458062.  0.1593876E+00  0.1904374E+01
 419891.  0.1477560E+00  0.1977511E+01
 381719.  0.1357025E+00  0.2045052E+01
 343547.  0.1232617E+00  0.2106759E+01
 305375.  0.1104690E+00  0.2162479E+01
 267203.  0.9736093E-01  0.2212032E+01
 229031.  0.8397478E-01  0.2255270E+01
 190859.  0.7034876E-01  0.2292082E+01
 152688.  0.5652207E-01  0.2322358E+01
 114516.  0.4253348E-01  0.2345987E+01
  76344.  0.2842341E-01  0.2362900E+01
  38172.  0.1423230E-01  0.2373001E+01
      0.  0.0000000E+00  0.0000000E+00
