       7        0 S        8        152.00841        526.68378         -1.00000        880.23309      185    3
6371000. -0.5684625E-01  0.4469403E-01
6370000. -0.5685182E-01  0.2622091E-01
6369000. -0.5685449E-01  0.7740632E-02
6368000. -0.5685425E-01 -0.1074585E-01
6368000. -0.5685425E-01 -0.1074585E-01
6367000. -0.5685111E-01 -0.2923761E-01
6366000. -0.5684507E-01 -0.4773369E-01
6365000. -0.5683613E-01 -0.6623316E-01
6364000. -0.5682428E-01 -0.8473508E-01
6363000. -0.5680953E-01 -0.1032385E+00
6362000. -0.5679187E-01 -0.1217425E+00
6361000. -0.5677131E-01 -0.1402461E+00
6360000. -0.5674784E-01 -0.1587484E+00
6359000. -0.5672147E-01 -0.1772484E+00
6358000. -0.5669220E-01 -0.1957452E+00
6357000. -0.5666003E-01 -0.2142379E+00
6356000. -0.5662495E-01 -0.2327255E+00
6356000. -0.5662495E-01 -0.1418739E+00
6355000. -0.5660162E-01 -0.1553099E+00
6354000. -0.5657619E-01 -0.1687443E+00
6353000. -0.5654865E-01 -0.1821768E+00
6352000. -0.5651900E-01 -0.1956068E+00
6351000. -0.5648725E-01 -0.2090337E+00
6350000. -0.5645338E-01 -0.2224571E+00
6349000. -0.5641741E-01 -0.2358765E+00
6348000. -0.5637934E-01 -0.2492913E+00
6347000. -0.5633916E-01 -0.2627012E+00
6346600. -0.5632249E-01 -0.2680637E+00
6346600. -0.5632249E-01 -0.1439693E+00
6318800. -0.5510645E-01 -0.4135811E+00
6291000. -0.5271570E-01 -0.6814380E+00
6291000. -0.5271570E-01 -0.6904444E+00
6263000. -0.4909313E-01 -0.9562496E+00
6235000. -0.4433112E-01 -0.1207942E+01
6207000. -0.3850517E-01 -0.1439418E+01
6179000. -0.3171718E-01 -0.1644774E+01
6151000. -0.2409437E-01 -0.1818421E+01
6151000. -0.2409437E-01 -0.1461703E+01
6128500. -0.1881756E-01 -0.1523543E+01
6106000. -0.1335540E-01 -0.1566657E+01
6083500. -0.7774078E-02 -0.1591042E+01
6061000. -0.2139430E-02 -0.1596910E+01
6038500.  0.3483843E-02 -0.1584687E+01
6016000.  0.9032874E-02 -0.1554980E+01
5993500.  0.1444723E-01 -0.1508563E+01
5971000.  0.1966954E-01 -0.1446387E+01
5971000.  0.1966954E-01 -0.1309756E+01
5937667.  0.2615342E-01 -0.1165834E+01
5904333.  0.3184299E-01 -0.1006939E+01
5871000.  0.3667300E-01 -0.8381242E+00
5837667.  0.4060391E-01 -0.6639743E+00
5804333.  0.4361883E-01 -0.4885829E+00
5771000.  0.4572070E-01 -0.3155406E+00
5771000.  0.4572070E-01 -0.3155495E+00
5701000.  0.4729999E-01  0.2870383E-01
5701000.  0.4729999E-01  0.1893995E-01
5667333.  0.4680797E-01  0.1662465E+00
5633667.  0.4555574E-01  0.3063303E+00
5600000.  0.4358643E-01  0.4373286E+00
5600000.  0.4358643E-01  0.4373264E+00
5563518.  0.4069373E-01  0.5711319E+00
5527037.  0.3706900E-01  0.6927227E+00
5490556.  0.3278724E-01  0.8003560E+00
5454074.  0.2793251E-01  0.8925828E+00
5417593.  0.2259677E-01  0.9682409E+00
5381111.  0.1687719E-01  0.1026480E+01
5344630.  0.1087554E-01  0.1066749E+01
5308148.  0.4695252E-02  0.1088801E+01
5271667. -0.1558990E-02  0.1092666E+01
5235185. -0.7784146E-02  0.1078656E+01
5198704. -0.1387905E-01  0.1047348E+01
5162222. -0.1974721E-01  0.9995567E+00
5125741. -0.2529678E-01  0.9363205E+00
5089259. -0.3044309E-01  0.8588780E+00
5052778. -0.3510849E-01  0.7686466E+00
5016296. -0.3922441E-01  0.6671876E+00
4979815. -0.4273113E-01  0.5561956E+00
4943333. -0.4557931E-01  0.4374498E+00
4906852. -0.4772970E-01  0.3128133E+00
4870370. -0.4915408E-01  0.1841777E+00
4833889. -0.4983499E-01  0.5346350E-01
4797407. -0.4976600E-01 -0.7743162E-01
4760926. -0.4895147E-01 -0.2066320E+00
4724444. -0.4740624E-01 -0.3323355E+00
4687963. -0.4515545E-01 -0.4528062E+00
4651482. -0.4223372E-01 -0.5664227E+00
4615000. -0.3868454E-01 -0.6716826E+00
4578518. -0.3455986E-01 -0.7672141E+00
4542037. -0.2991906E-01 -0.8518018E+00
4505556. -0.2482779E-01 -0.9243968E+00
4469074. -0.1935714E-01 -0.9841256E+00
4432593. -0.1358317E-01 -0.1030289E+01
4396111. -0.7584802E-02 -0.1062381E+01
4359630. -0.1443916E-02 -0.1080087E+01
4323148.  0.4756986E-02 -0.1083278E+01
4286667.  0.1093453E-01 -0.1072015E+01
4250185.  0.1700691E-01 -0.1046541E+01
4213704.  0.2289354E-01 -0.1007280E+01
4177222.  0.2851740E-01 -0.9548199E+00
4140741.  0.3380468E-01 -0.8899125E+00
4104259.  0.3868689E-01 -0.8134504E+00
4067778.  0.4310048E-01 -0.7264656E+00
4031296.  0.4698868E-01 -0.6301001E+00
3994815.  0.5030108E-01 -0.5256086E+00
3958333.  0.5299511E-01 -0.4143179E+00
3921852.  0.5503570E-01 -0.2976371E+00
3885370.  0.5639619E-01 -0.1770102E+00
3848889.  0.5705819E-01 -0.5392721E-01
3812407.  0.5701192E-01  0.7012261E-01
3775926.  0.5625614E-01  0.1936422E+00
3739444.  0.5479805E-01  0.3151695E+00
3702963.  0.5265327E-01  0.4332680E+00
3666482.  0.4984534E-01  0.5465693E+00
3630000.  0.4640541E-01  0.6537709E+00
3630000.  0.4640541E-01  0.6537695E+00
3592500.  0.4223865E-01  0.7608288E+00
3555000.  0.3746451E-01  0.8599260E+00
3517500.  0.3213376E-01  0.9497446E+00
3480000.  0.2630465E-01  0.1029069E+01
3480000.  0.2630465E-01  0.1639542E+01
3409422.  0.6858678E-02  0.1833716E+01
3338844. -0.1348874E-01  0.1802782E+01
3268266. -0.3230611E-01  0.1561961E+01
3197688. -0.4745350E-01  0.1147781E+01
3127109. -0.5728718E-01  0.6122258E+00
3056531. -0.6079478E-01  0.1625996E-01
2985953. -0.5765858E-01 -0.5768170E+00
2915375. -0.4824664E-01 -0.1107413E+01
2844797. -0.3354236E-01 -0.1524797E+01
2774219. -0.1502343E-01 -0.1790987E+01
2703641.  0.5494531E-02 -0.1883260E+01
2633062.  0.2603452E-01 -0.1795203E+01
2562484.  0.4463698E-01 -0.1536375E+01
2491906.  0.5953096E-01 -0.1130758E+01
2421328.  0.6927933E-01 -0.6141952E+00
2350750.  0.7289274E-01 -0.3108411E-01
2280172.  0.6990381E-01  0.5693890E+00
2209594.  0.6039847E-01  0.1137159E+01
2139016.  0.4500457E-01  0.1625073E+01
2068438.  0.2483999E-01  0.1992335E+01
1997859.  0.1425788E-02  0.2207308E+01
1927281. -0.2342650E-01  0.2249655E+01
1856703. -0.4774970E-01  0.2111564E+01
1786125. -0.6956138E-01  0.1798143E+01
1715547. -0.8700520E-01  0.1326891E+01
1644969. -0.9848161E-01  0.7263913E+00
1574391. -0.1027601E+00  0.3430723E-01
1503812. -0.9906617E-01 -0.7051782E+00
1433234. -0.8713770E-01 -0.1444231E+01
1362656. -0.6724817E-01 -0.2134511E+01
1292078. -0.4019549E-01 -0.2730170E+01
1221500. -0.7258539E-02 -0.3190674E+01
1221500. -0.7258539E-02 -0.2704156E+01
1183328.  0.9448119E-02 -0.2866545E+01
1145156.  0.2701656E-01 -0.2991351E+01
1106984.  0.4521373E-01 -0.3076042E+01
1068812.  0.6379312E-01 -0.3118656E+01
1030641.  0.8249777E-01 -0.3117852E+01
 992469.  0.1010661E+00 -0.3072937E+01
 954297.  0.1192329E+00 -0.2983844E+01
 916125.  0.1367349E+00 -0.2851180E+01
 877953.  0.1533144E+00 -0.2676182E+01
 839781.  0.1687231E+00 -0.2460713E+01
 801609.  0.1827256E+00 -0.2207244E+01
 763438.  0.1951027E+00 -0.1918804E+01
 725266.  0.2056558E+00 -0.1598936E+01
 687094.  0.2142082E+00 -0.1251655E+01
 648922.  0.2206087E+00 -0.8814057E+00
 610750.  0.2247339E+00 -0.4929632E+00
 572578.  0.2264899E+00 -0.9138969E-01
 534406.  0.2258135E+00  0.3180398E+00
 496234.  0.2226740E+00  0.7299046E+00
 458062.  0.2170732E+00  0.1138751E+01
 419891.  0.2090456E+00  0.1539100E+01
 381719.  0.1986579E+00  0.1925654E+01
 343547.  0.1860085E+00  0.2293177E+01
 305375.  0.1712265E+00  0.2636766E+01
 267203.  0.1544692E+00  0.2951775E+01
 229031.  0.1359208E+00  0.3233952E+01
 190859.  0.1157897E+00  0.3479513E+01
 152688.  0.9430605E-01  0.3685133E+01
 114516.  0.7171661E-01  0.3848006E+01
  76344.  0.4828505E-01  0.3965919E+01
  38172.  0.2428591E-01  0.4037199E+01
      0.  0.0000000E+00  0.0000000E+00
