       4        0 S        5        243.65530        328.58029         -1.00000        967.60211      185    3
6371000.  0.1000914E+00 -0.7873052E-01
6370000.  0.1001027E+00 -0.6603098E-01
6369000.  0.1001121E+00 -0.5332612E-01
6368000.  0.1001195E+00 -0.4061618E-01
6368000.  0.1001195E+00 -0.4061618E-01
6367000.  0.1001249E+00 -0.2790143E-01
6366000.  0.1001282E+00 -0.1518210E-01
6365000.  0.1001296E+00 -0.2458457E-02
6364000.  0.1001290E+00  0.1026925E-01
6363000.  0.1001264E+00  0.2300078E-01
6362000.  0.1001218E+00  0.3573587E-01
6361000.  0.1001152E+00  0.4847427E-01
6360000.  0.1001066E+00  0.6121574E-01
6359000.  0.1000960E+00  0.7396001E-01
6358000.  0.1000833E+00  0.8670683E-01
6357000.  0.1000687E+00  0.9945597E-01
6356000.  0.1000521E+00  0.1122072E+00
6356000.  0.1000521E+00  0.5561208E-01
6355000.  0.1000427E+00  0.6487537E-01
6354000.  0.1000318E+00  0.7414065E-01
6353000.  0.1000194E+00  0.8340777E-01
6352000.  0.1000056E+00  0.9267662E-01
6351000.  0.9999030E-01  0.1019471E+00
6350000.  0.9997357E-01  0.1112190E+00
6349000.  0.9995539E-01  0.1204922E+00
6348000.  0.9993575E-01  0.1297666E+00
6347000.  0.9991465E-01  0.1390420E+00
6346600.  0.9990580E-01  0.1427525E+00
6346600.  0.9990580E-01  0.5030293E-01
6318800.  0.9927906E-01  0.2375646E+00
6291000.  0.9782836E-01  0.4277158E+00
6291000.  0.9782836E-01  0.4328405E+00
6263000.  0.9549575E-01  0.6287553E+00
6235000.  0.9230216E-01  0.8243691E+00
6207000.  0.8825269E-01  0.1017940E+01
6179000.  0.8336026E-01  0.1207674E+01
6151000.  0.7764579E-01  0.1391714E+01
6151000.  0.7764579E-01  0.1108205E+01
6128500.  0.7357061E-01  0.1198511E+01
6106000.  0.6918862E-01  0.1281924E+01
6083500.  0.6452452E-01  0.1358253E+01
6061000.  0.5960358E-01  0.1427347E+01
6038500.  0.5445158E-01  0.1489101E+01
6016000.  0.4909456E-01  0.1543440E+01
5993500.  0.4355880E-01  0.1590320E+01
5971000.  0.3787065E-01  0.1629749E+01
5971000.  0.3787065E-01  0.1471720E+01
5937667.  0.3016121E-01  0.1473035E+01
5904333.  0.2247876E-01  0.1461570E+01
5871000.  0.1488675E-01  0.1438783E+01
5837667.  0.7440559E-02  0.1406059E+01
5804333.  0.1884797E-03  0.1364708E+01
5771000. -0.6827127E-02  0.1315945E+01
5771000. -0.6827127E-02  0.1315964E+01
5701000. -0.2109583E-01  0.1274944E+01
5701000. -0.2109583E-01  0.1056131E+01
5667333. -0.2656862E-01  0.1014213E+01
5633667. -0.3180624E-01  0.9672805E+00
5600000. -0.3678394E-01  0.9158740E+00
5600000. -0.3678394E-01  0.9158779E+00
5563518. -0.4188122E-01  0.8636022E+00
5527037. -0.4666480E-01  0.8064350E+00
5490556. -0.5110816E-01  0.7448512E+00
5454074. -0.5518751E-01  0.6793324E+00
5417593. -0.5888147E-01  0.6103647E+00
5381111. -0.6217189E-01  0.5384294E+00
5344630. -0.6504298E-01  0.4640154E+00
5308148. -0.6748208E-01  0.3876011E+00
5271667. -0.6947898E-01  0.3096647E+00
5235185. -0.7102641E-01  0.2306712E+00
5198704. -0.7211956E-01  0.1510855E+00
5162222. -0.7275638E-01  0.7135352E-01
5125741. -0.7293728E-01 -0.8081695E-02
5089259. -0.7266517E-01 -0.8679941E-01
5052778. -0.7194538E-01 -0.1643836E+00
5016296. -0.7078549E-01 -0.2404436E+00
4979815. -0.6919538E-01 -0.3145967E+00
4943333. -0.6718693E-01 -0.3864859E+00
4906852. -0.6477421E-01 -0.4557652E+00
4870370. -0.6197294E-01 -0.5221152E+00
4833889. -0.5880095E-01 -0.5852308E+00
4797407. -0.5527738E-01 -0.6448358E+00
4760926. -0.5142329E-01 -0.7006677E+00
4724444. -0.4726075E-01 -0.7524934E+00
4687963. -0.4281357E-01 -0.8000950E+00
4651482. -0.3810635E-01 -0.8432861E+00
4615000. -0.3316471E-01 -0.8819004E+00
4578518. -0.2801542E-01 -0.9157927E+00
4542037. -0.2268600E-01 -0.9448458E+00
4505556. -0.1720431E-01 -0.9689649E+00
4469074. -0.1159866E-01 -0.9880807E+00
4432593. -0.5898149E-02 -0.1002143E+01
4396111. -0.1314893E-03 -0.1011129E+01
4359630.  0.5671934E-02 -0.1015041E+01
4323148.  0.1148344E-01 -0.1013900E+01
4286667.  0.1727388E-01 -0.1007752E+01
4250185.  0.2301509E-01 -0.9966620E+00
4213704.  0.2867871E-01 -0.9807206E+00
4177222.  0.3423755E-01 -0.9600339E+00
4140741.  0.3966451E-01 -0.9347328E+00
4104259.  0.4493387E-01 -0.9049633E+00
4067778.  0.5002023E-01 -0.8708916E+00
4031296.  0.5489972E-01 -0.8326984E+00
3994815.  0.5954906E-01 -0.7905846E+00
3958333.  0.6394665E-01 -0.7447588E+00
3921852.  0.6807163E-01 -0.6954526E+00
3885370.  0.7190498E-01 -0.6429009E+00
3848889.  0.7542862E-01 -0.5873576E+00
3812407.  0.7862634E-01 -0.5290788E+00
3775926.  0.8148309E-01 -0.4683367E+00
3739444.  0.8398569E-01 -0.4054045E+00
3702963.  0.8612227E-01 -0.3405668E+00
3666482.  0.8788280E-01 -0.2741084E+00
3630000.  0.8925887E-01 -0.2063163E+00
3630000.  0.8925887E-01 -0.2063147E+00
3592500.  0.9026543E-01 -0.1354108E+00
3555000.  0.9084975E-01 -0.6289100E-01
3517500.  0.9100319E-01  0.1094614E-01
3480000.  0.9071890E-01  0.8579350E-01
3480000.  0.9071890E-01  0.4496489E-01
3409422.  0.8801696E-01  0.4390033E+00
3338844.  0.8110436E-01  0.8027885E+00
3268266.  0.7038996E-01  0.1123443E+01
3197688.  0.5641078E-01  0.1390714E+01
3127109.  0.3980263E-01  0.1596977E+01
3056531.  0.2127210E-01  0.1737193E+01
2985953.  0.1566972E-02  0.1808805E+01
2915375. -0.1854933E-01  0.1811569E+01
2844797. -0.3832268E-01  0.1747368E+01
2774219. -0.5703048E-01  0.1619972E+01
2703641. -0.7400131E-01  0.1434806E+01
2633062. -0.8863200E-01  0.1198689E+01
2562484. -0.1004008E+00  0.9195639E+00
2491906. -0.1088795E+00  0.6062295E+00
2421328. -0.1137407E+00  0.2680790E+00
2350750. -0.1147633E+00 -0.8516412E-01
2280172. -0.1118343E+00 -0.4436908E+00
2209594. -0.1049491E+00 -0.7978442E+00
2139016. -0.9420783E-01 -0.1138333E+01
2068438. -0.7981084E-01 -0.1456449E+01
1997859. -0.6205066E-01 -0.1744214E+01
1927281. -0.4130403E-01 -0.1994566E+01
1856703. -0.1801961E-01 -0.2201467E+01
1786125.  0.7293091E-02 -0.2360034E+01
1715547.  0.3407715E-01 -0.2466593E+01
1644969.  0.6174187E-01 -0.2518735E+01
1574391.  0.8967707E-01 -0.2515344E+01
1503812.  0.1172677E+00 -0.2456596E+01
1433234.  0.1439066E+00 -0.2343925E+01
1362656.  0.1690103E+00 -0.2179976E+01
1292078.  0.1920306E+00 -0.1968522E+01
1221500.  0.2124671E+00 -0.1714377E+01
1221500.  0.2124671E+00 -0.1358683E+01
1183328.  0.2201913E+00 -0.1218331E+01
1145156.  0.2270516E+00 -0.1070426E+01
1106984.  0.2330050E+00 -0.9157336E+00
1068812.  0.2380132E+00 -0.7550535E+00
1030641.  0.2420427E+00 -0.5892212E+00
 992469.  0.2450653E+00 -0.4190719E+00
 954297.  0.2470578E+00 -0.2455004E+00
 916125.  0.2480022E+00 -0.6937061E-01
 877953.  0.2478860E+00  0.1083962E+00
 839781.  0.2467019E+00  0.2869085E+00
 801609.  0.2444484E+00  0.4652542E+00
 763438.  0.2411291E+00  0.6425228E+00
 725266.  0.2367531E+00  0.8178257E+00
 687094.  0.2313349E+00  0.9902903E+00
 648922.  0.2248940E+00  0.1159024E+01
 610750.  0.2174554E+00  0.1323196E+01
 572578.  0.2090489E+00  0.1481983E+01
 534406.  0.1997091E+00  0.1634587E+01
 496234.  0.1894755E+00  0.1780234E+01
 458062.  0.1783919E+00  0.1918213E+01
 419891.  0.1665066E+00  0.2047815E+01
 381719.  0.1538711E+00  0.2168434E+01
 343547.  0.1405414E+00  0.2279429E+01
 305375.  0.1265768E+00  0.2380280E+01
 267203.  0.1120397E+00  0.2470470E+01
 229031.  0.9699528E-01  0.2549551E+01
 190859.  0.8151126E-01  0.2617148E+01
 152688.  0.6565789E-01  0.2672926E+01
 114516.  0.4950609E-01  0.2716585E+01
  76344.  0.3312958E-01  0.2747906E+01
  38172.  0.1660280E-01  0.2766685E+01
      0.  0.0000000E+00  0.0000000E+00
