       6        0 S        7        174.26421        459.41940         -1.00000        912.87323      185    3
6371000.  0.6496039E-01 -0.5108035E-01
6370000.  0.6496715E-01 -0.3500765E-01
6369000.  0.6497138E-01 -0.1892853E-01
6368000.  0.6497309E-01 -0.2843607E-02
6368000.  0.6497309E-01 -0.2843607E-02
6367000.  0.6497227E-01  0.1324649E-01
6366000.  0.6496894E-01  0.2934114E-01
6365000.  0.6496307E-01  0.4543972E-01
6364000.  0.6495467E-01  0.6154161E-01
6363000.  0.6494375E-01  0.7764618E-01
6362000.  0.6493029E-01  0.9375282E-01
6361000.  0.6491432E-01  0.1098609E+00
6360000.  0.6489581E-01  0.1259698E+00
6359000.  0.6487477E-01  0.1420788E+00
6358000.  0.6485120E-01  0.1581875E+00
6357000.  0.6482511E-01  0.1742951E+00
6356000.  0.6479649E-01  0.1904009E+00
6356000.  0.6479649E-01  0.1128257E+00
6355000.  0.6477786E-01  0.1245307E+00
6354000.  0.6475740E-01  0.1362359E+00
6353000.  0.6473509E-01  0.1479410E+00
6352000.  0.6471095E-01  0.1596455E+00
6351000.  0.6468498E-01  0.1713493E+00
6350000.  0.6465717E-01  0.1830519E+00
6349000.  0.6462751E-01  0.1947531E+00
6348000.  0.6459603E-01  0.2064524E+00
6347000.  0.6456270E-01  0.2181496E+00
6346600.  0.6454886E-01  0.2228278E+00
6346600.  0.6454886E-01  0.1129885E+00
6318800.  0.6354247E-01  0.3486774E+00
6291000.  0.6150522E-01  0.5848543E+00
6291000.  0.6150522E-01  0.5925462E+00
6263000.  0.5837627E-01  0.8304141E+00
6235000.  0.5421735E-01  0.1060556E+01
6207000.  0.4907164E-01  0.1278781E+01
6179000.  0.4300065E-01  0.1480930E+01
6151000.  0.3608407E-01  0.1662919E+01
6151000.  0.3608407E-01  0.1334123E+01
6128500.  0.3123348E-01  0.1410589E+01
6106000.  0.2613702E-01  0.1473328E+01
6083500.  0.2084352E-01  0.1522156E+01
6061000.  0.1540225E-01  0.1557010E+01
6038500.  0.9862474E-02  0.1577968E+01
6016000.  0.4272968E-02  0.1585211E+01
5993500. -0.1318309E-02  0.1579029E+01
5971000. -0.6864639E-02  0.1559832E+01
5971000. -0.6864639E-02  0.1411513E+01
5937667. -0.1403591E-01  0.1326836E+01
5904333. -0.2072125E-01  0.1226265E+01
5871000. -0.2684603E-01  0.1113179E+01
5837667. -0.3235330E-01  0.9907210E+00
5804333. -0.3720186E-01  0.8617827E+00
5771000. -0.4136449E-01  0.7289850E+00
5771000. -0.4136449E-01  0.7289990E+00
5701000. -0.4802079E-01  0.4774744E+00
5701000. -0.4802079E-01  0.3997201E+00
5667333. -0.4981224E-01  0.2781943E+00
5633667. -0.5096169E-01  0.1570098E+00
5600000. -0.5147487E-01  0.3760920E-01
5600000. -0.5147487E-01  0.3761264E-01
5563518. -0.5132942E-01 -0.8801581E-01
5527037. -0.5047286E-01 -0.2105140E+00
5490556. -0.4892737E-01 -0.3284097E+00
5454074. -0.4672318E-01 -0.4403423E+00
5417593. -0.4389822E-01 -0.5450603E+00
5381111. -0.4049688E-01 -0.6414501E+00
5344630. -0.3656994E-01 -0.7285244E+00
5308148. -0.3217298E-01 -0.8054460E+00
5271667. -0.2736648E-01 -0.8715054E+00
5235185. -0.2221403E-01 -0.9261470E+00
5198704. -0.1678257E-01 -0.9689542E+00
5162222. -0.1114038E-01 -0.9996590E+00
5125741. -0.5357549E-02 -0.1018123E+01
5089259.  0.4961230E-03 -0.1024357E+01
5052778.  0.6350601E-02 -0.1018495E+01
5016296.  0.1213764E-01 -0.1000800E+01
4979815.  0.1779021E-01 -0.9716573E+00
4943333.  0.2324443E-01 -0.9315586E+00
4906852.  0.2843894E-01 -0.8811060E+00
4870370.  0.3331666E-01 -0.8209896E+00
4833889.  0.3782421E-01 -0.7519916E+00
4797407.  0.4191336E-01 -0.6749653E+00
4760926.  0.4554056E-01 -0.5908344E+00
4724444.  0.4866806E-01 -0.5005688E+00
4687963.  0.5126347E-01 -0.4051923E+00
4651482.  0.5330062E-01 -0.3057552E+00
4615000.  0.5475935E-01 -0.2033290E+00
4578518.  0.5562560E-01 -0.9900206E-01
4542037.  0.5589161E-01  0.6135576E-02
4505556.  0.5555584E-01  0.1110089E+00
4469074.  0.5462280E-01  0.2145630E+00
4432593.  0.5310309E-01  0.3157619E+00
4396111.  0.5101296E-01  0.4136191E+00
4359630.  0.4837438E-01  0.5071861E+00
4323148.  0.4521437E-01  0.5955760E+00
4286667.  0.4156514E-01  0.6779550E+00
4250185.  0.3746312E-01  0.7535661E+00
4213704.  0.3294929E-01  0.8217195E+00
4177222.  0.2806791E-01  0.8818094E+00
4140741.  0.2286693E-01  0.9333090E+00
4104259.  0.1739657E-01  0.9757830E+00
4067778.  0.1170986E-01  0.1008880E+01
4031296.  0.5860950E-02  0.1032342E+01
3994815. -0.9414710E-04  0.1046005E+01
3958333. -0.6099373E-02  0.1049789E+01
3921852. -0.1209785E-01  0.1043716E+01
3885370. -0.1803372E-01  0.1027888E+01
3848889. -0.2385130E-01  0.1002498E+01
3812407. -0.2949690E-01  0.9678184E+00
3775926. -0.3491802E-01  0.9242085E+00
3739444. -0.4006499E-01  0.8720965E+00
3702963. -0.4489027E-01  0.8119845E+00
3666482. -0.4934977E-01  0.7444388E+00
3630000. -0.5340279E-01  0.6700777E+00
3630000. -0.5340279E-01  0.6700752E+00
3592500. -0.5711433E-01  0.5898830E+00
3555000. -0.6033373E-01  0.5029705E+00
3517500. -0.6302353E-01  0.4100528E+00
3480000. -0.6515063E-01  0.3119073E+00
3480000. -0.6515063E-01  0.5726704E+00
3409422. -0.6825747E-01 -0.1328963E-01
3338844. -0.6491878E-01 -0.5824974E+00
3268266. -0.5558974E-01 -0.1087528E+01
3197688. -0.4120443E-01 -0.1489752E+01
3127109. -0.2306675E-01 -0.1761229E+01
3056531. -0.2726780E-02 -0.1885668E+01
2985953.  0.1815102E-01 -0.1858521E+01
2915375.  0.3791369E-01 -0.1686294E+01
2844797.  0.5503600E-01 -0.1385275E+01
2774219.  0.6821930E-01 -0.9797696E+00
2703641.  0.7646929E-01 -0.5000529E+00
2633062.  0.7914983E-01  0.1987683E-01
2562484.  0.7601160E-01  0.5445305E+00
2491906.  0.6719646E-01  0.1039146E+01
2421328.  0.5321817E-01  0.1471648E+01
2350750.  0.3492279E-01  0.1814381E+01
2280172.  0.1343185E-01  0.2045461E+01
2209594. -0.9927543E-02  0.2149795E+01
2139016. -0.3370158E-01  0.2119666E+01
2068438. -0.5639299E-01  0.1954943E+01
1997859. -0.7654441E-01  0.1662845E+01
1927281. -0.9281619E-01  0.1257442E+01
1856703. -0.1040591E+00  0.7587222E+00
1786125. -0.1093731E+00  0.1914983E+00
1715547. -0.1081532E+00 -0.4159373E+00
1644969. -0.1001210E+00 -0.1033259E+01
1574391. -0.8533786E-01 -0.1629616E+01
1503812. -0.6420288E-01 -0.2175133E+01
1433234. -0.3743512E-01 -0.2642282E+01
1362656. -0.6038572E-02 -0.3007187E+01
1292078.  0.2874303E-01 -0.3250645E+01
1221500.  0.6548286E-01 -0.3358927E+01
1221500.  0.6548286E-01 -0.2815103E+01
1183328.  0.8236116E-01 -0.2813837E+01
1145156.  0.9914054E-01 -0.2782054E+01
1106984.  0.1156380E+00 -0.2719750E+01
1068812.  0.1316714E+00 -0.2627255E+01
1030641.  0.1470614E+00 -0.2505239E+01
 992469.  0.1616347E+00 -0.2354698E+01
 954297.  0.1752238E+00 -0.2176946E+01
 916125.  0.1876703E+00 -0.1973598E+01
 877953.  0.1988264E+00 -0.1746560E+01
 839781.  0.2085566E+00 -0.1497990E+01
 801609.  0.2167389E+00 -0.1230295E+01
 763438.  0.2232663E+00 -0.9460965E+00
 725266.  0.2280486E+00 -0.6481833E+00
 687094.  0.2310122E+00 -0.3395030E+00
 648922.  0.2321018E+00 -0.2314983E-01
 610750.  0.2312807E+00  0.2977219E+00
 572578.  0.2285317E+00  0.6198922E+00
 534406.  0.2238565E+00  0.9401163E+00
 496234.  0.2172767E+00  0.1255151E+01
 458062.  0.2088328E+00  0.1561828E+01
 419891.  0.1985845E+00  0.1857015E+01
 381719.  0.1866092E+00  0.2137773E+01
 343547.  0.1730022E+00  0.2401204E+01
 305375.  0.1578754E+00  0.2644667E+01
 267203.  0.1413559E+00  0.2865671E+01
 229031.  0.1235853E+00  0.3061966E+01
 190859.  0.1047175E+00  0.3231579E+01
 152688.  0.8491841E-01  0.3372781E+01
 114516.  0.6436156E-01  0.3484109E+01
  76344.  0.4323013E-01  0.3564425E+01
  38172.  0.2171255E-01  0.3612843E+01
      0.  0.0000000E+00  0.0000000E+00
