       9        0 S       10        121.06400        661.30603         -1.00000        838.88013      185    3
6371000. -0.4433436E-01  0.3484916E-01
6370000. -0.4433805E-01  0.1215362E-01
6369000. -0.4433818E-01 -0.1055002E-01
6368000. -0.4433474E-01 -0.3325996E-01
6368000. -0.4433474E-01 -0.3325996E-01
6367000. -0.4432774E-01 -0.5597437E-01
6366000. -0.4431717E-01 -0.7869142E-01
6365000. -0.4430303E-01 -0.1014093E+00
6364000. -0.4428533E-01 -0.1241262E+00
6363000. -0.4426407E-01 -0.1468402E+00
6362000. -0.4423924E-01 -0.1695497E+00
6361000. -0.4421084E-01 -0.1922526E+00
6360000. -0.4417889E-01 -0.2149472E+00
6359000. -0.4414337E-01 -0.2376318E+00
6358000. -0.4410429E-01 -0.2603043E+00
6357000. -0.4406165E-01 -0.2829631E+00
6356000. -0.4401546E-01 -0.3056063E+00
6356000. -0.4401546E-01 -0.1916348E+00
6355000. -0.4398409E-01 -0.2080879E+00
6354000. -0.4395014E-01 -0.2245340E+00
6353000. -0.4391361E-01 -0.2409723E+00
6352000. -0.4387449E-01 -0.2574016E+00
6351000. -0.4383280E-01 -0.2738210E+00
6350000. -0.4378853E-01 -0.2902296E+00
6349000. -0.4374169E-01 -0.3066264E+00
6348000. -0.4369228E-01 -0.3230105E+00
6347000. -0.4364029E-01 -0.3393809E+00
6346600. -0.4361878E-01 -0.3459250E+00
6346600. -0.4361878E-01 -0.1967445E+00
6318800. -0.4204522E-01 -0.5239137E+00
6291000. -0.3905953E-01 -0.8421649E+00
6291000. -0.3905953E-01 -0.8531584E+00
6263000. -0.3463153E-01 -0.1157480E+01
6235000. -0.2893256E-01 -0.1429699E+01
6207000. -0.2212739E-01 -0.1659186E+01
6179000. -0.1442530E-01 -0.1836373E+01
6151000. -0.6074629E-02 -0.1953118E+01
6151000. -0.6074629E-02 -0.1573775E+01
6128500. -0.4960208E-03 -0.1580577E+01
6106000.  0.5054967E-02 -0.1558288E+01
6083500.  0.1047753E-01 -0.1508082E+01
6061000.  0.1567583E-01 -0.1431591E+01
6038500.  0.2056055E-01 -0.1330871E+01
6016000.  0.2505027E-01 -0.1208325E+01
5993500.  0.2907261E-01 -0.1066652E+01
5971000.  0.3256515E-01 -0.9087968E+00
5971000.  0.3256515E-01 -0.8243178E+00
5937667.  0.3620404E-01 -0.5657310E+00
5904333.  0.3848364E-01 -0.3062788E+00
5871000.  0.3942306E-01 -0.5481521E-01
5837667.  0.3908410E-01  0.1812942E+00
5804333.  0.3756307E-01  0.3961702E+00
5771000.  0.3498341E-01  0.5853580E+00
5771000.  0.3498341E-01  0.5853624E+00
5701000.  0.2647921E-01  0.9449723E+00
5701000.  0.2647921E-01  0.7790253E+00
5667333.  0.2205911E-01  0.8895861E+00
5633667.  0.1712318E-01  0.9740986E+00
5600000.  0.1181131E-01  0.1031732E+01
5600000.  0.1181131E-01  0.1031732E+01
5563518.  0.5772117E-02  0.1072423E+01
5527037. -0.4112888E-03  0.1082184E+01
5490556. -0.6563165E-02  0.1061570E+01
5454074. -0.1251322E-01  0.1011920E+01
5417593. -0.1810041E-01  0.9352817E+00
5381111. -0.2317787E-01  0.8343257E+00
5344630. -0.2761506E-01  0.7122687E+00
5308148. -0.3130161E-01  0.5727465E+00
5271667. -0.3414855E-01  0.4197283E+00
5235185. -0.3609063E-01  0.2573858E+00
5198704. -0.3708662E-01  0.9001490E-01
5162222. -0.3712006E-01 -0.7810698E-01
5125741. -0.3619871E-01 -0.2427838E+00
5089259. -0.3435379E-01 -0.4000335E+00
5052778. -0.3163872E-01 -0.5461355E+00
5016296. -0.2812695E-01 -0.6777442E+00
4979815. -0.2391029E-01 -0.7919198E+00
4943333. -0.1909561E-01 -0.8862101E+00
4906852. -0.1380285E-01 -0.9586684E+00
4870370. -0.8160998E-02 -0.1007900E+01
4833889. -0.2306047E-02 -0.1033062E+01
4797407.  0.3623453E-02 -0.1033882E+01
4760926.  0.9488320E-02 -0.1010635E+01
4724444.  0.1515313E-01 -0.9641277E+00
4687963.  0.2048789E-01 -0.8956710E+00
4651482.  0.2537195E-01 -0.8070352E+00
4615000.  0.2969592E-01 -0.7003968E+00
4578518.  0.3336369E-01 -0.5782924E+00
4542037.  0.3629459E-01 -0.4435550E+00
4505556.  0.3842504E-01 -0.2992355E+00
4469074.  0.3970934E-01 -0.1485414E+00
4432593.  0.4012034E-01  0.5220265E-02
4396111.  0.3964999E-01  0.1587422E+00
4359630.  0.3830909E-01  0.3087533E+00
4323148.  0.3612673E-01  0.4521165E+00
4286667.  0.3314969E-01  0.5858591E+00
4250185.  0.2944084E-01  0.7072601E+00
4213704.  0.2507817E-01  0.8138744E+00
4177222.  0.2015233E-01  0.9035986E+00
4140741.  0.1476546E-01  0.9746889E+00
4104259.  0.9028016E-02  0.1025806E+01
4067778.  0.3057534E-02  0.1056018E+01
4031296. -0.3024971E-02  0.1064828E+01
3994815. -0.9096205E-02  0.1052164E+01
3958333. -0.1503434E-01  0.1018375E+01
3921852. -0.2072009E-01  0.9642305E+00
3885370. -0.2604032E-01  0.8908761E+00
3848889. -0.3088890E-01  0.7998263E+00
3812407. -0.3516987E-01  0.6929095E+00
3775926. -0.3879809E-01  0.5722526E+00
3739444. -0.4170172E-01  0.4402074E+00
3702963. -0.4382263E-01  0.2993297E+00
3666482. -0.4511795E-01  0.1523058E+00
3630000. -0.4556042E-01  0.1907293E-02
3630000. -0.4556042E-01  0.1906763E-02
3592500. -0.4511167E-01 -0.1545089E+00
3555000. -0.4374305E-01 -0.3101437E+00
3517500. -0.4146821E-01 -0.4619190E+00
3480000. -0.3831884E-01 -0.6067981E+00
3480000. -0.3831884E-01 -0.9432746E+00
3409422. -0.2439740E-01 -0.1525449E+01
3338844. -0.5657163E-02 -0.1802069E+01
3268266.  0.1426442E-01 -0.1738260E+01
3197688.  0.3169196E-01 -0.1361026E+01
3127109.  0.4354711E-01 -0.7486921E+00
3056531.  0.4782538E-01 -0.1363770E-01
2985953.  0.4386140E-01  0.7183771E+00
2915375.  0.3236168E-01  0.1328641E+01
2844797.  0.1522609E-01  0.1722949E+01
2774219. -0.4797332E-02  0.1843933E+01
2703641. -0.2456031E-01  0.1677189E+01
2633062. -0.4099469E-01  0.1250977E+01
2562484. -0.5155536E-01  0.6301597E+00
2491906. -0.5457199E-01 -0.9436396E-01
2421328. -0.4946450E-01 -0.8189780E+00
2350750. -0.3680517E-01 -0.1441604E+01
2280172. -0.1822618E-01 -0.1875027E+01
2209594.  0.3808200E-02 -0.2057779E+01
2139016.  0.2633074E-01 -0.1961393E+01
2068438.  0.4625764E-01 -0.1593411E+01
1997859.  0.6078343E-01 -0.9959170E+00
1927281.  0.6773641E-01 -0.2401430E+00
1856703.  0.6585657E-01  0.5823280E+00
1786125.  0.5496165E-01  0.1370400E+01
1715547.  0.3598771E-01  0.2025222E+01
1644969.  0.1090074E-01  0.2461488E+01
1574391. -0.1750888E-01  0.2617087E+01
1503812. -0.4592541E-01  0.2460107E+01
1433234. -0.7086429E-01  0.1992523E+01
1362656. -0.8905359E-01  0.1250230E+01
1292078. -0.9779188E-01  0.2995355E+00
1221500. -0.9525142E-01 -0.7694610E+00
1221500. -0.9525142E-01 -0.6931155E+00
1183328. -0.8951877E-01 -0.1220631E+01
1145156. -0.8063593E-01 -0.1742421E+01
1106984. -0.6867738E-01 -0.2245087E+01
1068812. -0.5379736E-01 -0.2715456E+01
1030641. -0.3622798E-01 -0.3140926E+01
 992469. -0.1627278E-01 -0.3509831E+01
 954297.  0.5696583E-02 -0.3811624E+01
 916125.  0.2925017E-01 -0.4037277E+01
 877953.  0.5390881E-01 -0.4179410E+01
 839781.  0.7915466E-01 -0.4232547E+01
 801609.  0.1044431E+00 -0.4193243E+01
 763438.  0.1292147E+00 -0.4060170E+01
 725266.  0.1529103E+00 -0.3834190E+01
 687094.  0.1749806E+00 -0.3518329E+01
 648922.  0.1949015E+00 -0.3117735E+01
 610750.  0.2121858E+00 -0.2639569E+01
 572578.  0.2263948E+00 -0.2092843E+01
 534406.  0.2371489E+00 -0.1488232E+01
 496234.  0.2441370E+00 -0.8378406E+00
 458062.  0.2471239E+00 -0.1549079E+00
 419891.  0.2459567E+00  0.5464306E+00
 381719.  0.2405684E+00  0.1251613E+01
 343547.  0.2309807E+00  0.1945740E+01
 305375.  0.2173040E+00  0.2614150E+01
 267203.  0.1997352E+00  0.3242588E+01
 229031.  0.1785547E+00  0.3817609E+01
 190859.  0.1541200E+00  0.4326907E+01
 152688.  0.1268592E+00  0.4759510E+01
 114516.  0.9725928E-01  0.5106063E+01
  76344.  0.6585999E-01  0.5359063E+01
  38172.  0.3323938E-01  0.5512934E+01
      0.  0.0000000E+00  0.0000000E+00
