       8        0 S        9        134.73380        594.21143         -1.00000        851.32892      185    3
6371000.  0.4705035E-01 -0.3698790E-01
6370000.  0.4705463E-01 -0.1753498E-01
6369000.  0.4705585E-01  0.1925186E-02
6368000.  0.4705402E-01  0.2139135E-01
6368000.  0.4705402E-01  0.2139135E-01
6367000.  0.4704913E-01  0.4086225E-01
6366000.  0.4704119E-01  0.6033663E-01
6365000.  0.4703020E-01  0.7981322E-01
6364000.  0.4701614E-01  0.9929077E-01
6363000.  0.4699903E-01  0.1187680E+00
6362000.  0.4697885E-01  0.1382437E+00
6361000.  0.4695563E-01  0.1577165E+00
6360000.  0.4692934E-01  0.1771852E+00
6359000.  0.4690000E-01  0.1966486E+00
6358000.  0.4686761E-01  0.2161053E+00
6357000.  0.4683217E-01  0.2355541E+00
6356000.  0.4679367E-01  0.2549938E+00
6356000.  0.4679367E-01  0.1581288E+00
6355000.  0.4676774E-01  0.1722558E+00
6354000.  0.4673959E-01  0.1863791E+00
6353000.  0.4670923E-01  0.2004981E+00
6352000.  0.4667665E-01  0.2146121E+00
6351000.  0.4664186E-01  0.2287205E+00
6350000.  0.4660485E-01  0.2428224E+00
6349000.  0.4656563E-01  0.2569174E+00
6348000.  0.4652420E-01  0.2710047E+00
6347000.  0.4648056E-01  0.2850837E+00
6346600.  0.4646248E-01  0.2907127E+00
6346600.  0.4646248E-01  0.1616455E+00
6318800.  0.4514096E-01  0.4439318E+00
6291000.  0.4259496E-01  0.7216123E+00
6291000.  0.4259496E-01  0.7311115E+00
6263000.  0.3878045E-01  0.1001944E+01
6235000.  0.3381879E-01  0.1251817E+01
6207000.  0.2781937E-01  0.1472931E+01
6179000.  0.2092485E-01  0.1657984E+01
6151000.  0.1330853E-01  0.1800373E+01
6151000.  0.1330853E-01  0.1449194E+01
6128500.  0.8120572E-02  0.1485065E+01
6106000.  0.2845862E-02  0.1498366E+01
6083500. -0.2436514E-02  0.1489498E+01
6061000. -0.7649423E-02  0.1459170E+01
6038500. -0.1271877E-01  0.1408385E+01
6016000. -0.1757445E-01  0.1338396E+01
5993500. -0.2215119E-01  0.1250681E+01
5971000. -0.2638932E-01  0.1146928E+01
5971000. -0.2638932E-01  0.1039315E+01
5937667. -0.3132925E-01  0.8468406E+00
5904333. -0.3523419E-01  0.6447940E+00
5871000. -0.3807135E-01  0.4397405E+00
5837667. -0.3984050E-01  0.2374271E+00
5804333. -0.4056922E-01  0.4276221E-01
5771000. -0.4030851E-01 -0.1401750E+00
5771000. -0.4030851E-01 -0.1401728E+00
5701000. -0.3673423E-01 -0.5035675E+00
5701000. -0.3673423E-01 -0.4127980E+00
5667333. -0.3418561E-01 -0.5493440E+00
5633667. -0.3095560E-01 -0.6703973E+00
5600000. -0.2713051E-01 -0.7742791E+00
5600000. -0.2713051E-01 -0.7742785E+00
5563518. -0.2240486E-01 -0.8728134E+00
5527037. -0.1717562E-01 -0.9499871E+00
5490556. -0.1156843E-01 -0.1004676E+01
5454074. -0.5713879E-02 -0.1036274E+01
5417593.  0.2549546E-03 -0.1044670E+01
5381111.  0.6206373E-02 -0.1030235E+01
5344630.  0.1201149E-01 -0.9938016E+00
5308148.  0.1754804E-01 -0.9366148E+00
5271667.  0.2270134E-01 -0.8602953E+00
5235185.  0.2736756E-01 -0.7667901E+00
5198704.  0.3145431E-01 -0.6583364E+00
5162222.  0.3488315E-01 -0.5373880E+00
5125741.  0.3758981E-01 -0.4065811E+00
5089259.  0.3952583E-01 -0.2686607E+00
5052778.  0.4065841E-01 -0.1264482E+00
5016296.  0.4097112E-01  0.1723903E-01
4979815.  0.4046351E-01  0.1596090E+00
4943333.  0.3915086E-01  0.2979751E+00
4906852.  0.3706357E-01  0.4297700E+00
4870370.  0.3424607E-01  0.5526165E+00
4833889.  0.3075609E-01  0.6643380E+00
4797407.  0.2666276E-01  0.7630166E+00
4760926.  0.2204587E-01  0.8469937E+00
4724444.  0.1699337E-01  0.9149147E+00
4687963.  0.1160066E-01  0.9657241E+00
4651482.  0.5967807E-02  0.9986964E+00
4615000.  0.1981091E-03  0.1013425E+01
4578518. -0.5603419E-02  0.1009827E+01
4542037. -0.1133220E-01  0.9881393E+00
4505556. -0.1688624E-01  0.9489045E+00
4469074. -0.2216743E-01  0.8929549E+00
4432593. -0.2708284E-01  0.8213960E+00
4396111. -0.3154708E-01  0.7355748E+00
4359630. -0.3548266E-01  0.6370697E+00
4323148. -0.3882211E-01  0.5276338E+00
4286667. -0.4150810E-01  0.4091921E+00
4250185. -0.4349498E-01  0.2837787E+00
4213704. -0.4474880E-01  0.1535302E+00
4177222. -0.4524815E-01  0.2062036E-01
4140741. -0.4498409E-01 -0.1127456E+00
4104259. -0.4396021E-01 -0.2443963E+00
4067778. -0.4219254E-01 -0.3721995E+00
4031296. -0.3970888E-01 -0.4941226E+00
3994815. -0.3654861E-01 -0.6082369E+00
3958333. -0.3276144E-01 -0.7127678E+00
3921852. -0.2840714E-01 -0.8061054E+00
3885370. -0.2355372E-01 -0.8868373E+00
3848889. -0.1827718E-01 -0.9537535E+00
3812407. -0.1265927E-01 -0.1005876E+01
3775926. -0.6787232E-02 -0.1042463E+01
3739444. -0.7512483E-03 -0.1063020E+01
3702963.  0.5355712E-02 -0.1067292E+01
3666482.  0.1144046E-01 -0.1055282E+01
3630000.  0.1741050E-01 -0.1027227E+01
3630000.  0.1741050E-01 -0.1027224E+01
3592500.  0.2334735E-01 -0.9872644E+00
3555000.  0.2900038E-01 -0.9308732E+00
3517500.  0.3427472E-01 -0.8587292E+00
3480000.  0.3908030E-01 -0.7717669E+00
3480000.  0.3908030E-01 -0.1290690E+01
3409422.  0.4984492E-01 -0.6299871E+00
3338844.  0.5274444E-01  0.1102204E+00
3268266.  0.4752574E-01  0.8176041E+00
3197688.  0.3512044E-01  0.1392907E+01
3127109.  0.1743093E-01  0.1761667E+01
3056531. -0.2987674E-02  0.1881463E+01
2985953. -0.2330255E-01  0.1744489E+01
2915375. -0.4077934E-01  0.1375746E+01
2844797. -0.5311898E-01  0.8276706E+00
2774219. -0.5871920E-01  0.1721426E+00
2703641. -0.5683856E-01 -0.5089481E+00
2633062. -0.4765271E-01 -0.1133491E+01
2562484. -0.3220631E-01 -0.1628190E+01
2491906. -0.1227073E-01 -0.1936163E+01
2421328.  0.9869092E-02 -0.2022295E+01
2350750.  0.3167441E-01 -0.1876139E+01
2280172.  0.5062974E-01 -0.1512178E+01
2209594.  0.6450929E-01 -0.9676785E+00
2139016.  0.7160736E-01 -0.2984147E+00
2068438.  0.7091223E-01  0.4271805E+00
1997859.  0.6220895E-01  0.1134853E+01
1927281.  0.4610488E-01  0.1751651E+01
1856703.  0.2397594E-01  0.2212777E+01
1786125. -0.2156958E-02  0.2467497E+01
1715547. -0.2981033E-01  0.2483643E+01
1644969. -0.5626101E-01  0.2250427E+01
1574391. -0.7878982E-01  0.1779342E+01
1503812. -0.9492460E-01  0.1103130E+01
1433234. -0.1026610E+00  0.2730248E+00
1362656. -0.1006458E+00 -0.6455994E+00
1292078. -0.8830368E-01 -0.1578592E+01
1221500. -0.6590181E-01 -0.2449053E+01
1221500. -0.6590181E-01 -0.2101839E+01
1183328. -0.5216944E-01 -0.2477038E+01
1145156. -0.3628745E-01 -0.2818073E+01
1106984. -0.1848350E-01 -0.3117387E+01
1068812.  0.9715168E-03 -0.3368129E+01
1030641.  0.2176764E-01 -0.3564321E+01
 992469.  0.4356375E-01 -0.3700997E+01
 954297.  0.6599036E-01 -0.3774231E+01
 916125.  0.8865866E-01 -0.3781323E+01
 877953.  0.1111672E+00 -0.3720763E+01
 839781.  0.1331094E+00 -0.3592323E+01
 801609.  0.1540809E+00 -0.3397050E+01
 763438.  0.1736872E+00 -0.3137251E+01
 725266.  0.1915526E+00 -0.2816447E+01
 687094.  0.2073245E+00 -0.2439325E+01
 648922.  0.2206824E+00 -0.2011661E+01
 610750.  0.2313430E+00 -0.1540196E+01
 572578.  0.2390665E+00 -0.1032526E+01
 534406.  0.2436603E+00 -0.4969656E+00
 496234.  0.2449838E+00  0.5759305E-01
 458062.  0.2429508E+00  0.6218768E+00
 419891.  0.2375318E+00  0.1186331E+01
 381719.  0.2287539E+00  0.1741436E+01
 343547.  0.2167019E+00  0.2277660E+01
 305375.  0.2015166E+00  0.2785852E+01
 267203.  0.1833925E+00  0.3257252E+01
 229031.  0.1625746E+00  0.3683728E+01
 190859.  0.1393546E+00  0.4057938E+01
 152688.  0.1140662E+00  0.4373396E+01
 114516.  0.8707710E-01  0.4624605E+01
  76344.  0.5878652E-01  0.4807192E+01
  38172.  0.2961585E-01  0.4917892E+01
      0.  0.0000000E+00  0.0000000E+00
