       0        0 S        1       1228.40198         65.17436         -1.00000       5340.67285      185    3
6371000.  0.4206128E+00 -0.3313681E+00
6370000.  0.4206646E+00 -0.3290202E+00
6369000.  0.4207160E+00 -0.3266712E+00
6368000.  0.4207671E+00 -0.3243211E+00
6368000.  0.4207671E+00 -0.3243211E+00
6367000.  0.4208179E+00 -0.3219700E+00
6366000.  0.4208682E+00 -0.3196177E+00
6365000.  0.4209182E+00 -0.3172643E+00
6364000.  0.4209678E+00 -0.3149098E+00
6363000.  0.4210171E+00 -0.3125543E+00
6362000.  0.4210659E+00 -0.3101976E+00
6361000.  0.4211144E+00 -0.3078399E+00
6360000.  0.4211625E+00 -0.3054810E+00
6359000.  0.4212103E+00 -0.3031211E+00
6358000.  0.4212577E+00 -0.3007601E+00
6357000.  0.4213047E+00 -0.2983980E+00
6356000.  0.4213514E+00 -0.2960348E+00
6356000.  0.4213514E+00 -0.2673883E+00
6355000.  0.4213932E+00 -0.2657204E+00
6354000.  0.4214348E+00 -0.2640518E+00
6353000.  0.4214761E+00 -0.2623825E+00
6352000.  0.4215172E+00 -0.2607125E+00
6351000.  0.4215580E+00 -0.2590417E+00
6350000.  0.4215985E+00 -0.2573702E+00
6349000.  0.4216388E+00 -0.2556980E+00
6348000.  0.4216788E+00 -0.2540251E+00
6347000.  0.4217185E+00 -0.2523514E+00
6346600.  0.4217343E+00 -0.2516817E+00
6346600.  0.4217343E+00 -0.3143191E+00
6318800.  0.4230399E+00 -0.2839084E+00
6291000.  0.4242105E+00 -0.2524514E+00
6291000.  0.4242105E+00 -0.2667427E+00
6263000.  0.4253097E+00 -0.2333259E+00
6235000.  0.4262596E+00 -0.1987764E+00
6207000.  0.4270552E+00 -0.1630732E+00
6179000.  0.4276913E+00 -0.1261929E+00
6151000.  0.4281627E+00 -0.8811758E-01
6151000.  0.4281627E+00 -0.1403398E+00
6128500.  0.4286260E+00 -0.1221753E+00
6106000.  0.4290259E+00 -0.1044042E+00
6083500.  0.4293637E+00 -0.8702296E-01
6061000.  0.4296409E+00 -0.7002506E-01
6038500.  0.4298586E+00 -0.5340137E-01
6016000.  0.4300183E+00 -0.3714855E-01
5993500.  0.4301213E+00 -0.2126053E-01
5971000.  0.4301688E+00 -0.5727028E-02
5971000.  0.4301688E+00 -0.3478630E-01
5937667.  0.4303142E+00 -0.2103504E-01
5904333.  0.4303918E+00 -0.8847002E-02
5871000.  0.4304094E+00  0.1904106E-02
5837667.  0.4303743E+00  0.1133397E-01
5804333.  0.4302930E+00  0.1955030E-01
5771000.  0.4301718E+00  0.2664351E-01
5771000.  0.4301718E+00  0.2659972E-01
5701000.  0.4296647E+00  0.6545851E-01
5701000.  0.4296647E+00  0.1098257E-01
5667333.  0.4295556E+00  0.3030803E-01
5633667.  0.4293459E+00  0.4905818E-01
5600000.  0.4290386E+00  0.6725737E-01
5600000.  0.4290386E+00  0.6722936E-01
5563518.  0.4286190E+00  0.7926556E-01
5527037.  0.4281312E+00  0.9102160E-01
5490556.  0.4275770E+00  0.1025078E+00
5454074.  0.4269576E+00  0.1137414E+00
5417593.  0.4262747E+00  0.1247358E+00
5381111.  0.4255294E+00  0.1354977E+00
5344630.  0.4247232E+00  0.1460407E+00
5308148.  0.4238572E+00  0.1563740E+00
5271667.  0.4229326E+00  0.1665063E+00
5235185.  0.4219505E+00  0.1764450E+00
5198704.  0.4209121E+00  0.1861976E+00
5162222.  0.4198184E+00  0.1957733E+00
5125741.  0.4186703E+00  0.2051729E+00
5089259.  0.4174689E+00  0.2144065E+00
5052778.  0.4162151E+00  0.2234749E+00
5016296.  0.4149098E+00  0.2323859E+00
4979815.  0.4135539E+00  0.2411426E+00
4943333.  0.4121483E+00  0.2497492E+00
4906852.  0.4106939E+00  0.2582062E+00
4870370.  0.4091914E+00  0.2665148E+00
4833889.  0.4076419E+00  0.2746812E+00
4797407.  0.4060459E+00  0.2827047E+00
4760926.  0.4044044E+00  0.2905857E+00
4724444.  0.4027182E+00  0.2983278E+00
4687963.  0.4009881E+00  0.3059269E+00
4651482.  0.3992148E+00  0.3133869E+00
4615000.  0.3973992E+00  0.3207062E+00
4578518.  0.3955421E+00  0.3278827E+00
4542037.  0.3936444E+00  0.3349189E+00
4505556.  0.3917068E+00  0.3418113E+00
4469074.  0.3897301E+00  0.3485610E+00
4432593.  0.3877152E+00  0.3551625E+00
4396111.  0.3856629E+00  0.3616134E+00
4359630.  0.3835741E+00  0.3679163E+00
4323148.  0.3814496E+00  0.3740674E+00
4286667.  0.3792904E+00  0.3800602E+00
4250185.  0.3770972E+00  0.3858941E+00
4213704.  0.3748712E+00  0.3915658E+00
4177222.  0.3726132E+00  0.3970723E+00
4140741.  0.3703241E+00  0.4024088E+00
4104259.  0.3680049E+00  0.4075716E+00
4067778.  0.3656567E+00  0.4125575E+00
4031296.  0.3632804E+00  0.4173604E+00
3994815.  0.3608772E+00  0.4219787E+00
3958333.  0.3584481E+00  0.4264003E+00
3921852.  0.3559943E+00  0.4306303E+00
3885370.  0.3535167E+00  0.4346607E+00
3848889.  0.3510167E+00  0.4384823E+00
3812407.  0.3484954E+00  0.4420883E+00
3775926.  0.3459541E+00  0.4454794E+00
3739444.  0.3433940E+00  0.4486466E+00
3702963.  0.3408165E+00  0.4515818E+00
3666482.  0.3382228E+00  0.4542831E+00
3630000.  0.3356143E+00  0.4567394E+00
3630000.  0.3356143E+00  0.4567420E+00
3592500.  0.3329023E+00  0.4647366E+00
3555000.  0.3301434E+00  0.4726959E+00
3517500.  0.3273377E+00  0.4806235E+00
3480000.  0.3244855E+00  0.4885211E+00
3480000.  0.3244855E+00  0.4551645E+00
3409422.  0.3193758E+00  0.4671783E+00
3338844.  0.3141379E+00  0.4783138E+00
3268266.  0.3087810E+00  0.4886873E+00
3197688.  0.3033129E+00  0.4984117E+00
3127109.  0.2977402E+00  0.5075684E+00
3056531.  0.2920690E+00  0.5162343E+00
2985953.  0.2863041E+00  0.5244700E+00
2915375.  0.2804502E+00  0.5323244E+00
2844797.  0.2745112E+00  0.5398454E+00
2774219.  0.2684905E+00  0.5470639E+00
2703641.  0.2623914E+00  0.5540080E+00
2633062.  0.2562167E+00  0.5607082E+00
2562484.  0.2499691E+00  0.5671766E+00
2491906.  0.2436511E+00  0.5734254E+00
2421328.  0.2372651E+00  0.5794629E+00
2350750.  0.2308132E+00  0.5853046E+00
2280172.  0.2242978E+00  0.5909479E+00
2209594.  0.2177209E+00  0.5963949E+00
2139016.  0.2110848E+00  0.6016396E+00
2068438.  0.2043917E+00  0.6066894E+00
1997859.  0.1976437E+00  0.6115264E+00
1927281.  0.1908433E+00  0.6161560E+00
1856703.  0.1839930E+00  0.6205617E+00
1786125.  0.1770950E+00  0.6247432E+00
1715547.  0.1701520E+00  0.6286927E+00
1644969.  0.1631666E+00  0.6324028E+00
1574391.  0.1561414E+00  0.6358657E+00
1503812.  0.1490791E+00  0.6390798E+00
1433234.  0.1419827E+00  0.6420438E+00
1362656.  0.1348549E+00  0.6447643E+00
1292078.  0.1276982E+00  0.6472554E+00
1221500.  0.1205151E+00  0.6495363E+00
1221500.  0.1205151E+00  0.6044647E+00
1183328.  0.1168865E+00  0.6067418E+00
1145156.  0.1132446E+00  0.6089353E+00
1106984.  0.1095898E+00  0.6110520E+00
1068812.  0.1059226E+00  0.6130889E+00
1030641.  0.1022434E+00  0.6150456E+00
 992469.  0.9855269E-01  0.6169303E+00
 954297.  0.9485091E-01  0.6187305E+00
 916125.  0.9113856E-01  0.6204625E+00
 877953.  0.8741606E-01  0.6221147E+00
 839781.  0.8368389E-01  0.6236939E+00
 801609.  0.7994247E-01  0.6251993E+00
 763438.  0.7619236E-01  0.6266294E+00
 725266.  0.7243380E-01  0.6279852E+00
 687094.  0.6866732E-01  0.6292730E+00
 648922.  0.6489336E-01  0.6304844E+00
 610750.  0.6111235E-01  0.6316256E+00
 572578.  0.5732471E-01  0.6326973E+00
 534406.  0.5353086E-01  0.6336988E+00
 496234.  0.4973122E-01  0.6346268E+00
 458062.  0.4592624E-01  0.6354864E+00
 419891.  0.4211641E-01  0.6362728E+00
 381719.  0.3830198E-01  0.6369949E+00
 343547.  0.3448343E-01  0.6376428E+00
 305375.  0.3066121E-01  0.6382250E+00
 267203.  0.2683570E-01  0.6387370E+00
 229031.  0.2300733E-01  0.6391788E+00
 190859.  0.1917652E-01  0.6395547E+00
 152688.  0.1534375E-01  0.6398646E+00
 114516.  0.1150924E-01  0.6401024E+00
  76344.  0.7673521E-02  0.6402680E+00
  38172.  0.3837034E-02  0.6403496E+00
      0.  0.0000000E+00  0.0000000E+00
