       2        0 S        3        398.46201        200.92340         -1.00000       1240.07104      185    3
6371000.  0.1496580E+00 -0.1177752E+00
6370000.  0.1496760E+00 -0.1106163E+00
6369000.  0.1496927E+00 -0.1034542E+00
6368000.  0.1497084E+00 -0.9628917E-01
6368000.  0.1497084E+00 -0.9628917E-01
6367000.  0.1497230E+00 -0.8912110E-01
6366000.  0.1497364E+00 -0.8195007E-01
6365000.  0.1497487E+00 -0.7477615E-01
6364000.  0.1497599E+00 -0.6759938E-01
6363000.  0.1497699E+00 -0.6041982E-01
6362000.  0.1497788E+00 -0.5323752E-01
6361000.  0.1497866E+00 -0.4605254E-01
6360000.  0.1497933E+00 -0.3886492E-01
6359000.  0.1497988E+00 -0.3167472E-01
6358000.  0.1498032E+00 -0.2448200E-01
6357000.  0.1498065E+00 -0.1728679E-01
6356000.  0.1498087E+00 -0.1008917E-01
6356000.  0.1498087E+00 -0.3293731E-01
6355000.  0.1498134E+00 -0.2771903E-01
6354000.  0.1498174E+00 -0.2249895E-01
6353000.  0.1498205E+00 -0.1727709E-01
6352000.  0.1498228E+00 -0.1205348E-01
6351000.  0.1498243E+00 -0.6828143E-02
6350000.  0.1498249E+00 -0.1601109E-02
6349000.  0.1498248E+00  0.3627594E-02
6348000.  0.1498238E+00  0.8857938E-02
6347000.  0.1498220E+00  0.1408990E-01
6346600.  0.1498210E+00  0.1618313E-01
6346600.  0.1498210E+00 -0.4653899E-01
6318800.  0.1497958E+00  0.5856593E-01
6291000.  0.1493062E+00  0.1662427E+00
6291000.  0.1493062E+00  0.1664113E+00
6263000.  0.1483281E+00  0.2790857E+00
6235000.  0.1468500E+00  0.3938289E+00
6207000.  0.1448638E+00  0.5103155E+00
6179000.  0.1423624E+00  0.6282026E+00
6151000.  0.1393405E+00  0.7471145E+00
6151000.  0.1393405E+00  0.5785303E+00
6128500.  0.1371872E+00  0.6405504E+00
6106000.  0.1348187E+00  0.7004584E+00
6083500.  0.1322423E+00  0.7582108E+00
6061000.  0.1294658E+00  0.8137693E+00
6038500.  0.1264971E+00  0.8671084E+00
6016000.  0.1233440E+00  0.9182006E+00
5993500.  0.1200144E+00  0.9670222E+00
5971000.  0.1165164E+00  0.1013566E+01
5971000.  0.1165164E+00  0.9089312E+00
5937667.  0.1116714E+00  0.9421412E+00
5904333.  0.1066675E+00  0.9696583E+00
5871000.  0.1015337E+00  0.9919666E+00
5837667.  0.9629584E-01  0.1009522E+01
5804333.  0.9097742E-01  0.1022755E+01
5771000.  0.8560040E-01  0.1032050E+01
5771000.  0.8560040E-01  0.1032055E+01
5701000.  0.7379314E-01  0.1114991E+01
5701000.  0.7379314E-01  0.9138970E+00
5667333.  0.6890626E-01  0.9351303E+00
5633667.  0.6391468E-01  0.9535974E+00
5600000.  0.5883244E-01  0.9693994E+00
5600000.  0.5883244E-01  0.9693971E+00
5563518.  0.5321894E-01  0.9908170E+00
5527037.  0.4749007E-01  0.1009755E+01
5490556.  0.4165978E-01  0.1026248E+01
5454074.  0.3574177E-01  0.1040340E+01
5417593.  0.2975002E-01  0.1052068E+01
5381111.  0.2369764E-01  0.1061470E+01
5344630.  0.1759814E-01  0.1068588E+01
5308148.  0.1146413E-01  0.1073470E+01
5271667.  0.5308654E-02  0.1076153E+01
5235185. -0.8561643E-03  0.1076681E+01
5198704. -0.7017772E-02  0.1075099E+01
5162222. -0.1316456E-01  0.1071453E+01
5125741. -0.1928450E-01  0.1065786E+01
5089259. -0.2536648E-01  0.1058146E+01
5052778. -0.3139902E-01  0.1048580E+01
5016296. -0.3737154E-01  0.1037136E+01
4979815. -0.4327310E-01  0.1023862E+01
4943333. -0.4909370E-01  0.1008807E+01
4906852. -0.5482296E-01  0.9920222E+00
4870370. -0.6045141E-01  0.9735566E+00
4833889. -0.6596930E-01  0.9534619E+00
4797407. -0.7136773E-01  0.9317920E+00
4760926. -0.7663754E-01  0.9086004E+00
4724444. -0.8177047E-01  0.8839391E+00
4687963. -0.8675797E-01  0.8578634E+00
4651482. -0.9159224E-01  0.8304293E+00
4615000. -0.9626580E-01  0.8016918E+00
4578518. -0.1007712E+00  0.7717074E+00
4542037. -0.1051013E+00  0.7405356E+00
4505556. -0.1092497E+00  0.7082333E+00
4469074. -0.1132102E+00  0.6748584E+00
4432593. -0.1169765E+00  0.6404714E+00
4396111. -0.1205432E+00  0.6051298E+00
4359630. -0.1239049E+00  0.5688970E+00
4323148. -0.1270568E+00  0.5318298E+00
4286667. -0.1299941E+00  0.4939928E+00
4250185. -0.1327128E+00  0.4554437E+00
4213704. -0.1352087E+00  0.4162468E+00
4177222. -0.1374786E+00  0.3764603E+00
4140741. -0.1395191E+00  0.3361486E+00
4104259. -0.1413274E+00  0.2953713E+00
4067778. -0.1429009E+00  0.2541910E+00
4031296. -0.1442378E+00  0.2126673E+00
3994815. -0.1453359E+00  0.1708626E+00
3958333. -0.1461941E+00  0.1288366E+00
3921852. -0.1468111E+00  0.8664893E-01
3885370. -0.1471862E+00  0.4435692E-01
3848889. -0.1473190E+00  0.2022930E-02
3812407. -0.1472093E+00 -0.4029753E-01
3775926. -0.1468576E+00 -0.8254775E-01
3739444. -0.1462642E+00 -0.1246733E+00
3702963. -0.1454301E+00 -0.1666169E+00
3666482. -0.1443565E+00 -0.2083284E+00
3630000. -0.1430448E+00 -0.2497554E+00
3630000. -0.1430448E+00 -0.2497563E+00
3592500. -0.1414418E+00 -0.2949475E+00
3555000. -0.1395723E+00 -0.3402729E+00
3517500. -0.1374359E+00 -0.3856805E+00
3480000. -0.1350320E+00 -0.4311183E+00
3480000. -0.1350320E+00 -0.5580940E+00
3409422. -0.1277012E+00 -0.7627111E+00
3338844. -0.1181951E+00 -0.9506332E+00
3268266. -0.1067041E+00 -0.1120925E+01
3197688. -0.9342740E-01 -0.1272923E+01
3127109. -0.7857019E-01 -0.1406175E+01
3056531. -0.6234214E-01 -0.1520427E+01
2985953. -0.4495407E-01 -0.1615599E+01
2915375. -0.2661711E-01 -0.1691761E+01
2844797. -0.7540803E-02 -0.1749124E+01
2774219.  0.1206826E-01 -0.1788008E+01
2703641.  0.3200770E-01 -0.1808849E+01
2633062.  0.5208079E-01 -0.1812184E+01
2562484.  0.7209638E-01 -0.1798626E+01
2491906.  0.9187138E-01 -0.1768873E+01
2421328.  0.1112306E+00 -0.1723695E+01
2350750.  0.1300078E+00 -0.1663935E+01
2280172.  0.1480462E+00 -0.1590483E+01
2209594.  0.1651995E+00 -0.1504291E+01
2139016.  0.1813319E+00 -0.1406357E+01
2068438.  0.1963192E+00 -0.1297725E+01
1997859.  0.2100490E+00 -0.1179474E+01
1927281.  0.2224205E+00 -0.1052722E+01
1856703.  0.2333460E+00 -0.9186133E+00
1786125.  0.2427504E+00 -0.7783148E+00
1715547.  0.2505718E+00 -0.6330124E+00
1644969.  0.2567614E+00 -0.4839071E+00
1574391.  0.2612837E+00 -0.3322110E+00
1503812.  0.2641168E+00 -0.1791363E+00
1433234.  0.2652521E+00 -0.2590531E-01
1362656.  0.2646947E+00  0.1262707E+00
1292078.  0.2624629E+00  0.2761813E+00
1221500.  0.2585885E+00  0.4226088E+00
1221500.  0.2585885E+00  0.4720341E+00
1183328.  0.2555428E+00  0.5444912E+00
1145156.  0.2520659E+00  0.6159551E+00
1106984.  0.2481641E+00  0.6863161E+00
1068812.  0.2438443E+00  0.7554501E+00
1030641.  0.2391144E+00  0.8232383E+00
 992469.  0.2339825E+00  0.8895872E+00
 954297.  0.2284577E+00  0.9543603E+00
 916125.  0.2225497E+00  0.1017485E+01
 877953.  0.2162688E+00  0.1078833E+01
 839781.  0.2096258E+00  0.1138321E+01
 801609.  0.2026322E+00  0.1195849E+01
 763438.  0.1953002E+00  0.1251321E+01
 725266.  0.1876421E+00  0.1304654E+01
 687094.  0.1796710E+00  0.1355776E+01
 648922.  0.1714004E+00  0.1404587E+01
 610750.  0.1628445E+00  0.1451023E+01
 572578.  0.1540176E+00  0.1495015E+01
 534406.  0.1449347E+00  0.1536493E+01
 496234.  0.1356110E+00  0.1575382E+01
 458062.  0.1260621E+00  0.1611636E+01
 419891.  0.1163044E+00  0.1645185E+01
 381719.  0.1063535E+00  0.1676003E+01
 343547.  0.9622637E-01  0.1704015E+01
 305375.  0.8593986E-01  0.1729202E+01
 267203.  0.7551103E-01  0.1751511E+01
 229031.  0.6495724E-01  0.1770910E+01
 190859.  0.5429598E-01  0.1787380E+01
 152688.  0.4354516E-01  0.1800897E+01
 114516.  0.3272201E-01  0.1811422E+01
  76344.  0.2184481E-01  0.1818939E+01
  38172.  0.1093164E-01  0.1823404E+01
      0.  0.0000000E+00  0.0000000E+00
