       5        0 S        6        204.82300        390.87589         -1.00000        920.09833      185    3
6371000. -0.8418651E-01  0.6620882E-01
6370000. -0.8419572E-01  0.5111561E-01
6369000. -0.8420256E-01  0.3601620E-01
6368000. -0.8420703E-01  0.2091102E-01
6368000. -0.8420703E-01  0.2091102E-01
6367000. -0.8420912E-01  0.5800491E-02
6366000. -0.8420885E-01 -0.9314965E-02
6365000. -0.8420620E-01 -0.2443492E-01
6364000. -0.8420117E-01 -0.3955897E-01
6363000. -0.8419378E-01 -0.5468666E-01
6362000. -0.8418401E-01 -0.6981760E-01
6361000. -0.8417186E-01 -0.8495133E-01
6360000. -0.8415734E-01 -0.1000875E+00
6359000. -0.8414044E-01 -0.1152256E+00
6358000. -0.8412117E-01 -0.1303652E+00
6357000. -0.8409952E-01 -0.1455059E+00
6356000. -0.8407549E-01 -0.1606473E+00
6356000. -0.8407549E-01 -0.9002501E-01
6355000. -0.8406050E-01 -0.1010278E+00
6354000. -0.8404378E-01 -0.1120320E+00
6353000. -0.8402532E-01 -0.1230374E+00
6352000. -0.8400515E-01 -0.1340437E+00
6351000. -0.8398325E-01 -0.1450507E+00
6350000. -0.8395962E-01 -0.1560583E+00
6349000. -0.8393425E-01 -0.1670662E+00
6348000. -0.8390717E-01 -0.1780741E+00
6347000. -0.8387835E-01 -0.1890819E+00
6346600. -0.8386634E-01 -0.1934849E+00
6346600. -0.8386634E-01 -0.8761948E-01
6318800. -0.8300062E-01 -0.3097479E+00
6291000. -0.8116005E-01 -0.5340112E+00
6291000. -0.8116005E-01 -0.5408586E+00
6263000. -0.7827955E-01 -0.7696500E+00
6235000. -0.7439994E-01 -0.9950461E+00
6207000. -0.6954253E-01 -0.1214131E+01
6179000. -0.6374153E-01 -0.1423947E+01
6151000. -0.5704425E-01 -0.1621503E+01
6151000. -0.5704425E-01 -0.1296996E+01
6128500. -0.5229912E-01 -0.1388554E+01
6106000. -0.4724890E-01 -0.1469730E+01
6083500. -0.4193069E-01 -0.1540286E+01
6061000. -0.3638232E-01 -0.1600055E+01
6038500. -0.3064204E-01 -0.1648959E+01
6016000. -0.2474827E-01 -0.1686982E+01
5993500. -0.1873939E-01 -0.1714168E+01
5971000. -0.1265344E-01 -0.1730650E+01
5971000. -0.1265344E-01 -0.1564712E+01
5937667. -0.4556640E-02 -0.1527544E+01
5904333.  0.3303664E-02 -0.1474622E+01
5871000.  0.1085075E-01 -0.1408279E+01
5837667.  0.1802043E-01 -0.1330714E+01
5804333.  0.2475967E-01 -0.1243993E+01
5771000.  0.3102521E-01 -0.1150021E+01
5771000.  0.3102521E-01 -0.1150039E+01
5701000.  0.4287265E-01 -0.9992969E+00
5701000.  0.4287265E-01 -0.8305950E+00
5667333.  0.4703224E-01 -0.7429096E+00
5633667.  0.5071770E-01 -0.6513615E+00
5600000.  0.5391145E-01 -0.5569400E+00
5600000.  0.5391145E-01 -0.5569445E+00
5563518.  0.5681685E-01 -0.4572750E+00
5527037.  0.5914290E-01 -0.3547861E+00
5490556.  0.6087639E-01 -0.2504667E+00
5454074.  0.6200964E-01 -0.1452837E+00
5417593.  0.6254037E-01 -0.4018256E-01
5381111.  0.6247168E-01  0.6393442E-01
5344630.  0.6181172E-01  0.1661929E+00
5308148.  0.6057348E-01  0.2657734E+00
5271667.  0.5877462E-01  0.3618912E+00
5235185.  0.5643696E-01  0.4538228E+00
5198704.  0.5358659E-01  0.5408891E+00
5162222.  0.5025298E-01  0.6224781E+00
5125741.  0.4646933E-01  0.6980221E+00
5089259.  0.4227148E-01  0.7670281E+00
5052778.  0.3769842E-01  0.8290523E+00
5016296.  0.3279095E-01  0.8837235E+00
4979815.  0.2759239E-01  0.9307259E+00
4943333.  0.2214710E-01  0.9698116E+00
4906852.  0.1650129E-01  0.1000792E+01
4870370.  0.1070142E-01  0.1023545E+01
4833889.  0.4795169E-02  0.1038004E+01
4797407. -0.1170291E-02  0.1044172E+01
4760926. -0.7147283E-02  0.1042103E+01
4724444. -0.1308927E-01  0.1031911E+01
4687963. -0.1894986E-01  0.1013763E+01
4651482. -0.2468427E-01  0.9878825E+00
4615000. -0.3024914E-01  0.9545388E+00
4578518. -0.3560245E-01  0.9140490E+00
4542037. -0.4070418E-01  0.8667787E+00
4505556. -0.4551676E-01  0.8131288E+00
4469074. -0.5000503E-01  0.7535385E+00
4432593. -0.5413608E-01  0.6884836E+00
4396111. -0.5788027E-01  0.6184642E+00
4359630. -0.6121048E-01  0.5440166E+00
4323148. -0.6410309E-01  0.4656871E+00
4286667. -0.6653737E-01  0.3840520E+00
4250185. -0.6849615E-01  0.2996914E+00
4213704. -0.6996547E-01  0.2132061E+00
4177222. -0.7093492E-01  0.1251927E+00
4140741. -0.7139746E-01  0.3626094E-01
4104259. -0.7134956E-01 -0.5299114E-01
4067778. -0.7079113E-01 -0.1419615E+00
4031296. -0.6972540E-01 -0.2300662E+00
3994815. -0.6815909E-01 -0.3167255E+00
3958333. -0.6610197E-01 -0.4013826E+00
3921852. -0.6356718E-01 -0.4834962E+00
3885370. -0.6057063E-01 -0.5625527E+00
3848889. -0.5713143E-01 -0.6380554E+00
3812407. -0.5327106E-01 -0.7095441E+00
3775926. -0.4901399E-01 -0.7765854E+00
3739444. -0.4438659E-01 -0.8387833E+00
3702963. -0.3941793E-01 -0.8957690E+00
3666482. -0.3413866E-01 -0.9472201E+00
3630000. -0.2858117E-01 -0.9928445E+00
3630000. -0.2858117E-01 -0.9928420E+00
3592500. -0.2259775E-01 -0.1039230E+01
3555000. -0.1635966E-01 -0.1079318E+01
3517500. -0.9904969E-02 -0.1112773E+01
3480000. -0.3273607E-02 -0.1139306E+01
3480000. -0.3273607E-02 -0.1841553E+01
3409422.  0.1700567E-01 -0.1799467E+01
3338844.  0.3617055E-01 -0.1642517E+01
3268266.  0.5302996E-01 -0.1386222E+01
3197688.  0.6658923E-01 -0.1050268E+01
3127109.  0.7608827E-01 -0.6570662E+00
3056531.  0.8102392E-01 -0.2304436E+00
2985953.  0.8115920E-01  0.2056322E+00
2915375.  0.7651832E-01  0.6281239E+00
2844797.  0.6737109E-01  0.1015872E+01
2774219.  0.5420772E-01  0.1350355E+01
2703641.  0.3770620E-01  0.1616282E+01
2633062.  0.1869367E-01  0.1802019E+01
2562484. -0.1894366E-02  0.1899805E+01
2491906. -0.2305927E-01  0.1905866E+01
2421328. -0.4378211E-01  0.1820339E+01
2350750. -0.6306637E-01  0.1647085E+01
2280172. -0.7997741E-01  0.1393354E+01
2209594. -0.9367791E-01  0.1069394E+01
2139016. -0.1034584E+00  0.6879531E+00
2068438. -0.1087621E+00  0.2637328E+00
1997859. -0.1092029E+00 -0.1872063E+00
1927281. -0.1045778E+00 -0.6480315E+00
1856703. -0.9487136E-01 -0.1101769E+01
1786125. -0.8025434E-01 -0.1531888E+01
1715547. -0.6107564E-01 -0.1922842E+01
1644969. -0.3784857E-01 -0.2260578E+01
1574391. -0.1123180E-01 -0.2532973E+01
1503812.  0.1799456E-01 -0.2730201E+01
1433234.  0.4895429E-01 -0.2845003E+01
1362656.  0.8070720E-01 -0.2872889E+01
1292078.  0.1122787E+00 -0.2812221E+01
1221500.  0.1426919E+00 -0.2664209E+01
1221500.  0.1426919E+00 -0.2193424E+01
1183328.  0.1555279E+00 -0.2088283E+01
1145156.  0.1676816E+00 -0.1965816E+01
1106984.  0.1790517E+00 -0.1826861E+01
1068812.  0.1895422E+00 -0.1672384E+01
1030641.  0.1990632E+00 -0.1503478E+01
 992469.  0.2075320E+00 -0.1321327E+01
 954297.  0.2148731E+00 -0.1127244E+01
 916125.  0.2210190E+00 -0.9226071E+00
 877953.  0.2259108E+00 -0.7089028E+00
 839781.  0.2294989E+00 -0.4876617E+00
 801609.  0.2317428E+00 -0.2604869E+00
 763438.  0.2326119E+00 -0.2902795E-01
 725266.  0.2320855E+00  0.2050491E+00
 687094.  0.2301531E+00  0.4400584E+00
 648922.  0.2268140E+00  0.6742759E+00
 610750.  0.2220782E+00  0.9060186E+00
 572578.  0.2159655E+00  0.1133609E+01
 534406.  0.2085058E+00  0.1355397E+01
 496234.  0.1997387E+00  0.1569763E+01
 458062.  0.1897132E+00  0.1775171E+01
 419891.  0.1784880E+00  0.1970111E+01
 381719.  0.1661292E+00  0.2153216E+01
 343547.  0.1527123E+00  0.2323117E+01
 305375.  0.1383200E+00  0.2478617E+01
 267203.  0.1230420E+00  0.2618576E+01
 229031.  0.1069746E+00  0.2741979E+01
 190859.  0.9021956E-01  0.2847955E+01
 152688.  0.7288421E-01  0.2935735E+01
 114516.  0.5507864E-01  0.3004661E+01
  76344.  0.3691788E-01  0.3054233E+01
  38172.  0.1851906E-01  0.3084034E+01
      0.  0.0000000E+00  0.0000000E+00
