      10        0 S       11        110.45780        724.80481         -1.00000        827.90240      185    3
6371000.  0.4117972E-01 -0.3236655E-01
6370000.  0.4118281E-01 -0.7049383E-02
6369000.  0.4118193E-01  0.1827643E-01
6368000.  0.4117707E-01  0.4360843E-01
6368000.  0.4117707E-01  0.4360843E-01
6367000.  0.4116824E-01  0.6894419E-01
6366000.  0.4115543E-01  0.9428128E-01
6365000.  0.4113864E-01  0.1196172E+00
6364000.  0.4111788E-01  0.1449496E+00
6363000.  0.4109314E-01  0.1702760E+00
6362000.  0.4106442E-01  0.1955939E+00
6361000.  0.4103174E-01  0.2209009E+00
6360000.  0.4099508E-01  0.2461945E+00
6359000.  0.4095445E-01  0.2714724E+00
6358000.  0.4090986E-01  0.2967320E+00
6357000.  0.4086130E-01  0.3219710E+00
6356000.  0.4080879E-01  0.3471869E+00
6356000.  0.4080879E-01  0.2193235E+00
6355000.  0.4077292E-01  0.2376432E+00
6354000.  0.4073419E-01  0.2559520E+00
6353000.  0.4069258E-01  0.2742486E+00
6352000.  0.4064809E-01  0.2925318E+00
6351000.  0.4060074E-01  0.3108001E+00
6350000.  0.4055053E-01  0.3290524E+00
6349000.  0.4049745E-01  0.3472874E+00
6348000.  0.4044151E-01  0.3655037E+00
6347000.  0.4038271E-01  0.3837001E+00
6346600.  0.4035839E-01  0.3909729E+00
6346600.  0.4035839E-01  0.2257362E+00
6318800.  0.3858027E-01  0.5881306E+00
6291000.  0.3524616E-01  0.9364898E+00
6291000.  0.3524616E-01  0.9485927E+00
6263000.  0.3034703E-01  0.1274658E+01
6235000.  0.2410726E-01  0.1556330E+01
6207000.  0.1675186E-01  0.1780264E+01
6179000.  0.8560549E-02  0.1935000E+01
6151000. -0.1417160E-03  0.2011513E+01
6151000. -0.1417160E-03  0.1622107E+01
6128500. -0.5828275E-02  0.1592378E+01
6106000. -0.1134820E-01  0.1528068E+01
6083500. -0.1658326E-01  0.1431493E+01
6061000. -0.2142451E-01  0.1305583E+01
6038500. -0.2577433E-01  0.1153805E+01
6016000. -0.2954812E-01  0.9800411E+00
5993500. -0.3267558E-01  0.7884994E+00
5971000. -0.3510170E-01  0.5836184E+00
5971000. -0.3510170E-01  0.5303304E+00
5937667. -0.3706820E-01  0.2224955E+00
5904333. -0.3745221E-01 -0.7263915E-01
5871000. -0.3634885E-01 -0.3445046E+00
5837667. -0.3390229E-01 -0.5849215E+00
5804333. -0.3029329E-01 -0.7880262E+00
5771000. -0.2572792E-01 -0.9501029E+00
5771000. -0.2572792E-01 -0.9501131E+00
5701000. -0.1360847E-01 -0.1226922E+01
5701000. -0.1360847E-01 -0.1013658E+01
5667333. -0.8098778E-02 -0.1065809E+01
5633667. -0.2404309E-02 -0.1083761E+01
5600000.  0.3297147E-02 -0.1068657E+01
5600000.  0.3297147E-02 -0.1068659E+01
5563518.  0.9311251E-02 -0.1025947E+01
5527037.  0.1498115E-01 -0.9489864E+00
5490556.  0.2012033E-01 -0.8412338E+00
5454074.  0.2456460E-01 -0.7070046E+00
5417593.  0.2817615E-01 -0.5513054E+00
5381111.  0.3084777E-01 -0.3796297E+00
5344630.  0.3250440E-01 -0.1978017E+00
5308148.  0.3310496E-01 -0.1174880E-01
5271667.  0.3264215E-01  0.1726416E+00
5235185.  0.3114175E-01  0.3497303E+00
5198704.  0.2866098E-01  0.5142449E+00
5162222.  0.2528551E-01  0.6614565E+00
5125741.  0.2112670E-01  0.7872553E+00
5089259.  0.1631693E-01  0.8882860E+00
5052778.  0.1100602E-01  0.9619803E+00
5016296.  0.5355514E-02  0.1006631E+01
4979815. -0.4651298E-03  0.1021393E+01
4943333. -0.6284731E-02  0.1006286E+01
4906852. -0.1193401E-01  0.9621683E+00
4870370. -0.1725149E-01  0.8906841E+00
4833889. -0.2208666E-01  0.7942040E+00
4797407. -0.2630494E-01  0.6757296E+00
4760926. -0.2979010E-01  0.5388108E+00
4724444. -0.3244790E-01  0.3874149E+00
4687963. -0.3420747E-01  0.2258399E+00
4651482. -0.3502337E-01  0.5856675E-01
4615000. -0.3487599E-01 -0.1098522E+00
4578518. -0.3377172E-01 -0.2749019E+00
4542037. -0.3174248E-01 -0.4322307E+00
4505556. -0.2884427E-01 -0.5777650E+00
4469074. -0.2515533E-01 -0.7077992E+00
4432593. -0.2077419E-01 -0.8190690E+00
4396111. -0.1581613E-01 -0.9088504E+00
4359630. -0.1041089E-01 -0.9749973E+00
4323148. -0.4698185E-02 -0.1015991E+01
4286667.  0.1174857E-02 -0.1030964E+01
4250185.  0.7058637E-02 -0.1019706E+01
4213704.  0.1280361E-01 -0.9826667E+00
4177222.  0.1826524E-01 -0.9209166E+00
4140741.  0.2330625E-01 -0.8361284E+00
4104259.  0.2780105E-01 -0.7305062E+00
4067778.  0.3163760E-01 -0.6067433E+00
4031296.  0.3472090E-01 -0.4679272E+00
3994815.  0.3697426E-01 -0.3174853E+00
3958333.  0.3834159E-01 -0.1590674E+00
3921852.  0.3878802E-01  0.3509732E-02
3885370.  0.3830079E-01  0.1663907E+00
3848889.  0.3688923E-01  0.3257353E+00
3812407.  0.3458417E-01  0.4778424E+00
3775926.  0.3143736E-01  0.6192021E+00
3739444.  0.2751951E-01  0.7466018E+00
3702963.  0.2291921E-01  0.8571642E+00
3666482.  0.1773997E-01  0.9484379E+00
3630000.  0.1209804E-01  0.1018422E+01
3630000.  0.1209804E-01  0.1018420E+01
3592500.  0.5932742E-02  0.1072419E+01
3555000. -0.4774184E-03  0.1101401E+01
3517500. -0.6981894E-02  0.1104346E+01
3480000. -0.1342591E-01  0.1080840E+01
3480000. -0.1342591E-01  0.1765019E+01
3409422. -0.3059370E-01  0.1274577E+01
3338844. -0.4062797E-01  0.5048559E+00
3268266. -0.4142417E-01 -0.3608345E+00
3197688. -0.3298442E-01 -0.1132563E+01
3127109. -0.1726765E-01 -0.1652672E+01
3056531.  0.2334645E-02 -0.1823863E+01
2985953.  0.2175856E-01 -0.1622913E+01
2915375.  0.3709316E-01 -0.1099314E+01
2844797.  0.4531785E-01 -0.3610365E+00
2774219.  0.4482721E-01  0.4487745E+00
2703641.  0.3567025E-01  0.1179227E+01
2633062.  0.1948540E-01  0.1698367E+01
2562484. -0.8343260E-03  0.1914778E+01
2491906. -0.2167587E-01  0.1791252E+01
2421328. -0.3933719E-01  0.1348846E+01
2350750. -0.5065159E-01  0.6615224E+00
2280172. -0.5350593E-01 -0.1572463E+00
2209594. -0.4717761E-01 -0.9733396E+00
2139016. -0.3244603E-01 -0.1653280E+01
2068438. -0.1146985E-01 -0.2084726E+01
1997859.  0.1254477E-01 -0.2193190E+01
1927281.  0.3582850E-01 -0.1952904E+01
1856703.  0.5461737E-01 -0.1390382E+01
1786125.  0.6571594E-01 -0.5805725E+00
1715547.  0.6698110E-01  0.3637371E+00
1644969.  0.5765828E-01  0.1307570E+01
1574391.  0.3852620E-01  0.2112278E+01
1503812.  0.1183171E-01  0.2654435E+01
1433234. -0.1897296E-01  0.2842553E+01
1362656. -0.4966073E-01  0.2629660E+01
1292078. -0.7576422E-01  0.2020006E+01
1221500. -0.9315102E-01  0.1069308E+01
1221500. -0.9315102E-01  0.8637316E+00
1183328. -0.9669658E-01  0.3114792E+00
1145156. -0.9680023E-01 -0.2824462E+00
1106984. -0.9326305E-01 -0.9008675E+00
1068812. -0.8599272E-01 -0.1525457E+01
1030641. -0.7500918E-01 -0.2137275E+01
 992469. -0.6044511E-01 -0.2717416E+01
 954297. -0.4254630E-01 -0.3247433E+01
 916125. -0.2166549E-01 -0.3710053E+01
 877953.  0.1745581E-02 -0.4089590E+01
 839781.  0.2714735E-01 -0.4372498E+01
 801609.  0.5392654E-01 -0.4547773E+01
 763438.  0.8141167E-01 -0.4607285E+01
 725266.  0.1088941E+00 -0.4546087E+01
 687094.  0.1356434E+00 -0.4362554E+01
 648922.  0.1609301E+00 -0.4058472E+01
 610750.  0.1840459E+00 -0.3639042E+01
 572578.  0.2043235E+00 -0.3112738E+01
 534406.  0.2211557E+00 -0.2491110E+01
 496234.  0.2340129E+00 -0.1788488E+01
 458062.  0.2424589E+00 -0.1021588E+01
 419891.  0.2461636E+00 -0.2091137E+00
 381719.  0.2449136E+00  0.6288983E+00
 343547.  0.2386187E+00  0.1471382E+01
 305375.  0.2273157E+00  0.2297046E+01
 267203.  0.2111689E+00  0.3084810E+01
 229031.  0.1904665E+00  0.3814447E+01
 190859.  0.1656139E+00  0.4467176E+01
 152688.  0.1371244E+00  0.5026084E+01
 114516.  0.1056035E+00  0.5476635E+01
  76344.  0.7173774E-01  0.5807082E+01
  38172.  0.3627434E-01  0.6008697E+01
      0.  0.0000000E+00  0.0000000E+00
